1.425583 -0.148168 0.171747 0.000000 0.727041 0.686594
1.312645 -0.232202 0.231031 0.000000 -0.727041 -0.686594
1.420040 -0.068659 0.072704 -0.000000 0.686594 -0.727041
1.019648 0.114358 -0.000000 0.001261 0.998869 -0.025942
-0.015337 -0.351787 -0.358097 -0.063033 -0.757607 0.649660
-0.127265 0.172579 -0.200166 -0.053012 -0.697806 -0.714322
-0.287891 -0.190148 -0.196044 -0.063033 -0.757607 0.649660
-0.151262 0.146435 0.131812 -0.063033 0.757607 -0.649660
0.134219 0.478419 0.506603 0.075042 0.724992 -0.684658
-0.228895 -0.281082 -0.296364 -0.063033 -0.757607 0.649660
1.513225 0.016897 -0.027326 1.000000 0.000000 0.000000
-0.183619 0.181082 -0.204290 -0.053012 -0.697806 -0.714322
0.044598 -0.097174 -0.060291 -0.000061 -0.822789 -0.567209
1.437669 0.241082 0.270135 0.000000 -0.727041 0.686594
-0.357924 0.065555 0.093703 0.000265 0.568566 0.821892
0.007403 0.088699 -0.105604 0.063105 -0.725592 -0.685225
1.349138 -0.153321 0.177203 -0.000000 0.727041 0.686594
1.234786 -0.184464 0.210181 -0.000000 0.727041 0.686594
-1.003816 0.106700 -0.041144 -0.000122 0.916047 -0.399547
1.267550 0.244577 0.258985 -0.243274 -0.441232 0.863789
-0.326921 0.180583 -0.188676 -0.063033 0.757607 0.649660
-1.276360 -0.048393 -0.103614 -0.000002 -0.422796 -0.905524
-0.875027 0.107570 0.038812 -0.000040 0.922014 0.385519
-0.259910 -0.114358 -0.000000 0.000283 -0.998171 -0.049886
-0.209928 0.114358 -0.000000 -0.000143 0.999177 -0.024537
-1.233118 -0.077321 -0.084256 -0.000010 -0.642853 -0.765162
-1.354356 -0.077258 0.084314 -0.000012 -0.675184 0.736793
-1.202154 0.097627 -0.059554 -0.000011 0.855256 -0.516980
0.693483 -0.095359 -0.063122 0.000013 -0.809492 -0.586041
-1.337053 0.090732 0.069609 -0.000009 0.765530 0.642417
0.013969 0.389808 -0.399592 -0.016997 0.748060 0.662518
-1.620960 -0.031645 0.016156 -0.714306 -0.549120 0.423218
0.773250 0.062181 0.095975 0.000020 0.579443 0.814256
-1.172529 -0.107515 -0.038964 -0.000037 -0.939404 -0.340941
0.550057 0.108359 -0.036551 0.000663 0.932604 -0.359306
0.476206 0.092587 -0.067123 0.000037 0.831876 -0.554036
-0.666256 -0.063683 -0.094985 -0.000328 -0.518988 -0.854008
-0.058752 0.446912 0.473240 -0.063033 0.757607 -0.649660
-0.102427 -0.221702 0.214847 -0.063033 -0.757607 -0.649660
-0.555319 -0.105309 -0.044583 -0.000008 -0.936158 -0.349772
-1.013628 0.113961 0.009514 0.000081 0.990054 0.135617
-1.017316 -0.103465 -0.048711 0.000037 -0.884627 -0.464948
1.387218 -0.247465 0.276893 0.000000 0.727041 0.686594
1.387218 -0.247465 -0.276893 0.000000 0.727041 -0.686594
-0.090355 -0.293805 -0.297759 -0.063033 -0.757607 0.649660
-1.492429 -0.081320 0.071509 -0.241445 -0.710747 0.659391
1.233587 0.024835 -0.111629 0.000014 0.259683 -0.965048
-0.228804 -0.237094 -0.245058 -0.063033 -0.757607 0.649660
1.496518 0.076327 0.087372 0.403879 -0.635856 0.657700
-1.114703 -0.015299 0.113330 0.000172 -0.128328 0.990982
-0.938425 0.018335 0.112878 -0.000102 0.209049 0.977258
-1.054988 -0.097436 0.059865 -0.000138 -0.853915 0.519234
1.476811 -0.000000 0.098114 0.511044 0.025370 0.858429
-0.024324 0.349738 0.356579 -0.063033 0.757607 -0.649660
-0.245074 0.164824 -0.183847 -0.053012 -0.697806 -0.714322
-1.259816 -0.080834 0.080892 0.000135 -0.736297 0.675758
0.093342 -0.208480 -0.216281 0.075042 -0.724992 0.684658
0.317311 0.111621 0.024869 -0.000113 0.975311 0.217886
0.760886 0.103086 0.049508 0.000036 0.902702 0.428870
0.449136 0.086057 0.075312 -0.000026 0.777732 0.627571
-1.544900 0.087404 0.022166 -0.432672 0.885193 0.163374
-0.050901 0.137983 -0.163160 0.063105 -0.725592 -0.685225
-0.696676 0.020337 0.112535 -0.000503 0.175931 0.983785
0.427675 -0.111972 -0.023238 -0.000250 -0.967175 -0.251514
0.005261 0.495552 0.523752 -0.063033 0.757607 -0.649660
1.454267 -0.086834 0.106799 0.000000 0.727041 0.686594
1.217463 0.188750 -0.185020 0.000000 0.727041 0.686594
-0.046167 -0.367827 0.379794 -0.063033 -0.757607 -0.649660
-1.376062 0.090059 -0.070478 -0.002392 0.760987 -0.648052
1.281510 -0.166705 0.191376 0.000000 0.727041 0.686594
-0.569714 0.097483 0.059789 0.000014 0.829055 0.558069
-0.090629 -0.145803 0.129748 0.075042 -0.724992 -0.684658
0.967869 -0.062708 -0.095632 0.000247 -0.544782 -0.837903
-0.129708 -0.130072 0.110639 -0.063033 -0.757607 -0.649660
-1.468458 0.089330 -0.068526 -0.107369 0.800036 -0.588758
1.189590 -0.114358 -0.000000 0.000089 -0.999299 -0.019996
0.134219 0.409470 -0.433593 0.063105 -0.725592 -0.685225
0.134219 0.112992 0.119648 0.075042 0.724992 -0.684658
-0.897997 -0.093875 -0.065308 -0.000134 -0.820902 -0.569951
1.174166 0.113979 -0.009297 0.000239 0.990598 -0.130894
1.087355 -0.045818 -0.104778 0.000084 -0.439869 -0.897392
-0.963682 0.067778 0.092108 0.000125 0.573434 0.818489
1.076351 -0.050578 0.102565 -0.000677 -0.445472 0.894655
-0.122486 0.330170 -0.354467 -0.053012 -0.697806 -0.714322
0.195020 0.092676 0.066999 -0.000312 0.809795 0.585851
0.270967 -0.084661 0.076878 -0.000296 -0.737728 0.674213
-0.345648 -0.173876 -0.185225 -0.053012 0.697806 -0.714322
-0.804172 -0.054338 -0.100623 0.000327 -0.436238 -0.899143
1.284581 -0.061247 0.079705 -0.000000 0.727041 0.686594
-0.252019 -0.092777 0.112950 -0.053012 0.697806 0.714322
1.012050 0.083485 -0.078153 -0.000377 0.729862 -0.682746
0.519509 0.113534 0.013701 -0.000901 0.992831 0.114647
0.125753 0.481455 -0.508890 0.075042 0.724992 0.684658
1.098496 -0.145443 -0.139161 -0.163987 -0.846062 0.497606
-0.722826 0.102942 0.049806 -0.000010 0.912615 0.407270
0.964166 0.006125 -0.114194 0.000211 0.088334 -0.995625
0.579731 0.061650 0.096317 -0.000295 0.540095 0.840954
-0.124416 0.225469 -0.252044 -0.053012 -0.697806 -0.714322
1.097926 -0.109773 -0.032055 0.000004 -0.946668 -0.320256
-0.138920 0.110944 0.089226 -0.063033 0.757607 -0.649660
-0.314105 0.100301 0.093812 -0.063033 0.757607 -0.649660
1.310552 -0.238770 -0.237987 -0.000000 -0.727041 0.686594
-1.503228 -0.089163 -0.056533 -0.250007 -0.843927 -0.472868
-0.007442 -0.126475 0.146972 0.063105 0.725592 0.685225
0.948603 -0.081642 0.080077 -0.000828 -0.737535 0.674316
-0.906238 -0.065047 0.094056 -0.000537 -0.601744 0.797914
-0.273850 0.114114 -0.007458 0.000112 0.994606 -0.098270
1.462741 0.169143 -0.164258 -0.000000 0.727041 0.686594
-0.362288 -0.138011 0.142462 -0.063033 -0.757607 -0.649660
1.425583 -0.162994 -0.157746 -0.000000 -0.727041 0.686594
-1.575670 0.051902 -0.051351 -0.527935 0.571576 -0.625327
0.359984 -0.013228 -0.113590 0.000102 -0.114494 -0.992827
-0.224985 0.009189 0.113988 0.000144 0.104650 0.993843
-0.079040 -0.051435 -0.102138 0.000423 -0.492499 -0.869598
0.099817 0.329206 0.344829 0.075042 0.724992 -0.684658
-0.644675 0.009011 0.114002 0.000086 0.089731 0.995466
0.854502 0.098705 0.057750 -0.000334 0.861769 0.506288
-0.948695 -0.011062 -0.113822 0.000438 -0.138290 -0.989757
1.414814 0.114026 0.008705 -0.000082 0.995620 0.088092
1.456242 0.101650 -0.122488 0.000000 -0.727041 -0.686594
1.498604 -0.076313 0.075006 0.403879 -0.692982 -0.597209
1.365790 0.181940 0.177808 -0.000000 0.727041 -0.686594
0.134168 -0.108686 -0.035569 0.000560 -0.931899 -0.360660
-0.956608 -0.053167 -0.101247 0.000055 -0.502546 -0.863830
0.086404 -0.398000 -0.425850 0.063105 0.725592 -0.685225
-0.759392 -0.063655 -0.095004 0.000034 -0.522760 -0.851774
-0.481937 -0.113641 0.012781 0.000375 -0.987414 0.153586
-0.331737 0.147333 -0.160329 -0.053012 -0.697806 -0.714322
-0.113486 0.351247 0.375725 -0.053012 -0.697806 0.714322
0.062647 -0.182002 -0.199316 0.063105 0.725592 -0.685225
-0.338331 -0.193984 0.205412 -0.053012 0.697806 0.714322
-0.306545 -0.069957 -0.090464 0.000249 -0.580179 -0.813802
1.454267 -0.086834 -0.106799 0.000000 0.727041 -0.686594
1.028695 -0.121844 0.129022 -0.243274 -0.887605 -0.391120
1.035418 -0.106035 0.042828 -0.000179 -0.906941 0.419766
1.195431 0.151405 0.175174 -0.000000 -0.727041 0.686594
0.024097 -0.305373 0.333504 0.063105 0.725592 0.685225
-0.157713 -0.148117 -0.134399 -0.063033 -0.757607 0.649660
-0.055703 0.265638 0.296384 -0.053012 -0.697806 0.714322
-0.299897 -0.000000 0.114358 -0.000998 0.026559 0.999009
0.254770 0.006144 -0.114193 -0.000381 0.089120 -0.995544
-0.496625 -0.075522 0.085873 0.000309 -0.660835 0.749712
-0.139069 -0.166078 0.153536 -0.063033 -0.757607 -0.649660
1.244005 -0.051917 0.101894 -0.000062 -0.485526 0.873511
0.302693 0.111881 -0.023672 -0.000192 0.967481 -0.250612
1.402705 0.121293 0.143288 0.000000 -0.727041 0.686594
-1.216856 0.070212 -0.090266 0.000319 0.610281 -0.791373
-0.141903 -0.055716 0.099867 0.000813 -0.445069 0.894846
0.154698 0.107884 0.037932 0.000465 0.942540 0.332335
-1.085918 -0.112622 -0.019852 -0.000384 -0.983955 -0.174872
1.454953 -0.230700 0.229441 0.000000 -0.727041 -0.686594
1.454953 -0.230700 -0.229441 0.000000 -0.727041 0.686594
-1.259094 -0.112628 -0.019816 -0.000446 -0.984188 -0.173625
-1.311023 -0.099047 -0.057161 0.000004 -0.886559 -0.461242
1.285058 0.096490 0.061379 -0.000008 0.843188 0.536438
-0.631835 0.098939 0.057348 0.000657 0.840002 0.541385
1.073866 0.076072 0.065704 0.000000 -0.686594 -0.727041
-1.380242 0.112620 0.019860 0.000003 0.975669 0.216336
0.607529 -0.020673 0.112474 -0.000020 -0.220491 0.974741
-1.084965 0.058058 -0.098524 -0.000054 0.511230 -0.858695
-0.190994 0.274817 -0.285381 -0.063033 0.757607 0.649660
-0.392334 0.028420 -0.110770 0.000047 0.198520 -0.979174
1.347535 -0.111353 0.026043 -0.000071 -0.964769 0.260656
0.009471 0.152713 0.173198 0.063105 -0.725592 0.685225
1.276277 0.029625 0.110454 -0.000000 0.258833 0.965264
-0.090389 0.137724 0.166523 0.063105 -0.725592 0.685225
-1.423535 -0.077266 0.084307 0.000001 -0.675253 0.736724
1.432180 -0.110473 0.029552 0.000031 -0.965522 0.257793
1.406221 0.043772 -0.105649 0.000003 0.422478 -0.905673
0.016025 0.149114 -0.168783 0.063105 -0.725592 -0.685225
-0.544207 0.052866 -0.101405 -0.000025 0.503041 -0.863530
1.310870 -0.080300 -0.099881 -0.000000 0.727041 -0.686594
1.362922 0.099054 -0.057149 -0.000002 0.843014 -0.536710
-0.234281 0.270695 -0.288071 -0.053012 -0.697806 -0.714322
-0.291598 -0.047769 0.103903 -0.000376 -0.409655 0.911572
0.097466 0.393361 0.412506 0.075042 0.724992 -0.684658
1.103969 0.061247 -0.079705 0.000000 -0.727041 -0.686594
1.414866 0.039078 0.107474 -0.000004 0.300159 0.953222
1.357456 -0.151996 -0.175800 -0.000000 0.727041 -0.686594
-0.589150 -0.082451 -0.079243 -0.000145 -0.687530 -0.725268
1.197895 -0.113919 -0.135480 0.000000 0.727041 -0.686594
1.376875 -0.226608 -0.225108 -0.000000 -0.727041 0.686594
-0.439760 0.018785 0.112804 -0.001169 0.200563 0.979040
-0.085451 -0.143885 0.172591 0.063105 0.725592 0.685225
-1.077768 -0.069464 -0.090843 -0.000019 -0.607575 -0.793470
-0.619250 0.044858 0.105192 0.000079 0.391736 0.919398
0.349942 0.030514 0.110212 -0.000174 0.269980 0.962223
-0.283631 0.243470 0.257813 -0.063033 0.757607 -0.649660
-0.822245 -0.073580 0.087542 0.000218 -0.643523 0.764417
0.049994 -0.384450 -0.397867 0.075042 -0.724992 0.684658
1.176089 -0.106609 -0.041379 0.000043 -0.946110 -0.321924
-0.298120 0.187543 0.193999 -0.063033 0.757607 -0.649660
1.178451 0.093889 -0.084570 -0.000000 0.727041 0.686594
-0.244209 -0.087076 -0.107961 -0.053012 0.697806 -0.714322
-0.068086 -0.120612 -0.146348 0.063105 0.725592 -0.685225
1.203856 0.211848 0.224328 -0.243274 -0.441232 0.863789
-0.303874 -0.108223 -0.036951 0.000225 -0.940549 -0.337989
-0.200319 -0.108520 0.132166 -0.053012 0.697806 0.714322
0.779246 0.089614 -0.071042 0.000015 0.755703 -0.653954
-0.107392 -0.088830 0.116315 0.063105 0.725592 0.685225
-0.965528 -0.107236 -0.039726 -0.000041 -0.921350 -0.387126
-0.574032 -0.090991 0.069270 0.000173 -0.819976 0.571297
0.477240 -0.069618 -0.090725 -0.000987 -0.575412 -0.817207
-0.193704 -0.113314 -0.015418 -0.000189 -0.993657 -0.107765
-0.177800 -0.247107 0.251786 -0.063033 -0.757607 -0.649660
1.233227 0.096357 -0.061587 -0.000006 0.842030 -0.538273
-0.350366 -0.066250 0.093213 -0.000762 -0.544445 0.838071
-0.066540 -0.317657 0.323263 -0.063033 -0.757607 -0.649660
-0.641508 -0.110379 -0.029903 0.000217 -0.954840 -0.295579
0.439848 0.000000 -0.114358 -0.000703 -0.009034 -0.999593
0.953935 0.112294 -0.021627 -0.001149 0.977582 -0.208063
0.738866 -0.093368 0.066031 -0.000371 -0.844486 0.534170
0.061327 0.108948 0.107377 0.075042 0.724992 -0.684658
1.485914 0.092699 0.000000 0.513745 0.855615 0.050781
-0.030710 0.073764 0.087387 -0.000045 0.671513 0.740158
1.177310 -0.044097 -0.105514 -0.000257 -0.429274 -0.902493
-0.961618 0.031504 -0.109933 0.000001 0.274964 -0.960828
-1.508845 -0.038481 0.096581 -0.315273 -0.355685 0.878692
-0.029122 0.429477 -0.458407 -0.053012 -0.697806 -0.714322
1.237739 -0.091302 -0.068860 0.000196 -0.771510 -0.635162
-0.857204 0.090039 -0.070503 0.000331 0.760551 -0.648332
0.625155 0.109403 0.033296 -0.000095 0.942919 0.331096
-0.059645 0.323552 0.329469 -0.063033 0.757607 -0.649660
0.918710 0.009649 0.113950 -0.001839 0.099126 0.994458
0.678530 0.015076 -0.113360 0.000324 0.173403 -0.984279
0.094550 0.392932 -0.411732 0.075042 0.724992 0.684658
-1.285452 -0.052880 0.101397 0.000047 -0.462704 0.885802
-0.265150 -0.213565 0.221146 -0.063033 -0.757607 -0.649660
-1.040800 0.085442 0.076009 -0.000328 0.710737 0.702472
0.473942 0.010975 0.113830 -0.001042 0.147220 0.988301
-1.140326 -0.071829 0.088985 0.000173 -0.660868 0.749663
1.467627 0.193616 0.190173 0.272249 0.714869 -0.636527
-0.024933 0.060445 -0.097078 0.000135 0.530967 -0.846679
0.815705 -0.108034 0.037501 -0.001453 -0.953545 0.299886
0.416806 0.061470 0.096432 -0.000009 0.541598 0.839873
-0.491914 0.053691 0.100970 -0.000236 0.466426 0.883918
0.008886 -0.206438 -0.230141 0.063105 0.725592 -0.685225
-0.767168 -0.110450 0.029640 -0.000007 -0.953578 0.299029
0.547356 0.033041 0.109481 -0.000020 0.332360 0.942497
-0.066280 -0.174628 -0.203380 0.063105 0.725592 -0.685225
0.026239 -0.344943 -0.353428 0.075042 -0.724992 0.684658
-0.253242 0.270962 0.286925 -0.063033 0.757607 -0.649660
1.137746 0.039584 0.107289 0.000018 0.304308 0.951917
-1.234470 0.107299 0.039555 -0.000290 0.929552 0.367061
0.289900 -0.114358 -0.000000 -0.000508 -0.997733 -0.054227
0.971342 -0.113744 -0.011828 -0.000133 -0.988126 -0.149152
-0.282679 0.186647 -0.202375 -0.053012 -0.697806 -0.714322
-0.422022 0.100368 -0.054809 0.000522 0.881105 -0.471743
-1.133033 -0.113059 0.017189 0.000085 -0.980754 0.191880
1.322745 -0.099991 -0.055493 0.000096 -0.870914 -0.490180
-0.038510 -0.324611 -0.328653 -0.063033 -0.757607 0.649660
0.038894 0.303237 -0.310653 0.075042 0.724992 0.684658
1.249372 0.114217 0.005676 0.000211 0.995378 0.090595
-0.732072 -0.008462 -0.114044 -0.000947 -0.112402 -0.993128
-0.177013 0.302605 0.316429 -0.063033 0.757607 -0.649660
1.097753 0.086410 0.106351 -0.000000 -0.727041 0.686594
0.034947 -0.379782 0.391274 0.075042 -0.724992 -0.684658
-0.279269 -0.107877 0.037949 -0.000200 -0.956413 0.289965
-1.094976 -0.006512 -0.114172 -0.000111 -0.089401 -0.995485
-0.088289 -0.370301 0.386765 -0.063033 -0.757607 -0.649660
1.481451 0.132034 0.150481 0.403879 -0.635856 0.657700
1.243665 0.232304 -0.245989 -0.243274 0.887605 0.391120
1.160739 -0.037724 0.107956 -0.000139 -0.296476 0.954391
1.513225 -0.067761 -0.014437 1.000000 -0.000000 -0.000000
0.169941 -0.114358 -0.000000 -0.000186 -0.998462 -0.044472
0.504322 -0.111760 0.024236 -0.000424 -0.983657 0.176668
-0.344444 0.007984 0.114079 0.000024 0.045324 0.998391
0.032113 -0.479901 0.512210 -0.053012 0.697806 0.714322
0.046657 -0.248093 -0.253112 0.075042 -0.724992 0.684658
0.171832 -0.013307 -0.113581 -0.000280 -0.082485 -0.996283
-0.637236 -0.036237 0.108465 -0.000131 -0.309286 0.950310
0.013228 0.039044 0.107486 0.000154 0.353026 0.934963
1.481633 0.025077 -0.091885 0.511537 0.201681 -0.834458
0.289978 0.045036 -0.105117 0.000845 0.443557 -0.895446
-0.372303 0.100624 -0.111690 -0.053012 -0.697806 -0.714322
-1.009652 -0.000000 0.114358 -0.000871 0.055211 0.997906
-0.057390 0.231914 0.224575 0.075042 0.724992 -0.684658
1.498020 -0.137394 0.145488 0.403879 0.635856 0.657700
1.498020 -0.137394 -0.145488 0.403879 0.635856 -0.657700
0.017114 0.335586 0.342520 0.075042 0.724992 -0.684658
0.610257 -0.032899 -0.109523 0.000048 -0.284801 -0.957938
0.832766 0.034309 -0.109090 -0.000048 0.302178 -0.952589
0.718185 0.103648 0.048320 -0.000116 0.908267 0.417029
-0.340025 -0.136301 -0.148937 -0.053012 0.697806 -0.714322
-0.716340 -0.114156 0.006793 -0.000639 -0.994936 0.095220
1.052044 0.040267 0.107034 0.000048 0.391864 0.919342
-0.117772 -0.066962 -0.092703 0.000872 -0.595552 -0.802596
0.039548 0.489135 -0.512941 -0.063033 0.757607 0.649660
0.591250 0.109959 -0.031414 -0.000142 0.959950 -0.277985
-1.406215 -0.024693 -0.111660 0.000002 -0.258186 -0.965437
0.679826 0.076012 0.085439 0.000051 0.630153 0.775652
0.636849 0.077970 0.083656 -0.000479 0.681142 0.731272
-0.246632 0.040676 -0.106879 -0.000311 0.363624 -0.930895
-1.508825 0.038504 0.096578 -0.314991 0.356075 0.878627
1.072410 0.040494 -0.106948 0.000202 0.393357 -0.918752
-0.768643 0.035271 0.108783 0.000003 0.317605 0.947589
-0.087193 0.152836 -0.137572 0.075042 0.724992 0.684658
1.401968 0.164968 0.159837 -0.000000 0.727041 -0.686594
0.043077 -0.308997 -0.317211 0.075042 -0.724992 0.684658
1.135494 -0.118355 -0.140177 0.000000 0.727041 -0.686594
-0.063577 -0.216149 -0.207204 0.075042 -0.724992 0.684658
0.049551 0.079374 -0.082326 -0.000423 0.695619 -0.717473
-0.517297 0.093285 -0.066148 -0.000001 0.792051 -0.609427
-0.184242 -0.233904 -0.237015 -0.063033 -0.757607 0.649660
-0.176427 0.227209 -0.249884 -0.053012 -0.697806 -0.714322
-0.849301 -0.100974 0.053684 0.000229 -0.862028 0.505779
-0.771710 0.103110 -0.049457 -0.000051 0.904772 -0.424452
-0.048956 -0.018891 0.112787 -0.000052 -0.197520 0.979612
-0.652621 0.112849 0.018514 0.000367 0.977267 0.208978
0.636047 0.027694 -0.110954 -0.000072 0.280646 -0.959209
-0.057861 0.370623 -0.398781 -0.053012 -0.697806 -0.714322
0.384783 0.108100 -0.037310 -0.000165 0.942420 -0.332577
-1.020525 -0.109264 0.033750 0.000008 -0.941506 0.335120
0.134219 -0.154361 -0.163454 0.075042 -0.724992 0.684658
1.198176 0.139054 0.132396 -0.000000 0.727041 -0.686594
-0.183082 -0.073343 0.087741 -0.000060 -0.673272 0.738547
-0.011849 0.020028 -0.112590 0.000254 0.174582 -0.984032
0.022150 -0.200621 0.200156 0.075042 -0.724992 -0.684658
-0.074337 0.271101 -0.300337 -0.053012 -0.697806 -0.714322
-0.880026 -0.012598 -0.113662 -0.000782 -0.150646 -0.987914
-0.013007 -0.114092 0.007786 -0.001107 -0.993742 0.106513
1.015927 0.101736 0.115155 -0.211876 -0.483291 0.845802
0.039922 0.098499 0.058101 -0.000325 0.842653 0.537374
0.407188 -0.009458 0.113966 0.000241 -0.110695 0.993107
-1.324932 0.032940 -0.109511 -0.000096 0.292950 -0.955481
-0.512734 -0.098912 -0.057395 -0.000236 -0.842073 -0.538238
-0.139342 0.139152 -0.166615 -0.053012 -0.697806 -0.714322
-0.041287 -0.207248 0.200221 0.075042 -0.724992 -0.684658
-1.203737 0.055341 0.100075 0.001119 0.524701 0.850546
-0.130417 -0.265923 0.269131 -0.063033 -0.757607 -0.649660
-0.186252 0.320541 -0.338242 -0.063033 0.757607 0.649660
0.218043 -0.100812 -0.053988 -0.000330 -0.865884 -0.499068
-0.013712 -0.086940 -0.074291 0.000077 -0.735096 -0.677034
0.102384 -0.407939 0.428482 0.075042 -0.724992 -0.684658
0.337072 -0.018253 0.112892 0.000501 -0.151154 0.987833
-1.029645 0.000000 -0.114358 -0.000211 -0.017703 -0.999386
0.402556 0.053489 -0.101077 -0.000047 0.505262 -0.862130
-0.106162 -0.324772 0.335405 -0.063033 -0.757607 -0.649660
-1.576512 0.027506 0.067037 -0.527251 0.338593 0.777523
1.439503 -0.000000 0.114358 0.000294 0.014388 0.999686
1.289111 -0.034024 -0.109179 -0.000073 -0.304062 -0.952015
0.089769 0.114200 -0.006010 -0.000150 0.994796 -0.096246
-0.692729 0.077999 0.083629 -0.000254 0.702042 0.711357
-1.200171 -0.034535 0.109019 0.000172 -0.259744 0.965042
-0.011231 0.246380 0.274289 0.063105 -0.725592 0.685225
0.496533 -0.097904 -0.059097 0.000246 -0.872267 -0.487715
1.455159 0.076072 0.065704 0.000000 -0.686594 -0.727041
0.134219 0.374996 0.397087 0.075042 0.724992 -0.684658
0.066166 0.138907 -0.139632 0.075042 0.724992 0.684658
1.153095 -0.111957 0.023309 -0.000097 -0.975701 0.215974
0.106007 -0.174533 0.187413 0.063105 0.725592 0.685225
1.414125 -0.135698 0.128843 0.000000 -0.727041 -0.686594
1.103779 0.104710 -0.096028 0.000000 0.727041 0.686594
0.564980 -0.009276 0.113981 0.000662 -0.129283 0.990798
0.210852 -0.113405 -0.014730 -0.000621 -0.983357 -0.178374
-0.192788 0.150700 -0.173929 -0.053012 -0.697806 -0.714322
0.034443 0.277691 0.303239 0.063105 -0.725592 0.685225
0.992023 0.101672 0.052349 0.000067 0.867156 0.496849
0.569202 -0.029896 -0.110381 -0.000026 -0.262058 -0.964352
-0.140688 -0.111293 -0.089805 -0.063033 -0.757607 0.649660
0.393880 0.111594 0.024990 -0.000168 0.975057 0.218993
-0.230769 0.149656 0.143282 -0.063033 0.757607 -0.649660
0.099013 0.164335 -0.177259 0.063105 -0.725592 -0.685225
-0.155629 -0.245393 -0.269191 -0.053012 0.697806 -0.714322
-0.155997 0.358937 0.380082 -0.063033 0.757607 -0.649660
-0.259320 -0.265464 0.281103 -0.053012 0.697806 0.714322
-0.338331 0.193984 0.205412 -0.063033 0.757607 -0.649660
-0.405187 -0.133502 -0.141366 -0.063033 -0.757607 0.649660
-0.314020 -0.215978 0.228702 -0.053012 0.697806 0.714322
-0.221501 -0.175416 -0.195944 -0.053012 0.697806 -0.714322
0.134219 0.181940 0.192658 0.075042 0.724992 -0.684658
0.134219 -0.195730 -0.207260 0.075042 -0.724992 0.684658
0.134219 0.278468 0.294873 0.075042 0.724992 -0.684658
0.134219 -0.381891 -0.404388 0.075042 -0.724992 0.684658
0.134219 -0.092307 -0.097745 0.075042 -0.724992 0.684658
0.134219 0.237099 0.251067 0.075042 0.724992 -0.684658
0.012941 -0.445363 0.464478 -0.063033 -0.757607 -0.649660
-0.148163 0.108331 0.036634 -0.000036 0.930310 0.365041
0.140871 -0.054914 0.100310 0.000075 -0.473810 0.879921
0.634637 0.008877 0.114013 -0.000233 0.129751 0.990782
1.372298 0.114202 -0.005960 0.001300 0.995456 -0.090084
0.103100 0.351111 -0.374661 0.063105 -0.725592 -0.685225
-0.280667 -0.113589 -0.106063 -0.063033 -0.757607 0.649660
-0.192464 0.325947 0.345148 -0.063033 0.757607 -0.649660
0.121064 -0.099819 0.055801 -0.000528 -0.888273 0.458063
0.479846 0.114055 0.008320 -0.000230 0.994831 0.095298
1.353058 -0.020665 0.112475 -0.000011 -0.226838 0.973350
-1.606573 0.041460 -0.026846 -0.648935 0.654610 -0.381963
1.358402 -0.137552 -0.130806 0.000000 -0.727041 0.686594
-1.339538 -0.000000 0.114358 -0.000768 0.046581 0.998345
1.389728 -0.198979 0.225550 -0.000000 0.727041 0.686594
0.103091 -0.338866 -0.355417 0.075042 -0.724992 0.684658
0.165601 0.075201 -0.086154 0.000885 0.651006 -0.758358
-1.345629 -0.039083 -0.107472 0.000005 -0.341449 -0.939225
-1.319694 -0.108967 0.034696 -0.000065 -0.937903 0.345120
-1.133944 0.104681 -0.046039 -0.000002 0.932178 -0.360245
-0.237266 -0.096073 0.062030 -0.000015 -0.814469 0.579136
-1.072420 0.100184 -0.055144 -0.000002 0.877170 -0.478858
1.293768 0.048370 -0.103625 -0.000005 0.422454 -0.905684
0.473306 -0.103779 0.048038 0.000030 -0.922296 0.384804
-1.302459 0.101406 0.052863 0.000159 0.886577 0.461205
-0.807129 0.112128 0.022474 -0.000014 0.976384 0.212798
0.601209 -0.091910 -0.068047 -0.000043 -0.778052 -0.627175
-0.071510 0.102303 -0.051105 0.000120 0.892297 -0.450070
-1.574999 -0.063743 -0.036487 -0.545741 -0.686760 -0.477137
0.585114 -0.107120 0.040038 -0.000222 -0.919994 0.390278
1.307360 -0.265033 -0.280646 -0.243274 -0.887605 0.391120
0.972962 0.093206 -0.098697 -0.243274 0.887605 0.391120
1.315322 -0.269124 0.284978 -0.243274 -0.887605 -0.391120
1.084428 0.150482 0.159347 -0.243274 -0.441232 0.863789
0.370892 -0.113863 0.010623 -0.000375 -0.990474 0.133070
-1.414855 0.029537 0.110478 0.000000 0.300015 0.953268
1.371607 0.090748 0.069588 -0.000013 0.793049 0.608115
-0.154194 -0.112575 -0.020113 0.000942 -0.983108 -0.180271
-1.354283 -0.084319 -0.077253 -0.000003 -0.736817 -0.675152
-0.111562 0.081249 0.108670 0.063105 -0.725592 0.685225
-0.115006 0.160617 0.144833 -0.063033 0.757607 -0.649660
-0.157677 0.120554 -0.102253 -0.063033 0.757607 0.649660
-1.388923 -0.111656 -0.024710 0.000003 -0.975742 -0.216004
0.094004 0.451759 -0.473965 0.075042 0.724992 0.684658
-0.830247 -0.099785 -0.055862 0.000012 -0.870601 -0.490712
-1.146664 -0.061529 -0.096394 -0.000026 -0.537757 -0.842350
1.337011 0.113388 0.014861 0.000083 0.984391 0.172345
-0.088257 -0.183568 0.213796 -0.053012 0.697806 0.714322
-0.248536 0.088513 -0.073703 -0.063033 0.757607 0.649660
0.227503 0.114073 -0.008070 -0.000945 0.992442 -0.117602
-0.035817 0.108811 -0.035183 -0.000024 0.949353 -0.312189
0.891102 -0.065126 -0.094002 -0.000018 -0.533506 -0.845080
0.242296 0.109716 0.032249 0.000076 0.946539 0.320838
-0.071472 -0.244029 0.237880 -0.063033 -0.757607 -0.649660
-0.073719 0.233791 0.263936 -0.053012 -0.697806 0.714322
1.162027 -0.163262 -0.187730 -0.158050 0.552030 -0.811793
1.454554 0.151541 0.175319 0.000000 -0.727041 0.686594
1.379417 -0.093813 -0.065397 0.000502 -0.792575 -0.608785
-0.071034 -0.392630 -0.411130 -0.063033 -0.757607 0.649660
0.026381 0.113253 -0.015858 0.000368 0.983034 -0.179920
0.101384 -0.279174 0.298644 0.063105 0.725592 0.685225
0.857818 -0.097946 0.059027 -0.000224 -0.834659 0.549664
0.134219 0.340522 0.360582 0.075042 0.724992 -0.684658
-0.305251 -0.087379 0.103726 -0.053012 0.697806 0.714322
0.097154 0.267597 -0.286775 0.063105 -0.725592 -0.685225
1.285206 0.211615 0.209232 0.000000 0.727041 -0.686594
-1.449500 0.107476 -0.039071 -0.026713 0.953342 -0.297968
1.042906 0.116878 -0.108914 -0.163987 0.846062 0.497606
1.210310 -0.161543 -0.185910 -0.000000 0.727041 -0.686594
0.250022 0.086063 -0.075305 0.000046 0.779841 -0.624960
1.126749 -0.095514 -0.086291 -0.000000 -0.727041 0.686594
-0.108162 0.210182 0.201969 -0.063033 0.757607 -0.649660
0.717334 0.109493 -0.033001 0.000046 0.942886 -0.331205
1.449500 0.113927 -0.009914 -0.000503 0.998966 -0.026147
-0.357174 -0.029864 -0.110390 -0.000037 -0.306815 -0.951121
-0.895373 -0.096828 0.060845 -0.000334 -0.838927 0.543118
0.196590 -0.072163 0.088714 0.000320 -0.662375 0.748381
-1.471188 -0.022864 -0.109860 -0.164318 -0.225531 -0.959189
-0.187211 -0.099098 0.057072 0.000167 -0.841856 0.538532
-1.305458 0.093477 -0.065876 -0.000023 0.819091 -0.572563
-1.138364 -0.010564 -0.113869 0.000205 -0.135202 -0.990182
0.504441 0.035719 0.108636 -0.000322 0.311769 0.949508
0.319519 0.054651 0.100454 0.000297 0.480727 0.876201
-0.354396 0.143386 0.147965 -0.063033 0.757607 -0.649660
-1.496588 0.038921 -0.099995 -0.237980 0.293964 -0.924469
1.425021 0.218800 -0.246540 -0.000000 -0.727041 -0.686594
-0.429852 0.000000 -0.114358 -0.000260 -0.022134 -0.999350
-0.148132 -0.206245 -0.201256 -0.063033 -0.757607 0.649660
1.100352 -0.158664 0.168011 -0.243274 -0.887605 -0.391120
-1.457722 -0.112938 0.013675 -0.109206 -0.987446 0.108832
0.056041 -0.350833 -0.378700 0.063105 0.725592 -0.685225
1.154086 0.174007 0.169408 -0.158050 0.842029 -0.504710
0.088975 -0.202249 0.209205 0.075042 -0.724992 -0.684658
-0.210329 -0.227224 0.231756 -0.063033 -0.757607 -0.649660
0.517683 0.025334 -0.111516 0.000175 0.263218 -0.964122
0.487178 0.079834 0.081880 -0.001281 0.736036 0.675728
0.416812 -0.086718 -0.074550 0.000224 -0.728079 -0.684501
-0.316246 0.139610 0.139860 -0.063033 0.757607 -0.649660
-0.422685 -0.089501 0.071185 0.000388 -0.761020 0.648122
-0.668107 -0.027663 -0.110962 -0.000369 -0.240973 -0.969830
1.460636 0.089013 -0.079407 -0.000000 0.727041 0.686594
0.041873 -0.114285 -0.110896 0.075042 -0.724992 0.684658
-0.226454 0.115604 -0.137147 -0.053012 -0.697806 -0.714322
1.149546 0.121588 -0.113901 0.000000 0.727041 0.686594
0.097736 0.198652 0.213714 0.063105 -0.725592 0.685225
-0.056053 0.090742 -0.113611 0.063105 -0.725592 -0.685225
0.555055 -0.113899 -0.010233 -0.000597 -0.995135 -0.093631
1.265266 -0.231135 -0.229902 -0.163987 -0.846062 0.497606
1.433766 -0.303047 0.306049 -0.000000 -0.727041 -0.686594
1.433766 -0.303047 -0.306049 -0.000000 -0.727041 0.686594
0.084343 -0.334037 0.348248 0.075042 -0.724992 -0.684658
-0.169357 0.173703 0.165366 -0.063033 0.757607 -0.649660
1.169436 -0.088644 0.108716 -0.000000 0.727041 0.686594
0.992938 0.110890 -0.027949 0.000047 0.956972 -0.288152
0.066429 0.263206 0.284955 0.063105 -0.725592 0.685225
1.321570 -0.120219 -0.112451 -0.000000 -0.727041 0.686594
1.148123 -0.183210 0.194003 -0.243274 -0.887605 -0.391120
-1.159086 0.114107 0.007564 -0.000242 0.993963 0.103045
0.540830 -0.064020 0.094758 -0.000170 -0.526991 0.849089
0.259216 -0.093810 -0.065402 -0.000760 -0.792281 -0.609226
0.693674 0.074313 -0.086922 -0.000140 0.650189 -0.758967
-0.102739 0.186172 -0.173443 -0.063033 0.757607 0.649660
-0.970649 -0.005959 0.114202 -0.000320 -0.102433 0.994107
1.513225 -0.032120 0.032990 1.000000 0.000000 0.000000
1.182578 0.165175 -0.189755 -0.000000 -0.727041 -0.686594
-0.088301 -0.250468 -0.279145 -0.053012 0.697806 -0.714322
-0.023224 0.249260 -0.246688 0.075042 0.724992 0.684658
0.679765 -0.000000 0.114358 -0.001681 0.044564 0.998487
-0.434134 -0.084139 -0.077449 0.000106 -0.762157 -0.646452
1.264705 -0.117227 -0.138983 -0.000000 0.727041 -0.686594
-0.196353 0.086795 0.111238 -0.053012 -0.697806 0.714322
-0.555792 -0.114141 -0.007031 -0.000061 -0.994863 -0.095885
-0.056375 0.170867 0.198485 0.063105 -0.725592 0.685225
1.406241 0.101453 0.052773 -0.000010 0.886580 0.461202
-0.160848 0.177771 0.202745 -0.053012 -0.697806 0.714322
-0.097279 -0.081951 0.079760 -0.000706 -0.747202 0.663720
0.053334 0.439394 0.472728 0.063105 -0.725592 0.685225
1.293380 0.101494 -0.092623 0.000000 0.727041 0.686594
0.799724 -0.114358 -0.000000 -0.000462 -0.999278 -0.017169
1.506862 0.070796 -0.037767 0.512608 0.729039 -0.451583
0.111683 0.010928 0.113834 -0.000253 0.149461 0.987888
-0.010255 -0.097725 0.059393 0.000441 -0.872174 0.487896
-0.228769 -0.089422 -0.072845 -0.063033 -0.757607 0.649660
0.059343 -0.287300 0.296018 0.075042 -0.724992 -0.684658
-0.641909 0.075439 0.085946 -0.000284 0.634824 0.771924
1.386278 0.099870 -0.090903 -0.000000 0.727041 0.686594
0.001624 -0.048057 -0.103770 -0.000196 -0.428907 -0.902661
0.108291 0.091668 0.094227 0.075042 0.724992 -0.684658
-1.223903 0.010547 -0.113870 0.000096 0.138650 -0.989567
1.267222 0.149056 0.142987 0.000000 0.727041 -0.686594
-0.115292 -0.174540 -0.161097 -0.063033 -0.757607 0.649660
1.243540 0.088375 0.108431 -0.000000 -0.727041 0.686594
1.378147 -0.239633 0.238900 0.000000 -0.727041 -0.686594
0.483494 -0.111774 -0.024174 0.000042 -0.965129 -0.259351
-0.037923 0.175734 -0.201940 0.063105 -0.725592 -0.685225
-0.063939 -0.122959 -0.108483 0.075042 -0.724992 0.684658
1.286269 -0.132716 0.125685 -0.000000 -0.727041 -0.686594
0.436442 0.017806 0.112963 0.000158 0.148686 0.988224
1.149603 0.000000 -0.114358 0.001187 -0.049419 -0.998107
0.799724 -0.000000 0.114358 -0.000283 0.020996 0.999235
-0.385818 0.111732 0.114100 -0.063033 0.757607 -0.649660
1.407032 -0.210628 -0.208187 0.000000 -0.727041 0.686594
-0.095218 0.413921 0.438306 -0.063033 0.757607 -0.649660
1.125740 0.128809 0.151247 0.000000 -0.727041 0.686594
-0.004051 -0.496398 -0.525641 -0.063033 -0.757607 0.649660
-1.625893 -0.008742 -0.028958 -0.750944 -0.242433 -0.607869
1.273207 -0.235216 0.234223 -0.082896 -0.792541 -0.596097
-0.215445 -0.015856 -0.113253 0.000554 -0.173927 -0.984166
-0.078595 -0.110463 0.136569 0.063105 0.725592 0.685225
-0.254028 0.109395 0.098588 -0.063033 0.757607 -0.649660
-0.293107 -0.137712 -0.135402 -0.063033 -0.757607 0.649660
1.366322 0.113956 0.135519 -0.000000 -0.727041 0.686594
0.027950 0.234775 0.236959 0.075042 0.724992 -0.684658
-0.063414 -0.260815 0.291100 -0.053012 0.697806 0.714322
-0.131170 0.111548 -0.025195 0.000116 0.975936 -0.215425
0.821670 0.093252 -0.066195 0.000189 0.789313 -0.613032
-0.062098 0.158740 0.146574 0.075042 0.724992 -0.684658
-0.974320 0.110704 0.028678 0.000095 0.974437 0.221676
0.950405 0.103494 0.048648 0.000299 0.903507 0.427324
1.306079 0.099272 0.119970 -0.000000 -0.727041 0.686594
0.489831 0.000000 -0.114358 -0.000965 -0.053465 -0.997932
-1.584351 0.058556 0.032776 -0.580578 0.672658 0.455512
-0.399971 0.052538 0.101575 0.000086 0.416887 0.908281
-1.072073 0.114063 0.008208 0.000189 0.992124 0.120466
1.416926 -0.114674 -0.136279 -0.000000 0.727041 -0.686594
1.382002 0.233442 0.232344 0.000000 0.727041 -0.686594
-0.032062 -0.228199 0.256956 0.063105 0.725592 0.685225
-1.459721 0.111360 0.022336 -0.111245 0.966406 0.227751
-1.153835 0.007536 0.114109 0.000443 0.041946 0.998463
-0.171251 -0.273051 -0.295050 -0.053012 0.697806 -0.714322
-0.126732 -0.092454 -0.121932 0.025514 0.717466 -0.695503
-1.541107 -0.011960 -0.091140 -0.400887 -0.193137 -0.893720
0.742335 0.043110 0.105921 -0.000576 0.418242 0.907716
-0.115466 -0.159944 0.188698 -0.053012 0.697806 0.714322
-0.197090 0.217962 -0.219670 -0.063033 0.757607 0.649660
-1.115081 0.056127 0.099637 -0.000204 0.447190 0.893768
1.379678 -0.098749 0.119417 -0.000000 0.727041 0.686594
-0.014300 -0.163458 0.156809 0.075042 -0.724992 -0.684658
-0.380666 -0.086477 -0.097249 -0.053012 0.697806 -0.714322
1.163717 -0.145443 0.139161 0.000000 -0.727041 -0.686594
-0.089053 0.050849 0.102431 -0.000027 0.476867 0.878268
-0.026013 -0.410172 0.439779 -0.053012 0.697806 0.714322
0.088094 -0.058523 0.098249 0.000202 -0.464384 0.884618
0.000409 0.095083 0.113008 0.063105 -0.725592 0.685225
-0.315290 0.021289 -0.112359 -0.000039 0.187401 -0.981630
1.312876 0.211081 -0.238366 -0.000000 -0.727041 -0.686594
0.049652 0.011596 -0.113768 0.000187 0.147559 -0.988389
-0.186386 -0.331445 -0.350971 -0.063033 -0.757607 0.649660
1.388929 -0.283794 0.285662 -0.000000 -0.727041 -0.686594
1.388929 -0.283794 -0.285662 -0.000000 -0.727041 0.686594
1.437669 -0.241082 0.270135 0.000000 0.727041 0.686594
1.437669 -0.241082 -0.270135 0.000000 0.727041 -0.686594
0.436023 0.038228 -0.107779 -0.000855 0.373303 -0.927128
-1.397395 -0.112600 0.019975 0.000042 -0.983992 0.174727
0.078994 -0.468050 0.500710 0.063105 0.725592 0.685225
-0.131196 0.216688 0.242963 -0.053012 -0.697806 0.714322
0.050426 -0.432003 -0.465169 0.063105 0.725592 -0.685225
-0.112093 -0.221520 -0.215572 -0.063033 -0.757607 0.649660
-0.126643 0.072258 -0.089054 -0.000000 -0.686594 0.727041
-0.724517 -0.109563 -0.032767 0.000132 -0.947481 -0.317847
0.044897 -0.428136 0.443568 0.075042 -0.724992 -0.684658
1.274139 -0.140308 0.163424 -0.000000 0.727041 0.686594
-0.133979 -0.124463 -0.152664 -0.053012 0.697806 -0.714322
-0.317968 0.067204 -0.092527 -0.000227 0.623282 -0.781202
-0.431020 -0.060235 0.097208 -0.000075 -0.525969 0.849849
0.316447 -0.029543 -0.110476 -0.000077 -0.211058 -0.976680
-0.253857 0.135019 -0.154080 -0.053012 -0.697806 -0.714322
1.268583 -0.168713 -0.193502 -0.000000 0.727041 -0.686594
0.169941 0.114358 -0.000000 -0.000429 0.997858 -0.051391
-1.098805 0.103436 0.048771 0.000481 0.887356 0.459386
1.349590 -0.142403 0.135942 -0.000000 -0.727041 -0.686594
1.454142 0.268678 0.299356 0.137622 -0.706757 0.686935
1.425465 0.289440 0.321341 -0.000000 -0.727041 0.686594
-0.105691 0.171458 0.200672 -0.053012 -0.697806 0.714322
1.420040 0.068659 -0.072704 0.000000 -0.686594 0.727041
1.013300 0.007160 -0.114133 -0.000329 0.095239 -0.994950
0.004796 -0.337574 0.369380 0.063105 0.725592 0.685225
-0.372311 -0.016497 0.113162 0.000569 -0.183542 0.982419
1.181315 0.106371 0.127487 -0.000000 -0.727041 0.686594
-1.309548 0.114358 -0.000000 -0.001129 0.997864 -0.053319
-0.066871 0.344811 -0.354962 -0.063033 0.757607 0.649660
0.095523 -0.110260 -0.030339 0.000032 -0.949656 -0.311284
-0.100050 0.116926 0.098137 0.075042 0.724992 -0.684658
-0.948646 -0.113893 0.010299 0.000530 -0.991069 0.129547
-0.692052 -0.083882 -0.077727 0.000030 -0.702980 -0.710279
1.251466 -0.113638 -0.012808 0.000001 -0.987530 -0.152985
1.407304 -0.167670 -0.192398 -0.000000 0.727041 -0.686594
1.348134 -0.180471 -0.205953 0.000000 0.727041 -0.686594
-0.936228 0.112934 -0.017987 0.000680 0.986132 -0.162133
1.465194 -0.061247 0.079705 0.000000 0.727041 0.686594
1.197083 -0.106114 -0.097515 -0.000000 -0.727041 0.686594
-0.407589 -0.111595 0.024983 -0.000249 -0.966000 0.256279
0.069976 -0.000000 0.114358 -0.001685 0.053590 0.997641
0.089182 -0.274340 -0.285566 0.075042 -0.724992 0.684658
0.470127 -0.074595 0.086680 -0.000445 -0.616707 0.786245
-0.259620 0.125797 0.144643 -0.053012 -0.697806 0.714322
1.513225 -0.009699 -0.052774 1.000000 0.000000 -0.000000
-0.014134 -0.183718 0.208203 0.063105 0.725592 0.685225
-0.214593 -0.180835 0.178072 -0.063033 -0.757607 -0.649660
-0.434595 0.089456 0.071242 -0.000364 0.810416 0.584682
0.244330 -0.114097 0.007719 -0.000572 -0.998085 0.049543
0.353258 -0.062696 0.095639 -0.000160 -0.578232 0.815110
0.688814 -0.034097 -0.109156 0.000119 -0.270694 -0.962031
0.001478 -0.153564 -0.148062 0.075042 -0.724992 0.684658
1.454953 0.215875 0.243442 0.000000 -0.727041 0.686594
1.355261 0.267257 -0.268152 0.000000 0.727041 0.686594
1.395843 0.289941 -0.292171 0.000000 0.727041 0.686594
0.359620 0.030850 -0.110118 -0.000093 0.267106 -0.963001
-0.087193 -0.152836 -0.137572 0.075042 -0.724992 0.684658
1.053798 0.076072 -0.065704 -0.000000 -0.686594 0.727041
0.285068 -0.108144 -0.037183 0.000112 -0.933832 -0.355994
-0.479780 0.084495 -0.077060 -0.000324 0.740059 -0.671563
-0.021560 -0.255998 -0.285426 0.063105 0.725592 -0.685225
1.513225 -0.000000 0.057341 1.000000 -0.000000 0.000000
0.061624 0.191383 0.194700 0.075042 0.724992 -0.684658
-0.349205 0.108881 -0.034967 -0.000620 0.949359 -0.312410
-0.117384 0.207817 -0.200106 -0.063033 0.757607 0.649660
0.053234 0.457304 -0.491703 0.024406 -0.717228 -0.695807
1.028713 -0.068659 0.072704 -0.000000 0.686594 -0.727041
1.412791 0.198633 -0.195485 0.000000 0.727041 0.686594
-0.083864 0.116905 -0.143876 0.063105 -0.725592 -0.685225
1.485867 -0.181816 0.188814 0.403879 -0.692982 -0.597209
1.485867 -0.181816 -0.188814 0.403879 -0.692982 0.597209
0.214154 0.020739 -0.112461 -0.000142 0.222658 -0.974221
1.454142 -0.268678 0.299356 0.137622 0.706757 0.686935
1.454142 -0.268678 -0.299356 0.272249 0.676361 -0.677304
-0.895562 -0.013453 0.113564 0.001233 -0.113190 0.993009
-0.321217 -0.173882 0.180309 -0.063033 -0.757607 -0.649660
-0.217471 0.155655 0.176939 -0.053012 -0.697806 0.714322
-0.018072 0.418622 0.436303 -0.063033 0.757607 -0.649660
1.214343 0.076072 0.065704 0.000000 -0.686594 -0.727041
0.632943 -0.113953 -0.009608 -0.000094 -0.989883 -0.136082
0.837053 0.005564 0.114222 0.000650 0.086445 0.995782
1.412022 -0.009613 -0.113953 0.000415 -0.096344 -0.994781
-0.149948 0.000000 -0.114358 -0.000115 -0.053673 -0.997846
-0.620280 0.112643 -0.019728 0.001073 0.983244 -0.178761
1.069169 0.114854 0.106771 -0.000000 0.727041 -0.686594
1.436804 0.109855 0.131177 -0.000000 -0.727041 0.686594
0.048550 0.123246 0.138396 0.063105 -0.725592 0.685225
0.124250 -0.489565 -0.517313 0.075042 -0.724992 0.684658
-0.084921 -0.083720 -0.078229 0.000000 0.686594 0.727041
-0.066208 0.230457 -0.261237 -0.053012 -0.697806 -0.714322
1.449500 -0.103637 -0.048344 0.002797 -0.923240 -0.382552
0.143972 -0.018647 0.112827 0.000145 -0.200332 0.979196
1.312886 -0.196875 0.223323 -0.000000 0.727041 0.686594
-1.577488 -0.016353 -0.069930 -0.532672 -0.177334 -0.825928
0.049795 -0.101377 0.052919 0.000129 -0.881824 0.470144
1.255364 0.192550 0.189043 -0.000000 0.727041 -0.686594
1.312886 -0.211700 -0.209322 0.000000 -0.727041 0.686594
-0.120143 0.255302 -0.281505 -0.053012 -0.697806 -0.714322
-1.266849 -0.006064 -0.114197 -0.000288 -0.088350 -0.995589
-0.579800 0.000000 -0.114358 0.000577 -0.020063 -0.999377
0.611065 -0.062784 0.095582 -0.000020 -0.514265 0.856890
0.340053 -0.093820 -0.065388 0.000070 -0.795436 -0.605000
1.338274 0.085460 0.105345 0.000000 -0.727041 0.686594
1.248712 -0.082338 -0.102038 0.000000 0.727041 -0.686594
-1.129351 0.067764 -0.092118 0.000003 0.625183 -0.779664
-0.121076 -0.185825 -0.213564 -0.053012 0.697806 -0.714322
0.123392 0.108864 -0.035018 -0.000245 0.949882 -0.310655
0.723376 -0.068887 0.091281 0.000001 -0.569172 0.821448
-1.423528 -0.043763 0.105653 0.000001 -0.382476 0.923278
1.198392 0.024901 0.111614 -0.000005 0.217442 0.975424
1.467263 -0.035070 -0.097688 0.511603 -0.315985 -0.798251
-1.097034 -0.112956 0.017852 -0.000653 -0.979268 0.199501
1.311006 0.103616 -0.048387 -0.000018 0.905644 -0.422540
-0.421059 0.076820 -0.084714 0.001169 0.642133 -0.765969
-1.414878 0.107464 0.039104 0.000001 0.923306 0.382407
0.301339 -0.022399 0.112143 -0.000267 -0.185555 0.982006
0.012685 0.223879 -0.223747 0.075042 0.724992 0.684658
0.134219 0.306048 -0.324077 0.063105 -0.725592 -0.685225
1.130821 -0.092845 0.066764 -0.000012 -0.781809 0.622509
-1.040794 0.047979 -0.103806 -0.000053 0.460312 -0.887042
-0.216868 0.021189 -0.112378 0.000390 0.178852 -0.983247
0.966868 0.058792 0.098088 0.000191 0.550955 0.833798
1.164173 0.061247 -0.079705 0.000000 -0.727041 -0.686594
0.369872 -0.000000 0.114358 -0.000196 0.064651 0.997060
0.788329 -0.035449 0.108725 0.000013 -0.303772 0.952082
0.011548 0.109566 0.032758 0.000159 0.946160 0.321798
-1.198532 -0.052844 -0.101416 0.000012 -0.500080 -0.865246
0.050744 -0.112890 0.018263 0.000324 -0.984491 0.171974
0.013207 0.300138 0.328964 0.063105 -0.725592 0.685225
0.038347 0.106947 -0.102739 0.075042 0.724992 0.684658
0.159066 -0.107131 0.040008 0.000200 -0.930302 0.365140
-1.174904 -0.064031 0.094751 -0.000174 -0.595800 0.802351
1.392515 -0.157783 0.181928 -0.000000 0.727041 0.686594
-0.865785 0.045377 0.104970 0.000036 0.423057 0.905403
-1.354373 -0.101377 0.052919 0.000001 -0.865048 0.500428
-0.839813 -0.114204 -0.005934 0.000093 -0.995378 -0.090696
0.764068 -0.061750 -0.096253 0.000020 -0.537859 -0.842281
-0.414537 -0.008852 0.114015 0.000201 -0.109149 0.993410
0.792100 -0.074647 0.086635 -0.000010 -0.648452 0.760426
0.134219 0.154361 -0.163454 0.063105 -0.725592 -0.685225
0.682068 -0.052294 0.101701 -0.000001 -0.420573 0.906560
-0.616760 0.069513 -0.090806 -0.000006 0.643935 -0.764253
-1.328376 0.039459 0.107334 0.000094 0.303315 0.952237
-0.826396 0.080850 0.080876 -0.000510 0.688447 0.724215
-1.414878 -0.073480 -0.087626 -0.000004 -0.674981 -0.736974
-1.207152 -0.099069 -0.057123 -0.000004 -0.843148 -0.536500
0.098958 0.081325 -0.080399 0.000185 0.738522 -0.673412
-0.576672 -0.039269 0.107404 0.000083 -0.351896 0.935307
1.496518 -0.076327 -0.087372 0.403879 0.635856 -0.657700
0.661671 -0.098522 0.058061 0.000018 -0.860234 0.508663
1.210651 0.085737 -0.105638 -0.000000 -0.727041 -0.686594
1.337036 0.061447 -0.096447 -0.000005 0.573333 -0.818548
0.840945 -0.107055 -0.040211 0.000035 -0.919632 -0.391179
0.006779 -0.395495 0.406921 -0.063033 -0.757607 -0.649660
-0.565408 0.114180 0.006381 -0.001391 0.995594 0.089397
-0.278410 0.219757 0.229654 -0.063033 0.757607 -0.649660
-0.128715 0.190060 0.180498 -0.063033 0.757607 -0.649660
0.771976 -0.107274 -0.039623 -0.000399 -0.937638 -0.345927
-0.811437 0.085897 -0.075495 0.000197 0.718033 -0.695106
0.108845 -0.019293 -0.112719 0.000264 -0.202575 -0.978584
-0.816622 -0.029588 0.110464 0.000084 -0.265071 0.963580
-1.094801 -0.101378 -0.052916 -0.000033 -0.885923 -0.462468
-0.061524 0.089227 0.073029 -0.000000 -0.686594 -0.727041
-0.011887 -0.298182 0.329203 0.063105 0.725592 0.685225
-1.051586 -0.110339 -0.030051 -0.000030 -0.951958 -0.304160
1.264928 -0.102241 0.051230 -0.000290 -0.870107 0.491573
-0.051360 -0.052722 0.101480 -0.000379 -0.415939 0.908744
0.659320 0.087238 -0.073940 0.000047 0.765498 -0.642509
-0.153968 0.276149 -0.299359 -0.053012 -0.697806 -0.714322
-0.012629 0.177693 0.201685 0.063105 -0.725592 0.685225
0.041685 -0.034484 -0.109035 -0.000210 -0.336153 -0.941153
0.855960 0.111578 -0.025059 -0.000419 0.980214 -0.195073
-0.687083 -0.099913 0.055633 0.000093 -0.870369 0.491131
-0.745736 -0.088704 0.072175 0.000020 -0.800725 0.597979
-0.955485 -0.054067 0.100770 -0.000961 -0.434391 0.899890
0.968164 -0.099594 0.056202 0.000316 -0.864975 0.500654
-0.010793 -0.259762 0.288420 0.063105 0.725592 0.685225
-0.899690 -0.114358 0.000000 -0.000124 -0.997772 -0.053607
-1.077520 0.054503 0.100534 0.000169 0.500723 0.864976
0.124397 -0.247392 -0.260890 0.075042 -0.724992 0.684658
0.900476 0.092122 -0.067759 -0.000050 0.778622 -0.626489
0.124130 -0.440403 -0.465242 0.075042 -0.724992 0.684658
1.302109 0.113384 -0.014895 -0.000165 0.991156 -0.126879
1.495993 0.150907 -0.159797 0.403879 0.692982 0.597209
-0.925479 0.050006 0.102845 0.000103 0.463286 0.885501
0.048044 0.486666 0.520000 -0.053012 -0.697806 0.714322
-1.267426 0.060231 -0.097211 0.000066 0.521396 -0.852629
-0.486396 -0.055285 -0.100106 -0.000066 -0.446653 -0.894087
-0.640748 -0.073656 0.087478 0.000114 -0.649924 0.759202
1.043764 -0.076072 -0.065704 0.000000 0.686594 0.727041
-0.077298 0.269581 0.268243 -0.063033 0.757607 -0.649660
0.614330 0.047153 0.104184 0.000085 0.411596 0.910672
-0.149919 -0.364436 -0.385905 -0.063033 -0.757607 0.649660
-0.739206 0.108489 -0.036165 -0.000063 0.932541 -0.359334
0.828315 0.108586 0.035871 0.000271 0.933827 0.355946
0.411039 -0.020692 -0.112470 -0.000156 -0.220648 -0.974753
-0.998624 0.062584 0.095713 0.000092 0.532334 0.845819
-0.046661 -0.231702 -0.262010 0.063105 0.725592 -0.685225
-0.696156 0.108734 -0.035419 -0.000053 0.948255 -0.315565
-1.449500 -0.107457 -0.039124 -0.059593 -0.953757 -0.290988
0.405200 -0.098588 0.057950 0.000092 -0.858779 0.511111
-0.040518 -0.463407 0.490707 -0.053012 0.697806 0.714322
-0.096428 -0.111272 -0.026388 0.000377 -0.969806 -0.241530
0.536564 -0.032143 0.109748 0.000016 -0.274532 0.960921
0.060187 0.109841 -0.031821 0.000034 0.948815 -0.313922
-1.268266 0.061404 0.096474 0.000161 0.573354 0.818534
0.191845 -0.097507 0.059749 -0.001263 -0.851137 0.523600
0.176985 -0.047397 -0.104073 -0.000020 -0.457757 -0.888404
1.133402 -0.103626 -0.048367 0.000030 -0.886903 -0.460575
1.019894 -0.113734 0.011925 -0.000544 -0.987910 0.150658
-0.334804 -0.088493 -0.072434 -0.000013 -0.748877 -0.661765
-0.568998 0.071813 0.088998 0.000089 0.591999 0.805171
1.486745 -0.083712 -0.038655 0.511503 -0.777222 -0.364322
-0.969063 0.103562 -0.048505 -0.000023 0.904419 -0.425186
-0.777981 0.046090 -0.104659 0.000049 0.407675 -0.912442
-0.687997 0.112982 0.017687 0.000175 0.981182 0.189641
-0.043210 0.300722 0.301252 -0.063033 0.757607 -0.649660
-0.752695 0.112465 0.020721 0.000803 0.988709 0.144607
1.106548 -0.009646 -0.113950 -0.000033 -0.127913 -0.991195
-0.042681 -0.335584 0.365679 -0.053012 0.697806 0.714322
-0.154076 0.042241 -0.106270 -0.000811 0.354681 -0.934424
-0.525980 -0.111795 0.024075 0.000408 -0.967916 0.249124
1.388929 0.268968 0.299663 -0.000000 -0.727041 0.686594
-0.083553 0.111329 0.026143 -0.000011 0.963792 0.264280
-0.124128 -0.368905 0.388614 -0.063033 -0.757607 -0.649660
0.797553 -0.084044 -0.077552 0.000124 -0.704977 -0.708354
-0.874677 -0.049639 0.103023 0.000446 -0.473825 0.879956
-1.207358 -0.093058 0.066468 -0.000124 -0.785162 0.618312
0.071197 0.244884 0.252403 0.075042 0.724992 -0.684658
0.405005 0.114006 -0.008965 0.000579 0.995683 -0.087843
-0.737683 0.064094 -0.094709 0.000040 0.566107 -0.823572
-0.757458 -0.105268 -0.044681 -0.000527 -0.923956 -0.381131
0.517613 0.099841 -0.055762 0.000114 0.892467 -0.449768
-0.649567 0.016456 -0.113168 0.000081 0.123982 -0.991625
-0.889693 0.114358 -0.000000 0.000477 0.997672 -0.055166
-0.065888 0.172127 -0.160335 0.075042 0.724992 0.684658
-0.541104 -0.097998 0.058941 0.000259 -0.831859 0.553838
-0.805707 -0.016975 -0.113091 0.000384 -0.149845 -0.988156
0.110629 -0.060923 -0.096779 0.000170 -0.543569 -0.838631
-0.139629 0.110537 -0.138640 -0.053012 -0.697806 -0.714322
-0.208698 0.095329 -0.063167 0.000079 0.834898 -0.549305
0.957182 -0.008451 0.114045 -0.001033 -0.124059 0.991595
0.146936 -0.094085 -0.065006 0.000042 -0.829357 -0.557689
1.414226 0.085859 0.105767 -0.000000 -0.727041 0.686594
1.432180 0.099056 -0.057146 0.000001 0.865642 -0.499394
0.023655 -0.114013 -0.008868 0.001898 -0.990816 -0.129955
1.281362 -0.112430 0.020911 0.000775 -0.979365 0.198668
1.302497 -0.168166 0.163223 -0.000000 -0.727041 -0.686594
0.516108 0.096144 0.061920 -0.000471 0.842745 0.537541
-1.522652 0.084400 0.052525 -0.330302 0.773031 0.539669
1.437847 -0.200137 0.226777 0.000000 0.727041 0.686594
1.437847 -0.200137 -0.226777 0.000000 0.727041 -0.686594
1.217617 -0.191826 -0.217977 -0.163987 0.545168 -0.816225
