1.635686 0.284954 0.693154 0.065781 -0.004353 -0.005616
3.073562 0.696335 0.451492 -0.000000 0.993633 -0.000003
2.343768 0.678559 0.520969 -0.000000 0.818976 0.000010
1.448725 0.498403 0.464660 0.000000 -0.999691 0.000000
1.780074 0.240704 0.187117 0.062355 0.003809 -0.004915
2.988146 0.866863 0.671469 0.157260 0.001513 -0.004516
2.027475 0.697018 0.462339 0.000000 0.999687 -0.000000
2.924762 0.696937 0.467445 0.000000 0.999687 0.000000
1.635686 0.910455 0.693154 0.065782 0.002177 -0.002813
2.206932 0.522315 0.398593 -0.000001 -0.757290 -0.000012
2.663053 0.584432 0.364828 0.000000 -0.136702 -0.000205
1.610241 1.112564 0.861525 -0.059065 -0.010026 0.013831
0.838569 0.672286 0.528879 0.000000 0.758060 0.000006
0.929793 0.500858 0.485372 0.000000 -0.977615 0.000006
1.533219 0.594919 0.364000 -0.000000 -0.025031 -0.000282
0.656121 0.617007 0.365828 0.000000 0.185770 -0.000037
2.936725 0.506168 0.501853 0.000000 -0.926391 0.000001
0.747345 0.517049 0.405280 0.000000 -0.819096 -0.000005
3.006401 0.769037 0.344690 -0.000000 -0.611843 -0.000876
3.006401 0.439877 0.327230 0.000000 -0.611844 0.000876
2.762624 0.780472 0.321891 0.157260 0.001513 0.004516
2.731845 0.498382 0.464428 0.000000 -0.999924 0.000000
1.701977 0.746904 0.354366 0.065780 0.007326 0.009413
1.701977 0.448505 0.354366 0.065781 -0.007326 0.009413
3.119174 0.597704 0.363931 0.296021 0.000002 -0.000151
1.243844 0.596776 0.363954 -0.000000 -0.024838 -0.000037
1.610241 1.112564 0.065009 -0.059065 -0.010027 -0.013831
0.929793 0.690174 0.426975 0.000000 0.926659 -0.000001
1.780074 0.735941 0.570197 0.062352 -0.003137 0.004050
0.564897 0.561126 0.555620 -0.000000 -0.363552 0.000004
1.703794 0.927951 0.214170 0.065782 0.004353 0.005616
2.115708 0.643639 0.551338 0.000000 0.466425 0.000013
2.617441 0.588469 0.562167 -0.000001 -0.086006 0.000041
1.780074 1.093919 0.847103 0.062354 -0.004929 0.006352
1.438751 0.325969 0.671419 -0.062308 -0.005458 -0.006477
3.073061 0.463053 0.581377 -0.000001 -0.611843 -0.001189
1.294690 0.500728 0.441768 -0.000001 -0.821361 -0.000000
3.205715 0.848531 0.657289 -0.360143 -0.001247 0.001692
2.958997 0.746984 0.592692 0.000000 0.611843 -0.000789
1.796423 0.500468 0.483556 0.000000 -0.977610 0.000003
1.066630 0.513209 0.515491 0.000001 -0.842223 0.000004
1.625027 0.193865 0.783251 -0.059066 0.003471 0.004848
2.794471 0.726296 0.548783 0.000000 -0.611843 0.000876
3.196170 0.722864 0.560081 -0.360146 -0.001247 0.001692
1.780074 1.113807 0.064048 0.062357 -0.008064 -0.010340
3.100907 0.910059 0.704882 0.157260 0.000765 -0.002282
1.098783 0.599407 0.363973 0.000000 0.025031 -0.000009
1.522744 0.247184 0.188830 -0.059066 0.004242 -0.005921
2.526217 0.515051 0.518355 0.000001 -0.832618 0.000019
1.466536 0.934818 0.202501 -0.059066 -0.004628 -0.006456
1.933259 0.637993 0.372474 0.000000 0.399930 -0.000016
1.417085 0.745015 0.357795 -0.062307 0.003841 0.004567
1.569201 1.015446 0.789128 -0.059063 -0.003471 0.004848
2.571829 0.691613 0.495635 0.000001 0.943029 0.000005
1.643884 0.596002 0.562561 0.000000 -0.025031 0.000282
1.610241 0.082845 0.065009 -0.062307 -0.010510 0.012347
0.519285 0.670150 0.531226 0.000001 0.702114 0.000003
1.780074 0.280479 0.708650 0.062356 0.009408 0.012027
2.889279 0.729887 0.347067 -0.000000 0.611843 0.001227
0.473673 0.506447 0.502491 0.000000 -0.916302 0.000006
2.708665 0.696756 0.455767 0.000001 0.934626 -0.000000
3.205715 0.346877 0.269246 -0.360143 -0.001324 0.001632
3.205715 0.848531 0.269246 -0.360143 -0.001247 -0.001692
1.933259 0.505935 0.501279 -0.000000 -0.925008 0.000003
1.451530 0.457256 0.582380 -0.059066 0.003664 0.005117
0.382448 0.632838 0.370359 0.000000 0.353717 -0.000037
0.291224 0.641775 0.552284 0.000001 0.444960 0.000057
1.780074 0.954705 0.739417 0.062354 -0.003809 0.004915
1.441191 0.466386 0.351431 -0.059065 0.003664 -0.005117
3.192989 0.680975 0.398855 -0.360145 -0.001247 -0.001692
3.192989 0.514434 0.398855 -0.360145 -0.001324 0.001632
2.617441 0.499665 0.447316 0.000000 -0.986899 -0.000001
1.887647 0.666420 0.534992 -0.000001 0.683352 0.000007
1.649308 0.448841 0.588746 0.062355 0.007729 0.009916
1.740117 0.100176 0.851275 0.062358 0.004928 0.006352
1.681999 0.813765 0.622222 0.065781 0.005628 -0.007249
1.512166 0.859508 0.673526 -0.059067 -0.002507 0.003504
1.657481 0.833221 0.291306 0.065781 0.002601 0.003361
2.343768 0.571323 0.559031 0.000001 -0.258143 0.000026
2.730350 0.601109 0.562519 0.000000 0.025031 0.000037
1.513507 0.705019 0.563206 -0.059061 -0.003086 0.004311
0.701733 0.695055 0.443508 0.000000 0.977650 -0.000001
0.519285 0.581601 0.365252 0.000001 -0.161282 -0.000173
1.553049 0.473040 0.540777 0.065781 -0.002761 -0.003566
2.206932 0.628310 0.368771 -0.000000 0.306631 -0.000088
0.091008 0.599539 0.389708 -0.428748 0.000000 -0.000016
0.838569 0.565337 0.369359 -0.000000 -0.330254 -0.000040
1.809135 0.597395 0.363938 -0.000000 -0.024838 -0.000037
0.083807 0.632682 0.523850 -0.449747 0.000029 0.000048
1.613975 0.527879 0.392621 -0.000001 -0.706681 -0.000028
1.219916 0.697002 0.461720 0.000000 0.999696 -0.000000
3.163281 0.492859 0.530414 0.000000 0.611842 0.000779
2.447704 0.595074 0.363996 0.000000 -0.025031 -0.000005
1.780074 0.021939 0.017897 0.062357 0.006273 -0.008069
1.478773 0.378687 0.302631 -0.062307 -0.001466 0.001745
3.156895 0.321324 0.663102 -0.000000 0.611844 0.000713
2.571829 0.638560 0.372721 0.000000 0.399930 -0.000016
1.066630 0.666897 0.534539 -0.000000 0.689174 0.000004
1.613975 0.659760 0.385701 0.000000 0.633227 -0.000009
2.252544 0.637319 0.554355 -0.000001 0.399392 0.000032
1.754647 0.460440 0.571453 0.062355 0.007729 0.009916
1.675561 0.002051 0.924021 0.000001 -0.790915 0.000068
1.671102 1.050016 0.122474 -0.062304 0.003032 0.003608
2.794164 0.412015 0.326608 0.157260 0.003991 -0.002599
0.701733 0.504386 0.497315 -0.000001 -0.865064 0.000001
3.119174 0.655692 0.543922 0.278933 0.000092 0.000131
1.499613 0.796405 0.299023 -0.059062 -0.001446 -0.002023
1.203466 0.513559 0.516048 0.000000 -0.846708 0.000009
1.541444 0.697014 0.464350 -0.000000 0.999696 0.000000
0.234396 0.696921 0.468064 0.000000 0.999687 0.000000
0.884181 0.573192 0.559532 0.000000 -0.259076 0.000026
0.747345 0.620712 0.559895 -0.000001 0.234326 0.000059
1.021018 0.664237 0.389513 -0.000000 0.670970 -0.000031
2.115708 0.682902 0.412201 0.000001 0.859076 -0.000008
2.870924 0.593681 0.364031 0.000000 -0.025031 -0.000018
1.021018 0.506081 0.424896 0.000000 -0.925690 -0.000003
2.024484 0.523847 0.396849 -0.000001 -0.738954 -0.000006
1.431526 0.629634 0.557329 0.000000 0.330402 0.000020
1.332077 0.697014 0.462184 0.000000 0.999687 -0.000000
2.754277 0.545907 0.378504 0.000000 -0.532039 -0.000022
0.838569 0.500093 0.444877 -0.000001 -0.980945 -0.000003
1.472147 0.668502 0.392436 0.000000 -0.790975 0.000203
0.603779 0.697028 0.462184 -0.000000 0.884453 -0.000000
0.436286 0.697020 0.464970 0.000000 0.999919 0.000000
2.443218 0.498403 0.464660 0.000000 -0.999691 0.000000
2.982337 0.511374 0.414139 -0.000001 -0.872115 -0.000032
1.657481 0.362188 0.635228 0.065783 -0.002601 -0.003360
1.750811 0.674536 0.400313 -0.000000 0.773376 -0.000006
1.750811 0.521659 0.399356 0.000000 -0.758060 -0.000003
2.298156 0.688250 0.422411 0.000000 0.916334 -0.000001
1.254312 0.601573 0.562507 -0.000000 0.025031 0.000282
1.296703 0.470655 0.561543 -0.062305 -0.005660 -0.006715
2.936725 0.646428 0.549825 -0.000001 0.488796 0.000025
2.889279 0.465522 0.579467 0.000000 -0.611844 -0.001227
0.200000 0.511676 0.512935 -0.028749 -0.000606 0.000340
1.532495 0.293863 0.690728 -0.062308 -0.005053 -0.006001
3.066107 0.375653 0.621077 0.000001 0.611841 0.000595
1.377192 0.727831 0.557566 -0.062308 0.004245 -0.005045
0.336836 0.548779 0.376823 -0.000000 -0.489150 -0.000101
2.776317 0.503989 0.549712 0.000000 -0.611845 -0.000438
3.066489 0.811284 0.284104 -0.000001 0.611843 0.000713
3.066489 0.370619 0.301564 0.000001 0.611843 -0.000713
2.434992 0.690845 0.497785 -0.000000 0.934746 0.000003
2.298156 0.540795 0.381857 -0.000000 -0.573604 -0.000040
1.933259 0.696845 0.457157 0.000001 0.996990 -0.000001
2.070096 0.561702 0.555846 0.000000 -0.353443 0.000037
0.105734 0.541739 0.520646 -0.364110 -0.000059 0.000058
1.887647 0.565446 0.557214 -0.000000 -0.329829 0.000010
3.027207 0.704926 0.532252 0.000000 -0.611843 0.000438
1.522751 0.513991 0.409798 -0.000001 -0.831867 -0.000005
0.382448 0.515984 0.519733 0.000000 -0.819160 0.000005
2.845501 0.500370 0.483102 0.000000 -0.977650 0.000002
2.875385 0.371741 0.638056 0.157258 -0.000765 -0.002282
1.665653 0.259993 0.193000 0.062356 0.004705 -0.006065
2.389380 0.526593 0.393907 -0.000000 -0.724514 -0.000027
0.519285 0.507518 0.421640 -0.000001 -0.905798 -0.000013
2.434992 0.542746 0.546006 -0.000000 -0.552965 0.000043
0.245612 0.517072 0.405249 0.000001 -0.691481 -0.000002
2.832042 0.696943 0.467213 -0.000000 0.999696 0.000000
0.656121 0.571548 0.559091 -0.000000 -0.258760 0.000053
1.678367 0.135209 0.097481 0.062356 0.006497 -0.008354
1.623881 0.725708 0.574619 0.062357 -0.007728 0.009916
2.161320 0.499048 0.474811 -0.000000 -0.993684 0.000003
1.750811 0.691843 0.494978 0.000000 0.943840 0.000001
2.965178 0.689283 0.378475 -0.000000 0.611843 0.000197
2.252544 0.499696 0.479409 -0.000000 -0.985509 0.000001
2.389380 0.686377 0.418503 0.000000 0.894667 -0.000002
3.079997 0.710985 0.361688 -0.000000 0.611844 0.001189
1.157854 0.675749 0.524714 0.000000 0.789508 0.000011
1.431526 0.539717 0.543922 0.000000 -0.593915 0.000019
2.115708 0.521412 0.399654 0.000000 -0.773966 -0.000012
3.027950 0.520138 0.525322 0.000000 -0.773423 0.000003
2.721978 0.704242 0.366904 0.000000 0.611843 0.001402
3.079997 0.484423 0.361688 -0.000000 -0.611844 0.000595
1.427344 0.886341 0.686536 -0.059064 -0.010412 0.014348
3.119174 0.566067 0.557431 0.273176 -0.000054 0.000155
1.625697 0.402865 0.300360 0.062356 0.002968 -0.003833
1.593801 0.938523 0.190597 -0.059065 -0.004243 -0.005921
0.975406 0.688498 0.503555 0.000000 0.916561 0.000012
0.382448 0.670731 0.530604 0.000000 0.741265 0.000006
1.357596 0.497809 0.379970 -0.059066 0.008099 -0.011226
0.741363 0.595538 0.363985 0.000000 -0.025031 -0.000018
0.167858 0.674946 0.521776 -0.122229 0.000250 0.000199
0.291224 0.554604 0.552766 0.000000 -0.445075 0.000114
1.544920 0.163639 0.127505 -0.062307 -0.003436 0.004088
1.544920 0.163639 0.799029 -0.062307 -0.006873 -0.008138
0.884181 0.639121 0.372983 0.000001 0.422542 -0.000061
2.024484 0.658418 0.384653 -0.000000 0.612846 -0.000009
1.519431 0.310021 0.248305 -0.062307 -0.005054 0.006001
1.385914 0.673144 0.398652 -0.000000 0.756832 -0.000006
0.291224 0.666168 0.391302 0.000000 0.689270 -0.000030
1.340302 0.643433 0.551447 0.000000 0.467127 0.000013
1.700161 1.122712 0.862715 -0.062309 0.008894 -0.010489
3.068401 0.836455 0.661900 -0.000000 0.611843 -0.001070
2.740072 0.771833 0.597960 0.157258 0.000765 -0.002282
1.066630 0.585506 0.561850 0.000000 -0.112037 0.000063
2.879570 0.435603 0.323924 0.000000 -0.611843 0.000613
1.718323 0.191335 0.154076 0.065782 -0.003504 0.004523
3.173342 0.679531 0.481943 0.270273 0.000145 0.000027
1.595730 0.776127 0.310691 0.062356 -0.001624 -0.002099
1.703794 0.253563 0.735495 0.062356 0.004705 0.006065
1.485816 0.780639 0.593040 -0.062308 0.001567 -0.001866
0.786228 0.696972 0.466052 0.000000 0.999696 0.000000
2.981435 0.362943 0.267719 -0.000001 -0.611842 0.000789
2.981435 0.832466 0.267719 -0.000001 0.611842 0.000789
1.157854 0.656688 0.383347 0.000000 0.593698 -0.000005
2.965594 0.337185 0.664786 0.157260 -0.000765 -0.002282
2.024484 0.662026 0.538959 0.000001 0.650559 0.000016
2.682896 0.525359 0.533181 0.000000 -0.790979 0.000214
0.167858 0.637558 0.374942 -0.122235 0.000137 -0.000285
1.705199 0.541714 0.545321 0.000002 -0.559938 0.000010
1.463223 0.868698 0.257733 -0.062308 0.005458 0.006477
2.604758 0.475411 0.368670 0.157261 -0.000765 0.002282
3.137639 0.303105 0.221433 0.000000 -0.611845 0.000713
3.137639 0.892304 0.221433 -0.000001 0.611843 0.000713
2.873899 0.699968 0.556324 0.000000 0.611844 -0.001227
1.713783 0.318291 0.252658 0.065782 -0.002389 0.003087
0.975406 0.538752 0.543210 -0.000001 -0.593643 0.000038
2.990328 0.467659 0.577814 -0.000000 -0.611843 -0.000394
0.929793 0.518152 0.403785 0.000001 -0.795911 -0.000003
0.175861 0.553048 0.376161 -0.091149 -0.000207 -0.000380
0.656121 0.537358 0.384368 0.000000 -0.613834 -0.000005
1.580327 0.498430 0.465743 0.000000 -0.999691 0.000000
1.713783 0.323499 0.680609 0.062356 0.005041 0.006495
2.936725 0.565775 0.557329 0.000000 -0.330282 0.000020
0.493114 0.599252 0.562584 0.000000 0.013086 0.000071
1.615708 0.837619 0.661831 0.062356 -0.005489 0.007068
3.005075 0.811779 0.614906 0.000000 -0.611843 0.000219
1.705199 0.650649 0.547309 -0.000000 0.531342 0.000011
1.560089 0.954053 0.732555 -0.062307 0.004245 -0.005045
0.062932 0.541102 0.451825 -0.531431 -0.000036 -0.000006
1.719231 0.915608 0.704103 0.065781 0.002177 -0.002813
1.700161 1.122712 0.063820 -0.062309 0.008894 0.010489
0.062932 0.652886 0.446246 -0.531434 0.000036 -0.000010
1.399193 0.381704 0.293961 -0.059065 0.002989 -0.004177
1.706518 0.381212 0.301935 0.065782 -0.001433 0.001853
1.780074 0.755828 0.340954 0.062354 -0.003137 -0.004050
1.780074 0.439581 0.340954 0.062354 0.003137 -0.004050
3.200943 0.785698 0.608685 -0.360145 -0.001247 0.001692
1.450669 0.387032 0.619189 -0.062310 -0.001567 -0.001866
2.571829 0.559262 0.371672 -0.000000 -0.376798 -0.000017
1.377192 0.467578 0.557566 -0.062310 -0.004245 -0.005045
2.617441 0.691677 0.431082 0.000001 0.941301 -0.000005
1.701977 0.746904 0.572168 0.065783 0.007326 -0.009413
1.568363 0.650616 0.547330 0.000001 0.515744 0.000006
3.191398 0.601016 0.424009 1.000000 0.000000 0.000000
2.115708 0.693328 0.490171 -0.000000 0.965947 0.000004
1.249078 0.669190 0.394299 -0.000000 0.724136 -0.000007
1.370212 0.498374 0.463499 0.000000 -0.999687 0.000000
2.769382 0.469113 0.377751 0.000000 0.611844 -0.000438
2.682896 0.518607 0.402083 -0.000001 -0.790978 -0.000428
2.891113 0.664897 0.390111 -0.000001 0.670648 -0.000031
1.780074 1.193358 0.002513 0.062357 -0.006273 -0.008068
1.683815 0.982278 0.158186 0.062356 -0.008288 -0.010622
1.780074 0.914930 0.217885 0.062356 -0.009408 -0.012027
1.431526 0.534541 0.386607 0.000000 -0.628809 -0.000004
1.707426 0.054522 0.049156 0.065782 -0.008918 0.011425
2.922690 0.491166 0.366904 0.000000 -0.611843 0.001402
1.978872 0.577000 0.366120 0.000000 -0.210069 -0.000033
2.847545 0.794682 0.324853 -0.000001 -0.611843 -0.001052
0.610509 0.513991 0.516736 0.000000 -0.846760 0.000009
2.816786 0.734844 0.371139 -0.000000 -0.611843 -0.001052
0.862497 0.696991 0.461256 0.000000 0.999687 -0.000000
3.027950 0.646225 0.376595 0.000000 0.489181 -0.000050
1.037468 0.696989 0.461178 0.000000 0.999677 -0.000000
2.733074 0.676802 0.524451 -0.000000 0.790980 0.000214
1.780074 1.034256 0.800952 0.062353 -0.002913 0.003761
1.780074 0.795604 0.616348 0.062357 -0.001512 0.001954
1.868954 0.498383 0.462648 0.000000 -0.999687 -0.000000
1.997565 0.498376 0.462958 -0.000000 -0.999691 -0.000000
3.146011 0.268072 0.718247 0.157259 -0.000765 -0.002282
2.717520 0.432215 0.591277 0.157261 -0.001513 -0.004516
2.920489 0.840946 0.651421 0.157260 0.000765 -0.002282
1.294690 0.543810 0.379822 0.000000 -0.552922 -0.000011
2.389380 0.631095 0.556817 -0.000001 0.325357 0.000010
2.999536 0.697037 0.462958 0.000000 0.999886 -0.000000
1.678367 0.127219 0.818724 0.065783 -0.006158 -0.007927
1.582904 0.285003 0.211486 -0.059064 0.004243 -0.005921
2.663053 0.656626 0.383301 0.000000 0.593821 -0.000038
0.382448 0.499702 0.447087 -0.000000 -0.986719 -0.000002
0.610509 0.668652 0.393742 0.000000 0.707299 -0.000004
1.613975 0.532474 0.538177 -0.000000 -0.652219 0.000033
2.799889 0.652083 0.546391 -0.000000 0.553031 0.000043
0.445258 0.593681 0.364031 -0.000000 -0.024838 -0.000037
1.642043 0.966475 0.759424 0.062356 -0.008289 0.010622
1.623881 0.737979 0.367779 0.065784 0.004141 0.005343
1.335895 0.773230 0.599041 -0.059067 -0.004050 0.005653
1.352751 0.768461 0.329676 -0.059066 -0.004050 -0.005653
3.128463 0.423922 0.611646 0.000000 -0.611844 -0.000595
2.602081 0.494757 0.528946 -0.000001 0.611840 0.000701
2.936744 0.776902 0.310699 0.000001 0.611843 0.000701
1.459193 0.598942 0.363961 0.000000 0.024838 -0.000284
2.161320 0.570800 0.367643 0.000000 -0.282823 -0.000024
1.623881 0.457430 0.367779 0.065783 -0.004141 0.005343
1.498977 0.519889 0.525025 -0.000001 0.790978 -0.000271
2.617441 0.658387 0.541905 0.000000 0.613475 0.000018
1.649433 1.161040 0.899023 -0.059066 -0.007713 0.010701
1.157854 0.557735 0.372334 0.000001 -0.398128 -0.000016
0.816137 0.598014 0.562600 0.000000 0.012706 0.000146
3.134581 0.865537 0.656489 -0.000002 -0.611821 0.000357
2.298156 0.523795 0.529628 -0.000001 -0.735389 0.000006
3.027950 0.551223 0.375485 -0.000000 -0.467271 -0.000053
3.142679 0.816033 0.280431 0.000001 0.611844 0.000535
3.142679 0.365870 0.297890 -0.000000 0.611843 -0.000535
1.726883 0.498379 0.462803 0.000000 -0.999691 -0.000000
1.573153 0.225197 0.745054 -0.062307 -0.004245 -0.005046
1.780074 1.153582 0.893254 0.062357 -0.006273 0.008068
1.796423 0.660419 0.540294 0.000001 0.573471 0.000002
1.780074 0.300367 0.233268 0.062356 0.010304 -0.013143
1.651124 0.878038 0.236236 0.062356 -0.010080 -0.012865
3.191398 0.519188 0.469890 0.270275 -0.000147 0.000010
1.678367 0.680380 0.407792 0.000001 -0.790977 0.000257
2.844710 0.751258 0.595998 -0.000001 0.611843 -0.000526
2.546406 0.595693 0.562553 0.000000 -0.025031 0.000018
1.621075 1.057052 0.814044 -0.062306 0.003032 -0.003608
0.588824 0.594764 0.364004 -0.000000 -0.025031 -0.000074
1.551822 0.400301 0.296153 -0.059065 0.002700 -0.003773
1.796423 0.538628 0.543118 -0.000000 -0.593863 0.000010
1.613975 0.592483 0.364071 0.000000 -0.062281 -0.000226
1.571048 1.064088 0.102507 -0.059064 -0.003086 -0.004311
1.066630 0.539468 0.382796 0.000000 -0.593852 -0.000019
2.947901 0.400727 0.324853 -0.000001 0.611843 -0.000701
2.170293 0.600799 0.562526 0.000000 0.024646 0.000286
2.754277 0.614649 0.365390 0.000000 0.161334 -0.000086
3.093847 0.720768 0.572414 0.000000 0.611845 -0.001189
1.598454 0.341403 0.675869 0.062356 0.005601 0.007211
0.747345 0.678537 0.521001 0.000001 0.817491 0.000010
1.444616 0.702763 0.556583 -0.059065 -0.003664 0.005117
2.252544 0.687204 0.506368 -0.000000 0.906336 0.000007
1.485976 0.739281 0.340843 -0.059065 -0.007328 -0.010174
0.343566 0.598324 0.562596 0.000003 0.011848 0.000625
1.877927 0.597240 0.363942 -0.000000 -0.025031 -0.000009
0.428060 0.674585 0.400373 0.000000 0.774060 -0.000006
0.772021 0.498443 0.466284 0.000000 -0.999687 0.000000
1.296703 0.470655 0.364991 -0.062306 -0.005660 0.006715
1.727404 0.791460 0.309232 0.062357 -0.001624 -0.002099
2.515748 0.600103 0.363990 0.000000 0.025031 -0.000074
2.268247 0.599407 0.363973 0.000000 0.024838 -0.000019
3.119174 0.661557 0.387171 0.273538 0.000104 -0.000127
3.119174 0.533852 0.387171 0.276422 -0.000106 -0.000123
1.701069 0.410993 0.613934 0.062356 0.001624 0.002099
2.799889 0.503066 0.433103 -0.000001 -0.948197 -0.000005
2.514549 0.685441 0.531134 0.157261 0.001529 -0.004564
1.711966 0.862631 0.264016 0.065782 0.005309 0.006841
1.842035 0.615258 0.561037 0.000001 0.185529 0.000037
1.678367 0.515029 0.407792 0.065781 -0.008282 0.010623
1.526376 0.960594 0.185741 -0.062306 0.004245 0.005046
1.674797 0.053533 0.880869 -0.062307 -0.008894 -0.010489
1.569107 0.893998 0.681408 -0.062306 0.004852 -0.005762
0.564897 0.628752 0.557621 0.000000 0.306515 0.000044
1.649433 1.161040 0.027512 -0.059064 -0.007713 -0.010701
1.978872 0.535170 0.540441 -0.000002 -0.561949 0.000005
1.103269 0.498408 0.461642 0.000000 -0.999687 -0.000000
0.049690 0.577739 0.507516 -0.583345 -0.000012 0.000024
2.663053 0.688405 0.503768 -0.000000 0.916017 0.000003
1.551233 0.675520 0.401509 0.000001 -0.790977 0.000514
2.115708 0.522164 0.527765 -0.000001 -0.733666 0.000003
1.499102 0.352059 0.661027 -0.059065 0.005399 0.007523
0.701733 0.660778 0.386534 0.000000 0.632822 -0.000009
1.842035 0.652502 0.380421 0.000000 0.552922 -0.000011
0.200000 0.682467 0.411469 -0.028749 0.000597 -0.000355
1.583925 0.428117 0.578099 0.065784 -0.002761 -0.003566
1.749198 0.969446 0.178288 0.065783 0.003929 0.005070
1.933259 0.502409 0.435249 0.000001 -0.954287 -0.000002
1.294690 0.508894 0.507754 -0.000000 -0.892481 0.000002
2.559654 0.702720 0.382035 0.157261 0.000765 0.002282
3.180740 0.889264 0.702749 -0.000000 0.611843 -0.000713
2.552387 0.498441 0.460327 -0.000000 -0.999691 -0.000000
3.079977 0.431900 0.321059 -0.000000 -0.611845 0.000595
3.079977 0.777015 0.338519 0.000000 -0.611844 -0.000595
1.462650 0.830087 0.636437 -0.062305 0.002931 -0.003488
0.291224 0.687662 0.505386 0.000000 0.906289 0.000013
0.564897 0.537236 0.384463 0.000000 -0.612661 -0.000009
1.711966 0.852308 0.665590 0.062357 -0.005601 0.007211
1.780074 0.141265 0.816335 0.062356 0.005825 0.007497
0.200000 0.499477 0.448462 -0.028745 -0.000688 -0.000095
1.453472 0.276750 0.711534 -0.062307 -0.010106 -0.011885
2.901884 0.781860 0.591763 -0.000002 -0.611839 0.000613
2.604758 0.719998 0.557864 0.157260 0.000765 -0.002282
1.687448 0.196482 0.765904 0.065783 -0.003929 -0.005070
1.613975 0.694396 0.440523 0.000000 0.972014 -0.000007
2.845501 0.533265 0.538858 -0.000000 -0.652206 0.000016
1.756463 1.067171 0.102090 0.065783 0.005521 0.007113
1.203466 0.640104 0.553093 0.000000 0.421035 0.000008
0.929793 0.660598 0.540147 -0.000001 0.632794 0.000035
1.711058 0.960590 0.749421 0.062357 -0.004144 0.005346
1.634778 0.247678 0.745498 0.062356 0.008289 0.010622
2.891113 0.501670 0.437895 -0.000001 -0.964546 -0.000004
1.437605 0.785583 0.311267 -0.059065 -0.002989 -0.004177
1.506655 0.424599 0.583091 -0.062307 -0.003133 -0.003728
3.031490 0.755532 0.599304 0.000000 0.611844 -0.000219
1.842035 0.690996 0.497387 -0.000001 0.930407 0.000003
1.780074 0.181040 0.140966 0.062357 0.006721 -0.008638
1.340302 0.636858 0.371978 0.000000 0.400091 -0.000008
1.978872 0.688730 0.503023 0.000001 0.913252 0.000006
1.034477 0.599716 0.363981 -0.000002 0.008438 -0.000110
3.099476 0.492288 0.530856 0.000000 0.611842 0.000802
3.139722 0.722686 0.380544 -0.000000 -0.611843 -0.000401
3.139722 0.472723 0.380544 0.000000 0.611844 -0.000802
1.388152 0.357544 0.649038 -0.062307 -0.005862 -0.006953
0.519285 0.696530 0.473312 -0.000001 0.977308 0.000001
2.958906 0.702789 0.530599 0.000000 -0.611844 0.000394
2.434992 0.654709 0.381924 0.000001 0.573424 -0.000040
1.234871 0.498376 0.462958 0.000000 -0.999687 -0.000000
2.389380 0.511993 0.513468 0.000001 -0.859456 0.000017
0.884181 0.519945 0.525080 -0.000000 -0.789575 0.000011
1.112242 0.544072 0.546877 -0.000001 -0.531563 0.000022
1.709242 1.067773 0.832472 0.062356 -0.002912 0.003761
1.413660 0.769492 0.589564 -0.062306 0.003841 -0.004567
2.516496 0.696991 0.465279 0.000000 0.999687 0.000000
1.625027 1.001544 0.143283 -0.059064 -0.003471 -0.004848
3.012995 0.498480 0.467754 0.000000 -0.999691 0.000000
0.306179 0.602192 0.364042 0.000000 0.024838 -0.000019
3.141915 0.805965 0.638316 -0.000001 0.611843 -0.000535
1.391659 0.675413 0.525163 0.000001 -0.790964 -0.000136
2.694967 0.754555 0.341939 0.157261 0.000765 0.002282
0.247855 0.598324 0.562596 -0.000002 0.012247 0.001210
3.137230 0.505865 0.442305 0.280745 -0.000653 -0.000188
2.346011 0.696999 0.461565 0.000000 0.999696 -0.000000
1.596062 0.134839 0.107499 -0.062307 -0.003032 0.003608
1.596062 0.134839 0.819035 -0.062306 -0.003032 -0.003608
1.978872 0.685541 0.416888 -0.000000 0.884075 -0.000007
1.249078 0.542488 0.545835 0.000000 -0.553029 0.000043
2.769232 0.696952 0.466826 0.000000 0.999687 0.000000
1.780074 0.061714 0.877870 0.062355 0.008065 0.010340
3.010685 0.375765 0.648896 0.000000 -0.611843 -0.000219
2.252544 0.663979 0.389280 -0.000001 0.670836 -0.000031
3.027207 0.704926 0.394282 -0.000000 -0.611843 -0.000876
2.298156 0.503873 0.430680 -0.000001 -0.943172 -0.000005
1.499741 0.458420 0.371269 -0.062306 -0.003841 0.004567
2.721978 0.477661 0.542171 0.000000 0.611844 0.001402
2.161320 0.674854 0.525831 0.000001 0.773824 0.000023
1.603965 0.230730 0.188636 -0.062307 -0.004043 0.004806
3.208896 0.304988 0.689691 -0.360146 -0.001324 -0.001632
1.112242 0.633272 0.556011 -0.000001 0.290097 0.000006
1.311170 0.678329 0.405140 0.000001 -0.790974 0.000136
2.936725 0.548981 0.376709 -0.000000 -0.489136 -0.000025
1.627513 0.670446 0.531585 0.062356 -0.002912 0.003761
2.389380 0.580455 0.365440 0.000000 -0.185962 -0.000037
2.571829 0.543681 0.546627 -0.000000 -0.552824 0.000021
3.020272 0.469113 0.377751 0.000000 0.611844 -0.000438
0.124671 0.597704 0.550318 -0.297798 0.000000 0.000028
0.519285 0.528484 0.534512 0.000001 -0.686016 0.000007
0.564897 0.499877 0.480517 0.000000 -0.986899 0.000002
2.811105 0.594146 0.364019 0.000000 -0.024838 -0.000019
0.473673 0.644870 0.375847 0.000000 0.466400 -0.000013
1.249078 0.516139 0.406580 0.000001 -0.819014 -0.000020
2.816786 0.460564 0.555395 0.000000 0.611844 0.001052
2.252544 0.578021 0.560634 0.000000 -0.210160 0.000016
1.466536 0.260591 0.202501 -0.062306 -0.004649 0.005524
1.560314 0.740543 0.555441 0.065783 0.002761 -0.003566
1.381428 0.598633 0.562581 0.000000 0.024646 0.000038
0.656121 0.693529 0.489424 0.000000 0.965890 0.000008
2.617441 0.527934 0.392566 0.000000 -0.706729 -0.000014
3.018283 0.405001 0.598375 0.000000 0.611844 0.000219
3.102638 0.322558 0.264387 0.000000 0.611842 -0.000357
3.102638 0.872851 0.264387 -0.000000 -0.611844 -0.000713
2.663053 0.625277 0.558694 -0.000000 0.282820 0.000096
0.701733 0.501440 0.438755 0.000000 -0.972037 -0.000001
1.622065 0.773227 0.611520 0.062355 -0.001624 0.002099
3.102638 0.336064 0.679606 0.000001 -0.611844 -0.000357
2.663053 0.500565 0.484010 -0.000000 -0.977609 0.000006
1.747382 1.156321 0.033886 0.065780 0.007220 0.009279
1.477139 0.695302 0.444801 -0.000000 0.981719 -0.000001
1.522751 0.499155 0.475734 0.000000 -0.990661 0.000000
2.845501 0.543616 0.379950 -0.000000 -0.552932 -0.000043
1.385914 0.514559 0.517613 0.000000 -0.833233 0.000009
1.583925 0.831927 0.298438 -0.062305 0.005458 0.006477
1.157854 0.500179 0.482114 -0.000001 -0.982410 0.000005
3.194849 0.896999 0.238731 -0.360144 -0.000600 -0.000813
3.194849 0.298410 0.238731 -0.360144 0.000600 -0.000813
0.113243 0.674269 0.495542 -0.334812 0.000088 0.000034
1.750811 0.625945 0.368037 -0.000000 0.282776 -0.000024
0.975406 0.633562 0.370633 0.000000 0.353865 -0.000019
3.200943 0.785698 0.317849 -0.360145 -0.001247 -0.001692
3.149249 0.759899 0.602682 -0.000001 0.611843 -0.001189
3.200943 0.409711 0.317849 -0.360146 -0.001324 0.001632
3.142679 0.365870 0.628644 -0.000001 0.611844 0.001070
1.750811 0.514053 0.516834 -0.000002 -0.799764 0.000005
0.043292 0.587994 0.420723 -0.608443 -0.000006 -0.000022
1.842035 0.514094 0.516900 0.000002 -0.753991 0.000002
0.120841 0.547625 0.393611 -0.305184 -0.000067 -0.000088
0.747345 0.562571 0.556175 0.000000 -0.353583 0.000037
0.159890 0.545802 0.543627 -0.153200 -0.000140 0.000205
0.920821 0.595306 0.363990 0.000000 -0.025031 -0.000018
1.021018 0.500251 0.482494 -0.000001 -0.982410 0.000005
2.161320 0.659518 0.385508 -0.000001 0.603410 -0.000009
1.933259 0.637000 0.554494 -0.000001 0.330174 0.000005
3.059355 0.599562 0.363954 0.000001 0.012213 -0.000607
0.428060 0.540985 0.544810 -0.000001 -0.573548 0.000081
1.659587 0.556849 0.372721 -0.000000 -0.422613 -0.000121
1.585561 0.597937 0.562598 0.000000 0.024646 0.000019
3.119174 0.691050 0.497242 0.274621 0.000152 0.000058
1.648400 0.780672 0.332711 0.065781 0.001540 0.001990
1.249078 0.685541 0.509646 -0.000000 0.883695 0.000007
0.884181 0.630438 0.557047 0.000001 0.330003 0.000040
1.477139 0.683258 0.513734 -0.000000 0.852532 0.000002
1.586536 0.275631 0.722012 -0.059066 0.008484 0.011750
3.191398 0.646833 0.524872 0.273534 0.000093 0.000113
1.534249 0.811188 0.640597 -0.059065 -0.005399 0.007523
1.750811 0.569093 0.368147 0.000000 -0.282779 -0.000048
1.887647 0.677050 0.403505 0.000000 0.804450 -0.000003
0.113243 0.652683 0.400968 -0.334809 0.000064 -0.000069
2.480605 0.550675 0.375774 -0.000000 -0.466400 -0.000013
1.606627 0.386193 0.640577 0.062357 0.002968 0.003833
3.073562 0.625834 0.558530 -0.000000 0.282817 0.000192
2.754277 0.683884 0.413869 0.000001 0.854184 -0.000002
0.245612 0.668761 0.532682 0.000000 0.707107 0.000002
2.965239 0.454153 0.366180 0.000000 0.611843 -0.000197
2.024484 0.512941 0.515065 0.000000 -0.860066 0.000001
1.780074 0.419693 0.600964 0.062358 0.006496 0.008353
1.300672 0.597550 0.363934 -0.000000 -0.024829 -0.000075
1.163836 0.696948 0.466981 -0.000000 0.999687 0.000000
2.070096 0.504797 0.428134 0.000000 -0.935217 -0.000001
2.935234 0.491166 0.559630 -0.000002 -0.611840 -0.000701
1.842035 0.553079 0.374526 -0.000000 -0.445115 -0.000014
1.539760 0.913157 0.212657 -0.059066 -0.004628 -0.006456
1.796423 0.505016 0.427555 0.000000 -0.935297 -0.000003
1.548046 0.345839 0.280703 -0.062306 -0.005458 0.006477
1.708190 0.696933 0.458935 0.000000 0.999687 -0.000000
1.702885 0.472336 0.553810 0.065783 -0.007326 -0.009413
1.423999 0.416574 0.329969 -0.062305 -0.003841 0.004567
2.031213 0.601263 0.562515 0.000000 0.025031 0.000282
0.564897 0.688119 0.504404 -0.000000 0.902655 0.000002
0.747345 0.683495 0.413200 -0.000000 0.854496 -0.000002
0.439276 0.498468 0.459244 0.000000 -0.999691 -0.000000
3.142334 0.466663 0.578584 0.000000 -0.611842 -0.000401
2.785682 0.594146 0.562515 0.000000 -0.025031 0.000018
1.492983 0.910103 0.701131 -0.062307 0.010106 -0.011885
0.428060 0.645550 0.550317 0.000000 0.489136 0.000050
1.565763 0.490389 0.363328 0.062354 0.002912 -0.003761
0.336836 0.509995 0.416649 -0.000001 -0.882451 -0.000007
0.144089 0.510831 0.494886 -0.214657 -0.000160 0.000063
0.838569 0.683258 0.412800 0.000000 0.859828 -0.000004
2.936725 0.638418 0.372659 0.000000 0.399570 -0.000016
1.699965 0.597550 0.562600 0.000000 -0.024646 0.000038
0.473673 0.687792 0.505105 0.000001 0.906175 0.000013
1.539475 0.782690 0.336145 -0.062308 0.001516 0.001806
3.155286 0.607677 0.551773 0.273160 0.000033 0.000583
1.385914 0.696016 0.449075 -0.000001 0.985889 -0.000001
1.066630 0.683922 0.413936 0.000000 0.872252 -0.000008
1.568363 0.553426 0.374354 -0.000000 -0.443555 -0.000007
2.794164 0.783394 0.599926 0.157260 -0.003991 0.002599
1.276744 0.697033 0.462958 0.000000 0.999687 -0.000000
2.845501 0.684528 0.415016 0.000000 0.872212 -0.000016
2.431254 0.595383 0.562546 0.000000 -0.025031 0.000009
1.749198 0.999277 0.771321 0.065782 0.003504 -0.004524
1.795675 0.697037 0.463112 0.000000 0.999687 -0.000000
0.564897 0.643297 0.375015 0.000000 0.467428 -0.000003
3.173342 0.553051 0.534333 0.273536 -0.000079 0.000122
3.017620 0.811779 0.311628 -0.000000 -0.611843 -0.000219
3.017620 0.397136 0.294169 0.000000 -0.611844 0.000219
0.382448 0.577719 0.365965 -0.000000 -0.209984 -0.000033
1.725588 1.022248 0.139412 0.065780 0.003504 0.004524
0.382448 0.690174 0.426975 0.000000 0.926660 -0.000001
2.434992 0.658143 0.542095 -0.000000 0.613753 0.000009
1.518792 0.999453 0.774030 -0.059066 -0.003857 0.005385
1.482550 0.429868 0.322323 -0.059065 0.005978 -0.008322
1.727404 0.785654 0.604261 0.065783 0.003079 -0.003976
2.901884 0.413549 0.591763 -0.000001 0.611843 0.000613
2.070096 0.547570 0.377516 0.000000 -0.510695 -0.000012
1.112242 0.690777 0.497966 0.000001 0.815493 0.000001
2.610711 0.600799 0.364008 0.000000 0.025031 -0.000037
0.792957 0.648936 0.548366 0.000000 0.510695 0.000012
0.792957 0.538378 0.383600 0.000000 -0.592804 -0.000010
2.024484 0.607595 0.364424 0.000000 0.111529 -0.000016
0.792957 0.613426 0.365190 0.000000 0.161339 -0.000173
2.298156 0.608287 0.562032 -0.000001 0.111230 0.000063
2.497802 0.498432 0.460714 0.000000 -0.999687 -0.000000
3.137230 0.686619 0.432154 0.273160 0.000634 -0.000183
0.701733 0.536533 0.541525 0.000001 -0.611188 0.000018
2.891113 0.618485 0.560398 -0.000000 0.210386 0.000262
1.677459 0.704211 0.537100 0.065782 0.007326 -0.009413
0.838569 0.505070 0.499124 0.000001 -0.874503 0.000001
1.659587 0.633996 0.370797 0.000000 0.377162 -0.000009
2.389380 0.500728 0.441768 0.000000 -0.976097 -0.000002
0.245612 0.530138 0.536086 0.000000 -0.689194 0.000002
3.073562 0.676889 0.523247 0.000000 0.804048 0.000001
0.884181 0.539157 0.383026 0.000001 -0.593448 -0.000038
3.026065 0.332341 0.271955 -0.000000 0.611843 -0.001070
3.026065 0.863068 0.271955 0.000001 -0.611842 -0.000535
2.115708 0.590281 0.562326 0.000000 -0.087219 0.000161
2.070096 0.681314 0.516900 -0.000001 0.844090 0.000009
2.847545 0.400727 0.601681 -0.000000 0.611844 0.001052
2.343768 0.669270 0.394383 -0.000001 0.724478 -0.000054
0.975406 0.498870 0.453299 0.000000 -0.993491 -0.000000
0.608266 0.596544 0.562589 0.000000 -0.012316 0.000009
0.473673 0.548981 0.376709 0.000000 -0.489163 -0.000050
1.933259 0.549791 0.376255 -0.000000 -0.489217 -0.000025
1.308149 0.599871 0.562550 0.000000 0.025031 0.000282
1.551233 0.527879 0.535354 0.062355 0.005825 0.007498
1.651124 0.486229 0.538749 0.065782 -0.008282 -0.010623
2.958967 0.741256 0.366180 0.000000 -0.611843 -0.000394
1.350362 0.726805 0.367643 -0.062305 0.002830 0.003368
1.729220 -0.000000 0.005165 0.065782 -0.007220 0.009278
2.480605 0.568424 0.558190 0.000000 -0.306508 0.000022
3.173342 0.569984 0.384046 0.270274 -0.000055 -0.000137
1.203466 0.631680 0.369921 0.000000 0.353737 -0.000009
0.656121 0.685378 0.416580 -0.000001 0.883926 -0.000015
3.073562 0.540763 0.544655 0.000001 -0.573558 0.000081
2.982337 0.540827 0.544699 0.000001 -0.573051 0.000020
0.656121 0.498602 0.469995 0.000000 -0.998021 0.000002
3.027950 0.652695 0.545985 0.000000 0.552965 0.000043
0.037050 0.627222 0.488036 -0.632964 0.000015 0.000012
1.568363 0.634570 0.371031 0.000000 0.376961 -0.000035
1.453059 0.343877 0.271315 -0.062306 -0.002931 0.003488
2.674574 0.709200 0.390976 0.000000 -0.611844 -0.001052
2.721978 0.491166 0.366904 0.000000 -0.611843 0.001402
2.891113 0.686601 0.507581 -0.000000 0.895489 0.000028
1.066630 0.641151 0.373940 -0.000001 0.444389 -0.000028
2.206932 0.499727 0.446934 -0.000000 -0.986306 -0.000002
1.390256 0.451420 0.356469 -0.062307 -0.008490 0.010021
1.340302 0.683495 0.513335 -0.000000 0.859720 0.000008
1.203466 0.567172 0.557787 0.000000 -0.306664 0.000044
2.754277 0.552386 0.551664 0.000000 -0.466826 0.000007
2.206932 0.507813 0.505526 0.000002 -0.632060 0.000001
2.526217 0.661703 0.387297 -0.000000 0.651889 -0.000008
2.845501 0.639472 0.373146 0.000000 0.422626 -0.000030
2.434992 0.695309 0.444839 -0.000002 0.981000 -0.000005
1.203466 0.534511 0.386632 0.000000 -0.628809 -0.000004
3.197761 0.743808 0.350252 -0.360144 -0.001247 -0.001692
3.197761 0.451600 0.350252 -0.360145 -0.001324 0.001632
3.197761 0.451600 0.576283 -0.360145 -0.001324 -0.001632
3.205715 0.346877 0.657289 -0.360142 -0.001324 -0.001632
1.021018 0.645076 0.550579 0.000000 0.467428 0.000013
0.701733 0.560911 0.371001 -0.000000 -0.376946 -0.000035
3.139722 0.722686 0.545990 0.000000 -0.611844 0.000802
2.923414 0.734844 0.555395 0.000000 -0.611844 0.000701
2.713656 0.743393 0.562008 -0.000002 -0.611842 0.001052
2.298156 0.660179 0.540491 -0.000001 0.620592 0.000009
1.534026 0.753578 0.599405 -0.059068 -0.002893 0.004042
1.112242 0.520236 0.401092 0.000000 -0.773831 -0.000012
1.568363 0.686205 0.508378 0.000000 0.894744 0.000004
1.470409 0.594146 0.562515 0.000000 -0.025031 0.000282
2.161320 0.507437 0.421815 -0.000000 -0.905356 -0.000003
2.571829 0.511914 0.413200 -0.000000 -0.858486 -0.000004
2.669026 0.469113 0.377751 -0.000000 0.611843 -0.000701
1.628659 1.010916 0.790214 -0.059067 -0.003471 0.004848
1.657481 0.362188 0.291306 0.065781 -0.002601 0.003361
1.431526 0.687236 0.420237 -0.000000 0.906054 -0.000003
0.200000 0.645213 0.550507 -0.028747 0.000340 0.000606
0.884181 0.686549 0.507684 -0.000000 0.895417 0.000007
0.336836 0.533295 0.538884 0.000001 -0.652243 0.000066
2.434992 0.511071 0.414679 0.000000 -0.872335 -0.000002
1.551678 0.336752 0.653163 -0.062306 -0.005256 -0.006239
2.298156 0.695201 0.482266 0.000000 0.982053 0.000003
0.929793 0.695732 0.479295 -0.000000 0.986854 0.000005
3.052256 0.796468 0.630969 -0.000002 0.611838 -0.000595
0.975406 0.696331 0.451454 0.000001 0.993255 -0.000003
1.021018 0.561054 0.555591 -0.000001 -0.376467 0.000035
1.753739 0.401877 0.309709 0.062357 0.001624 -0.002099
0.382448 0.695006 0.483253 0.000001 0.972779 0.000002
1.721955 0.018174 0.906706 0.065781 -0.007220 -0.009278
1.489401 0.467763 0.548265 -0.062306 -0.003841 -0.004567
3.173342 0.634121 0.387648 0.270273 0.000070 -0.000130
2.936774 0.796136 0.630713 0.000001 0.611843 -0.000701
1.780074 0.340142 0.662499 0.062356 0.005601 0.007211
0.699490 0.600644 0.562530 0.000000 0.025031 0.000037
2.861354 0.481935 0.538865 0.000000 0.611843 0.000613
1.431526 0.641775 0.374250 0.000001 0.444679 -0.000028
3.034142 0.511854 0.410813 0.000000 -0.790981 -0.000214
1.767360 0.716566 0.372384 0.065780 0.002973 0.003840
1.767360 0.478843 0.372384 0.065782 -0.002973 0.003840
0.175861 0.695104 0.473013 -0.091146 0.000432 0.000032
1.203466 0.684111 0.414274 -0.000000 0.871984 -0.000008
0.747345 0.515629 0.519225 0.000000 -0.819160 0.000002
2.833553 0.434920 0.351302 0.000000 0.611844 -0.000526
2.799889 0.686773 0.507234 0.000000 0.894744 0.000004
2.115708 0.638911 0.372885 -0.000000 0.421429 -0.000008
1.621075 1.057052 0.112491 -0.062308 0.006064 0.007190
1.571048 1.064088 0.824027 -0.059063 -0.003086 0.004311
3.032816 0.469113 0.548783 0.000000 0.611843 0.000438
1.340302 0.565227 0.369397 0.000000 -0.330282 -0.000020
0.929793 0.659640 0.385603 0.000000 0.633227 -0.000009
1.157854 0.608595 0.364537 0.000000 0.112031 -0.000063
2.298156 0.644597 0.375702 0.000000 0.467180 -0.000013
2.070096 0.692628 0.433987 0.000000 0.959224 -0.000001
2.115708 0.499121 0.451069 0.000000 -0.993704 -0.000001
2.206932 0.657684 0.542452 -0.000000 0.613834 0.000009
1.431202 0.481173 0.541752 -0.062306 -0.005660 -0.006715
1.732853 0.135099 0.109365 0.065782 -0.006158 0.007927
0.838569 0.551360 0.551121 -0.000000 -0.467057 0.000027
0.929793 0.596467 0.562573 0.000000 -0.025031 0.000074
2.206932 0.679425 0.406802 0.000000 0.819160 -0.000002
0.291224 0.692978 0.435175 0.000000 0.959172 -0.000008
1.654756 0.288209 0.234309 0.065782 -0.004353 0.005616
2.663053 0.565775 0.557329 0.000000 -0.330230 0.000040
1.499613 0.399004 0.627512 -0.059065 0.001446 0.002023
2.839031 0.401581 0.304583 0.157260 -0.001513 0.004516
2.749297 0.435955 0.331173 0.157260 -0.001513 0.004516
2.708665 0.636609 0.371870 0.000000 0.399857 -0.000065
3.073562 0.677234 0.403754 0.000002 0.802550 -0.000021
1.716507 0.098948 0.072444 0.062357 0.002800 -0.003617
3.063367 0.879765 0.688425 0.157259 0.001513 -0.004516
2.571829 0.638981 0.553617 -0.000000 0.422579 0.000061
2.161320 0.692260 0.432845 -0.000000 0.951826 -0.000002
2.799889 0.507388 0.504614 0.000001 -0.892089 0.000002
0.884181 0.506756 0.423333 0.000002 -0.908627 -0.000006
1.709242 1.077716 0.086370 0.062357 -0.002912 -0.003761
3.191398 0.636963 0.459956 1.000000 0.000000 -0.000000
0.838569 0.521962 0.399004 0.000001 -0.743249 -0.000003
1.472147 0.510926 0.413096 -0.062306 -0.003234 0.003848
1.706518 0.367103 0.647453 0.062356 0.001512 0.001954
3.018500 0.332831 0.675130 0.157262 -0.001513 -0.004516
1.882413 0.697029 0.463731 0.000000 0.999696 0.000000
0.473673 0.691715 0.431191 -0.000001 0.940378 -0.000002
1.978872 0.510938 0.414915 -0.000000 -0.870354 -0.000004
0.610509 0.676746 0.523430 -0.000000 0.788311 0.000005
2.891113 0.526647 0.393852 0.000001 -0.684053 -0.000004
0.245612 0.648471 0.377891 0.000000 0.510750 -0.000095
1.157854 0.527167 0.533202 0.000000 -0.707107 0.000028
2.343768 0.513230 0.411011 -0.000001 -0.836470 -0.000004
1.477139 0.552940 0.374595 -0.000000 -0.445071 -0.000057
0.336836 0.680123 0.407825 0.000001 0.833158 -0.000037
2.480605 0.635788 0.371527 -0.000000 0.376615 -0.000009
2.343768 0.559728 0.371483 0.000000 -0.376919 -0.000139
2.977722 0.492620 0.530599 0.000000 0.611842 0.000789
0.564897 0.691459 0.430461 0.000000 0.943861 -0.000002
2.962149 0.498472 0.459089 -0.000000 -0.999691 -0.000000
1.780074 1.193358 0.924021 0.062357 -0.006273 0.008068
1.780074 0.795604 0.310187 0.062357 -0.006049 -0.007783
1.780074 0.895042 0.693266 0.062356 -0.010304 0.013143
1.780074 0.875155 0.248652 0.062356 -0.010304 -0.013143
1.780074 0.081602 0.064048 0.062356 0.008064 -0.010340
1.780074 0.240704 0.739417 0.062355 0.007617 0.009774
0.291224 0.531573 0.389150 -0.000001 -0.670376 -0.000016
2.928766 0.367206 0.648541 0.157261 -0.001513 -0.004516
2.971122 0.601882 0.562499 0.000000 0.025031 0.000018
3.168564 0.259433 0.201605 0.157261 -0.001513 0.004516
3.168564 0.935976 0.201605 0.157261 0.001513 0.004516
3.168564 0.935976 0.724930 0.157261 0.001513 -0.004516
2.559654 0.702720 0.544499 0.157258 0.000765 -0.002282
3.100907 0.285350 0.704882 0.157260 -0.000765 -0.002282
0.975406 0.678038 0.404844 -0.000000 0.803476 -0.000005
1.729220 0.694221 0.541942 0.062355 -0.006273 0.008069
1.112242 0.671874 0.397193 0.000001 0.649913 -0.000002
2.708665 0.564496 0.369653 0.000000 -0.330223 -0.000020
2.774991 0.734161 0.343761 0.000000 0.611843 0.000438
2.891113 0.519209 0.524133 0.000001 -0.789397 0.000044
1.294690 0.660359 0.540343 0.000000 0.633227 0.000035
1.549605 0.201490 0.159660 -0.062307 -0.003841 0.004567
2.936725 0.687135 0.420028 -0.000000 0.895275 -0.000004
0.747345 0.643981 0.375377 0.000000 0.467253 -0.000027
1.796423 0.536105 0.385341 0.000000 -0.613659 -0.000036
0.975406 0.507289 0.504404 -0.000001 -0.905643 0.000007
2.754277 0.511071 0.414679 0.000000 -0.872289 -0.000004
1.477139 0.647772 0.549058 0.000000 0.510523 0.000006
1.842035 0.514094 0.409635 -0.000001 -0.844260 -0.000004
1.664745 0.851395 0.649892 0.065783 0.002601 -0.003360
1.725588 0.157553 0.808040 0.062357 0.003360 0.004338
1.711058 0.234818 0.177114 0.062356 0.004145 -0.005346
1.386129 0.799758 0.309319 -0.062306 0.001567 0.001866
1.413660 0.425917 0.589564 -0.062305 -0.003841 -0.004567
3.156895 0.321324 0.263433 -0.000000 0.611844 -0.000713
3.156895 0.874085 0.263433 0.000000 -0.611843 -0.000713
0.975406 0.531487 0.389228 0.000000 -0.670978 -0.000062
1.605719 0.886449 0.254447 -0.062307 0.009702 0.011421
1.479061 0.718302 0.385270 -0.062307 0.007681 0.009082
1.933259 0.679203 0.520050 -0.000001 0.818508 0.000010
0.144089 0.590796 0.371077 -0.214610 -0.000011 -0.000256
0.792957 0.507224 0.422271 0.000001 -0.898963 -0.000003
1.665653 0.944405 0.721913 0.065782 0.003929 -0.005070
1.537881 0.820561 0.278975 -0.059065 -0.005399 -0.007523
0.610509 0.523198 0.397567 -0.000000 -0.757751 -0.000003
1.741934 0.264025 0.208336 0.065781 -0.004460 0.005752
1.661733 0.072830 0.054107 -0.059066 0.009255 -0.012794
1.714691 1.153924 0.898683 0.062358 -0.008064 0.010340
1.596638 0.443041 0.329142 0.062356 0.007729 -0.009916
0.291224 0.502759 0.434061 -0.000000 -0.958686 -0.000001
2.845501 0.676746 0.523430 0.000000 0.788107 0.000005
1.705199 0.650583 0.379184 0.000000 0.530034 -0.000006
1.512166 0.867213 0.262969 -0.062305 0.005458 0.006477
2.252544 0.511601 0.413734 0.000001 -0.861092 -0.000004
1.796423 0.684793 0.415489 0.000000 0.871938 -0.000008
2.480605 0.526539 0.532571 0.000000 -0.724580 0.000003
2.708665 0.643741 0.551284 0.000003 0.465444 0.000054
1.522751 0.665041 0.536294 0.000000 0.670994 0.000016
2.799889 0.529045 0.391488 0.000001 -0.686231 -0.000007
0.337584 0.498476 0.467600 0.000000 -0.999687 0.000000
0.336836 0.657497 0.542589 -0.000002 0.411960 0.000003
1.385914 0.509135 0.418295 0.000000 -0.895417 -0.000004
1.648400 0.410166 0.618734 0.062356 0.003248 0.004194
0.247855 0.498397 0.460945 0.000000 -0.999924 -0.000000
2.389380 0.639121 0.372983 0.000000 0.421429 -0.000008
1.663837 0.172699 0.125332 0.062356 0.007393 -0.009491
0.701733 0.687433 0.505877 0.000001 0.901657 0.000007
0.128520 0.649221 0.534922 -0.275271 0.000075 0.000099
1.933259 0.549589 0.550166 -0.000000 -0.489136 0.000025
1.887647 0.524600 0.530517 -0.000001 -0.739001 0.000013
1.603903 0.475091 0.543429 0.065785 -0.001380 -0.001784
0.701733 0.647506 0.549216 -0.000001 0.504238 0.000012
1.439994 0.831235 0.278465 -0.059067 -0.002796 -0.003908
1.330065 0.731861 0.569049 -0.059061 -0.002700 0.003774
2.920275 0.593449 0.364037 -0.000005 -0.002433 -0.000190
2.252544 0.693869 0.438381 -0.000000 0.965923 -0.000004
1.021018 0.553980 0.374078 -0.000000 -0.445065 -0.000057
0.382448 0.555586 0.553224 -0.000000 -0.422573 0.000030
0.473673 0.555516 0.553191 -0.000000 -0.422541 0.000030
0.656121 0.524262 0.530144 -0.000001 -0.741276 0.000026
2.936683 0.443468 0.568620 0.000001 0.611840 0.000351
2.617441 0.695675 0.479638 0.000000 0.986719 0.000002
1.440408 0.902500 0.227499 -0.059066 -0.005014 -0.006990
1.675561 1.193358 0.924021 -0.059066 -0.006171 0.008587
1.518792 0.195956 0.774030 -0.062305 -0.007681 -0.009082
1.322831 0.438338 0.586542 -0.062307 -0.005660 -0.006715
1.401216 0.854024 0.661537 -0.059065 -0.005592 0.007790
1.414280 0.870183 0.252498 -0.059065 -0.005399 -0.007523
1.401216 0.341385 0.264997 -0.062306 -0.005862 0.006953
0.656121 0.507224 0.422271 0.000000 -0.906375 -0.000003
2.571829 0.695757 0.447392 -0.000000 0.986551 -0.000002
1.659885 1.073937 0.837528 -0.059064 -0.005400 0.007523
1.021018 0.680765 0.517742 0.000000 0.833233 0.000005
1.565475 0.321200 0.238624 -0.059065 0.004628 -0.006456
1.649433 0.034369 0.027512 -0.062306 -0.007277 0.008611
2.799889 0.691165 0.429621 0.000001 0.924561 -0.000001
2.252544 0.554604 0.373768 0.000000 -0.445056 -0.000028
0.175861 0.516827 0.408126 -0.091153 -0.000364 -0.000235
2.890727 0.777586 0.338077 0.000000 -0.611843 -0.000613
2.933786 0.511854 0.410813 0.000000 -0.790981 -0.000214
3.119174 0.501440 0.487779 0.273539 -0.000159 0.000038
1.692896 0.090871 0.848051 0.065783 -0.005309 -0.006841
1.591190 0.360147 0.264591 0.062356 0.005489 -0.007068
0.505078 0.498457 0.466826 0.000000 -0.999687 0.000000
2.070096 0.629342 0.557431 -0.000000 0.330286 0.000081
2.389380 0.695071 0.482950 0.000001 0.982323 0.000005
2.389380 0.556849 0.553813 0.000000 -0.422717 0.000008
2.024484 0.548036 0.549295 0.000000 -0.510583 0.000012
1.705199 0.543616 0.379950 0.000001 -0.552511 -0.000021
1.385914 0.546772 0.377990 -0.000000 -0.510722 -0.000012
1.842035 0.551702 0.551302 -0.000000 -0.467222 0.000053
1.750811 0.554604 0.552766 0.000000 -0.445056 0.000007
1.021018 0.521962 0.527530 -0.000001 -0.733666 0.000003
0.884181 0.498641 0.470613 0.000000 -0.997002 0.000000
0.519285 0.629634 0.369205 0.000000 0.330276 -0.000081
1.978872 0.650092 0.547659 -0.000000 0.528143 0.000006
1.451530 0.748569 0.568915 -0.062304 0.003841 -0.004567
1.642043 0.977319 0.181129 -0.062306 0.003841 0.004567
2.891113 0.692473 0.433508 -0.000001 0.951509 -0.000009
0.473673 0.657684 0.542452 -0.000000 0.613834 0.000009
0.428060 0.680765 0.517742 -0.000001 0.832491 0.000019
1.642456 0.157668 0.810390 -0.059067 0.003085 0.004311
0.191940 0.597704 0.364162 -0.036558 0.000003 -0.000272
1.643859 0.325414 0.662538 0.065782 -0.002389 -0.003087
0.245612 0.553530 0.374302 0.000000 -0.445068 -0.000114
1.539760 0.913157 0.713877 -0.059066 -0.009255 0.012794
1.978872 0.624757 0.367687 0.000000 0.282823 -0.000024
2.161320 0.554884 0.552897 0.000000 -0.422717 0.000015
0.610509 0.548576 0.549598 0.000000 -0.489822 0.000006
0.473673 0.514259 0.409372 0.000000 -0.846676 -0.000004
1.705199 0.507420 0.504684 0.000000 -0.906318 0.000013
3.001486 0.745530 0.563661 0.000001 -0.611840 0.000394
0.382448 0.630218 0.557124 -0.000000 0.330137 0.000040
0.929793 0.550196 0.550507 0.000000 -0.489072 0.000013
0.838569 0.626465 0.368191 -0.000000 0.282364 -0.000012
1.522751 0.646596 0.376804 0.000000 0.489218 -0.000025
0.336836 0.644905 0.375865 -0.000000 0.467057 -0.000027
2.070096 0.668214 0.393305 0.000000 0.707107 -0.000002
2.845501 0.639893 0.553191 0.000000 0.422541 0.000030
2.708665 0.676746 0.403104 0.000000 0.789190 -0.000005
3.038425 0.734161 0.343761 0.000000 0.611843 0.000438
2.911594 0.443468 0.357914 0.000000 0.611843 -0.000701
2.663053 0.695006 0.443281 0.000000 0.977650 -0.000001
1.568363 0.507911 0.420798 -0.000000 -0.906170 -0.000013
2.343768 0.642607 0.551871 -0.000000 0.445056 0.000014
0.884181 0.676224 0.402432 0.000000 0.789508 -0.000005
