2.116994 0.815933 0.509444 -0.000000 0.999735 0.000000
2.462706 0.580111 0.493902 -0.000000 -0.991360 -0.000001
2.941399 0.415253 0.713302 0.057880 -0.005501 -0.009208
1.286099 0.771787 0.599976 -0.000000 0.622192 0.000038
1.467115 0.581250 0.486327 0.000000 -0.985460 -0.000001
1.778701 0.697968 0.389429 0.000000 0.022657 -0.000022
1.879411 0.493906 0.660967 -0.026608 0.015665 0.019332
2.898926 0.815867 0.512305 0.000000 0.999735 0.000000
2.734231 0.711073 0.390187 -0.000000 0.124859 -0.000121
0.627318 0.815885 0.511548 0.000000 0.999743 0.000000
1.969999 1.027142 0.751757 -0.026613 -0.004406 0.006225
3.025098 0.372825 0.271336 0.057881 -0.004126 0.006919
3.025098 1.022438 0.744184 0.057883 0.004126 -0.006919
1.816041 0.998315 0.288895 -0.026609 -0.015664 -0.019332
2.145488 0.034244 0.990635 -0.051201 -0.006601 -0.008317
2.162990 0.699567 0.626055 0.000000 0.022657 0.000022
1.131790 0.815956 0.507087 0.000000 0.999735 -0.000000
2.170746 1.101048 0.784349 -0.051205 0.001980 -0.002514
2.791770 0.558135 0.416436 0.057881 0.007312 -0.008242
3.068072 0.815852 0.502542 -0.000069 0.741966 -0.000003
0.588740 0.579310 0.509276 0.000000 -0.999936 0.000000
1.123629 0.579295 0.507845 0.000000 -0.999743 0.000000
3.072524 0.579322 0.505151 0.000000 -0.999936 -0.000000
2.138390 1.253170 0.915082 -0.026609 -0.020554 0.023299
3.181923 0.856273 0.392287 -0.108896 -0.001842 -0.002510
1.687126 0.856388 0.392203 -0.026610 -0.010445 -0.013922
1.977311 0.975796 0.299387 -0.026608 -0.004921 -0.006929
2.417452 0.815651 0.516382 0.000001 0.988603 0.000001
1.453762 0.698389 0.389438 -0.000003 0.008200 -0.000122
2.159812 0.018475 0.013407 -0.051199 -0.006601 0.008317
1.421861 0.810139 0.544440 0.000001 0.947208 0.000002
3.066589 0.702850 0.389540 0.000000 0.022834 -0.000022
2.998425 0.874954 0.623212 -0.000001 -0.588501 0.000611
0.383984 0.698642 0.389433 0.000000 0.011508 -0.000087
2.899550 0.958797 0.317660 0.057881 0.005501 0.009207
3.176747 0.976479 0.304789 -0.108897 -0.005074 -0.006908
2.310212 1.332634 0.969973 0.051237 -0.008244 0.011183
3.046023 1.033045 0.263616 0.057882 0.004126 0.006919
2.753077 0.884550 0.643816 0.057883 0.002829 -0.004750
1.991635 0.403698 0.287908 -0.026607 0.004628 -0.006528
1.968145 0.268460 0.817842 -0.051198 -0.002146 -0.002723
3.176747 0.418784 0.710731 -0.108896 -0.005021 -0.006946
1.693386 0.581921 0.482985 -0.000001 -0.976449 -0.000007
2.326943 0.597946 0.443988 0.000000 -0.848446 -0.000005
2.159812 1.376789 0.013407 -0.026607 -0.011751 -0.015393
1.621424 0.696454 0.626073 0.000000 -0.022657 0.000336
3.131907 0.655597 0.609241 0.231620 -0.000355 0.000750
2.193991 0.220661 0.174790 0.098389 -0.001878 0.002580
2.237574 0.482425 0.669017 0.051236 0.003246 0.004451
1.981974 0.579327 0.509275 0.000000 -0.999743 0.000000
2.990843 0.557814 0.392368 0.000001 -0.588500 0.001310
2.217235 0.933550 0.668113 0.098390 0.003381 -0.004643
2.372198 0.703690 0.625939 0.000000 0.056946 0.000134
0.107252 0.639806 0.433281 -0.412239 -0.000048 -0.000059
1.964911 0.814527 0.489357 0.000000 0.989097 -0.000001
0.290508 0.802070 0.452128 0.000000 0.882561 -0.000016
1.783894 0.646582 0.614514 0.000001 -0.428715 0.000032
0.697795 0.610833 0.588191 0.000000 -0.737206 0.000007
0.290508 0.591386 0.455647 0.000000 -0.892936 -0.000002
0.878812 0.600952 0.439517 0.000000 -0.823458 -0.000005
1.286099 0.649563 0.399631 -0.000000 -0.408821 -0.000068
2.598468 0.743265 0.398582 0.000000 0.387788 -0.000036
2.003279 0.223783 0.164804 -0.051202 -0.001815 0.002305
2.783198 0.610302 0.557708 0.000002 -0.808494 0.000403
1.997446 0.384796 0.741002 -0.026608 0.004628 0.006528
0.100042 0.699698 0.598491 -0.432887 0.000002 0.000034
2.244837 0.982193 0.308625 0.098389 0.003220 0.004422
2.014022 1.183308 0.156195 -0.051202 0.003631 0.004601
0.713375 0.700830 0.389494 0.000000 0.022834 -0.000044
0.932968 0.697800 0.626098 0.000000 0.011331 0.000022
0.743049 0.798208 0.570105 0.000004 0.394930 0.000003
2.240479 0.294448 0.805660 0.051236 0.004947 0.006765
1.331353 0.650912 0.616482 -0.000000 -0.387909 0.000036
2.883571 0.848358 0.384428 0.057879 0.005658 0.009467
1.880929 0.533915 0.382446 -0.026608 0.007835 -0.010762
2.159029 1.208055 0.146176 -0.051201 0.012870 0.015858
2.643722 0.746084 0.615717 -0.000001 0.408791 0.000068
2.769840 0.815887 0.504057 0.000000 0.999743 -0.000000
0.471525 0.777534 0.595041 0.000001 0.674084 0.000033
2.156123 0.203849 0.872528 -0.026608 0.011457 0.015069
2.236435 0.806811 0.462127 0.000000 0.921689 -0.000003
0.426271 0.623444 0.599950 0.000001 -0.622088 0.000038
0.833558 0.590806 0.558658 -0.000000 -0.903071 0.000007
0.129493 0.768300 0.432094 -0.325442 0.000077 -0.000079
2.008285 0.872348 0.370629 -0.026609 -0.021483 -0.023943
1.829148 0.815848 0.513147 -0.000000 0.999743 0.000000
1.557624 0.599472 0.573855 0.000000 -0.823566 0.000003
2.100673 0.638609 0.405193 0.000000 -0.490160 -0.000014
2.055419 0.764247 0.605562 -0.000000 0.567409 0.000011
2.064506 0.570779 0.613289 -0.026612 0.006202 0.008648
1.059828 0.771424 0.415256 0.000001 0.620770 -0.000010
2.130069 0.438855 0.307967 0.051237 0.012159 -0.016254
1.715774 0.887927 0.646275 -0.026607 -0.015665 0.019333
1.014574 0.598362 0.443354 -0.000000 -0.835675 -0.000005
3.175884 0.996514 0.725314 -0.108894 -0.003383 0.004608
3.175884 0.398750 0.290206 -0.108896 -0.003347 0.004634
2.898474 0.504046 0.638455 0.057882 0.003656 0.004145
2.310212 1.112909 0.810037 0.051239 -0.004534 0.006205
3.066947 0.351612 0.759626 0.057881 -0.005501 -0.009207
2.188179 0.376378 0.726676 0.098389 -0.002952 -0.004054
0.924066 0.798387 0.445702 0.000000 0.848431 -0.000019
1.773069 0.444258 0.692190 -0.051195 -0.001467 -0.001863
3.167551 0.769294 0.579423 0.228499 0.000141 0.000130
1.830364 0.381179 0.277416 -0.051202 -0.002640 0.003350
0.836525 0.702345 0.389529 0.000000 0.022834 -0.000334
1.919656 0.646126 0.401224 -0.000000 -0.429384 -0.000032
3.183648 0.579060 0.421453 -0.108896 -0.003347 0.004634
0.335762 0.801951 0.563616 -0.000000 0.882406 0.000008
2.507960 0.620435 0.597446 -0.000001 -0.657062 0.000035
2.110663 1.006944 0.742218 -0.026608 -0.017328 0.020796
2.869993 0.662196 0.620662 -0.000000 -0.302434 0.000048
2.862052 0.837450 0.623152 0.057880 0.002829 -0.004750
2.130069 0.516567 0.397994 0.098390 -0.002013 0.002764
0.290508 0.599567 0.573994 -0.000000 -0.823364 0.000005
2.234668 0.091942 0.939399 0.098389 -0.005796 -0.007949
2.153313 0.844751 0.624804 0.051237 -0.008682 0.011761
2.348458 0.699988 0.389475 0.000000 0.022834 -0.000022
1.195590 0.613661 0.591136 0.000000 -0.707107 0.000015
1.693386 0.815615 0.498678 0.000000 0.996823 -0.000001
2.228857 0.384987 0.290137 0.098390 -0.002952 0.004054
1.245296 0.815871 0.503384 0.000000 0.999743 -0.000000
2.984238 0.772001 0.440008 0.000000 0.808497 -0.000403
1.874402 0.755994 0.404822 -0.000000 0.489813 -0.000014
1.874402 0.746584 0.615494 -0.000000 0.408763 0.000068
1.557624 0.760333 0.407407 0.000000 0.527944 -0.000006
2.145927 0.764247 0.409958 -0.000000 0.567063 -0.000011
2.994715 0.455261 0.341555 0.057883 0.003656 -0.004145
1.912614 0.582394 0.600245 -0.026608 0.003918 0.005550
2.200853 0.099194 0.079623 -0.051200 -0.004621 0.005847
2.200853 1.296070 0.079623 -0.051200 0.004621 0.005847
1.916307 1.108703 0.806976 -0.026610 -0.004040 0.005719
0.516779 0.616311 0.421797 -0.000000 -0.690449 -0.000008
2.110663 1.006944 0.273303 -0.026607 -0.008667 -0.011800
2.527990 0.815921 0.505572 0.000000 0.999735 -0.000000
3.005755 0.616983 0.594360 -0.000000 -0.669619 0.000004
2.507960 0.632557 0.408929 0.000000 -0.548448 -0.000046
3.181923 0.538991 0.623234 -0.108898 -0.001823 -0.002524
1.782906 0.572365 0.412482 -0.026608 0.005223 -0.007339
0.516779 0.782722 0.425527 -0.000001 0.722656 -0.000029
0.652541 0.753933 0.611842 0.000001 0.468129 0.000014
2.571019 0.579362 0.510790 0.000000 -0.999743 0.000000
2.198349 0.581300 0.599536 0.051236 0.008682 0.011761
2.694170 0.579373 0.504226 0.000000 -0.999743 -0.000000
1.421861 0.604761 0.581092 -0.000000 -0.781463 0.000006
2.223046 0.584612 0.419963 0.051236 0.008682 -0.011761
0.200000 0.732145 0.620955 -0.082266 0.000079 0.000250
2.252101 1.163731 0.175597 0.098391 0.002093 0.002875
1.376607 0.604682 0.434528 0.000000 -0.778381 -0.000003
1.467115 0.799687 0.447867 0.000000 0.860292 -0.000005
1.925455 0.929126 0.681856 -0.026609 -0.021483 0.023943
1.195590 0.605259 0.433803 0.000000 -0.782822 -0.000012
2.824739 0.763446 0.409414 -0.000001 0.456304 -0.000003
1.765726 0.915134 0.348623 -0.026609 -0.010445 -0.013923
3.185373 0.603634 0.532098 0.227128 -0.000187 0.000046
2.701158 0.807062 0.421297 0.057881 0.004126 0.006919
2.199802 1.192991 0.854827 -0.051201 0.012870 -0.015858
3.055724 0.935623 0.694612 0.057881 0.005657 -0.009466
2.268336 0.695780 0.626057 0.000000 -0.022657 0.000022
1.819837 0.902572 0.651013 -0.051196 0.003668 -0.004647
1.512369 0.784118 0.588533 -0.000000 0.738585 0.000014
0.072408 0.770125 0.524555 -0.548554 0.000043 0.000009
1.059828 0.773576 0.598507 0.000000 0.639767 0.000005
2.898015 0.577578 0.433993 0.000000 0.588499 -0.000699
1.059828 0.621300 0.598184 -0.000000 -0.639749 0.000009
0.652541 0.621785 0.416933 0.000000 -0.639878 -0.000037
1.693386 0.753859 0.403639 0.000001 0.470025 -0.000057
2.310212 0.893184 0.650101 0.051237 -0.007008 0.009539
0.072408 0.626966 0.531077 -0.548554 -0.000040 0.000012
3.131907 0.775302 0.430090 0.231618 0.000615 -0.000557
0.652541 0.777161 0.420139 0.000001 0.673899 -0.000033
2.207066 0.862292 0.381360 0.051237 -0.008682 -0.011761
2.004458 0.317680 0.227417 -0.026607 0.004040 -0.005720
1.804392 0.543004 0.612417 -0.051200 -0.001467 -0.001863
2.020546 0.859744 0.604206 -0.051201 0.012073 -0.014929
1.890171 0.446234 0.332527 -0.051201 -0.012073 0.014929
0.878812 0.777503 0.595070 -0.000000 0.673331 0.000008
2.205613 0.310482 0.219319 0.051238 0.004947 -0.006765
2.196896 1.056429 0.239404 0.051238 -0.005359 -0.007323
1.687126 0.538876 0.392203 -0.051204 -0.005867 0.007405
3.082879 0.815634 0.607273 -0.108896 0.001823 -0.002524
1.059828 0.672116 0.392213 -0.000000 -0.214605 -0.000069
1.644155 0.809078 0.588881 -0.026610 -0.010445 0.013922
2.372198 0.788136 0.431525 0.000000 0.768279 -0.000003
3.048216 0.428141 0.693706 0.057880 0.003656 0.004146
2.824739 0.650255 0.399322 -0.000001 -0.404366 -0.000009
1.983762 0.466552 0.683460 -0.026609 0.021483 0.023943
2.062633 0.224388 0.846368 -0.051202 -0.003631 -0.004601
2.310212 1.312659 0.060087 0.051236 -0.008244 -0.011183
2.310212 0.082605 0.060087 0.051236 0.008244 -0.011183
2.310212 0.242405 0.176404 0.051237 0.004122 -0.005645
2.669378 0.842122 0.612934 0.057881 0.004126 -0.006919
1.240845 0.751512 0.402405 -0.000000 0.449881 -0.000030
0.191996 0.591942 0.456013 -0.082270 -0.000237 -0.000113
1.783894 0.787262 0.430500 0.000000 0.753694 -0.000013
1.376607 0.738130 0.618947 0.000000 0.345273 0.000021
2.206664 1.314458 0.949993 -0.051200 0.004456 -0.005639
2.031905 1.060909 0.238171 -0.026611 -0.016152 -0.019775
0.516779 0.598524 0.572413 -0.000000 -0.836167 0.000005
2.915247 0.756801 0.610245 0.000000 0.509802 0.000013
1.226007 0.699652 0.626054 0.000000 0.022657 0.000336
0.516779 0.815595 0.517095 0.000001 0.996522 0.000002
1.557624 0.592877 0.452722 0.000000 -0.882598 -0.000016
1.890171 0.949030 0.332527 -0.051201 0.012073 0.014929
1.859012 1.045624 0.761062 -0.026606 -0.004628 0.006529
2.257949 0.579335 0.509612 0.000000 -0.999743 0.000000
0.481911 0.700493 0.389477 0.000068 0.009196 -0.002063
3.082879 0.579630 0.408248 0.000000 -0.588499 0.000932
2.075230 1.080473 0.792420 -0.026609 -0.007639 0.010513
2.010165 0.613721 0.424325 0.000000 -0.706453 -0.000008
0.855814 0.815908 0.510538 -0.000003 0.614361 0.000000
2.095202 0.861999 0.414412 -0.051201 0.003484 0.004416
2.417452 0.600522 0.575380 0.000000 -0.823498 0.000021
1.195590 0.791308 0.580065 0.000000 0.796888 0.000012
1.964911 0.784998 0.587569 -0.000002 0.731202 0.000014
1.693386 0.636145 0.406649 0.000000 -0.529362 -0.000006
2.321750 0.815917 0.505404 0.000000 0.999735 -0.000000
2.045222 1.250631 0.910284 -0.026609 -0.021140 0.023710
2.116841 1.329480 0.967678 -0.026608 -0.007933 0.010885
2.417452 0.616676 0.421448 -0.000001 -0.688952 -0.000016
1.693386 0.629388 0.604440 0.000000 -0.585917 0.000011
2.734231 0.658640 0.619485 0.000001 -0.323801 0.000045
2.643722 0.662798 0.394668 -0.000000 -0.302514 -0.000096
3.081939 0.850410 0.410173 -0.108897 -0.003684 -0.005017
2.055419 0.662517 0.620764 -0.000001 -0.302319 0.000048
2.690303 0.542534 0.620655 0.057879 -0.005501 -0.009208
1.336546 0.815875 0.511968 0.000000 0.999743 0.000000
2.794926 0.489500 0.356263 0.057881 -0.002829 0.004750
2.310212 0.442155 0.321801 0.051238 0.003092 -0.004240
2.984238 0.784962 0.557708 -0.000000 0.808498 0.000201
0.607287 0.618445 0.595694 -0.000000 -0.673866 0.000017
1.150336 0.781960 0.424742 0.000000 0.707107 -0.000002
1.893621 1.038761 0.262120 -0.051203 0.002475 0.003141
1.361770 0.698726 0.389446 0.000005 0.002393 -0.000209
0.562033 0.782722 0.589994 0.000000 0.723200 0.000007
3.089034 0.418623 0.316589 -0.108897 0.003383 -0.004608
2.992106 0.501221 0.637107 0.000001 0.588491 0.000408
1.041281 0.815921 0.505572 0.000000 0.999735 -0.000000
3.149729 0.666979 0.406713 0.231615 -0.000194 -0.000773
2.116277 1.160051 0.849330 -0.026611 -0.003158 0.004490
2.840533 0.568722 0.615213 -0.000001 -0.588499 -0.001397
2.152714 0.126324 0.926561 -0.026608 0.018208 0.021522
2.711228 0.531928 0.387145 0.057881 -0.002829 0.004750
2.417452 0.775368 0.596976 -0.000001 0.656901 0.000035
2.092309 0.230339 0.163565 -0.026606 0.003159 -0.004491
2.012595 0.961498 0.707294 -0.026610 -0.004921 0.006929
1.021993 0.697463 0.626098 -0.000000 -0.011320 0.000177
2.734231 0.625595 0.413880 0.000000 -0.604069 -0.000005
3.089034 0.976641 0.316589 -0.108896 -0.003383 -0.004608
0.474492 0.692919 0.625992 0.000000 -0.022657 0.000336
2.709299 0.779292 0.565497 0.000001 0.808496 0.000284
1.985262 0.523404 0.616044 -0.051201 -0.012073 -0.014929
0.059407 0.716584 0.445601 -0.599535 0.000011 -0.000032
2.191181 0.805830 0.555675 0.000001 0.910622 0.000007
1.874402 0.658918 0.619581 0.000000 -0.324288 0.000011
0.200000 0.808207 0.465603 -0.082270 0.000246 -0.000091
2.263723 1.395264 1.009876 0.000001 0.808485 0.000236
2.310212 0.522055 0.379959 0.051238 0.004122 -0.005645
3.185373 0.794231 0.497937 0.232045 0.000188 -0.000017
0.245254 0.658122 0.619308 -0.000001 -0.323254 0.000022
2.104852 0.407221 0.728828 -0.026609 0.004334 0.006124
1.939217 0.830696 0.401962 -0.026608 -0.021483 -0.023943
3.108071 0.569767 0.590618 -0.108896 0.003383 0.004608
0.677023 0.579352 0.510369 0.000000 -0.999743 0.000000
3.005755 0.643114 0.402728 0.000000 -0.470115 -0.000114
0.713375 0.694434 0.626027 0.000000 -0.022657 0.000044
2.132974 0.523037 0.646094 0.051236 0.008682 0.011761
2.055419 0.787318 0.430564 -0.000001 0.747462 -0.000007
1.877910 0.419764 0.704630 -0.051200 -0.012073 -0.014929
1.105082 0.608997 0.429358 0.000001 -0.752560 -0.000013
2.044973 0.444675 0.341401 -0.051201 -0.005528 0.006983
2.585679 0.799695 0.582052 0.057879 0.005501 -0.009208
2.833458 0.784962 0.557708 -0.000000 0.808497 0.000403
3.096263 0.732145 0.620955 0.231775 0.000058 0.000199
2.281689 0.759762 0.407050 0.000000 0.529265 -0.000049
2.234668 1.048640 0.754019 0.098389 0.005474 -0.007509
2.969535 0.968688 0.708465 0.057881 0.002829 -0.004750
2.462706 0.798872 0.446491 0.000000 0.860291 -0.000009
1.807792 0.829356 0.594167 -0.051195 0.002934 -0.003721
2.990757 0.979445 0.299225 0.057880 0.005501 0.009208
2.877252 0.524524 0.371542 0.057883 -0.002829 0.004750
0.245254 0.791053 0.580400 0.000001 0.688677 0.000002
2.824739 0.580556 0.490564 0.000000 -0.988563 -0.000002
2.990843 0.850410 0.410173 -0.000001 -0.588500 -0.001310
1.376607 0.579511 0.514827 -0.000000 -0.998372 0.000001
2.076730 0.385039 0.272114 -0.026609 0.008667 -0.011800
3.106139 1.041174 0.754417 0.057880 -0.007110 0.008017
3.106139 0.357330 0.256652 0.057881 -0.005501 0.009207
0.381016 0.620118 0.418351 0.000000 -0.657177 -0.000017
0.381016 0.776415 0.419458 0.000000 0.656599 -0.000002
2.218930 0.001352 1.011734 -0.000001 -0.808492 0.000228
2.989434 0.579404 0.502879 -0.000000 -0.999735 -0.000000
2.579921 0.694265 0.626023 0.000000 -0.022657 0.000044
1.512369 0.641628 0.403520 -0.000000 -0.469849 -0.000014
0.878812 0.637629 0.609751 0.000000 -0.509679 0.000026
1.615489 0.579350 0.510285 0.000000 -0.999743 0.000000
2.310212 0.122555 0.926354 0.051237 0.009893 0.013345
0.351342 0.579396 0.512305 0.000000 -0.999743 0.000000
2.378133 0.579331 0.506077 -0.000000 -0.999743 -0.000000
1.629831 0.793309 0.438118 -0.000001 -0.808137 0.000035
0.788304 0.637666 0.405748 0.000000 -0.509802 -0.000013
1.738640 0.587427 0.550857 0.000001 -0.918406 0.000003
2.243385 1.253501 0.904201 0.098389 0.001664 -0.002285
1.205235 0.579365 0.510958 0.000000 -0.999743 0.000000
2.044973 0.937749 0.323762 -0.026610 -0.009841 -0.013217
2.092309 1.164924 0.163565 -0.026606 -0.012632 -0.016341
1.919656 0.589778 0.459077 0.000001 -0.911953 -0.000007
2.172001 0.167611 0.117169 -0.026609 0.010282 -0.013733
2.770251 0.826221 0.591145 0.057878 -0.003657 0.004146
2.064506 0.552405 0.427475 -0.051202 -0.003484 0.004416
1.829148 0.637593 0.405791 0.000000 -0.509768 -0.000013
1.725286 0.699988 0.626046 -0.000000 0.022657 0.000336
0.381016 0.755334 0.611070 -0.000001 0.489380 0.000027
0.148620 0.697632 0.398137 -0.258493 0.000000 -0.000038
0.697795 0.811500 0.475550 0.000001 0.953143 -0.000002
0.290508 0.743537 0.398696 0.000000 0.387919 -0.000072
0.907745 0.579350 0.510285 0.000000 -0.999743 0.000000
2.310212 0.262380 0.824577 0.051238 0.009068 0.012268
0.290508 0.647799 0.400428 -0.000000 -0.429569 -0.000016
2.170746 0.441531 0.677119 0.098389 -0.001583 -0.002175
0.160303 0.650451 0.609950 -0.205440 -0.000087 0.000179
1.987926 0.207711 0.864370 -0.051200 -0.007261 -0.009133
2.179463 0.991303 0.705532 0.098389 0.002952 -0.004054
2.055419 0.582804 0.536350 0.000001 -0.941655 0.000001
3.129659 0.899620 0.353925 -0.108895 0.001823 0.002524
2.192538 0.923651 0.335776 0.051238 -0.001623 -0.002229
2.102517 0.081554 0.059322 -0.051201 -0.009241 0.011553
2.941215 0.903163 0.667579 0.057883 0.002829 -0.004750
2.832633 0.902532 0.362020 0.057881 -0.003555 -0.004031
2.231762 0.858980 0.630183 0.051237 -0.008682 0.011761
2.310212 0.502080 0.650101 0.051236 0.007008 0.009539
2.223046 0.226097 0.840328 0.098389 -0.002093 -0.002875
1.928229 0.363366 0.269780 -0.051201 -0.002475 0.003141
2.951974 0.918337 0.357325 0.057879 -0.007313 -0.008242
2.234668 1.225918 0.132463 0.098388 0.003328 0.004569
2.039840 0.815967 0.507929 0.000000 0.999735 0.000000
2.781011 0.831675 0.420406 0.057883 -0.007312 -0.008241
2.182369 1.126527 0.187458 0.051238 -0.004535 -0.006206
1.998497 1.121250 0.204031 -0.051196 0.002146 0.002723
3.124407 1.021608 0.265130 -0.108897 0.003347 0.004634
2.037716 0.315452 0.790740 -0.026609 0.004040 0.005719
2.462706 0.676531 0.624200 0.000000 -0.169907 0.000088
2.553214 0.792428 0.436931 -0.000001 0.754113 -0.000002
1.996023 0.900530 0.664176 -0.026608 -0.021484 0.023943
1.047216 0.579343 0.509948 0.000000 -0.999743 0.000000
0.241545 0.579412 0.512978 0.000000 -0.999743 0.000000
1.952620 0.330517 0.770006 -0.051203 -0.002310 -0.002932
2.003113 0.607803 0.585438 -0.026606 0.012404 0.016099
2.535409 0.700662 0.389490 0.000000 0.022657 -0.000088
2.915247 0.763516 0.409460 0.000000 0.548393 -0.000012
1.903838 0.999049 0.721475 -0.051201 0.002641 -0.003350
2.857700 0.457680 0.682420 0.057880 -0.005501 -0.009208
0.516779 0.580957 0.488028 -0.000000 -0.985457 -0.000005
3.058542 0.512129 0.386354 -0.000001 0.588500 -0.000408
3.080061 0.894043 0.637107 -0.108897 -0.003683 0.005017
2.627529 0.820909 0.418028 0.057881 0.005501 0.009207
2.145927 0.768629 0.602429 -0.000000 0.604218 0.000010
2.252101 1.358487 0.033835 -0.051201 0.006601 0.008317
2.252101 0.036777 0.033835 0.098389 -0.004079 0.005599
2.147502 0.367769 0.287553 0.098389 -0.002737 0.003759
2.832633 0.899292 0.657952 0.057881 0.002751 -0.004619
1.557624 0.658719 0.619512 0.000000 -0.324288 0.000044
3.179335 0.478888 0.666983 -0.108897 -0.003347 -0.004634
3.174159 0.358681 0.754480 -0.108897 -0.001674 -0.002318
1.557624 0.734071 0.620344 0.000000 0.302495 0.000096
1.629831 0.601955 0.438118 -0.051201 -0.005868 0.007406
0.200000 0.761405 0.408075 -0.082270 0.000144 -0.000219
2.326943 0.759797 0.608448 -0.000000 0.529098 0.000024
2.310212 0.933134 0.336340 0.051237 -0.006596 -0.008987
2.310212 1.013034 0.278182 0.051238 -0.011541 -0.015468
2.310212 0.382230 0.278182 0.051238 0.011541 -0.015469
2.310212 0.953109 0.693720 0.051238 -0.003092 0.004240
2.310212 0.322305 0.780958 0.051238 0.009893 0.013345
2.310212 0.062630 0.969973 0.051238 0.008244 0.011183
2.310212 0.442155 0.693720 0.051237 0.006183 0.008434
2.962324 0.404646 0.294498 0.057882 -0.002829 0.004750
3.004173 0.383432 0.736464 0.057877 -0.002829 -0.004751
2.281689 0.640810 0.403955 0.000000 -0.490009 -0.000014
3.127857 0.947951 0.683156 -0.108897 -0.001842 0.002510
3.185373 0.697632 0.580583 1.000000 0.000000 0.000000
2.236435 0.759655 0.608537 0.000000 0.528568 0.000012
2.507960 0.796094 0.573399 -0.000001 0.813096 0.000003
1.761783 0.858642 0.395300 -0.051204 0.002200 0.002793
2.246290 1.139693 0.833589 0.051238 -0.009068 0.012268
2.100673 0.710235 0.390101 -0.000000 0.102070 -0.000037
3.059628 0.772001 0.440008 0.000000 0.808497 -0.000403
2.310212 1.272709 0.926354 0.051236 -0.009893 0.013345
1.829148 0.602333 0.577914 0.000000 -0.807900 0.000003
2.145927 0.631606 0.605968 0.000000 -0.567299 0.000044
1.960739 0.480436 0.342505 -0.026608 0.021483 -0.023943
1.878686 0.800822 0.567080 0.000001 -0.808496 -0.000351
2.089391 0.843610 0.587013 -0.051201 0.003484 -0.004416
0.788304 0.627071 0.602760 0.000001 -0.601871 0.000020
2.217235 0.155325 0.908402 0.051236 0.006390 0.008711
1.914694 0.896090 0.375799 -0.051200 0.012073 0.014929
2.567468 0.617592 0.447798 -0.000001 -0.808466 -0.000047
2.088193 0.097323 0.944720 -0.051201 -0.009241 -0.011553
2.116841 1.329480 0.047843 -0.026609 -0.007932 -0.010885
1.730098 0.491567 0.657754 -0.051198 -0.004401 -0.005570
1.758745 0.935236 0.680711 -0.026607 -0.010446 0.013923
2.146049 0.929738 0.687126 0.051237 -0.001623 0.002229
2.960501 0.666599 0.621951 -0.000000 -0.258816 0.000227
2.944664 0.579630 0.607273 0.000000 -0.588499 -0.000932
2.948128 0.501221 0.378414 0.000001 0.588498 -0.001164
1.629831 0.601955 0.577403 -0.051201 -0.005868 -0.007406
2.326943 0.648411 0.615373 -0.000002 -0.406743 0.000034
1.874402 0.804928 0.457851 -0.000000 0.902963 -0.000007
1.421861 0.760583 0.407563 -0.000000 0.528568 -0.000012
3.185373 0.729037 0.415882 0.226369 0.000065 -0.000182
0.743049 0.583507 0.539037 -0.000000 -0.965874 0.000004
0.878812 0.758250 0.406134 -0.000000 0.509778 -0.000026
3.051009 0.667087 0.622082 0.000000 -0.258813 0.000228
2.709299 0.615972 0.565497 0.000001 -0.808496 0.000284
2.244837 0.418848 0.714833 0.051238 0.006183 0.008434
1.286099 0.596005 0.447142 -0.000001 -0.854839 -0.000005
1.991335 1.110027 0.810337 -0.026609 -0.007639 0.010513
1.331353 0.596855 0.569783 0.000000 -0.848387 0.000010
0.129493 0.595062 0.493662 -0.325445 -0.000112 -0.000013
0.256382 0.815856 0.512810 0.000067 0.494876 0.000003
1.853041 0.576044 0.432286 -0.051201 -0.003667 0.004647
2.869993 0.800591 0.449435 0.000001 0.871155 -0.000009
0.969320 0.639013 0.610555 -0.000001 -0.477513 0.000007
0.426271 0.808145 0.550074 -0.000000 0.930321 0.000002
0.969320 0.756434 0.610451 0.000001 0.489459 0.000027
2.959108 0.616782 0.448910 0.000001 -0.808496 -0.000403
2.042797 1.023135 0.731368 -0.051202 0.004951 -0.006260
2.935637 0.842904 0.627122 0.000000 0.588499 -0.000582
2.145927 0.599124 0.442192 -0.000000 -0.835675 -0.000005
2.240479 0.150957 0.118367 0.098390 -0.001664 0.002285
3.182786 0.836238 0.608651 -0.108898 -0.003383 0.004608
1.811338 0.436860 0.316922 -0.026608 0.003918 -0.005550
2.057851 0.280781 0.199913 -0.026609 0.014979 -0.018693
3.131907 0.596151 0.465725 0.231620 -0.000750 -0.000355
0.833558 0.580767 0.489149 0.000000 -0.989097 -0.000001
2.858588 0.616782 0.566610 0.000002 -0.808494 0.000403
0.924066 0.640810 0.403955 0.000000 -0.489992 -0.000007
2.151914 0.266985 0.208508 -0.051201 -0.003878 0.004913
2.256459 0.534845 0.619678 0.098390 -0.004522 -0.006205
0.137086 0.758846 0.594481 -0.295842 0.000075 0.000101
1.498274 0.815959 0.508265 -0.000000 0.999743 0.000000
0.775692 0.815898 0.510958 0.000000 0.999743 0.000000
2.164935 0.469907 0.359766 0.098389 -0.001691 0.002322
0.788304 0.760940 0.607735 -0.000000 0.528268 0.000012
1.816041 0.396948 0.726626 -0.051203 -0.008801 -0.011019
2.417452 0.679228 0.390865 -0.000000 -0.147463 -0.000102
1.944955 0.255021 0.185587 -0.051202 -0.001980 0.002514
0.743049 0.760833 0.407719 0.000000 0.529007 -0.000012
2.159854 0.249251 0.820454 -0.051200 -0.001815 -0.002305
0.184017 0.639247 0.406636 -0.113245 -0.000196 -0.000323
2.240479 1.106979 0.218327 0.098389 0.004616 0.006334
0.652541 0.663280 0.621002 0.000000 -0.280978 0.000026
2.236435 0.637412 0.609623 -0.000001 -0.508389 0.000013
0.047018 0.655151 0.473199 -0.648201 -0.000019 -0.000014
0.969320 0.762636 0.408883 -0.000000 0.548359 -0.000012
1.973580 1.036862 0.268832 -0.051200 0.004951 0.006260
0.406240 0.693424 0.626004 0.000000 -0.023011 0.000022
2.030898 0.160402 0.116715 -0.051201 -0.002971 0.003767
3.034497 0.610302 0.457813 0.000000 -0.808496 -0.000201
1.760896 0.815963 0.508097 -0.000000 0.999743 0.000000
2.127163 0.572578 0.576402 0.098390 -0.002013 -0.002764
0.044023 0.697632 0.559851 -0.671356 0.000001 0.000011
2.185274 0.998650 0.280724 0.051237 -0.011335 -0.015206
2.074576 1.228991 0.124186 -0.051200 0.002971 0.003768
2.310212 1.132884 0.190944 0.051238 -0.009068 -0.012268
1.821729 0.701335 0.626015 0.000000 0.022657 0.000336
0.363212 0.815867 0.503216 0.000000 0.999743 -0.000000
2.138390 1.253170 0.100438 -0.026609 -0.010282 -0.013733
2.035635 1.005621 0.276663 -0.026609 -0.008813 -0.011980
1.964911 0.769669 0.413880 0.000000 0.604410 -0.000010
0.335762 0.635466 0.608448 -0.000000 -0.529272 0.000098
1.999387 0.831786 0.431942 -0.051201 0.002613 0.003315
0.562033 0.809022 0.467815 0.000000 0.938370 -0.000006
0.129493 0.800202 0.493662 -0.325445 0.000112 -0.000013
1.653325 0.701840 0.389517 0.000000 0.022834 -0.000334
2.191181 0.641553 0.403560 0.000000 -0.470209 -0.000029
0.969320 0.814942 0.492231 -0.000000 0.992069 -0.000004
0.426271 0.585252 0.544841 0.000000 -0.953116 0.000002
1.919656 0.582147 0.533564 -0.000001 -0.973971 0.000002
2.758068 0.772001 0.440008 0.000000 0.808497 -0.000403
2.960501 0.814014 0.486327 0.000000 0.985460 -0.000000
2.567468 0.617592 0.567723 -0.000001 -0.808404 0.000047
2.173652 0.829344 0.428587 0.098389 0.004522 0.006206
0.646606 0.693592 0.389513 0.000000 -0.022834 -0.000334
3.005755 0.729478 0.393788 0.000000 0.258830 -0.000014
1.421861 0.641814 0.403421 -0.000000 -0.470050 -0.000014
1.544270 0.697968 0.389429 0.000000 0.022834 -0.000044
0.290508 0.754305 0.611645 -0.000000 0.468458 0.000007
2.764526 0.549600 0.608702 0.057880 0.007312 0.008242
2.507960 0.584366 0.542031 0.000000 -0.959849 0.000001
2.643722 0.677028 0.624285 0.000000 -0.169907 0.000011
2.093510 1.213138 0.885667 -0.026611 -0.005729 0.008019
3.049191 0.563268 0.619182 0.000000 -0.588501 -0.001310
2.100673 0.720139 0.623932 0.000000 0.191921 0.000039
1.844728 0.699483 0.389463 0.000000 0.022834 -0.000334
0.969320 0.581014 0.487696 0.000000 -0.985457 -0.000005
1.919656 0.710738 0.390153 0.000000 0.102220 -0.000148
1.150336 0.755370 0.611050 0.000002 0.371285 0.000004
0.866200 0.700241 0.626040 0.000000 0.023365 0.000021
1.421861 0.658002 0.619267 0.000000 -0.345550 0.000041
2.704556 0.815890 0.511295 0.000000 0.999743 0.000000
1.939217 0.564568 0.401962 -0.026609 0.021483 -0.023943
2.122961 0.343827 0.748415 -0.051201 -0.002269 -0.002880
2.759454 0.579373 0.504226 0.000000 -0.999743 -0.000000
1.830580 0.914399 0.355899 -0.051201 0.001834 0.002328
1.940575 0.403733 0.713160 -0.051201 -0.005281 -0.006673
3.114085 0.803038 0.551421 0.233869 0.000187 0.000084
1.527949 0.579335 0.509612 0.000000 -0.999743 0.000000
2.093510 0.178402 0.880552 -0.051200 -0.006436 -0.008113
1.783894 0.583420 0.476809 0.000000 -0.965934 -0.000008
3.112616 0.384324 0.727302 -0.108896 0.005074 0.006908
2.164474 0.699147 0.389456 0.000000 0.022834 -0.000022
3.103020 0.462171 0.689365 -0.108898 -0.001823 -0.002524
2.066591 0.506809 0.623800 -0.051203 -0.012072 -0.014928
1.195590 0.807219 0.463097 0.000000 0.921689 -0.000003
2.246290 0.996778 0.717690 0.098390 0.001476 -0.002027
2.934301 0.470020 0.680247 0.057882 -0.002829 -0.004750
3.178472 0.458853 0.333955 -0.108896 -0.001823 0.002524
2.372198 0.803612 0.560400 -0.000001 0.882834 0.000002
1.747459 0.839448 0.613446 -0.026610 -0.007834 0.010761
1.959279 1.156013 0.841412 -0.026608 -0.014099 0.017841
2.207066 0.532972 0.381360 0.051238 0.008682 -0.011760
1.105082 0.801991 0.563541 0.000000 0.879769 0.000002
1.836802 0.485241 0.349885 -0.026607 0.007835 -0.010762
0.516779 0.646506 0.614478 -0.000001 -0.428123 0.000032
1.014574 0.800694 0.449618 0.000001 0.871460 -0.000017
0.652541 0.799687 0.567654 -0.000001 0.811071 0.000001
2.066591 0.523329 0.369025 -0.026610 0.004652 -0.006561
1.376607 0.807281 0.463254 0.000001 0.928574 -0.000006
0.516779 0.739631 0.618394 -0.000000 0.344878 0.000021
2.234668 0.353300 0.763191 0.051238 0.010717 0.014412
1.105082 0.732145 0.394566 0.000000 0.280652 -0.000026
1.901983 0.302330 0.795498 -0.051202 -0.009241 -0.011553
2.246290 0.255571 0.181931 0.051237 0.009069 -0.012268
2.662022 0.612732 0.454475 0.000002 -0.808442 -0.000095
1.289066 0.697295 0.626092 0.000000 -0.023011 0.000022
2.010165 0.724011 0.623118 -0.000000 0.214522 0.000069
2.926756 0.806778 0.573588 0.000000 -0.588500 0.000466
0.607287 0.593868 0.450866 -0.000001 -0.834377 -0.000002
2.643722 0.584201 0.541465 0.000000 -0.959707 0.000009
2.310212 0.813284 0.423578 0.051236 -0.008244 -0.011183
1.421861 0.775558 0.596810 -0.000000 0.655893 0.000009
3.100825 0.984070 0.726471 -0.108895 0.005021 -0.006946
0.898842 0.697379 0.389424 -0.000000 -0.011331 -0.000088
3.185373 0.634966 0.478043 1.000000 0.000000 -0.000000
2.836609 0.815875 0.503552 0.000000 0.999743 -0.000000
3.059628 0.610302 0.557708 0.000000 -0.808495 0.000201
1.716384 0.697295 0.389429 0.000000 -0.022834 -0.000334
1.467115 0.608223 0.430246 0.000000 -0.753782 -0.000003
1.105082 0.594239 0.565316 -0.000000 -0.871396 0.000009
1.240845 0.690775 0.389628 -0.000001 -0.056859 -0.000268
1.648132 0.752075 0.612832 -0.000000 0.470121 0.000114
1.286099 0.808207 0.549918 -0.000000 0.938422 0.000003
2.127319 1.065228 0.758987 -0.051201 0.002269 -0.002880
2.170746 0.306541 0.801283 0.051237 0.004947 0.006765
2.095515 1.055914 0.239594 -0.026607 -0.008080 -0.011070
1.962240 0.844580 0.624003 -0.026609 -0.021483 0.023943
0.114568 0.627835 0.575986 -0.383669 -0.000062 0.000063
3.181060 0.518957 0.377704 -0.108897 -0.003347 0.004634
2.090024 0.866819 0.643684 -0.026609 -0.006203 0.008649
2.191181 0.583463 0.538875 0.000000 -0.965664 0.000004
0.774208 0.695023 0.389481 -0.000000 -0.022657 -0.000088
2.507960 0.591916 0.454595 0.000000 -0.891557 -0.000004
2.688977 0.750459 0.401874 0.000000 0.449424 -0.000015
2.915247 0.632029 0.409275 -0.000000 -0.547345 -0.000012
0.426271 0.655318 0.397247 -0.000001 -0.365568 -0.000019
2.994715 0.464981 0.687320 0.057881 -0.002829 -0.004750
1.800992 0.520101 0.384853 -0.051200 -0.005868 0.007406
0.426271 0.741747 0.397957 0.000000 0.366802 -0.000019
1.833402 0.457773 0.677614 -0.051202 -0.002200 -0.002793
1.854887 0.961145 0.694832 -0.051200 0.002200 -0.002793
1.725973 0.815794 0.419293 -0.026608 -0.015665 -0.019332
1.286099 0.805623 0.459385 -0.000000 0.912418 -0.000007
2.269535 1.278821 0.089692 0.098389 0.005796 0.007949
2.783198 0.610302 0.457813 0.000001 -0.808496 -0.000403
2.260818 0.904172 0.363461 0.098388 0.001825 0.002507
2.855897 0.702008 0.389521 0.000000 0.022657 -0.000044
1.150336 0.640370 0.404203 -0.000000 -0.490160 -0.000014
3.185373 0.636272 0.583012 0.232045 -0.000121 0.000145
2.643722 0.801066 0.565242 -0.000000 0.871512 0.000009
0.245254 0.614852 0.423194 0.000000 -0.706688 -0.000008
3.096263 0.638462 0.405276 0.237204 -0.000103 -0.000174
1.240845 0.590679 0.558392 -0.000000 -0.901609 0.000004
2.818804 0.693761 0.626011 0.000000 -0.023011 0.000022
1.959279 1.156013 0.174108 -0.026609 -0.014099 -0.017841
2.795064 0.701840 0.389517 0.000000 0.022834 -0.000088
1.907786 0.815952 0.508602 -0.000000 0.999743 0.000000
2.891858 0.903728 0.350935 0.057877 0.002829 0.004751
2.191181 0.582984 0.478435 0.000000 -0.971552 -0.000002
2.252101 0.831504 0.406628 0.051237 -0.008682 -0.011761
1.467115 0.585743 0.546275 -0.000001 -0.924267 0.000001
2.318041 0.579369 0.504394 0.000000 -0.999735 -0.000000
1.937717 0.484819 0.649519 -0.051200 -0.012073 -0.014929
2.048609 0.353740 0.745463 -0.051205 -0.002434 -0.003089
1.983762 0.939154 0.346407 -0.051201 0.012072 0.014929
2.057851 1.114483 0.199913 -0.026608 -0.003746 -0.005312
3.059628 0.778482 0.566610 -0.000000 0.808498 0.000201
1.014574 0.726957 0.393112 0.000000 0.236742 -0.000063
0.833558 0.801516 0.564433 0.000000 0.882588 0.000004
2.010165 0.665058 0.393999 0.000000 -0.280717 -0.000052
2.132974 0.872227 0.369427 0.051237 -0.008682 -0.011761
2.186727 0.494583 0.640458 0.098388 -0.000912 -0.001253
1.738640 0.599472 0.441666 0.000000 -0.823566 -0.000003
1.150336 0.645030 0.613760 0.000001 -0.444697 0.000008
0.324634 0.695443 0.389446 -0.000000 -0.011504 -0.000174
2.858588 0.623262 0.440008 0.000000 -0.808499 -0.000201
2.094008 0.974595 0.689818 -0.051201 0.005198 -0.006570
2.055419 0.583332 0.477134 0.000000 -0.965834 -0.000001
2.225448 1.355268 0.989214 -0.026609 -0.006757 0.009378
1.105082 0.803915 0.455723 0.000000 0.893078 -0.000004
1.512369 0.625427 0.601513 -0.000000 -0.604225 0.000040
1.879411 0.908205 0.651560 -0.051199 0.008801 -0.011020
1.915106 1.062416 0.770619 -0.051204 0.004951 -0.006260
1.693386 0.805313 0.556828 0.000001 0.912419 0.000014
1.240845 0.644053 0.613267 0.000001 -0.448877 0.000030
2.507960 0.765494 0.410818 -0.000001 0.541770 -0.000006
3.024531 0.821088 0.611243 -0.000001 0.588500 -0.001310
2.072175 1.136415 0.818620 -0.051201 0.007921 -0.009945
0.562033 0.647115 0.400754 -0.000000 -0.429569 -0.000016
2.289850 0.701166 0.389502 0.000000 0.022834 -0.000334
1.783894 0.745009 0.616199 0.000001 0.408545 0.000034
1.936216 0.424072 0.303937 -0.026608 0.009842 -0.013218
2.869993 0.721914 0.623579 -0.000001 0.214380 0.000069
2.919534 0.828594 0.426053 -0.000000 -0.588499 -0.000932
2.236435 0.815330 0.519987 0.000000 0.994608 0.000002
1.747459 0.555815 0.613446 -0.026608 0.007835 0.010761
3.056663 0.481457 0.336789 0.000000 -0.588499 0.000815
1.557624 0.800777 0.449765 0.000000 0.871708 -0.000002
2.095460 0.979193 0.322179 -0.051201 0.002599 0.003298
2.010165 0.805348 0.556751 0.000000 0.912316 0.000007
2.014048 0.418769 0.696530 -0.051202 -0.005281 -0.006673
0.697795 0.813116 0.533564 0.000000 0.976698 0.000007
2.915247 0.629665 0.604631 0.000000 -0.567081 0.000011
0.913680 0.815929 0.509612 0.000000 0.999743 0.000000
0.562033 0.754453 0.403955 0.000000 0.469707 -0.000004
2.695653 0.701503 0.626011 -0.000010 0.001276 0.000392
2.218930 0.003407 0.000964 -0.000000 -0.808497 -0.000114
2.218930 1.391857 0.000964 -0.026608 -0.022314 -0.024492
2.281157 0.560314 0.411361 0.098387 -0.002147 0.002949
2.372198 0.645594 0.401477 -0.000000 -0.449925 -0.000060
2.193991 0.358273 0.253369 0.051237 0.005256 -0.007183
3.011690 0.815860 0.512642 0.000000 0.999743 0.000000
1.331353 0.582635 0.479866 -0.000000 -0.971500 -0.000002
1.829148 0.776288 0.596174 0.000001 0.652493 0.000009
2.252101 0.041913 0.988741 0.051236 0.008244 0.011183
1.625876 0.815967 0.507929 0.000000 0.999735 0.000000
1.557624 0.803915 0.559798 -0.000000 0.903103 0.000004
1.602878 0.728380 0.393494 0.000001 0.258261 -0.000029
2.417452 0.643489 0.612983 0.000001 -0.449562 0.000030
2.178660 0.069669 0.960586 -0.051200 -0.007921 -0.009945
2.192984 1.341365 0.043456 -0.051206 0.003960 0.005016
2.192984 0.053899 0.043456 -0.051201 -0.007921 0.009945
1.859444 0.557570 0.615856 -0.026605 0.007836 0.010763
2.106825 0.805143 0.454376 0.000000 -0.808497 0.000369
2.002250 1.203322 0.875848 -0.026604 -0.003159 0.004492
0.924066 0.610691 0.588036 -0.000000 -0.737342 0.000007
1.912238 0.701335 0.626015 0.000000 0.023011 0.000331
2.598468 0.808920 0.467539 0.000001 0.935197 -0.000006
3.184511 0.796169 0.436036 -0.108896 -0.005000 -0.006807
2.662022 0.782532 0.454475 0.000000 0.808493 -0.000095
1.014574 0.639930 0.404450 0.000000 -0.490160 -0.000014
2.112636 0.495561 0.348137 0.051238 0.001752 -0.002406
1.966944 1.076921 0.229097 -0.026607 -0.008226 -0.011254
0.652541 0.591462 0.560024 0.000002 -0.653882 0.000001
2.417452 0.762566 0.408837 0.000001 0.548360 -0.000046
0.085970 0.770450 0.467901 -0.495441 0.000047 -0.000024
2.179463 0.415516 0.294113 0.051238 0.006183 -0.008434
2.121460 1.109488 0.814185 -0.026609 -0.003452 0.004902
3.132401 0.552830 0.409170 -0.108896 0.003684 -0.005017
2.153313 1.045883 0.273458 -0.051201 0.009076 0.011353
1.746700 0.533243 0.391656 -0.051201 -0.004401 0.005570
0.035290 0.738552 0.492159 -0.694347 0.000016 -0.000006
0.381016 0.600093 0.574756 0.000000 -0.823458 0.000011
1.846241 0.857893 0.629535 -0.026601 -0.003266 0.004641
2.888012 0.885914 0.634595 0.057881 -0.003656 0.004145
3.002865 0.508727 0.356639 0.000000 -0.588499 0.000815
1.195590 0.814071 0.528862 0.000000 0.985460 0.000003
3.131907 0.805364 0.486331 0.231620 0.000820 -0.000122
3.114085 0.730751 0.398582 0.234635 0.000053 -0.000198
2.372198 0.813062 0.481710 -0.000000 0.976400 -0.000001
2.252101 0.598574 0.572758 0.098388 -0.002147 -0.002949
2.033208 0.265776 0.815709 -0.051202 -0.001980 -0.002514
3.037456 0.951948 0.312431 0.057880 0.002829 0.004750
0.471525 0.595619 0.447794 -0.000000 -0.860293 -0.000018
1.997524 0.564981 0.400358 -0.026615 0.002325 -0.003317
1.949978 0.511289 0.387638 -0.051201 -0.012073 0.014929
2.275346 1.079981 0.781806 0.098389 0.002523 -0.003464
2.472350 0.815898 0.504562 0.000000 0.999743 -0.000000
2.828489 0.517177 0.632302 0.057879 0.003656 0.004146
1.467115 0.747997 0.614839 -0.000000 0.429496 0.000064
1.286099 0.617605 0.594928 0.000001 -0.671619 0.000008
2.701158 0.581722 0.430200 0.057881 0.005333 -0.006033
1.834377 0.810097 0.419752 -0.026608 -0.006529 -0.009079
3.012686 0.926767 0.660927 0.057878 -0.007313 0.008242
2.840533 0.839502 0.418113 0.057880 -0.007312 -0.008242
0.697795 0.648757 0.399993 0.000000 -0.408859 -0.000017
2.824739 0.633437 0.607169 0.000000 -0.548151 0.000023
3.131907 0.589900 0.529190 0.231618 -0.000789 0.000117
1.794011 0.504564 0.650751 -0.026610 0.013055 0.016784
2.598468 0.643827 0.613154 0.000001 -0.429354 0.000008
1.926956 0.536386 0.632843 -0.026609 0.021482 0.023943
2.257912 1.202094 0.868559 0.098388 0.003757 -0.005158
1.376607 0.796348 0.573011 -0.000001 0.833318 0.000005
2.118447 0.570292 0.402902 0.051238 0.003865 -0.005294
2.915247 0.581282 0.486162 0.000000 -0.981282 -0.000001
0.200000 0.614911 0.592386 -0.082274 -0.000185 0.000185
0.085970 0.748542 0.573331 -0.495440 0.000033 0.000045
1.150336 0.589090 0.460614 0.000000 -0.921694 -0.000013
2.934301 0.470020 0.335274 0.057881 -0.005657 0.009466
0.471525 0.801189 0.450499 0.000000 0.871555 -0.000004
2.890793 0.555761 0.597407 -0.000002 0.588489 0.000466
2.808328 0.784962 0.457813 0.000000 0.808499 -0.000201
1.286099 0.721709 0.391896 0.000000 0.214573 -0.000139
2.992106 0.881082 0.360609 0.000000 0.588499 0.000815
2.186727 0.889767 0.655450 0.051236 -0.003504 0.004803
2.257912 0.197792 0.140612 0.051236 0.003710 -0.005084
0.152499 0.705184 0.618164 -0.235808 0.000015 0.000169
0.697795 0.778831 0.593840 0.000001 0.688952 0.000016
1.928457 0.802325 0.450505 -0.000002 -0.808495 0.000422
0.607287 0.725076 0.622867 0.000000 0.236777 0.000250
2.100673 0.790529 0.581059 0.000000 0.782482 0.000012
2.066591 0.871935 0.369025 -0.026606 -0.009304 -0.012576
2.241932 0.437246 0.326577 0.098389 -0.001583 0.002175
1.807757 0.955888 0.321752 -0.051200 0.001834 0.002328
3.185373 0.673357 0.532035 1.000000 0.000000 0.000000
2.959108 0.616782 0.566610 0.000002 -0.808494 0.000403
2.152714 0.122215 0.094604 -0.051201 -0.010560 0.013140
2.598468 0.635609 0.406983 -0.000000 -0.529255 -0.000024
2.269535 0.120038 0.084753 0.051237 0.005771 -0.007879
2.116277 0.235213 0.849330 -0.026610 0.003158 0.004491
3.161505 1.039468 0.754878 -0.108896 -0.003383 0.004608
3.161505 0.357416 0.258417 -0.108896 -0.003347 0.004634
2.228857 1.030252 0.275598 0.098389 0.005474 0.007509
0.245254 0.784118 0.426988 0.000000 0.738561 -0.000111
2.990843 0.544853 0.605347 0.000002 0.588498 0.001310
2.191181 0.814695 0.490481 -0.000000 0.989057 -0.000005
1.980742 0.350517 0.263093 -0.051201 -0.004951 0.006260
2.783198 0.772001 0.575513 -0.000000 0.808497 0.000403
2.690303 0.852729 0.394866 0.057881 0.005501 0.009207
0.191996 0.777954 0.593764 -0.086042 0.000348 0.000356
1.376607 0.625528 0.601590 0.000000 -0.604154 0.000020
3.117931 0.338561 0.770828 0.057881 -0.005501 -0.009207
3.130599 0.510980 0.636813 -0.108895 0.001842 0.002510
0.294959 0.579293 0.507760 0.000000 -0.999936 0.000000
2.553214 0.764073 0.605682 0.000000 0.567275 0.000044
2.050185 0.199122 0.148452 -0.051201 -0.003301 0.004184
0.607287 0.796117 0.442157 0.000001 0.835296 -0.000020
2.935637 0.552360 0.388398 -0.000000 -0.588499 0.000582
1.421861 0.814763 0.490939 -0.000000 0.988944 -0.000005
2.919698 0.702176 0.625996 0.000000 0.022657 0.000022
0.471525 0.579629 0.516591 0.000000 -0.996592 0.000001
0.309797 0.815950 0.509612 0.000000 0.999936 0.000000
0.969320 0.616859 0.421274 0.000000 -0.690827 -0.000064
2.417452 0.586853 0.466156 0.000001 -0.829300 -0.000001
1.331353 0.625058 0.414287 0.000000 -0.622236 -0.000038
1.602878 0.775653 0.596727 -0.000000 0.657225 0.000017
2.372198 0.619864 0.596948 -0.000001 -0.657103 0.000035
3.149729 0.728284 0.608808 0.231617 0.000258 0.000721
1.421861 0.589864 0.458885 0.000001 -0.911555 -0.000007
1.512369 0.782432 0.425222 -0.000000 0.722872 -0.000015
3.132401 0.835953 0.400268 -0.108897 0.003645 0.005045
2.598468 0.690649 0.389635 -0.000000 -0.056737 -0.000134
3.080061 0.881082 0.360609 -0.108897 0.003645 0.005045
2.159854 1.146012 0.820454 -0.051203 0.001815 -0.002305
1.900932 0.985489 0.295097 -0.026608 -0.009842 -0.013218
1.240845 0.625327 0.414084 -0.000001 -0.603826 -0.000020
1.376607 0.685279 0.625446 0.000000 -0.102292 0.000148
0.743049 0.651261 0.616629 0.000000 -0.387930 0.000036
0.833558 0.780352 0.423135 0.000000 0.690813 -0.000004
2.682300 0.698895 0.389436 0.000000 0.011323 -0.000177
2.806970 0.860699 0.382256 0.057883 0.002829 0.004750
2.806970 0.867179 0.624363 0.057881 -0.003656 0.004145
0.516779 0.799644 0.567727 0.000001 0.859946 0.000018
3.019189 0.426990 0.303953 0.057881 -0.005658 0.009467
0.782369 0.579385 0.503721 0.000000 -0.999743 -0.000000
1.240845 0.584832 0.472003 0.000001 -0.952596 -0.000005
1.919656 0.634430 0.607802 0.000000 -0.529203 0.000012
3.179335 0.916376 0.348538 -0.108896 -0.003383 -0.004608
1.240845 0.748985 0.614369 -0.000000 0.429066 0.000016
2.169236 1.351192 0.981350 -0.051200 0.003961 -0.005017
1.240845 0.791919 0.436260 0.000000 0.797185 -0.000001
2.284062 1.197451 0.147143 0.098389 0.001878 0.002580
1.421861 0.712117 0.625202 0.000000 0.124814 0.000061
0.100042 0.691438 0.417218 -0.440408 -0.000006 -0.000070
0.085970 0.620064 0.478187 -0.495436 -0.000050 -0.000018
2.727415 0.845956 0.619130 0.057883 0.002829 -0.004750
3.116445 0.621219 0.572706 0.000001 -0.808456 0.000094
2.062257 0.341578 0.242230 -0.026610 0.004040 -0.005719
2.840533 0.568722 0.400308 0.000001 -0.588500 0.001397
1.602878 0.634895 0.608092 -0.000000 -0.528934 0.000012
2.824739 0.763305 0.606199 -0.000001 0.546490 0.000012
2.968662 0.692751 0.389532 0.000000 -0.022657 -0.000011
0.743049 0.737261 0.619267 -0.000000 0.345492 0.000021
0.562033 0.810623 0.542915 -0.000000 0.953134 0.000005
2.001403 0.267901 0.192750 -0.026609 0.007492 -0.010326
2.187880 1.269796 0.916062 -0.051202 0.005116 -0.006467
2.926609 0.883135 0.386354 0.057881 -0.007312 -0.008242
3.040708 0.985661 0.710605 0.057879 -0.007313 0.008242
3.108797 1.064865 0.240454 0.057879 0.005501 0.009208
2.169096 1.225135 0.882132 -0.051204 0.005941 -0.007497
1.974501 0.564229 0.584611 -0.051201 -0.012073 -0.014929
3.174159 1.036583 0.261041 -0.108895 -0.001691 -0.002305
2.417452 0.729193 0.621809 0.000001 0.258324 0.000057
2.124258 0.457757 0.694164 0.051237 0.003298 0.004522
2.320266 0.699820 0.626050 0.000000 0.022657 0.000044
1.783894 0.806598 0.553898 0.000000 0.921689 0.000001
2.216405 0.699483 0.626057 0.000000 0.022657 0.000011
1.467115 0.799516 0.567944 0.000000 0.860083 0.000009
0.274187 0.702681 0.625984 0.000000 0.022665 0.000022
2.869993 0.579592 0.516130 0.000002 -0.895388 0.000000
1.673355 0.698473 0.626080 -0.000000 0.022657 0.000336
2.137339 1.154199 0.187153 -0.051205 0.001815 0.002305
3.178472 0.936410 0.681565 -0.108897 -0.001842 0.002510
0.924066 0.588567 0.461855 -0.000000 -0.921658 -0.000013
2.170746 1.101048 0.231171 -0.051201 0.001980 0.002514
1.014574 0.791105 0.580334 -0.000000 0.796845 0.000023
3.127857 0.453793 0.323462 -0.108897 -0.003645 0.005045
3.127857 0.941471 0.323462 -0.108896 0.001823 0.002524
0.114568 0.785292 0.550680 -0.383672 0.000080 0.000037
2.462706 0.654926 0.397401 0.000000 -0.365873 -0.000010
3.005755 0.587612 0.551327 0.000000 -0.930256 0.000012
2.176558 0.972121 0.324306 0.098389 0.003167 0.004348
1.014574 0.603904 0.579998 -0.000001 -0.795210 0.000012
2.141691 0.821841 0.577563 0.098388 0.004025 -0.005526
0.833558 0.617543 0.420650 0.000000 -0.674239 -0.000017
3.158456 0.579202 0.597369 -0.108896 -0.003347 -0.004634
2.146055 0.221185 0.155427 -0.026608 0.003159 -0.004491
2.769561 0.527943 0.380840 0.057882 -0.002829 0.004750
0.697795 0.604420 0.434857 -0.000002 -0.591455 -0.000002
3.056663 0.468497 0.660927 0.000000 0.588500 0.000815
3.078182 0.924715 0.328849 -0.108897 0.003645 0.005045
0.471525 0.763657 0.409552 0.000000 0.548393 -0.000006
2.188179 1.018088 0.748762 0.051238 -0.005771 0.007879
1.512369 0.737893 0.396487 0.000000 0.345648 -0.000021
2.191181 0.742450 0.398239 0.000000 0.387312 -0.000009
2.734231 0.761686 0.607261 0.000001 0.547916 0.000023
2.853854 0.481974 0.354190 0.057882 0.003656 -0.004145
2.295684 0.854079 0.619861 0.098387 0.002147 -0.002949
1.195590 0.663038 0.394591 0.000000 -0.302385 -0.000012
2.031905 1.068099 0.767472 -0.051200 0.009241 -0.011553
1.874402 0.589933 0.556789 0.000000 -0.912588 0.000003
2.824739 0.584390 0.542112 0.000000 -0.959782 0.000002
3.051009 0.754490 0.611545 -0.000000 0.490105 0.000217
0.833558 0.739236 0.618539 -0.000000 0.345622 0.000041
2.055419 0.617947 0.595240 -0.000001 -0.671619 0.000008
2.223046 0.810652 0.595558 0.051239 -0.008682 0.011760
2.734231 0.809022 0.467815 0.000000 0.938405 -0.000006
2.275346 0.285320 0.211905 0.098389 -0.002308 0.003170
1.073182 0.695275 0.626046 0.000000 -0.022657 0.000336
2.688977 0.636941 0.609344 0.000000 -0.509802 0.000026
2.643722 0.580581 0.490398 0.000000 -0.988981 -0.000005
0.188003 0.580377 0.507760 -0.105509 -0.000203 0.000005
1.919656 0.767172 0.603503 0.000000 0.585651 0.000021
1.783894 0.581042 0.527991 -0.000000 -0.985453 0.000003
1.970143 0.578020 0.441482 -0.051201 -0.005226 0.006605
2.193991 1.174602 0.174790 -0.051199 0.003301 0.004185
0.335762 0.603904 0.435522 -0.000001 -0.794920 -0.000006
2.281689 0.587273 0.465055 0.000000 -0.930321 -0.000002
2.722083 0.577595 0.601944 0.057884 -0.002829 -0.004750
2.055419 0.746622 0.400044 0.000000 0.408863 -0.000017
2.052451 0.692919 0.389529 -0.000000 -0.022657 -0.000336
3.132401 0.842433 0.606351 -0.108896 -0.003684 0.005017
2.819014 0.815634 0.607273 0.057882 0.002829 -0.004750
0.200000 0.681518 0.624997 -0.082270 -0.000039 0.000259
0.833558 0.808207 0.465603 0.000000 0.930321 -0.000002
1.964911 0.687836 0.389834 0.000000 -0.079307 -0.000048
0.562033 0.587921 0.552111 0.000001 -0.782255 0.000001
