3.540187 0.517586 0.513826 -0.013503 -0.041502 0.012934
1.854094 0.236413 1.050629 -0.093542 0.006012 0.006637
0.111789 0.733850 0.641317 -0.384811 0.000049 0.000001
1.443157 0.651026 0.529431 0.000000 0.088510 -0.000108
3.226818 0.684270 0.537341 -0.000001 0.381567 -0.000023
0.077212 0.692896 0.694890 -0.512287 0.000039 0.000043
1.827814 0.540064 0.509855 0.078202 0.006753 -0.006740
3.463402 0.797245 0.798125 0.007771 0.116783 -0.008058
3.463402 0.797245 0.484510 0.007770 0.029590 0.007707
3.637224 0.359194 0.922662 -0.013502 0.047587 0.012994
0.308101 0.749872 0.610350 0.000000 0.957437 -0.000001
1.814042 0.984704 0.988758 -0.093544 -0.003356 0.003709
3.118717 0.690606 0.540150 -0.000000 0.421296 -0.000005
3.443019 0.603485 0.535868 -0.000000 -0.335365 -0.000027
2.052710 0.082348 1.204723 0.078203 0.011093 0.011004
1.172906 0.530053 0.632616 0.000000 -0.996075 -0.000001
2.524163 0.748076 0.677961 -0.000000 0.942083 0.000003
1.875560 0.539261 0.686602 0.000001 -0.912893 0.000009
3.010617 0.753132 0.656908 -0.000000 0.990316 0.000003
3.610605 0.467970 0.469458 -0.013502 0.029782 -0.012285
1.983660 0.745930 0.683657 0.000001 0.923760 0.000016
2.037711 0.690285 0.539998 -0.000001 0.426865 -0.000020
1.767459 0.685912 0.744614 -0.000001 0.382101 0.000046
2.039480 1.278180 0.000000 0.000000 0.707763 -0.000385
2.047985 0.949609 0.338702 0.065273 0.014733 0.014400
3.728323 0.582139 0.586582 0.409812 -0.000074 -0.000069
3.123865 0.638595 0.753490 0.000000 -0.025151 0.000097
3.648947 0.863081 0.419705 -0.013502 0.070918 0.013404
3.648947 0.863991 0.862018 -0.013502 -0.071179 0.013307
0.794553 0.537658 0.599841 0.000001 -0.923222 -0.000004
3.118717 0.600743 0.536909 0.000000 -0.359147 -0.000050
1.821509 0.596970 0.538482 0.000001 -0.405869 -0.000087
1.983660 0.744013 0.594530 0.000000 0.914005 -0.000002
2.096177 1.201336 1.199649 0.078206 -0.009164 0.009118
0.029859 0.606916 0.650393 -0.698379 -0.000016 0.000004
1.425141 0.529762 0.643272 0.000000 -0.999692 0.000000
1.944042 0.912289 0.927998 0.078204 -0.006029 0.006022
1.827814 0.771150 0.745456 -0.078139 0.012469 -0.011360
3.531442 0.466985 0.818103 0.007772 -0.049226 -0.007885
0.794553 0.744716 0.686521 0.000001 0.911915 0.000009
1.933647 1.011028 1.027707 0.078205 -0.005185 0.005183
2.037711 0.539748 0.594936 -0.000000 -0.913887 -0.000009
3.631766 0.754087 0.646914 0.000000 0.999692 0.000000
0.663288 0.641793 0.753573 0.000000 -0.012742 0.000191
0.254050 0.599015 0.745022 -0.000001 -0.382625 0.000186
3.010617 0.600495 0.537005 -0.000001 -0.358533 -0.000025
2.794415 0.539676 0.687536 0.000001 -0.908903 0.000002
1.875560 0.602278 0.536318 -0.000000 -0.359127 -0.000100
3.443019 0.537147 0.601168 0.000001 -0.932888 -0.000007
3.226818 0.744987 0.685912 0.000000 0.913903 0.000009
3.334918 0.536134 0.603920 0.000000 -0.941968 -0.000007
3.443019 0.747241 0.680305 0.000000 0.942066 0.000014
1.873620 0.951368 0.316468 -0.093541 -0.003356 -0.003710
1.948766 0.804221 0.789643 0.065274 0.010834 -0.010708
1.926088 0.274709 0.290455 0.065274 -0.012134 0.011952
1.909079 0.525878 0.739903 0.065273 -0.004045 -0.004045
1.947349 0.470785 0.828682 0.078205 0.003798 0.003801
2.956566 0.753021 0.624934 -0.000000 0.990317 -0.000005
3.506507 0.647123 0.753445 -0.000000 0.025478 0.000006
3.064667 0.538810 0.685587 0.000000 -0.913853 0.000009
1.944195 0.639306 0.753508 0.000000 -0.025478 0.000189
2.686315 0.685501 0.744784 0.000001 0.382269 0.000023
1.933616 1.133434 1.138366 -0.093546 -0.008948 0.009853
1.946613 0.133010 0.126804 -0.093545 0.007830 -0.008630
1.946613 0.133010 1.155831 -0.093544 0.007830 0.008630
2.253912 0.592057 0.540772 -0.000000 -0.451619 -0.000038
0.794553 0.748347 0.605473 0.000000 0.950206 -0.000003
3.334918 0.743977 0.688186 0.000000 0.903369 0.000002
1.842933 0.807778 0.499221 -0.078139 0.006143 0.005650
3.226818 0.593496 0.540074 -0.000000 -0.428879 -0.000020
1.064805 0.595752 0.743612 0.000000 -0.405978 0.000087
3.551120 0.535719 0.605093 -0.000000 -0.950257 -0.000025
1.777771 0.931421 0.346642 -0.093544 -0.003845 -0.004250
1.789722 0.406561 0.888651 -0.093544 0.004195 0.004635
1.497208 0.679284 0.747184 0.000000 0.335365 0.000027
1.519514 0.529832 0.646026 0.000000 -0.999675 0.000000
2.070191 0.913281 0.367628 0.078203 -0.003316 -0.003319
0.902654 0.549885 0.705519 0.000001 -0.799432 0.000003
1.659359 0.553836 0.710831 -0.000001 -0.780161 0.000008
0.397327 0.646768 0.529181 0.000000 0.025487 -0.000048
1.850493 0.801124 0.827407 0.078201 -0.006753 0.006740
0.029859 0.677025 0.650393 -0.698378 0.000016 0.000004
3.161614 0.529812 0.637408 -0.000000 -0.999675 -0.000000
2.096177 1.021368 0.262621 0.078203 -0.010369 -0.010299
1.226956 0.747971 0.604381 -0.000001 0.940390 -0.000003
3.379868 0.541963 0.543677 0.007771 0.055700 -0.007563
1.820255 0.531105 0.726477 0.065272 -0.008090 -0.008044
1.118855 0.532390 0.616983 -0.000000 -0.976923 -0.000004
1.875560 0.606718 0.747887 0.000001 -0.311337 0.000059
2.038063 0.788096 0.781802 0.065273 0.010834 -0.010708
1.551258 0.706859 0.549723 -0.000000 0.581324 -0.000013
3.267999 0.638062 0.529158 0.000000 -0.025487 -0.000024
0.794553 0.678279 0.747541 -0.000000 0.335274 0.000014
3.616323 0.529852 0.646825 0.000000 -0.999675 0.000000
3.559085 0.357328 0.925434 0.007772 -0.078463 -0.007974
3.559085 0.357328 0.357201 0.007772 -0.078457 0.007975
1.875560 0.682908 0.536797 -0.000001 0.359044 -0.000100
0.404190 0.529741 0.643539 0.000000 -0.999919 0.000000
2.524163 0.686240 0.744478 -0.000000 0.405983 0.000022
1.064805 0.752468 0.621513 -0.000001 0.986373 -0.000006
1.010755 0.549435 0.704858 0.000001 -0.827732 0.000026
2.470113 0.530481 0.628283 -0.000000 -0.993202 -0.000001
3.551120 0.704923 0.734252 0.000000 0.560837 0.000057
2.470113 0.555939 0.713417 0.000000 -0.766827 0.000016
1.335057 0.746251 0.682876 0.000000 0.933207 0.000002
3.463402 0.486696 0.484510 0.007772 -0.116778 0.008058
2.051765 0.984247 0.294751 0.078204 -0.005667 -0.005663
1.887818 0.444910 0.818757 0.065274 -0.002275 -0.002278
1.871947 1.031956 0.259563 -0.078136 0.007886 0.007238
3.568507 0.890979 0.888956 0.007771 -0.060353 0.007578
3.568507 0.890069 0.392767 0.007771 0.059015 0.007922
3.475531 0.467011 0.817470 0.007773 -0.059002 -0.007923
3.226818 0.539532 0.687211 -0.000000 -0.913170 0.000004
3.728323 0.703398 0.588379 0.410470 0.000078 -0.000065
1.962940 0.303950 0.993480 0.078204 0.005667 0.005663
2.051765 0.974249 0.977904 0.078203 -0.005667 0.005663
2.096177 0.282569 0.282580 0.078203 0.005185 -0.005183
1.932703 0.393660 0.874060 0.065274 -0.007801 -0.007760
1.873620 0.317881 0.331188 -0.078138 -0.004676 0.004306
1.551258 0.576974 0.732834 0.000001 -0.581359 0.000027
2.036646 0.822156 0.466967 0.065274 0.002275 0.002278
1.759738 0.753118 0.733777 -0.078138 0.009559 -0.008753
0.077212 0.623444 0.712873 -0.512288 -0.000015 0.000052
1.978060 1.028154 1.039878 0.078202 -0.004582 0.004583
1.970500 1.011845 0.283741 0.065272 0.006068 0.006053
2.008770 0.847106 0.837996 0.065273 0.002095 -0.002098
0.200000 0.675577 0.534207 -0.067315 0.000114 -0.000347
1.605308 0.746826 0.601251 -0.000001 0.932447 -0.000007
2.096177 1.241329 0.043067 0.078202 -0.007235 -0.007218
2.096177 1.241329 1.239568 0.078204 -0.007235 0.007218
3.443019 0.687540 0.743900 0.000000 0.406045 0.000043
0.860615 0.754143 0.644693 0.000000 0.999675 0.000000
0.865763 0.529796 0.638030 0.000000 -0.563306 -0.000000
1.856163 0.769840 0.535866 0.065276 0.008090 0.008043
1.703941 0.515920 0.778918 -0.093544 0.007288 0.008037
1.703941 0.505116 0.514540 -0.078137 -0.005158 0.004748
1.551258 0.552825 0.573100 -0.000000 -0.798414 -0.000014
1.790706 0.557183 0.752603 -0.093543 0.005593 0.006175
2.848465 0.684927 0.745022 0.000000 0.382806 0.000012
1.943337 0.639039 0.529133 0.000000 -0.025491 -0.000377
1.983660 0.690164 0.539940 -0.000000 0.428980 -0.000162
1.849237 1.088856 0.195257 -0.093545 -0.005453 -0.006021
3.598475 0.487352 0.793527 -0.013502 0.029782 0.012285
1.985619 1.068470 0.225824 0.065277 0.004912 0.004907
1.841725 0.902779 0.396100 -0.078138 0.005135 0.004727
1.335057 0.568182 0.556728 -0.000001 -0.651134 -0.000006
0.099966 0.566361 0.683284 -0.423239 -0.000072 0.000038
2.008297 1.133410 1.123726 0.065273 0.004334 -0.004333
2.044205 0.900459 0.894525 0.065274 0.003973 -0.003973
3.383556 0.803215 0.801425 0.007772 -0.110388 0.007687
3.383556 0.803215 0.481210 0.007772 -0.055696 -0.007564
1.810278 0.359418 0.913741 -0.078138 -0.010086 -0.009228
3.307318 0.711739 0.712972 -0.000001 0.707715 0.000087
0.776537 0.529726 0.640251 0.000000 -0.999919 -0.000000
3.172767 0.632517 0.529466 0.000001 -0.088585 -0.000432
1.973365 0.529803 0.644871 0.000000 -0.999675 0.000000
3.514926 0.764235 0.516169 0.007769 0.029596 0.007705
3.514926 0.764235 0.766465 0.007770 0.059022 -0.007921
2.059324 1.067063 1.062219 0.065273 0.005634 -0.005624
2.199862 0.632163 0.529497 -0.000000 -0.088822 -0.000108
1.884944 1.049453 1.040536 -0.078139 0.007885 -0.007238
1.534099 0.754175 0.639185 0.000000 0.999675 -0.000000
2.199862 0.555853 0.569320 -0.000001 -0.763123 -0.000008
2.096177 0.102602 0.102945 0.078203 0.011093 -0.011004
3.573218 0.410779 0.870717 0.007773 0.040307 0.007489
3.305748 0.637529 0.753463 0.000000 -0.025487 0.000048
1.858052 0.844406 0.821371 -0.078137 0.005777 -0.005315
1.971917 0.351147 0.920119 0.065274 -0.007223 -0.007193
0.200000 0.753653 0.652674 -0.067312 0.000364 0.000032
2.416063 0.613533 0.749910 -0.000000 -0.262911 0.000035
2.416063 0.672767 0.749267 0.000000 0.262525 0.000018
1.850493 0.457849 0.480243 0.065275 -0.008090 0.008043
1.118855 0.639394 0.529124 0.000000 -0.024825 -0.000049
1.985619 0.236706 0.224547 0.078204 0.004703 -0.004703
3.010617 0.537926 0.599182 0.000000 -0.923250 -0.000004
2.037711 0.572770 0.729701 0.000000 -0.622085 0.000048
1.226956 0.689442 0.539597 -0.000001 0.427819 -0.000020
1.919001 0.809596 0.490377 0.065273 0.010834 0.010708
1.620751 0.754206 0.642206 -0.000000 0.999675 0.000000
1.713995 0.754218 0.740257 -0.078137 0.005158 -0.004748
2.096177 1.081357 1.079892 0.078198 -0.003738 0.003741
1.767459 0.721908 0.562512 0.000000 0.716003 -0.000037
2.072028 0.637795 0.753469 0.000000 -0.025495 0.000188
1.875560 0.731999 0.574271 -0.000000 0.798465 -0.000029
1.670512 0.644369 0.753514 0.000000 0.025495 0.000188
2.632264 0.613018 0.532865 0.000000 -0.262902 -0.000071
1.335057 0.649563 0.529324 0.000000 0.063201 -0.000303
1.923253 0.757408 0.542075 0.065272 0.006068 0.006053
2.199862 0.747956 0.604339 0.000000 0.942049 -0.000007
3.388969 0.688474 0.539149 -0.000001 0.401128 -0.000011
1.858052 0.463735 0.437019 0.078204 0.001899 -0.001902
1.353073 0.640016 0.753526 0.000000 -0.025478 0.000012
1.064805 0.682949 0.745821 -0.000000 0.359197 0.000100
1.848603 0.726366 0.752996 0.078204 -0.006752 0.006740
2.700042 0.529771 0.639007 -0.000000 -0.999675 -0.000000
1.389107 0.604741 0.535421 0.000000 -0.335274 -0.000014
3.379868 0.739796 0.541490 0.007772 0.054464 0.007906
2.051765 0.285183 0.993341 0.065275 -0.006068 -0.006053
0.157106 0.702782 0.553947 -0.200398 0.000135 -0.000184
2.538749 0.754150 0.638208 -0.000000 0.999658 -0.000000
3.379868 0.741978 0.738958 0.007774 -0.055680 0.007566
1.908607 0.899393 0.401706 0.065275 0.007801 0.007760
1.713409 0.553642 0.572047 0.000000 -0.782991 -0.000031
0.362151 0.716527 0.557403 -0.000000 0.660917 -0.000044
3.728323 0.665654 0.563761 0.410265 0.000031 -0.000096
0.383600 0.754100 0.646381 -0.000000 0.940271 0.000000
2.053655 0.544879 0.539692 0.078202 0.003618 -0.003620
3.556123 0.538263 0.747942 -0.013503 -0.041502 -0.012933
1.909079 0.525878 0.542731 0.065273 -0.004045 0.004045
3.118717 0.558795 0.716704 0.000000 -0.733426 0.000009
3.503798 0.576642 0.710772 0.063173 -0.000988 0.000986
2.956566 0.683488 0.745614 -0.000000 0.359338 0.000006
0.236034 0.529852 0.635809 0.000000 -0.999675 -0.000000
1.714444 0.832810 0.838821 -0.093545 -0.004684 0.005175
0.140324 0.695991 0.727984 -0.265746 0.000090 0.000136
3.531864 0.710023 0.577106 0.063174 0.000945 -0.000943
3.226818 0.535636 0.605347 -0.000000 -0.950006 -0.000006
1.714444 0.444697 0.450260 -0.078138 -0.012286 0.011197
1.920418 0.516269 0.786267 0.078202 0.009043 0.009000
0.416201 0.719182 0.722802 0.000000 0.679766 0.000010
2.044205 0.363486 0.368150 0.065273 -0.007223 0.007193
2.014912 1.014459 1.005607 0.065274 0.012134 -0.011952
1.863342 0.948155 0.933225 -0.078138 0.004768 -0.004390
1.760994 0.910049 0.903747 -0.078138 0.010819 -0.009887
1.771272 0.361269 0.355374 -0.093543 0.003915 -0.004327
2.022472 0.211176 1.064504 0.065273 -0.009823 -0.009732
2.710337 0.636907 0.529188 0.000000 -0.025495 -0.000188
2.066411 0.838751 0.841033 0.078204 -0.001899 0.001902
2.055544 0.256030 0.259845 0.065274 -0.006212 0.006196
1.226956 0.571308 0.728540 0.000000 -0.622033 0.000012
0.551756 0.754125 0.637231 0.000000 0.999675 -0.000000
0.603233 0.754134 0.637586 0.000000 0.999684 -0.000000
2.059324 1.067063 0.220416 0.065273 0.011267 0.011124
1.790767 0.329742 0.948166 -0.078138 -0.005043 -0.004643
1.790767 0.329742 0.334469 -0.078138 -0.005043 0.004643
3.503446 0.546172 0.542126 0.007773 -0.047173 0.007876
2.059324 0.230621 0.226643 0.078203 0.004703 -0.004703
2.956566 0.605453 0.747467 -0.000000 -0.335365 0.000027
1.684446 0.752580 0.540737 -0.078135 0.003439 0.003169
1.664951 0.568410 0.556110 -0.093545 0.005243 -0.005791
2.066884 1.105374 0.181478 0.065274 0.004478 0.004476
0.495990 0.637262 0.753456 -0.000000 -0.023910 0.000026
1.880731 0.877453 0.900243 0.078204 -0.006511 0.006501
1.891458 1.002280 0.293988 -0.078139 0.004310 0.003970
3.169690 0.548682 0.548201 0.007772 -0.086723 0.007993
3.443019 0.538742 0.685423 0.000000 -0.924066 0.000002
0.740503 0.558086 0.566728 0.000000 -0.750410 -0.000034
0.362151 0.539496 0.595504 0.000001 -0.912444 -0.000009
2.416063 0.542954 0.588442 0.000000 -0.880334 -0.000010
1.920635 0.229207 0.217063 -0.093543 0.002796 -0.003092
1.956326 1.068275 1.082334 0.078205 -0.008199 0.008170
3.284315 0.536923 0.537471 0.007772 0.131783 -0.007733
1.910969 0.330160 0.973079 0.078204 0.011092 0.011004
1.767459 0.534657 0.674242 0.000000 -0.957928 0.000003
0.308101 0.684844 0.745056 0.000000 0.382686 0.000093
3.395009 0.475937 0.807883 0.007772 -0.054462 -0.007906
2.578214 0.752300 0.661995 -0.000000 0.981621 0.000002
1.659359 0.530466 0.628415 -0.000001 -0.991780 -0.000002
2.145811 0.571587 0.728761 0.000000 -0.622046 0.000048
3.118717 0.720076 0.721937 0.000000 0.698044 0.000039
3.064667 0.677984 0.747638 0.000001 0.310862 0.000029
1.994123 0.109884 1.162989 0.065275 -0.015021 -0.014668
3.253742 0.537091 0.745332 0.007773 0.131761 0.007734
3.253742 0.746179 0.536630 0.007772 0.128860 0.008086
3.253742 0.746179 0.746005 0.007772 0.128860 -0.008086
3.307124 0.481146 0.801845 0.007774 -0.043604 -0.007856
3.185025 0.712411 0.570336 -0.000001 0.707317 -0.000029
1.837945 0.893622 0.877045 -0.078137 0.005410 -0.004979
0.285794 0.754094 0.646648 0.000000 0.999675 0.000000
3.395009 0.475098 0.475592 0.007771 0.055702 -0.007563
1.921363 0.448896 0.429223 0.078204 0.003497 -0.003500
3.322459 0.779948 0.502924 0.007772 0.043618 0.007854
3.322459 0.780619 0.779038 0.007774 -0.044593 0.007518
2.036646 0.477834 0.811749 0.078204 0.001899 0.001902
1.884511 0.747019 0.769631 0.078204 -0.006752 0.006740
3.421894 0.536167 0.538227 0.007771 0.115364 -0.007697
2.006880 0.455488 0.445282 0.078204 0.001899 -0.001902
2.040426 0.432632 0.845116 0.065273 -0.002095 -0.002098
1.118855 0.748076 0.604674 -0.000001 0.940727 -0.000007
1.983660 0.701651 0.736392 -0.000001 0.539456 0.000030
0.362151 0.535525 0.676950 -0.000000 -0.950266 0.000025
1.262132 0.637973 0.753474 0.000000 -0.025478 0.000189
1.823275 0.931457 0.340846 -0.093543 -0.007271 -0.008018
1.974280 0.262939 1.008383 0.065272 -0.006068 -0.006053
3.101558 0.754143 0.637941 0.000000 0.999675 -0.000000
1.713409 0.530226 0.651966 0.000000 -0.996073 0.000001
1.899157 0.851479 0.872275 0.078204 -0.001748 0.001751
1.974280 0.265329 0.251861 0.078203 0.005185 -0.005183
1.899157 0.412440 0.430420 0.065273 -0.004190 0.004189
3.379868 0.544146 0.741144 0.007772 -0.054464 -0.007906
0.157106 0.576812 0.725495 -0.200392 -0.000147 0.000180
2.362013 0.677604 0.534872 0.000000 0.311442 -0.000117
1.889235 0.490002 0.815941 0.078203 0.009043 0.009000
2.362013 0.534555 0.608733 -0.000001 -0.957641 -0.000012
3.728323 0.566824 0.671794 0.409287 -0.000095 0.000037
1.752874 0.638861 0.753496 0.000000 -0.025495 0.000188
2.114925 0.754105 0.636431 0.000001 0.975565 -0.000000
3.064667 0.599877 0.745379 0.000000 -0.382530 0.000046
2.632264 0.743710 0.593886 0.000001 0.884426 -0.000002
3.010617 0.685255 0.537749 0.000001 0.351880 -0.000006
1.522946 0.647390 0.753438 0.000000 0.025486 0.000188
0.318396 0.529843 0.646470 0.000000 -0.999675 0.000000
1.884960 0.303950 0.289154 -0.093544 0.003356 -0.003709
3.693772 0.729072 0.599372 0.410597 0.000387 -0.000160
3.064667 0.740123 0.695796 0.000000 0.868161 0.000005
1.909296 1.026111 0.244376 -0.093541 -0.002797 -0.003092
2.060269 0.039620 0.043398 0.065274 -0.010401 0.010291
2.060269 0.039620 1.239236 0.065275 -0.010401 -0.010291
3.693772 0.610041 0.732567 0.410598 -0.000160 0.000387
0.711333 0.529812 0.637408 -0.000000 -0.999675 -0.000000
2.063104 0.201084 0.197579 0.078204 0.008199 -0.008170
0.524302 0.746117 0.683206 0.000000 0.910159 0.000001
3.471118 0.518225 0.762175 0.007773 0.115345 0.007698
0.578352 0.548438 0.703386 0.000000 -0.827899 0.000002
2.524163 0.602278 0.746316 -0.000001 -0.358562 0.000025
1.824321 0.280948 0.276039 -0.093542 0.003286 -0.003632
3.393258 0.529834 0.636520 -0.000000 -0.999684 -0.000000
1.928923 0.864126 0.401035 0.078204 -0.001779 -0.001781
3.728323 0.601869 0.647304 1.000000 0.000000 0.000000
3.728323 0.656089 0.679326 1.000000 0.000000 0.000000
3.728323 0.618333 0.608374 1.000000 -0.000000 0.000000
3.728323 0.682499 0.642519 1.000000 0.000000 0.000000
3.728323 0.661546 0.605810 1.000000 0.000000 0.000000
1.921363 0.852812 0.447022 0.065275 0.004190 0.004189
3.358941 0.637529 0.753463 0.000000 -0.025487 0.000096
2.307962 0.564310 0.560264 -0.000000 -0.698025 -0.000020
1.954436 0.561731 0.562802 -0.000002 0.707754 0.000346
1.977115 0.810807 0.823038 0.078204 -0.001899 0.001902
2.014912 0.257745 1.033840 0.078203 0.005185 0.005183
2.253912 0.535806 0.604841 0.000000 -0.942121 -0.000003
2.564487 0.529787 0.638385 -0.000000 -0.999675 -0.000000
1.927218 0.090104 1.192164 -0.078139 -0.009902 -0.009063
1.954172 1.170013 1.174040 -0.093544 -0.007830 0.008631
1.954172 1.170013 0.108595 -0.093544 -0.007830 -0.008630
1.551258 0.624621 0.530412 0.000001 -0.163782 -0.000116
1.802635 0.645969 0.529160 0.000000 0.025486 -0.000188
2.112352 0.640549 0.753539 0.000000 -0.024825 0.000193
0.956704 0.663957 0.751395 0.000001 0.184515 0.000026
2.199862 0.550531 0.706423 0.000001 -0.807475 0.000007
2.488130 0.640016 0.753526 0.000000 -0.025151 0.000382
3.498437 0.829703 0.827186 0.007769 -0.050364 0.007541
3.498437 0.829703 0.455448 0.007772 -0.099949 -0.007666
2.379172 0.529805 0.644960 0.000000 -0.999674 0.000000
3.573218 0.410779 0.411917 0.007772 0.040311 -0.007488
3.497069 0.666391 0.531756 0.000000 0.213688 -0.000351
1.778612 0.754168 0.638919 -0.000000 0.999674 -0.000000
2.632264 0.534516 0.673774 -0.000000 -0.957857 0.000006
0.881206 0.637440 0.753460 0.000000 -0.025495 0.000188
0.774821 0.754214 0.640162 0.000000 0.999919 -0.000000
0.578352 0.732267 0.708009 0.000000 0.798226 0.000004
3.460044 0.843632 0.439271 0.007772 0.049229 0.007884
3.460044 0.844390 0.842604 0.007773 -0.050336 0.007545
1.967169 0.096431 0.091130 -0.093543 0.006711 -0.007405
1.996958 0.198084 0.187254 0.078204 0.008199 -0.008170
3.648440 0.520123 0.520984 -0.013501 0.059411 -0.013187
3.648440 0.520123 0.761651 -0.013501 0.059413 0.013186
3.648440 0.763819 0.761651 -0.013502 -0.059409 0.013187
3.604540 0.804309 0.805327 -0.013501 0.059191 -0.013282
1.888290 0.387406 0.364182 0.078204 0.006632 -0.006621
0.335555 0.647568 0.529201 0.000000 0.025495 -0.000188
3.672598 0.781790 0.500998 -0.013501 0.029675 0.012367
3.604540 0.804309 0.477307 -0.013502 0.029673 0.012368
1.888290 0.917662 0.897286 -0.078138 0.005043 -0.004643
3.172767 0.588313 0.739912 0.000000 -0.474199 0.000071
1.884511 0.536922 0.769631 0.078202 0.003376 0.003380
3.693772 0.738645 0.641317 0.410598 0.000911 0.000051
2.039480 0.525668 0.763689 0.078206 0.003617 0.003620
2.039480 0.738277 0.743729 0.078203 -0.007235 0.007218
2.039480 0.738277 0.538905 0.078203 -0.003618 -0.003620
1.979949 0.520969 0.774978 0.078205 0.009043 0.009000
2.067829 1.259754 0.021533 0.078202 -0.007235 -0.007218
1.888290 0.387406 0.918452 0.078204 0.006632 0.006621
1.919001 0.474346 0.490377 0.065273 -0.010834 0.010708
1.892503 0.216175 1.059514 -0.078138 -0.007152 -0.006570
1.040783 0.529841 0.636253 0.000000 -0.999674 -0.000000
3.353793 0.640727 0.529075 0.000000 -0.012407 -0.000049
3.466704 0.711307 0.572553 0.063175 0.000988 -0.000986
3.537506 0.455171 0.456834 0.007772 0.099950 -0.007666
1.807544 0.307986 0.302608 -0.093544 0.003565 -0.003941
3.207943 0.645702 0.753481 -0.000000 0.025487 0.000012
0.956704 0.731116 0.709534 -0.000000 0.797864 0.000007
2.030031 1.084357 1.090218 0.078203 -0.004100 0.004102
3.310896 0.754116 0.636875 0.000000 0.999684 -0.000000
3.659220 0.667346 0.750670 0.410929 0.000026 0.000117
3.659220 0.688839 0.539311 0.412905 0.000048 -0.000109
1.605308 0.676337 0.748178 0.000001 0.311193 0.000059
1.497208 0.681622 0.536302 -0.000000 0.359023 -0.000050
1.983660 0.623613 0.752055 0.000000 -0.163935 0.000058
3.693772 0.631147 0.545250 0.410598 -0.000021 -0.000382
3.728323 0.661018 0.720140 0.410051 0.000025 0.000098
3.544256 0.754098 0.646470 0.000000 0.999684 0.000000
1.954436 0.727973 0.714060 0.000001 -0.707758 -0.000462
1.903409 0.954290 0.935243 -0.078138 0.004676 -0.004306
3.489014 0.864730 0.418363 0.007772 0.078459 0.007974
3.489014 0.864730 0.864272 0.007772 0.039418 -0.007824
3.603542 0.921011 0.362186 0.007772 0.078461 0.007974
3.603542 0.921011 0.920448 0.007771 0.078466 -0.007974
3.368464 0.714090 0.710617 -0.000001 0.707733 0.000116
1.848603 0.532415 0.554845 0.065273 -0.008090 0.008044
0.123870 0.627331 0.736883 -0.329899 -0.000021 0.000120
3.537506 0.826799 0.827776 0.007774 0.049218 -0.007886
3.537506 0.826799 0.454859 0.007771 0.097738 0.008016
3.498437 0.455755 0.453929 0.007773 -0.097724 0.008017
3.172767 0.751589 0.665477 0.000000 0.976898 0.000017
1.788212 0.774050 0.487593 -0.093544 -0.009507 -0.010462
0.059295 0.580230 0.641317 -0.589360 -0.000019 0.000000
3.467041 0.754100 0.636253 0.000000 0.999675 -0.000000
1.443157 0.535719 0.677541 -0.000001 -0.947732 0.000003
2.773825 0.644458 0.753512 -0.000000 0.025151 0.000048
1.802270 0.462758 0.479990 -0.078138 -0.006144 0.005650
2.859619 0.754159 0.638563 0.000000 0.999675 -0.000000
1.389107 0.710401 0.730302 0.000000 0.601984 0.000025
1.925143 0.861969 0.845102 0.065274 0.004190 -0.004189
1.865612 0.421221 0.840349 0.065274 -0.008379 -0.008326
3.389827 0.754107 0.646115 0.000000 0.999684 0.000000
0.029859 0.636487 0.605524 -0.698380 -0.000003 -0.000016
1.281006 0.535082 0.607036 0.000000 -0.950347 -0.000002
2.022472 1.052769 0.238090 0.065274 0.005490 0.005481
3.307269 0.549438 0.735190 0.007774 -0.043604 -0.007856
3.497069 0.627656 0.529977 0.000001 -0.138885 -0.000274
3.648947 0.419950 0.862018 -0.013502 0.071179 0.013307
1.783147 0.732885 0.709138 -0.000000 -0.707759 -0.000451
1.899018 0.276120 0.262213 -0.093543 0.006152 -0.006790
1.863342 0.350863 0.948330 -0.093544 0.003635 0.004018
2.012550 0.407682 0.415190 0.065273 -0.002131 0.002134
2.959998 0.529839 0.636342 0.000000 -0.999675 -0.000000
3.693772 0.545296 0.641317 0.410598 -0.000911 0.000051
0.794553 0.605160 0.747362 -0.000000 -0.335425 0.000054
1.806050 0.811422 0.451547 -0.093543 -0.008948 -0.009853
2.096177 0.741419 0.740582 0.078204 -0.007235 0.007218
1.443157 0.566981 0.557785 0.000000 -0.660923 -0.000022
0.578352 0.606591 0.534789 -0.000000 -0.311419 -0.000117
1.899018 1.020594 1.007625 -0.078135 0.004035 -0.003717
2.224742 0.529731 0.640607 0.000000 -0.999675 -0.000000
1.497208 0.534861 0.607711 0.000000 -0.957900 -0.000003
3.693772 0.590537 0.559460 0.410598 -0.000203 -0.000367
0.618675 0.642504 0.753569 0.000000 0.012407 0.000197
1.576138 0.647212 0.753442 -0.000001 0.024550 0.000196
1.064805 0.602983 0.536047 0.000000 -0.358754 -0.000013
2.253912 0.536551 0.679886 0.000000 -0.942039 0.000003
3.693772 0.702246 0.716901 0.410599 0.000279 0.000313
1.551258 0.749629 0.673093 -0.000002 0.944193 0.000003
2.015857 0.140380 1.150883 0.078200 0.007235 0.007218
2.096177 1.121350 1.119811 0.078203 -0.006511 0.006501
1.920418 0.767672 0.496368 0.078202 -0.009043 -0.009000
0.174142 0.731957 0.578685 -0.134147 0.000297 -0.000196
0.524302 0.535304 0.676274 0.000000 -0.950121 0.000006
1.651342 0.503244 0.783715 -0.093539 0.002622 0.002899
0.416201 0.737330 0.582089 0.000000 0.845000 -0.000001
0.632402 0.573257 0.730088 0.000000 -0.622136 0.000024
0.632402 0.749387 0.673902 -0.000000 0.957658 0.000003
0.157106 0.551633 0.585009 -0.200395 -0.000194 -0.000128
0.615244 0.638062 0.529158 0.000000 -0.025487 -0.000024
1.889235 0.793939 0.815941 0.078203 -0.009043 0.009000
3.728323 0.717987 0.669553 0.411492 0.000095 0.000034
1.804351 0.529767 0.643449 -0.000001 -0.998127 0.000000
2.016262 0.643214 0.753544 -0.000000 0.025487 0.000377
0.362151 0.658134 0.752398 -0.000000 0.138901 0.000548
1.823244 1.053863 0.230186 -0.093543 -0.006012 -0.006637
2.740365 0.745896 0.598895 -0.000001 0.885131 -0.000002
3.659220 0.545230 0.698265 0.414699 -0.000103 0.000059
0.902654 0.751504 0.665868 -0.000001 0.967868 0.000001
3.503446 0.741339 0.545702 0.007771 -0.048257 -0.007533
2.176697 0.754206 0.640429 0.000000 0.999675 -0.000000
1.796846 0.510872 0.751115 -0.078137 -0.009559 -0.008753
0.554330 0.529828 0.636786 0.000017 -0.018200 -0.000001
0.578352 0.681912 0.536414 0.000000 0.359127 -0.000100
3.470473 0.529855 0.635720 -0.000000 -0.999674 -0.000000
3.578574 0.647568 0.529201 0.000000 0.025495 -0.000188
0.937830 0.754223 0.641762 0.000004 0.270504 0.000000
1.790706 0.557183 0.530032 -0.093543 0.005593 -0.006175
1.981367 0.739056 0.750948 0.078204 -0.009043 0.009000
3.678663 0.791632 0.791309 -0.013501 0.029675 -0.012367
2.848465 0.602029 0.536414 -0.000001 -0.359009 -0.000050
2.524163 0.613661 0.532690 0.000000 -0.262919 -0.000035
0.686453 0.534631 0.608477 -0.000001 -0.957804 -0.000023
1.941207 1.045860 0.252497 -0.078135 0.007336 0.006738
1.088827 0.529762 0.639363 -0.000000 -0.999675 -0.000000
2.794415 0.716160 0.725554 0.000000 0.660734 0.000005
2.775541 0.754197 0.642561 0.000000 0.999675 0.000000
1.659359 0.716960 0.724849 0.000000 0.660923 0.000022
1.813609 0.848654 0.831113 -0.078137 0.005777 -0.005315
2.059324 0.220623 1.065971 0.078203 0.004703 0.004703
0.084655 0.573460 0.603291 -0.483138 -0.000055 -0.000029
0.416201 0.678447 0.535153 -0.000000 0.331572 -0.000007
0.165597 0.625588 0.534378 -0.167368 -0.000036 -0.000281
1.659359 0.752606 0.660289 -0.000001 0.985764 0.000003
2.047985 0.344331 0.933953 0.065273 -0.007368 -0.007335
1.551258 0.532353 0.665477 -0.000001 -0.976318 0.000004
1.827667 0.875716 0.423811 -0.078138 0.011002 0.010051
1.794547 0.958459 0.962562 -0.093543 -0.003635 0.004018
2.034279 0.754224 0.641140 0.000000 0.999675 -0.000000
3.466704 0.711307 0.710081 0.063175 0.000988 0.000986
1.895293 0.529753 0.639718 -0.000001 -0.997953 -0.000000
2.015857 0.140380 0.131751 0.078204 0.003618 -0.003620
2.040426 0.861307 0.855096 0.065273 0.004262 -0.004261
1.895850 0.935976 0.366370 -0.078138 0.009536 0.008732
1.443157 0.729387 0.711736 -0.000000 0.782989 0.000015
1.389107 0.749515 0.609159 -0.000000 0.957756 -0.000006
3.092121 0.529809 0.645137 0.000018 -0.017305 0.000000
0.740503 0.675746 0.534263 -0.000002 0.252372 -0.000009
2.470113 0.568249 0.556669 0.000000 -0.660688 -0.000011
2.740365 0.537642 0.599883 0.000000 -0.933150 -0.000004
0.157106 0.743538 0.609450 -0.200396 0.000223 -0.000064
2.301957 0.529825 0.645759 0.000000 -0.999684 0.000000
3.280868 0.719313 0.559953 0.000000 0.697997 -0.000010
1.172906 0.603485 0.746766 -0.000000 -0.334495 0.000014
2.578214 0.558915 0.565800 0.000000 -0.733364 -0.000018
2.277076 0.641349 0.753559 0.000000 -0.024825 0.000049
2.559339 0.639927 0.529111 0.000000 -0.025478 -0.000012
3.630050 0.644726 0.753540 0.000000 0.012742 0.000012
1.023624 0.644814 0.753503 0.000000 0.025487 0.000012
0.686453 0.675194 0.748542 -0.000000 0.287102 0.000008
2.794415 0.534861 0.607711 -0.000000 -0.957857 -0.000012
0.200000 0.562592 0.561939 -0.067315 -0.000262 -0.000255
2.307962 0.633934 0.529352 0.000000 -0.063365 -0.000303
1.837945 0.407317 0.894074 -0.093543 0.003915 0.004327
0.956704 0.534069 0.672284 0.000000 -0.957955 0.000001
3.644127 0.703932 0.701572 0.063173 0.000473 0.000472
0.254050 0.601739 0.536526 0.000001 -0.359117 -0.000200
1.921363 0.431130 0.835612 0.065274 -0.004190 -0.004189
2.067829 1.262635 1.258215 0.065277 0.010400 -0.010290
1.099123 0.637795 0.753469 0.000001 -0.024939 0.000385
1.932703 0.410274 0.391930 0.078204 0.006511 -0.006501
1.664339 0.798195 0.801180 -0.093544 -0.003932 0.004346
1.664339 0.798195 0.481455 -0.093545 -0.007864 -0.008669
2.091761 0.564533 0.722588 -0.000000 -0.697853 0.000020
1.837317 1.020490 0.258575 -0.093544 -0.003076 -0.003401
0.877774 0.647212 0.529192 0.000000 0.025486 -0.000188
1.703941 0.778826 0.768094 -0.078137 0.005158 -0.004748
1.618850 0.543385 0.736446 -0.078139 -0.006877 -0.006320
0.541461 0.637529 0.529172 -0.000000 -0.025487 -0.000048
1.933647 0.272913 1.027707 0.078205 0.005185 0.005183
0.157106 0.739793 0.683296 -0.200399 0.000216 0.000086
2.145811 0.537339 0.600671 -0.000001 -0.931727 -0.000004
1.841043 0.721689 0.562279 0.000001 -0.707757 0.000577
3.584189 0.536677 0.538796 -0.013502 0.041661 -0.012842
1.928923 0.429813 0.871620 0.078204 0.003557 0.003560
0.200000 0.585023 0.738058 -0.067311 -0.000189 0.000312
1.897740 0.721950 0.720094 0.000001 -0.707758 -0.000462
2.016802 1.228999 0.062709 -0.078136 0.007336 0.006738
0.254050 0.751921 0.663958 0.000001 0.891326 0.000001
1.093975 0.754188 0.642916 0.000000 0.999675 0.000000
2.009715 0.769410 0.522104 0.065274 0.010834 0.010708
2.447807 0.640372 0.529100 0.000000 -0.025151 -0.000024
2.488988 0.637973 0.529160 -0.000000 -0.025486 -0.000188
3.672598 0.502152 0.500998 -0.013501 -0.029675 0.012367
3.672598 0.502152 0.781636 -0.013501 -0.029675 -0.012367
0.123870 0.688890 0.556785 -0.329898 0.000062 -0.000105
3.688534 0.761112 0.760769 -0.013501 0.059191 -0.013282
1.281006 0.607351 0.748095 0.000001 -0.311389 0.000059
0.416201 0.563101 0.721192 0.000000 -0.697997 0.000010
0.308101 0.614523 0.750161 0.000000 -0.238272 0.000078
1.414845 0.754091 0.646737 0.000000 0.999675 0.000000
0.543177 0.637884 0.753472 0.000000 -0.025487 0.000024
0.686453 0.614221 0.750087 -0.000000 -0.238338 0.000039
2.978015 0.646502 0.753460 0.000000 0.025495 0.000188
1.605308 0.533951 0.610778 0.000000 -0.964818 -0.000005
2.740365 0.660372 0.752048 -0.000000 0.163638 0.000029
1.977115 0.461034 0.810915 0.065274 -0.002275 -0.002278
1.977115 0.822907 0.471719 0.065274 0.002275 0.002278
1.226956 0.531742 0.662518 0.000000 -0.982023 0.000002
1.903409 0.934700 0.327764 0.078203 -0.006150 -0.006142
1.172906 0.716226 0.725495 0.000001 0.660902 0.000044
2.902516 0.560184 0.718203 0.000001 -0.731115 0.000009
2.686315 0.753501 0.628636 -0.000001 0.990427 -0.000001
2.307962 0.678110 0.747597 -0.000000 0.311297 0.000029
1.841725 0.397776 0.379455 -0.093543 0.003915 -0.004327
0.123870 0.545414 0.646214 -0.337808 -0.000059 0.000001
2.091761 0.750517 0.669927 0.000000 0.964806 0.000010
3.334918 0.535165 0.675852 0.000001 -0.950016 0.000013
3.640726 0.459584 0.822154 -0.013503 0.023833 0.011732
3.318617 0.529828 0.636786 0.000000 -0.999675 -0.000000
1.941207 1.045860 1.030137 -0.078136 0.007336 -0.006738
3.649353 0.944130 0.942311 0.007772 -0.080243 0.007626
3.649353 0.944130 0.340323 0.007772 -0.080242 -0.007627
1.960496 0.754206 0.642206 0.000000 0.999675 0.000000
2.307962 0.734507 0.704858 0.000000 0.828110 0.000003
1.172906 0.672509 0.533297 0.000000 0.262919 -0.000071
0.062796 0.654913 0.578338 -0.568819 0.000009 -0.000040
1.897740 0.561992 0.562540 -0.000000 0.707760 0.000462
0.807423 0.644636 0.529127 -0.000004 0.012118 -0.000201
3.427576 0.637173 0.529181 -0.000000 -0.025487 -0.000048
1.950184 0.503782 0.765758 0.065274 -0.010834 -0.010708
1.929610 0.671480 0.749618 -0.000000 0.262897 0.000282
1.899018 0.276120 1.020421 -0.093545 0.003076 0.003401
1.933647 0.272913 0.254928 0.078203 0.005185 -0.005183
1.987726 1.224089 1.227178 -0.093544 -0.005593 0.006175
1.974729 1.206592 0.072921 -0.093544 -0.006711 -0.007404
1.981367 0.544886 0.531687 0.078203 0.009043 -0.009000
1.841097 1.030031 1.033164 -0.093544 -0.003076 0.003401
1.841097 0.253910 0.249470 -0.093545 0.003076 -0.003401
2.068301 0.878516 0.880515 0.078203 -0.001779 0.001781
1.962468 0.402626 0.895040 0.078204 0.006511 0.006501
1.983660 0.558674 0.716573 0.000000 -0.733463 0.000071
3.337891 0.713922 0.571849 -0.000000 0.707736 -0.000044
0.416201 0.558915 0.565800 -0.000000 -0.733419 -0.000009
0.848604 0.750225 0.611636 0.000000 0.964828 -0.000005
1.927133 0.220459 1.074304 -0.093545 0.005033 0.005560
1.849284 0.905247 0.361246 -0.093544 -0.003915 -0.004327
2.740365 0.750061 0.671599 0.000000 0.964820 0.000010
3.583721 0.644548 0.753543 0.000000 0.012742 0.000048
1.850493 0.457849 0.802392 0.065273 -0.008090 -0.008044
3.322556 0.549522 0.547360 0.007770 -0.086746 0.007991
1.859563 0.360404 0.343409 -0.093543 0.003635 -0.004018
3.247408 0.529821 0.637053 -0.000000 -0.999675 -0.000000
3.322459 0.503994 0.502924 0.007774 -0.043604 0.007856
3.185025 0.571530 0.570336 -0.000001 -0.707317 -0.000029
3.185025 0.570859 0.711626 -0.000001 -0.707317 0.000029
3.551120 0.627788 0.752676 0.000000 -0.138885 0.000034
3.172767 0.662997 0.751579 -0.000000 0.188870 0.000400
3.200263 0.735091 0.734601 0.007773 0.086716 -0.007993
3.200263 0.735091 0.548033 0.007773 0.086716 0.007993
3.551120 0.535331 0.676359 -0.000001 -0.949942 0.000013
1.841043 0.562253 0.720356 -0.000000 0.707760 -0.000577
2.983162 0.645169 0.529140 0.000000 0.025487 -0.000024
1.901047 0.407861 0.856960 0.065273 -0.004190 -0.004189
0.165597 0.534339 0.652262 -0.167372 -0.000279 0.000021
1.497208 0.740123 0.695796 0.000000 0.868161 0.000005
2.416063 0.715093 0.556141 0.000000 0.660923 -0.000022
0.191353 0.531584 0.624407 -0.071433 -0.000679 -0.000087
2.902516 0.687946 0.538915 -0.000001 0.405855 -0.000043
3.531864 0.710023 0.705528 0.063173 0.000945 0.000943
2.391183 0.647212 0.529192 0.000000 0.025495 -0.000188
3.368464 0.572538 0.713308 -0.000001 -0.707677 0.000073
3.659220 0.549833 0.577188 0.417020 -0.000096 -0.000069
0.632402 0.533390 0.669798 -0.000000 -0.964811 0.000005
3.728323 0.621352 0.676229 1.000000 -0.000000 0.000000
2.067829 0.719852 0.722196 0.078204 -0.007235 0.007218
2.632264 0.578430 0.733853 0.000000 -0.560952 0.000014
1.964358 0.886086 0.899592 0.078204 -0.003256 0.003259
1.842933 0.501900 0.473437 0.078204 0.006752 -0.006740
1.984674 0.434056 0.861206 0.078203 0.007114 0.007098
1.759738 0.530824 0.548858 -0.078139 -0.009559 0.008753
0.578352 0.671009 0.749746 -0.000000 0.262917 0.000071
2.740365 0.698919 0.544576 0.000000 0.518159 -0.000127
0.069923 0.659323 0.708334 -0.540853 0.000013 0.000045
1.713995 0.544129 0.754688 -0.093543 0.003933 0.004346
1.713995 0.739813 0.527946 -0.093544 -0.003933 -0.004346
0.092242 0.717825 0.673869 -0.453440 0.000066 0.000026
0.927534 0.642682 0.529068 0.000000 0.012742 -0.000096
1.765878 0.755950 0.506786 -0.093544 -0.007288 -0.008037
0.470252 0.613490 0.749898 0.000000 -0.262896 0.000141
1.941207 0.238081 1.030137 0.065274 -0.010978 -0.010847
1.854111 0.754197 0.640073 0.000000 0.999675 -0.000000
1.821509 0.674470 0.533876 0.000000 0.287102 -0.000032
1.790706 0.726759 0.530032 -0.093543 -0.005593 -0.006175
2.610816 0.637440 0.753460 0.000000 -0.025495 0.000188
1.335057 0.750598 0.613008 0.000000 0.964818 -0.000003
1.258700 0.529735 0.640429 0.000000 -0.999684 -0.000000
1.659359 0.700021 0.545244 0.000001 0.517428 -0.000016
3.334918 0.701950 0.736201 -0.000000 0.539616 0.000060
2.902516 0.534274 0.609669 0.000000 -0.957446 -0.000003
2.183561 0.529800 0.637852 -0.000001 -0.973113 -0.000000
2.066884 0.171546 0.168515 0.078204 0.007476 -0.007456
1.713995 0.529724 0.542378 -0.078137 -0.005158 0.004748
1.910969 0.953782 0.973079 0.078203 -0.011093 0.011004
0.972147 0.754166 0.643805 0.000000 0.999684 0.000000
1.951601 0.946064 0.931487 0.065275 0.007223 -0.007193
1.281006 0.752099 0.663042 -0.000000 0.981951 0.000004
1.010755 0.607605 0.534457 -0.000000 -0.311410 -0.000117
2.253912 0.749387 0.673902 -0.000000 0.957691 0.000006
0.848604 0.532873 0.667729 0.000001 -0.969655 0.000002
1.858052 0.820206 0.437019 0.078205 -0.001899 -0.001902
1.867502 0.509870 0.798519 0.078204 0.003376 0.003379
1.867502 0.774072 0.798519 0.078204 -0.006752 0.006740
1.948766 1.049193 0.218509 0.078205 -0.004703 -0.004703
1.639626 0.640372 0.529100 0.000000 -0.025491 -0.000377
0.115789 0.651435 0.548250 -0.361430 0.000013 -0.000105
0.115789 0.552714 0.613313 -0.361428 -0.000102 -0.000029
2.109778 0.638151 0.529156 -0.000000 -0.025495 -0.000188
0.174142 0.541218 0.684554 -0.134150 -0.000334 0.000133
3.644127 0.580009 0.701572 0.063173 -0.000473 0.000472
3.041502 0.645524 0.753485 0.000000 0.014484 0.000021
1.959161 0.323490 0.308239 0.078204 0.005547 -0.005543
3.690488 0.532424 0.750130 -0.013503 0.020856 0.011318
1.820255 0.752837 0.556158 -0.078138 0.007335 0.006737
3.567153 0.863472 0.421742 0.007772 -0.040314 -0.007488
3.567153 0.861955 0.862412 0.007770 0.039427 -0.007823
2.145811 0.740292 0.695483 0.000000 0.880471 0.000005
0.632402 0.564889 0.559712 0.000001 -0.679363 -0.000021
0.632402 0.708125 0.732007 0.000000 0.581566 0.000027
1.281006 0.719695 0.722309 0.000000 0.697853 0.000020
1.713409 0.682949 0.745821 -0.000000 0.359192 0.000100
1.010755 0.716460 0.725290 -0.000001 0.660730 0.000022
0.740503 0.660986 0.751946 0.000000 0.163972 0.000231
3.280868 0.606718 0.534747 -0.000001 -0.308716 -0.000030
0.416201 0.618331 0.531585 0.000001 -0.213489 -0.000088
3.659220 0.734108 0.577188 0.413440 0.000098 -0.000067
0.230886 0.639216 0.753540 0.000000 -0.012751 0.000012
3.603542 0.362931 0.920448 0.007772 -0.078463 -0.007974
3.503446 0.741339 0.736933 0.007771 -0.048257 0.007533
3.388969 0.533448 0.670012 0.000000 -0.964823 0.000010
1.978532 0.786890 0.799008 0.078203 -0.009043 0.009000
1.977115 0.473134 0.459597 0.078204 0.001899 -0.001902
1.948766 0.494702 0.804652 0.078203 0.009043 0.009000
1.948766 0.789240 0.477982 0.078203 -0.009043 -0.009000
1.950184 0.503782 0.516877 0.065273 -0.010834 0.010709
0.416201 0.753305 0.655676 -0.000000 0.989090 0.000001
3.064667 0.752745 0.623178 -0.000001 0.986071 -0.000003
1.902156 0.754087 0.646914 0.000001 0.975565 0.000000
0.470252 0.533413 0.612751 -0.000000 -0.957831 -0.000001
1.876951 0.533725 0.729102 0.065274 -0.008090 -0.008044
1.164326 0.754130 0.637408 0.000000 0.999675 -0.000000
1.884960 0.993532 0.979914 -0.078138 0.004310 -0.003970
1.962940 0.983533 0.969935 0.065274 0.006645 -0.006624
2.008297 0.490470 0.498219 0.065275 -0.010834 0.010708
1.884960 0.303950 0.993480 -0.093545 0.003356 0.003709
1.471469 0.754224 0.641140 0.000000 0.999675 -0.000000
0.524302 0.723335 0.563975 0.000000 0.733748 -0.000004
2.012550 0.862762 0.411665 0.078204 -0.003557 -0.003560
1.979949 0.520969 0.507657 0.078203 0.009043 -0.009000
1.979949 0.762973 0.507657 0.078205 -0.009043 -0.009000
1.984674 0.422724 0.432781 0.065273 -0.008379 0.008326
1.497208 0.610408 0.749040 0.000001 -0.286976 0.000032
1.226956 0.613833 0.532643 0.000000 -0.262898 -0.000141
3.280868 0.568149 0.725877 0.000001 -0.660631 0.000022
2.145811 0.752730 0.623091 0.000001 0.975331 -0.000001
3.503798 0.576642 0.571862 0.063173 -0.000988 -0.000986
1.954436 0.570374 0.728492 0.078204 0.005064 0.005063
3.605170 0.703596 0.735145 0.000002 0.532863 0.000015
3.572059 0.727883 0.558446 -0.013502 -0.041661 -0.012842
3.010617 0.533904 0.671684 -0.000000 -0.964571 0.000003
2.362013 0.749489 0.673561 -0.000000 0.957857 0.000006
0.165597 0.724058 0.711787 -0.167376 0.000217 0.000177
1.978532 0.798846 0.495605 0.065272 0.010834 0.010709
2.012550 0.412681 0.862454 0.065273 -0.004262 -0.004261
1.848603 0.557575 0.752996 0.078204 0.006752 0.006740
1.897740 0.710426 0.550995 0.078203 -0.006753 -0.006740
1.856163 0.745448 0.511429 0.078202 -0.006753 -0.006740
1.892070 0.786844 0.767059 0.065273 0.008090 -0.008044
1.694500 0.727973 0.714060 -0.000000 -0.707761 -0.000601
1.966248 0.369882 0.381739 0.065274 -0.007945 0.007902
2.848465 0.532862 0.667686 0.000000 -0.970981 0.000005
3.592411 0.497043 0.498932 -0.013502 0.029783 -0.012285
3.624903 0.647390 0.529195 -0.000068 0.001719 -0.001772
2.009715 0.760623 0.769333 0.078204 -0.009043 0.009000
3.624283 0.743269 0.538386 -0.013502 0.059187 0.013283
3.624283 0.538852 0.540209 -0.013503 0.059403 -0.013188
3.624283 0.538852 0.742425 -0.013502 0.059408 0.013187
3.624283 0.745089 0.742425 -0.013503 -0.059403 0.013188
1.281006 0.751855 0.618373 0.000000 0.976905 -0.000004
1.010755 0.613147 0.749805 0.000000 -0.262898 0.000141
1.996958 1.085857 0.187254 0.078205 -0.008199 -0.008170
1.963885 0.196584 1.100543 0.078203 0.008199 0.008170
2.347428 0.641882 0.753573 0.000000 -0.025478 0.000096
2.873346 0.636729 0.529192 -0.000000 -0.025486 -0.000188
3.632504 0.500735 0.783809 -0.013502 -0.059188 -0.013283
3.632504 0.500735 0.498826 -0.013502 -0.029674 0.012367
2.848465 0.718922 0.559591 0.000000 0.679602 -0.000010
0.362151 0.750003 0.671813 0.000000 0.964811 0.000005
2.199862 0.609769 0.748848 -0.000001 -0.286437 0.000032
0.807423 0.645347 0.753490 0.000000 0.025487 0.000024
3.664376 0.741852 0.742076 -0.013501 0.059191 -0.013282
3.664376 0.542089 0.540559 -0.013502 -0.059186 0.013283
3.648440 0.762529 0.519692 -0.013502 0.059190 0.013282
1.873171 0.425571 0.882034 0.078204 0.001779 0.001781
1.865612 0.839288 0.863825 0.078204 -0.006994 0.006979
1.335057 0.534835 0.674838 0.000000 -0.957900 0.000001
1.863722 0.519411 0.493220 0.078204 0.003376 -0.003379
1.865612 0.421221 0.442285 0.065274 -0.008379 0.008326
3.688534 0.761643 0.522397 -0.013502 -0.059407 -0.013187
3.688534 0.522298 0.522397 -0.013502 0.059407 -0.013187
1.864372 0.218124 0.214169 -0.093545 0.002796 -0.003092
1.864372 1.065818 1.068466 -0.093545 -0.002796 0.003092
0.042463 0.620785 0.684507 -0.648721 -0.000011 0.000022
1.761606 0.462222 0.447867 -0.093543 0.004474 -0.004943
1.605308 0.606760 0.747901 0.000000 -0.311179 0.000029
0.956704 0.624621 0.752222 -0.000001 -0.163735 0.000116
0.470252 0.749783 0.610052 -0.000001 0.955072 -0.000003
3.605170 0.704261 0.547934 0.000001 0.560650 -0.000057
3.399037 0.571027 0.570840 -0.000001 -0.707677 -0.000073
1.741050 0.498801 0.483540 -0.093543 0.004754 -0.005252
3.497069 0.678949 0.747303 0.000000 0.335402 0.000216
2.956566 0.715293 0.556317 0.000000 0.660734 -0.000005
0.686453 0.748707 0.606571 -0.000001 0.950242 -0.000025
1.523804 0.643303 0.529093 0.000000 0.025415 -0.000048
1.837317 0.263451 1.024060 -0.093545 0.003076 0.003401
0.524302 0.577263 0.733041 -0.000000 -0.581622 0.000054
1.389107 0.546335 0.582545 -0.000000 -0.855265 -0.000006
1.741050 0.798777 0.785432 -0.078138 0.006235 -0.005734
1.748609 0.479719 0.817303 -0.093543 0.004754 0.005252
1.931758 0.557633 0.538912 0.078204 0.005064 -0.005063
1.918528 0.990918 0.309433 -0.078139 0.004310 0.003970
0.107818 0.697149 0.712601 -0.392549 0.000059 0.000072
1.951601 0.352570 0.946207 0.078204 0.006150 0.006142
1.951601 0.931371 0.336428 0.078203 -0.006150 -0.006142
1.963885 0.183140 0.195561 0.065274 -0.009823 0.009732
1.971445 1.106439 0.163882 0.078205 -0.008199 -0.008170
1.963885 1.100802 1.087074 -0.078139 0.012836 -0.011685
2.091761 0.573647 0.552252 -0.000000 -0.602075 -0.000051
1.724049 0.561534 0.719635 0.000001 0.707760 -0.000902
0.980727 0.636907 0.529188 0.000000 -0.025495 -0.000188
2.145811 0.722838 0.563466 0.000000 0.715942 -0.000037
1.875560 0.738712 0.698265 0.000000 0.855285 0.000047
3.500467 0.413583 0.869889 0.007772 -0.039418 -0.007824
3.500467 0.413583 0.412745 0.007772 -0.039416 0.007825
2.056586 0.529814 0.645315 -0.000000 -0.999658 0.000000
0.099966 0.600004 0.565708 -0.423239 -0.000041 -0.000070
2.008297 0.169461 1.122694 0.078205 0.003738 0.003741
3.064667 0.674129 0.533773 0.000000 0.287196 -0.000064
1.379670 0.529807 0.645048 0.000000 -0.999692 0.000000
2.006880 0.808457 0.465241 0.078203 -0.003798 -0.003801
1.767459 0.571970 0.729065 0.000000 -0.621885 0.000006
1.909296 0.245442 0.256787 -0.078138 -0.003943 0.003633
1.039067 0.754188 0.642916 0.000000 0.999675 0.000000
2.096177 0.741419 0.542053 0.078204 -0.007235 -0.007218
1.713409 0.616769 0.750708 -0.000000 -0.213422 0.000044
2.253912 0.669245 0.532431 -0.000001 0.233027 -0.000020
2.686315 0.725738 0.566595 0.000000 0.750454 -0.000034
1.782163 0.858299 0.870441 -0.093543 -0.004195 0.004635
3.238829 0.754125 0.637231 0.000000 0.999675 -0.000000
2.470113 0.751684 0.665043 0.000000 0.976681 0.000002
2.008297 0.160530 0.168888 0.065273 -0.004912 0.004907
2.037591 1.123436 0.154248 0.078203 -0.003738 -0.003741
1.977115 0.830804 0.439637 0.078203 -0.001899 -0.001902
1.010755 0.531175 0.623310 -0.000000 -0.986422 -0.000003
1.893488 0.857766 0.837981 0.065273 0.004190 -0.004189
2.006880 0.817532 0.808302 0.065274 0.004551 -0.004548
2.935117 0.646502 0.529174 0.000001 0.024550 -0.000196
0.924961 0.529796 0.638030 -0.000000 -0.995609 -0.000000
3.572059 0.727883 0.724189 -0.013502 -0.041661 0.012842
2.066411 0.450189 0.446591 0.078203 0.003798 -0.003801
2.066411 0.450189 0.836044 0.078205 0.001899 0.001902
1.673944 0.638861 0.529138 -0.000001 -0.024488 -0.000196
2.015857 1.151724 0.139929 0.065274 0.004334 0.004333
1.769166 0.443140 0.852977 -0.093543 0.004474 0.004943
3.640726 0.460797 0.459265 -0.013502 -0.023746 0.011808
0.308101 0.533000 0.614388 -0.000000 -0.971139 -0.000009
0.902654 0.613147 0.749805 0.000000 -0.262919 0.000035
0.956704 0.692281 0.540973 -0.000001 0.451646 -0.000038
2.848465 0.566161 0.724101 0.000000 -0.679782 0.000005
2.307962 0.611603 0.749384 -0.000000 -0.262869 0.000071
3.704876 0.463065 0.819893 -0.013501 -0.023747 -0.011808
1.979005 0.146512 0.157603 0.065273 -0.004334 0.004333
2.442659 0.529855 0.646914 0.000000 -0.999675 0.000000
2.362013 0.534044 0.672199 0.000000 -0.964795 0.000001
1.648399 0.541747 0.547829 -0.078138 -0.006877 0.006320
1.570991 0.529753 0.639718 0.000001 -0.997964 -0.000000
2.066411 0.808757 0.471540 0.078202 -0.003798 -0.003801
2.066411 0.808757 0.811094 0.078208 -0.001899 0.001902
1.917583 0.815507 0.834327 0.078203 -0.001899 0.001902
1.226956 0.752891 0.658579 -0.000000 0.986521 0.000001
2.416063 0.750505 0.612665 0.000000 0.964841 -0.000003
0.470252 0.532390 0.665651 0.000000 -0.976887 0.000017
3.587996 0.576964 0.579084 0.063175 -0.000709 -0.000707
1.685955 0.754215 0.641850 0.000000 0.995569 0.000000
3.693772 0.581695 0.716901 0.410599 -0.000243 0.000342
3.693772 0.663483 0.547066 0.410599 0.000126 -0.000438
3.659220 0.751931 0.663915 0.410929 0.000117 0.000026
1.796846 0.749913 0.774314 -0.093544 -0.007288 0.008037
1.821509 0.715559 0.726083 0.000001 0.660850 0.000044
1.765878 0.774988 0.756775 -0.078137 0.009559 -0.008753
1.551258 0.710046 0.730570 -0.000000 0.602359 0.000006
1.674393 0.777188 0.512900 -0.078137 0.003439 0.003169
0.362151 0.752606 0.622346 0.000001 0.986430 -0.000013
3.620780 0.438462 0.439701 -0.013502 0.023834 -0.011732
2.902516 0.621992 0.530854 -0.000001 -0.188523 -0.000050
2.651997 0.639661 0.753517 0.000000 -0.025151 0.000024
0.524302 0.698687 0.738190 0.000000 0.496428 0.000004
1.497208 0.555653 0.713076 -0.000000 -0.764057 0.000004
0.470252 0.671266 0.749676 -0.000000 0.262911 0.000035
2.070191 0.913281 0.915006 0.078202 -0.006632 0.006621
2.070191 0.370661 0.915006 0.078204 0.003316 0.003319
2.470113 0.720649 0.721378 0.000000 0.698133 0.000020
0.956704 0.569599 0.555513 0.000001 -0.641487 -0.000023
3.649353 0.340418 0.339715 -0.013502 -0.047411 0.013086
