0.332980 -0.792094 -0.634558 -0.060155 0.596172 -0.800600
0.232748 -0.501192 0.410405 -0.060155 0.596172 0.800600
-0.050431 0.198693 -0.163869 -0.060155 -0.596172 -0.800600
0.462017 -0.049139 0.093068 -0.000035 -0.509253 0.859762
1.459572 -0.084736 -0.054128 0.000000 0.781973 0.623312
-1.355482 0.000000 -0.105244 0.000836 -0.054086 -0.997550
0.095861 0.049329 0.092968 0.000023 0.506579 0.861324
1.721580 0.231565 0.171166 0.000000 0.623312 -0.781973
1.636989 -0.219813 -0.188628 0.000000 0.623312 -0.781973
0.866463 0.065565 -0.082326 -0.000153 0.619511 -0.784241
0.020862 0.088203 0.086948 -0.060155 -0.596172 0.800600
-0.080684 -0.102834 0.022396 0.000024 -0.965471 0.257469
-0.661143 0.086170 0.060424 0.000867 0.807995 0.588224
1.613137 -0.108995 -0.100295 -0.000000 0.623312 -0.781973
1.088600 0.076980 0.071767 0.000197 0.729169 0.683275
-0.067510 0.094471 -0.046386 -0.000295 0.893827 -0.446819
-0.385450 0.076066 0.072734 -0.000006 0.730426 0.681903
-0.051662 0.052491 0.091220 -0.000005 0.505498 0.862009
1.562992 -0.233835 -0.172975 -0.000000 -0.623312 0.781973
-1.414949 0.032489 0.100104 0.002030 0.359665 0.932190
0.415889 0.520049 -0.414532 0.059731 -0.622199 -0.780577
1.510096 -0.199991 0.145999 -0.000000 -0.623312 -0.781973
0.415889 0.684205 -0.545382 0.059731 -0.622199 -0.780577
-1.699642 0.034157 0.088769 -0.299803 0.304557 0.902166
0.830904 0.020361 0.103256 -0.000322 0.244421 0.968883
1.673501 0.041063 -0.083303 0.310657 0.366003 -0.876285
0.342321 -0.540839 -0.436734 0.059731 0.622199 -0.780577
1.378351 -0.096953 0.040944 -0.000086 -0.937489 0.345739
1.157778 0.045966 0.094676 -0.000015 0.392376 0.919050
0.321139 -0.021609 -0.103002 0.000023 -0.254683 -0.966305
1.264300 -0.058078 0.087768 0.000046 -0.550336 0.834098
-0.496896 0.101735 0.026950 -0.000017 0.955103 0.293805
0.998815 -0.103632 -0.018353 -0.000637 -0.983870 -0.175372
0.086401 -0.031162 0.100525 0.000380 -0.300600 0.952964
0.731394 -0.088812 0.056469 -0.000086 -0.842652 0.537078
1.052623 -0.059334 0.086924 -0.000007 -0.598901 0.800000
0.013578 -0.145203 0.102038 -0.059699 -0.647349 -0.759852
0.348986 -0.745276 0.599181 0.059731 0.622199 0.780577
-0.325116 0.000000 0.105244 -0.001066 -0.065347 0.996681
0.407513 -0.656995 0.523056 0.059277 -0.622216 -0.780598
1.454766 0.100040 -0.032684 -0.000071 0.949473 -0.311656
-1.237636 -0.080845 -0.067383 0.000013 -0.770654 -0.636084
0.340333 -0.597540 0.470563 0.059277 -0.622216 -0.780598
1.696987 0.249480 -0.212276 0.000000 -0.623312 -0.781973
-0.508860 -0.095965 -0.043209 0.000009 -0.911841 -0.408766
-0.985350 0.105244 -0.000000 0.000368 0.997566 0.058085
0.357206 -0.161208 0.132990 0.059731 0.622199 0.780577
0.457828 -0.052887 -0.090991 -0.000230 -0.504896 -0.862339
1.213646 -0.053050 -0.090896 -0.000522 -0.501344 -0.864396
-0.851366 -0.100023 0.032739 0.000016 -0.962682 0.267621
-0.798315 0.018051 0.103685 -0.000748 0.216406 0.975531
0.306311 -0.494029 0.385470 0.059277 -0.622216 -0.780598
-1.609601 0.086847 -0.059448 0.000077 0.824610 -0.564438
0.310506 -0.101539 0.027682 -0.000057 -0.951091 0.306477
0.094878 -0.199925 -0.175705 -0.060155 0.596172 -0.800600
1.610025 0.013921 0.104319 0.000133 0.179437 0.983034
0.217936 -0.194933 0.170529 0.059731 0.622199 0.780577
0.341966 -0.291578 -0.226804 0.059277 -0.622216 0.780598
1.310568 -0.118893 0.081355 -0.000000 -0.623312 -0.781973
0.034769 0.021710 -0.102981 -0.000032 0.161817 -0.985695
-1.675557 -0.070738 -0.071920 -0.201473 -0.709287 -0.673856
-0.079524 0.138073 -0.116542 -0.060155 -0.596172 -0.800600
0.252184 0.398243 -0.305009 0.059277 0.622216 0.780598
0.009030 0.083349 -0.064282 0.000000 -0.781973 0.623312
-1.461430 -0.095104 0.045073 0.000158 -0.907626 0.418066
1.437281 0.183484 -0.132841 -0.000000 0.623312 0.781973
1.731314 0.074255 0.059189 0.320999 0.539723 -0.778241
-0.059578 -0.167908 0.127129 -0.059699 -0.647349 -0.759852
0.302776 -0.318285 0.245116 0.059277 -0.622216 -0.780598
1.317006 0.135180 0.117814 -0.155698 -0.364042 0.918276
0.180799 -0.132939 -0.123955 0.059731 0.622199 -0.780577
0.566361 0.040545 0.097121 -0.000214 0.428239 0.902878
1.439314 0.050001 -0.092608 -0.000072 0.432728 -0.900702
1.439752 0.191831 0.139495 -0.100762 0.752489 -0.645320
0.415889 -0.699839 -0.557844 0.059277 -0.622216 0.780598
0.750886 0.010689 0.104700 0.000854 0.106594 0.993701
0.218488 -0.570114 -0.447938 -0.059699 -0.647349 0.759852
0.405391 -0.108648 -0.085806 0.059277 -0.622216 0.780598
-1.430587 0.006656 -0.105034 0.001553 0.108422 -0.993531
0.274774 -0.216508 -0.161863 0.059277 -0.622216 0.780598
-0.164856 -0.083786 -0.063734 0.000000 0.781973 0.623312
1.205785 0.104340 -0.013765 0.001348 0.991481 -0.124946
0.585203 -0.087365 0.058683 0.000196 -0.800831 0.597677
1.544665 0.094765 0.088952 -0.000000 -0.623312 0.781973
0.989401 -0.088628 0.056758 -0.001465 -0.814365 0.579145
0.000287 -0.261711 0.202341 -0.059699 -0.647349 -0.759852
-0.315688 -0.090312 -0.054039 0.000257 -0.860712 -0.507749
0.718910 -0.029780 -0.100943 -0.000192 -0.277437 -0.959974
0.278391 0.103173 -0.020777 -0.000238 0.978142 -0.204338
0.633603 0.102081 0.025608 0.000027 0.955783 0.291552
-0.590004 0.084781 -0.062358 -0.000162 0.835223 -0.548577
1.658245 -0.158890 -0.140066 0.000000 0.623312 -0.781973
0.397558 0.190353 0.153134 0.059731 -0.622199 0.780577
0.230642 0.594717 -0.467943 -0.059699 0.647349 0.759852
-1.559546 -0.011443 0.104620 0.000515 -0.163785 0.985413
-1.235845 0.097428 0.039802 0.000206 0.926413 0.374601
1.547619 0.205257 -0.177026 -0.000000 -0.623312 -0.781973
-1.708876 0.085670 -0.034190 -0.300112 0.895034 -0.327335
1.731314 0.074255 -0.059189 0.320999 -0.638312 -0.699655
0.120293 0.138644 0.088066 -0.020041 0.639779 -0.767747
0.005300 -0.315648 0.247898 -0.059699 -0.647349 -0.759852
0.173924 0.462525 0.359780 -0.059699 0.647349 -0.759852
0.815290 0.000000 -0.105244 0.000507 -0.057788 -0.997551
0.942899 0.036992 -0.098529 0.000101 0.353433 -0.934671
-0.841078 0.102747 -0.022793 -0.000220 0.967151 -0.251393
0.226472 -0.563963 0.442070 -0.059699 -0.647349 -0.759852
-0.536270 -0.088245 0.057352 -0.000014 -0.863321 0.503204
0.014865 0.396932 -0.316395 -0.059699 0.647349 0.759852
1.137208 0.101039 -0.029452 0.000232 0.959004 -0.281033
-0.633071 -0.035211 -0.099179 0.000030 -0.379491 -0.924385
1.372899 -0.131064 -0.091056 -0.000000 -0.623312 0.781973
1.481922 0.061361 0.085505 -0.000039 0.585090 0.810057
-0.852124 -0.064472 -0.083185 -0.000093 -0.646261 -0.762236
0.085597 -0.220761 0.190523 -0.060155 0.596172 0.800600
-0.872220 -0.057070 0.088427 0.000507 -0.581521 0.812503
-0.658925 -0.105009 0.007034 -0.000685 -0.998351 0.047442
1.789296 -0.305134 -0.243223 0.320999 -0.539723 0.778241
1.764170 -0.205086 0.163475 0.320999 0.638312 0.699655
1.222057 0.078197 0.062331 0.000000 -0.781973 -0.623312
1.791229 -0.312830 0.249357 0.320999 0.638312 0.699655
-1.786399 -0.046504 0.020213 -0.629358 -0.732249 0.249814
-1.585060 -0.100901 0.029923 0.001052 -0.943354 0.329705
0.252026 0.335650 0.255104 0.059277 0.622216 -0.780598
0.349436 -0.231232 0.179269 0.059277 -0.622216 -0.780598
0.415889 -0.418428 0.333530 0.059277 -0.622216 -0.780598
0.441097 -0.095468 0.044297 -0.000037 -0.886045 0.461994
0.321893 0.129699 -0.096246 0.059277 0.622216 0.780598
1.117537 -0.097966 -0.038459 -0.000264 -0.928030 -0.370611
0.434763 0.097385 -0.039905 0.000155 0.904492 -0.424736
0.286045 0.510303 0.416700 0.059731 -0.622199 0.780577
0.224925 0.697885 0.556286 -0.059699 0.647349 -0.759852
0.091251 -0.506369 0.403628 -0.059699 -0.647349 -0.759852
0.052968 -0.399376 0.321079 -0.060155 0.596172 0.800600
0.332711 0.655538 0.516214 0.059277 0.622216 -0.780598
-0.117621 0.126486 0.096400 -0.059699 0.647349 -0.759852
0.191762 -0.275027 -0.202205 0.059277 -0.622216 0.780598
1.727448 -0.037589 0.065219 1.000000 0.000000 -0.000000
0.286045 0.510303 -0.416700 0.059731 -0.622199 -0.780577
0.120293 0.138644 -0.088066 -0.020041 0.639779 0.767747
0.332155 -0.055865 0.089193 -0.000106 -0.490908 0.870355
0.191917 0.483578 -0.394220 -0.060155 -0.596172 -0.800600
-0.948141 0.074965 -0.073869 -0.000095 0.748075 -0.662490
-1.492442 0.096452 0.042111 0.001160 0.897362 0.439707
1.394059 -0.101031 -0.029482 -0.000648 -0.947462 -0.317772
1.658199 0.172862 0.124374 -0.000000 0.623312 -0.781973
1.626921 -0.099803 0.033402 0.104564 -0.939709 0.314903
-0.077679 -0.018850 -0.103542 0.001033 -0.182866 -0.982405
1.390097 0.131377 -0.091306 0.000000 0.623312 0.781973
0.121608 0.101533 -0.027700 -0.000150 0.949003 -0.312911
1.379607 0.007396 -0.104984 0.000063 0.111151 -0.993067
0.240531 0.333313 -0.252368 0.059277 0.622216 0.780598
-0.414236 -0.017804 -0.103727 -0.000666 -0.213939 -0.976076
-0.204743 0.082298 -0.065600 -0.059699 0.647349 0.759852
-0.979699 -0.055888 -0.089179 0.000707 -0.491491 -0.870001
0.600623 -0.022733 -0.102760 -0.000036 -0.213954 -0.976128
-1.012688 -0.061813 0.085179 0.000418 -0.555168 0.830841
-0.605176 -0.075318 0.073509 -0.000040 -0.746968 0.663752
1.515992 -0.103434 -0.019435 0.000588 -0.973030 -0.227864
1.519315 -0.175482 -0.153292 0.000000 0.623312 -0.781973
0.177773 0.354346 0.296924 -0.060155 -0.596172 0.800600
-1.208311 -0.029287 -0.101087 -0.000059 -0.321579 -0.946098
0.172743 0.222710 -0.159059 0.059277 0.622216 0.780598
1.295461 0.000000 0.105244 0.000549 -0.051265 0.997996
0.346234 0.738172 0.593729 0.059731 -0.622199 0.780577
0.093201 0.373445 0.290231 -0.059699 0.647349 -0.759852
0.732503 0.085541 -0.061312 0.000329 0.837955 -0.544302
-0.577385 0.029011 0.101167 0.000098 0.296631 0.954218
0.274629 -0.409696 0.315842 0.059277 -0.622216 -0.780598
0.876716 -0.090513 0.053700 -0.000044 -0.833766 0.551006
0.354405 0.643275 -0.517461 0.059731 -0.622199 -0.780577
-0.329147 -0.080860 0.067364 -0.000331 -0.765216 0.642590
-1.288009 0.040968 0.096943 0.000081 0.394213 0.918250
0.202765 0.190344 0.135539 0.059277 0.622216 -0.780598
1.484714 -0.133514 0.093009 -0.000000 -0.623312 -0.781973
0.044145 0.346585 -0.271202 -0.059699 0.647349 0.759852
-0.243065 0.083780 0.063697 0.000038 0.801281 0.597090
0.360084 -0.543972 0.429363 0.059277 -0.622216 -0.780598
1.335200 0.100684 0.030644 -0.000036 0.941890 0.333830
0.210238 0.517943 0.404140 -0.059699 0.647349 -0.759852
-0.304001 0.018450 -0.103614 -0.000233 0.212912 -0.976264
0.153395 0.088631 0.056753 0.000127 0.816565 0.575977
0.357242 0.338748 -0.265564 0.059277 0.622216 0.780598
-0.651979 0.058632 -0.087399 0.000426 0.545455 -0.837258
-0.161777 0.143857 -0.114669 -0.059699 0.647349 0.759852
0.366935 0.423803 -0.334097 0.059277 0.622216 0.780598
0.415889 -0.238638 -0.190219 0.059277 -0.622216 0.780598
1.683701 -0.268818 -0.200861 0.000000 -0.623312 0.781973
0.114991 -0.101345 -0.103808 -0.020194 0.605635 -0.794946
0.360545 0.590702 -0.475085 0.059731 -0.622199 -0.780577
-1.407554 -0.102937 -0.021919 0.000885 -0.977837 -0.205985
-1.270639 -0.024818 0.102276 -0.000419 -0.287180 0.957129
0.769327 0.103734 0.017763 -0.001789 0.983845 0.173825
-1.700073 -0.010585 -0.094397 -0.299379 -0.149362 -0.940538
0.236941 -0.467297 -0.358894 0.019618 -0.631401 0.774662
-0.565201 0.105244 -0.000000 0.001195 0.997435 0.055113
-0.713728 0.079617 -0.068830 -0.000016 0.745755 -0.665096
0.037275 -0.167514 -0.147241 -0.060155 0.596172 -0.800600
0.525120 -0.030490 0.100731 -0.000185 -0.286739 0.957241
-0.043643 -0.235139 -0.191519 -0.060155 0.596172 -0.800600
-1.651777 0.076815 0.070459 -0.102383 0.696431 0.708841
1.297860 -0.071659 -0.070534 0.000000 0.781973 0.623312
0.247368 0.139940 0.098750 0.059277 0.622216 -0.780598
-0.107763 -0.071399 0.077321 -0.000000 -0.676815 0.735139
1.708320 0.275540 0.233048 -0.000000 -0.623312 0.781973
0.432482 0.063762 0.083730 -0.000070 0.571053 0.820132
0.064901 -0.332734 0.272349 -0.060155 0.596172 0.800600
-1.102476 -0.036254 -0.098803 0.001092 -0.399554 -0.915821
1.169856 -0.022064 0.102906 -0.000534 -0.254370 0.966307
-1.179721 0.086840 -0.059457 0.000036 0.796229 -0.603915
1.718264 -0.070057 -0.034906 0.314011 -0.848802 -0.422370
0.277338 0.418927 0.344530 0.059731 -0.622199 0.780577
0.243613 -0.340192 -0.258085 0.059277 -0.622216 0.780598
-1.356211 0.061491 0.085412 0.000465 0.607936 0.793206
0.129131 0.356180 -0.272700 -0.059699 0.647349 0.759852
0.279064 0.676328 -0.533667 -0.059699 0.647349 0.759852
-0.386444 0.089056 -0.056084 0.000081 0.838674 -0.543279
0.363738 -0.331688 0.268380 0.059731 0.622199 0.780577
1.658199 0.172862 -0.124374 -0.000000 0.623312 0.781973
-0.368282 0.028875 -0.101206 0.000082 0.323566 -0.945424
-0.451127 0.094094 -0.047144 0.000032 0.875207 -0.482170
0.340269 0.127797 0.096125 0.059277 0.622216 -0.780598
0.170031 -0.104827 0.009367 -0.001330 -0.994287 0.100828
0.125480 -0.275935 0.204623 -0.059699 -0.647349 -0.759852
-0.075994 0.193755 0.150439 -0.059699 0.647349 -0.759852
-1.018133 0.067104 0.081077 -0.001395 0.633883 0.772376
1.499932 0.167234 -0.146717 0.000000 -0.623312 -0.781973
1.511881 0.182240 0.131849 -0.000000 0.623312 -0.781973
0.182030 -0.510385 -0.399917 -0.059699 -0.647349 0.759852
1.633415 0.265795 -0.198451 -0.000000 0.623312 0.781973
0.198219 -0.261048 0.191552 0.059277 -0.622216 -0.780598
0.715266 0.086362 0.060149 0.000020 0.821145 0.569561
0.242343 -0.619517 -0.499237 -0.060155 0.596172 -0.800600
0.495176 0.000000 -0.105244 0.000768 -0.052891 -0.997659
1.669744 -0.092018 0.086762 -0.000000 0.623312 0.781973
1.601251 0.055579 -0.089372 -0.000032 0.485789 -0.873243
-0.103010 0.039326 -0.097621 -0.000237 0.424345 -0.904725
0.136199 0.162676 0.151072 0.019769 -0.614310 0.788272
1.361020 0.008243 0.104921 -0.001170 0.095377 0.994837
1.073389 0.019670 -0.103390 -0.001081 0.160984 -0.985895
0.642779 -0.100100 -0.032500 -0.000236 -0.935750 -0.350443
-0.170100 0.034905 -0.099287 0.000068 0.378195 -0.924958
-1.378955 -0.052071 0.091460 -0.000029 -0.459219 0.887486
1.615574 0.105244 -0.000000 0.003518 0.998069 0.050167
1.526205 0.101717 -0.094493 -0.000000 -0.623312 -0.781973
-0.213142 -0.029128 -0.101133 -0.000684 -0.324776 -0.945106
0.284766 0.563216 -0.458974 0.059731 -0.622199 -0.780577
-0.779300 0.042451 -0.096303 0.000029 0.435188 -0.899554
0.415889 0.785826 0.626384 0.059731 -0.622199 0.780577
0.352832 -0.603556 -0.485921 0.059731 0.622199 -0.780577
0.111657 -0.439660 -0.355485 -0.060155 0.596172 -0.800600
-1.679142 -0.088616 0.046712 -0.176493 -0.890505 0.416288
0.055118 -0.103050 0.021376 0.001279 -0.968291 0.246874
1.190218 -0.101631 0.027342 0.000106 -0.952114 0.303303
0.224943 -0.119927 -0.081094 0.059277 -0.622216 0.780598
1.614282 -0.252613 0.214773 -0.104528 0.455088 0.880802
-0.160469 0.103638 -0.018320 -0.000001 0.973311 -0.226255
1.723746 -0.289281 0.217172 0.000000 -0.623312 -0.781973
0.152938 -0.174353 0.119009 0.059277 -0.622216 -0.780598
1.328687 0.121702 -0.083594 0.000000 0.623312 0.781973
0.415889 -0.144834 0.115447 0.059277 -0.622216 -0.780598
-1.162906 0.047796 0.093765 -0.000029 0.495967 0.867549
0.357197 -0.700912 0.554242 0.059277 -0.622216 -0.780598
-0.098219 -0.127578 -0.107322 -0.060155 0.596172 -0.800600
0.219393 -0.324847 0.244015 0.059277 -0.622216 -0.780598
0.500031 0.082593 0.065229 0.000066 0.811658 0.582860
0.415889 -0.254272 0.202681 0.059277 -0.622216 -0.780598
0.197210 0.404409 -0.335664 -0.060155 -0.596172 -0.800600
0.930382 0.008887 0.104868 -0.000278 0.139502 0.989330
-1.075023 0.066519 -0.081557 -0.000034 0.605398 -0.795018
-0.789805 -0.102554 0.023644 0.000016 -0.972275 0.230520
0.216413 0.607168 0.479669 -0.059699 0.647349 -0.759852
-1.664401 -0.021726 0.100411 -0.164110 -0.169634 0.970486
0.313092 -0.697355 -0.562516 -0.060155 0.596172 -0.800600
-1.457340 -0.069480 -0.079050 0.000001 -0.623822 -0.780608
0.059625 0.102078 -0.025622 -0.000042 0.955254 -0.293260
-0.265181 0.093687 -0.047950 0.000099 0.906880 -0.419638
0.050871 0.124174 -0.115990 -0.060155 -0.596172 -0.800600
-0.892023 -0.014894 -0.104185 0.000101 -0.185658 -0.981898
0.327000 0.749847 -0.592535 -0.059699 0.647349 0.759852
-1.326407 -0.065150 -0.082655 -0.000041 -0.656856 -0.753022
-0.219158 -0.088517 0.056931 0.000085 -0.865120 0.500118
0.039711 0.217819 0.184884 -0.060155 -0.596172 0.800600
-1.324381 -0.102718 0.022919 -0.000445 -0.977411 0.208328
1.558332 0.102615 0.023376 -0.000526 0.974250 0.222146
0.143696 0.283915 0.209990 -0.059699 0.647349 -0.759852
0.214708 0.428175 0.327312 -0.059699 0.647349 -0.759852
-0.621054 -0.096328 -0.042393 -0.000440 -0.889448 -0.454956
1.145773 0.053637 -0.090551 0.000981 0.524571 -0.850265
-0.890647 0.082991 0.064721 -0.000093 0.757376 0.651854
0.657552 0.097292 -0.040134 0.000236 0.939787 -0.339790
0.386988 0.170840 -0.133982 0.059277 0.622216 0.780598
0.354133 0.268417 0.218682 0.059731 -0.622199 0.780577
1.351798 0.101406 -0.028162 -0.000354 0.962680 -0.268370
0.202503 0.151064 -0.104209 0.059277 0.622216 0.780598
-0.058888 0.094120 0.047093 -0.000059 0.896090 0.442124
0.641551 0.007550 0.104973 -0.000329 0.028083 0.999106
0.364598 0.690756 0.554528 0.059731 -0.622199 0.780577
0.366328 -0.061297 -0.085552 -0.000979 -0.577707 -0.815234
0.415889 -0.308991 0.246297 0.059277 -0.622216 -0.780598
-0.037119 -0.111898 -0.077647 -0.059699 -0.647349 0.759852
1.401176 -0.055323 0.089531 0.000419 -0.563824 0.824979
0.405506 0.793256 -0.633101 0.059731 -0.622199 -0.780577
0.300567 -0.646562 -0.506618 0.019618 -0.631401 0.774662
0.516137 -0.101496 -0.027839 -0.000190 -0.950289 -0.308929
-0.443706 0.086858 0.059431 0.000027 0.852939 0.520593
0.313438 0.328414 0.253999 0.059277 0.622216 -0.780598
-0.732154 -0.077531 0.071171 0.000228 -0.707583 0.705668
0.377866 0.086943 -0.059307 0.000017 0.819943 -0.571264
1.281683 0.092601 0.060398 0.000000 0.623312 -0.781973
1.154657 -0.070314 -0.078309 0.000194 -0.673227 -0.738557
1.662940 0.077748 0.048558 0.000000 0.623312 -0.781973
-1.521911 -0.104681 0.010873 0.003008 -0.987679 0.148994
0.840282 0.081041 0.067146 0.000762 0.739347 0.672251
0.267189 0.220105 -0.186825 0.059731 -0.622199 -0.780577
0.167197 -0.345157 0.289286 -0.060155 0.596172 0.800600
0.052066 -0.094635 -0.046050 -0.000032 -0.876580 -0.479698
1.791229 0.312830 0.249357 0.320999 0.539723 -0.778241
0.121244 0.488478 -0.386029 -0.059699 0.647349 0.759852
-0.785298 0.104217 0.014666 -0.000452 0.989992 0.134653
0.386957 -0.103411 0.019558 -0.000576 -0.981721 0.186575
-0.940170 0.016968 0.103867 0.000209 0.210471 0.976815
1.035368 0.000000 0.105244 0.000503 -0.033904 0.998257
1.463920 -0.161852 0.142427 0.000000 0.623312 0.781973
0.415889 0.566951 -0.451918 0.059731 -0.622199 -0.780577
0.415889 -0.465330 0.370916 0.059277 -0.622216 -0.780598
0.415889 -0.746741 -0.595229 0.059277 -0.622216 0.780598
0.415889 -0.652938 -0.520458 0.059277 -0.622216 0.780598
-0.277535 -0.035045 -0.099238 -0.000195 -0.332969 -0.942369
0.168696 -0.365058 -0.277155 -0.059699 -0.647349 0.759852
-0.061521 0.287494 0.229162 -0.059699 0.647349 -0.759852
0.065724 0.260082 -0.195812 -0.059699 0.647349 0.759852
0.636588 -0.066939 0.081213 0.000072 -0.671962 0.739626
-0.409575 -0.104761 0.010078 0.000461 -0.987216 0.153029
1.398305 -0.181093 0.135407 -0.155698 -0.813992 -0.559620
1.752316 -0.344509 -0.274609 -0.155698 -0.813992 0.559620
1.656173 -0.303822 -0.242177 -0.155698 -0.813992 0.559620
-1.164002 -0.103306 -0.020104 -0.000014 -0.970351 -0.238468
1.438023 0.101710 0.067658 0.000000 0.623312 -0.781973
-0.871516 -0.101043 -0.029440 -0.000188 -0.947045 -0.319010
-1.792570 -0.016858 -0.042510 -0.636590 -0.371068 -0.672025
0.293786 0.418097 -0.342610 0.059731 -0.622199 -0.780577
-0.985101 -0.096629 0.041704 -0.000309 -0.932590 0.358778
0.665236 0.000000 -0.105244 -0.002344 -0.047560 -0.998214
0.213983 0.636633 -0.509852 -0.060155 -0.596172 -0.800600
-1.069076 0.009999 0.104768 0.000061 0.107554 0.993538
1.365706 -0.110454 0.101458 -0.000000 0.623312 0.781973
1.566974 -0.185115 0.160970 0.000000 0.623312 0.781973
-0.547209 -0.022843 -0.102735 0.000051 -0.262032 -0.964227
-1.076280 -0.053746 0.090486 0.000488 -0.521813 0.852269
-1.552087 -0.057242 -0.088316 -0.001846 -0.543483 -0.838437
-0.015582 -0.097304 0.040105 -0.000177 -0.921183 0.387344
-1.626610 0.013580 -0.104365 -0.016728 0.132605 -0.990124
0.074042 0.416842 0.335668 -0.060155 -0.596172 0.800600
0.313518 0.559734 0.438391 0.059277 0.622216 -0.780598
1.585416 -0.112368 0.076154 0.000000 -0.623312 -0.781973
0.806429 0.057445 -0.088184 0.000488 0.546086 -0.836839
0.173651 0.564009 -0.446260 -0.059699 0.647349 0.759852
0.206233 -0.026852 -0.101761 -0.000311 -0.298354 -0.953703
0.708506 -0.078771 -0.069796 -0.000241 -0.778829 -0.626068
0.591278 -0.081546 -0.066533 0.000114 -0.773255 -0.632881
0.009030 0.147065 0.103982 -0.059699 0.647349 -0.759852
-0.735866 -0.091084 -0.052727 -0.002899 -0.849566 -0.526118
-0.505180 0.000000 0.105244 0.000631 -0.024872 0.999123
0.146804 -0.213338 -0.149618 0.016780 -0.631992 0.774157
0.937376 -0.071215 0.077490 -0.000091 -0.708920 0.704241
0.283970 -0.541670 -0.441861 0.059731 0.622199 -0.780577
0.363738 -0.331688 -0.268380 0.059731 0.622199 -0.780577
0.323699 0.484813 0.379445 0.059277 0.622216 -0.780598
1.742910 0.120431 0.095996 0.320999 0.539723 -0.778241
-1.782281 0.052819 0.010526 -0.585243 0.781069 0.205439
0.059022 -0.265853 -0.201255 -0.059699 -0.647349 0.759852
0.273592 -0.374829 -0.309666 0.059731 0.622199 -0.780577
1.550301 -0.047624 0.093853 -0.000228 -0.448427 0.893013
0.230322 0.069516 -0.079018 0.000502 0.650629 -0.758502
0.276852 -0.678131 0.535376 -0.059699 -0.647349 -0.759852
0.365108 -0.488615 0.393362 0.059731 0.622199 0.780577
0.312184 -0.267742 0.205542 0.059277 -0.622216 -0.780598
0.331574 -0.187965 -0.143424 0.059277 -0.622216 0.780598
1.665022 0.263466 0.196595 -0.000000 0.623312 -0.781973
0.394858 0.613629 0.487528 0.059277 0.622216 -0.780598
0.244360 -0.170368 0.122775 0.059277 -0.622216 -0.780598
0.948328 -0.020144 -0.103298 -0.000256 -0.240148 -0.969947
-1.285457 0.105244 -0.000000 -0.002050 0.998179 0.048706
-1.053480 0.101976 -0.026025 -0.000229 0.961621 -0.272294
0.158602 0.270537 -0.197422 -0.059699 0.647349 0.759852
-0.625692 0.104134 0.015249 -0.000236 0.979924 0.195720
1.660383 -0.033166 0.091317 0.309888 -0.271028 0.910436
1.238766 0.098416 -0.065033 -0.000000 0.623312 0.781973
1.245935 -0.094122 -0.047089 0.000663 -0.891833 -0.450743
0.286589 -0.128214 -0.092381 0.059277 -0.622216 0.780598
1.752574 -0.158911 0.126668 0.320999 0.638312 0.699655
1.121287 -0.103605 0.018503 -0.000462 -0.975473 0.216990
-1.500382 -0.027076 0.101702 0.000318 -0.292443 0.955554
0.504248 0.104687 0.010816 -0.000275 0.988229 0.147948
-0.108512 0.071788 0.076960 -0.000105 0.674247 0.737510
1.621226 0.104516 0.096725 -0.000000 -0.623312 0.781973
1.456989 -0.192049 -0.139668 -0.000000 -0.623312 0.781973
-0.217175 -0.102891 -0.022131 0.000192 -0.976693 -0.211261
0.013892 0.189494 -0.139747 -0.059699 0.647349 0.759852
0.189520 0.557613 0.439564 -0.059699 0.647349 -0.759852
0.278856 -0.102303 -0.024706 0.000035 -0.960394 -0.276080
0.185655 -0.488508 0.380994 -0.059699 -0.647349 -0.759852
1.204954 -0.065089 0.082703 -0.000274 -0.579569 0.814021
0.291326 -0.443798 0.363284 0.059731 0.622199 0.780577
0.229901 -0.112139 0.075263 0.059277 -0.622216 -0.780598
1.756439 0.174303 -0.138937 0.320999 -0.638312 -0.699655
-0.702097 -0.037963 -0.098159 0.000015 -0.363473 -0.930803
1.475525 0.000000 0.105244 -0.000939 -0.026559 0.999060
-1.108181 0.102354 0.024496 -0.000413 0.962001 0.270511
0.308242 0.063323 0.084063 -0.000502 0.560975 0.826796
0.415889 0.512232 0.408301 0.059731 -0.622199 0.780577
1.308883 -0.127967 -0.088588 0.000000 -0.623312 0.781973
0.089018 0.005973 -0.105075 0.000840 0.095699 -0.994906
0.800804 -0.092926 0.049407 -0.000106 -0.882361 0.469002
-0.117998 -0.172662 -0.135769 -0.059699 -0.647349 0.759852
1.764170 -0.205086 -0.163475 0.320999 -0.539723 0.778241
0.106370 -0.422411 0.330913 -0.059699 -0.647349 -0.759852
0.385988 0.042642 -0.096219 -0.000187 0.453130 -0.890654
1.414811 -0.092656 -0.087271 0.000000 0.623312 -0.781973
0.881045 -0.104859 -0.008995 0.000592 -0.994202 -0.101363
0.221676 0.261681 0.193839 0.059277 0.622216 -0.780598
1.638049 0.073001 -0.044775 -0.108067 -0.777393 0.619662
0.143847 -0.119117 0.115765 0.059731 0.622199 0.780577
0.128893 -0.040999 -0.096930 0.000039 -0.389927 -0.920044
0.363213 0.499419 -0.402118 0.059731 -0.622199 -0.780577
0.129443 -0.561088 0.447245 -0.059699 -0.647349 -0.759852
1.652635 -0.098330 -0.016358 0.310201 -0.940622 -0.132798
1.490108 -0.233546 0.186160 -0.155698 -0.813992 -0.559620
0.273188 0.152242 -0.132272 0.059731 -0.622199 -0.780577
-0.012758 -0.040308 0.097219 -0.000686 -0.384288 0.922380
0.143403 0.404106 -0.312408 -0.059699 0.647349 0.759852
0.118046 0.459599 0.370814 -0.060155 -0.596172 0.800600
0.112955 -0.323257 0.245922 -0.059699 -0.647349 -0.759852
-0.362433 -0.040312 0.097218 -0.000249 -0.384882 0.922203
-0.185066 0.000000 0.105244 0.000571 -0.019944 0.999178
-0.010389 -0.196761 -0.147846 -0.059699 -0.647349 0.759852
0.991981 0.103798 -0.017388 -0.001052 0.984754 -0.166698
1.592553 -0.059342 -0.086919 0.000111 -0.602582 -0.797152
-0.455443 -0.101277 -0.028623 0.000593 -0.963899 -0.264543
0.590113 0.064043 -0.083516 -0.000118 0.602680 -0.797048
0.209433 -0.183033 -0.130218 0.059277 -0.622216 0.780598
0.120898 0.201267 -0.141369 -0.059699 0.647349 0.759852
-1.618261 -0.089470 -0.055422 0.000057 -0.849646 -0.525997
0.239248 -0.718405 -0.572642 -0.060155 0.596172 -0.800600
0.385739 -0.570764 -0.452668 0.059277 -0.622216 0.780598
1.104224 0.103349 0.019885 -0.000057 0.971356 0.234376
-1.556077 0.045719 0.094795 0.000088 0.470374 0.881831
0.243592 0.009869 0.104781 0.000017 0.105071 0.993776
-0.181709 0.054973 0.089746 0.000771 0.508914 0.860005
-1.271568 -0.104921 0.008238 0.000216 -0.992498 0.117032
1.586443 0.126714 -0.087589 -0.000000 0.623312 0.781973
1.005413 -0.049542 -0.092854 -0.000062 -0.505901 -0.861758
-0.613251 -0.028809 0.101224 0.000014 -0.318945 0.946983
0.091654 0.431205 -0.339561 -0.059699 0.647349 0.759852
1.373662 0.078197 0.062331 0.000000 -0.781973 -0.623312
-1.185421 0.105244 -0.000000 0.002347 0.999023 0.027252
0.786354 -0.098279 -0.037650 0.000011 -0.931923 -0.360754
1.271601 -0.141076 0.112452 -0.155698 -0.813992 -0.559620
1.404127 0.091518 -0.051970 -0.000043 0.869077 -0.493187
0.122878 -0.098856 0.036108 -0.000320 -0.920245 0.389447
1.671083 -0.016520 -0.092195 0.310603 -0.144514 -0.938609
-0.028713 0.243628 -0.189214 -0.059699 0.647349 0.759852
1.689513 0.110567 -0.074718 0.000000 0.623312 0.781973
-1.355534 0.099840 0.033291 0.000039 0.950057 0.309709
0.392083 0.426278 0.337979 0.059277 0.622216 -0.780598
-0.040250 0.301367 -0.241091 -0.060155 -0.596172 -0.800600
0.281374 0.345878 -0.285993 0.059731 -0.622199 -0.780577
1.516884 0.103099 -0.021143 -0.000286 0.969654 -0.241692
1.555553 0.000000 -0.105244 0.000761 -0.027219 -0.998907
0.699050 0.026063 0.101966 -0.000099 0.254160 0.966400
-1.050228 -0.105015 -0.006937 0.001352 -0.993900 -0.105082
-1.457127 0.062600 0.084603 -0.000497 0.629602 0.776007
1.596444 0.238036 0.176324 0.000000 0.623312 -0.781973
-0.120203 -0.025124 0.102201 -0.000969 -0.194731 0.980202
0.276696 0.262363 -0.219782 0.059731 -0.622199 -0.780577
0.258179 -0.236649 0.176657 0.059277 -0.622216 -0.780598
0.002570 -0.267759 -0.207314 -0.059699 -0.647349 0.759852
0.045192 0.291037 0.223797 -0.059699 0.647349 -0.759852
-0.840078 0.051430 0.091822 -0.000069 0.487930 0.872038
1.727448 0.075276 -0.000000 0.309662 0.948529 0.038216
0.209304 0.094282 0.046769 -0.000042 0.871529 0.488753
0.197941 0.335430 0.250821 0.059277 0.622216 -0.780598
0.964133 0.071320 0.077394 0.000194 0.709785 0.703408
1.727448 -0.041811 0.009766 1.000000 0.000000 0.000000
-0.277764 0.101943 0.026151 -0.000207 0.957162 0.287120
0.135218 -0.485682 -0.391527 -0.060155 0.596172 -0.800600
1.737112 -0.097343 -0.077592 0.320999 -0.539723 0.778241
0.873407 0.097397 -0.039877 0.000091 0.922965 -0.382963
-0.998140 0.040483 -0.097147 -0.000196 0.395878 -0.917525
0.010091 -0.390092 -0.310943 -0.060155 0.596172 -0.800600
-0.037326 0.104338 -0.094591 -0.060155 -0.596172 -0.800600
1.568236 0.046450 0.094439 -0.000117 0.480998 0.875880
0.409513 -0.063478 0.083946 -0.000049 -0.640967 0.766602
-0.040543 0.223659 0.183203 -0.060155 -0.596172 0.800600
0.209714 -0.101348 -0.028372 -0.000296 -0.960597 -0.275201
-0.529486 -0.104997 0.007208 0.000052 -0.993840 0.104875
-0.485052 0.066558 -0.081525 -0.000013 0.590910 -0.805784
0.327408 -0.388446 -0.302912 0.059277 -0.622216 0.780598
-0.930158 -0.104248 -0.014449 0.000217 -0.989966 -0.134956
-0.172700 0.099818 0.033356 -0.000387 0.926759 0.372962
0.229699 -0.704725 0.561738 -0.059699 -0.647349 -0.759852
-1.400549 0.104878 -0.008773 0.000919 0.991877 -0.120609
0.383275 0.248715 -0.200747 0.059731 -0.622199 -0.780577
1.268266 0.051795 0.091617 -0.000144 0.490520 0.870602
0.509494 0.056175 -0.088998 0.000184 0.534615 -0.844255
-0.830625 -0.023986 0.102475 -0.000152 -0.234963 0.971166
-1.356399 -0.096871 -0.041138 0.000352 -0.901622 -0.430704
0.920842 -0.094327 -0.046676 -0.000266 -0.894811 -0.444905
1.324020 -0.099618 0.033949 0.000748 -0.930140 0.365304
1.329671 0.025436 -0.102124 0.000109 0.290377 -0.956166
-1.728388 0.031288 -0.078898 -0.408744 0.299889 -0.859695
1.623188 -0.167728 0.147111 0.000000 0.623312 0.781973
-1.241324 -0.084593 0.062613 -0.000937 -0.773352 0.632965
1.701300 0.181040 0.157722 -0.000000 -0.623312 0.781973
1.483969 -0.104289 -0.096544 -0.000000 0.623312 -0.781973
0.128735 0.059882 -0.086547 0.000065 0.575908 -0.816629
1.607900 0.196278 0.143039 0.000000 0.623312 -0.781973
-0.827390 0.071607 -0.077129 -0.000028 0.705884 -0.707277
0.366254 -0.453625 -0.357816 0.059277 -0.622216 0.780598
0.357206 0.161208 0.132990 0.059731 -0.622199 0.780577
0.747358 -0.044380 0.095429 -0.000055 -0.420399 0.906518
0.068500 0.120565 0.076733 -0.059699 0.647349 -0.759852
-1.158929 -0.006901 -0.105018 -0.000456 -0.102616 -0.994100
0.247545 0.497174 -0.383515 -0.020041 0.639779 0.767747
0.280185 -0.061988 0.085052 0.000120 -0.589817 0.806626
-0.093663 0.224034 -0.179491 -0.060155 -0.596172 -0.800600
0.156449 -0.119643 -0.075666 0.059277 -0.622216 0.780598
0.091251 0.506369 0.403628 -0.059699 0.647349 -0.759852
1.675023 -0.212861 0.156257 -0.000000 -0.623312 -0.781973
-1.262139 0.024368 -0.102384 0.000112 0.206923 -0.977695
-1.342322 0.079275 -0.069223 -0.000117 0.723314 -0.689507
0.034409 0.098398 0.037338 0.000175 0.936183 0.349633
0.196117 0.032975 -0.099945 -0.000249 0.360436 -0.932047
0.400384 0.094677 0.045964 0.000290 0.878291 0.476678
-1.178538 -0.010758 0.104693 0.001915 -0.160263 0.986122
1.077637 0.100493 -0.031266 0.000096 0.936464 -0.348650
1.482055 0.077544 -0.071156 -0.000042 0.735621 -0.676355
0.172377 -0.588947 -0.467605 -0.059699 -0.647349 0.759852
-0.438742 0.039172 0.097683 -0.000081 0.409821 0.911345
0.292074 0.715598 -0.574521 -0.060155 -0.596172 -0.800600
0.324138 0.096900 0.041069 0.000261 0.923396 0.381885
1.611285 0.153069 -0.135426 -0.000000 -0.623312 -0.781973
-1.519147 0.019654 -0.103393 0.000570 0.233925 -0.971478
1.575920 -0.102653 0.023210 0.000748 -0.974649 0.220318
-0.065536 -0.190587 -0.156698 -0.060155 0.596172 -0.800600
0.611221 0.080782 0.067458 -0.000394 0.763635 0.644579
0.847364 -0.043062 -0.096031 -0.000122 -0.453584 -0.890392
-0.359475 0.038346 0.098010 -0.000030 0.411866 0.910421
0.223685 -0.415667 -0.346037 -0.020194 0.605635 -0.794946
-1.507439 -0.079166 -0.069348 0.000975 -0.754622 -0.655209
0.311963 -0.258398 -0.198078 0.059277 -0.622216 0.780598
-1.100373 -0.078989 -0.069550 -0.000055 -0.755291 -0.654318
1.496454 -0.012955 -0.104444 0.000295 -0.163808 -0.985700
1.544068 0.135283 0.121249 -0.000000 -0.623312 0.781973
0.205829 -0.670526 -0.534478 -0.060155 0.596172 -0.800600
1.439207 -0.106625 0.071576 0.000000 -0.623312 -0.781973
0.209108 -0.611947 0.491103 -0.060155 0.596172 0.800600
0.354749 0.026640 0.101817 0.000098 0.295293 0.954657
0.323320 -0.090691 -0.079373 0.059731 0.622199 -0.780577
0.267892 -0.759444 0.605354 -0.059699 -0.647349 -0.759852
0.549636 0.104234 -0.014549 -0.000097 0.982107 -0.184340
0.091976 0.297498 0.248145 -0.060155 -0.596172 0.800600
0.353589 -0.791319 0.635530 -0.000000 -0.781973 0.623312
-0.788563 0.066269 0.081760 -0.000197 0.663307 0.747360
0.123283 0.219987 0.192778 -0.060155 -0.596172 0.800600
1.693007 -0.137191 0.095941 0.000000 -0.623312 -0.781973
0.365120 0.206346 -0.168364 0.059731 -0.622199 -0.780577
-0.010565 -0.006409 -0.105049 -0.000331 -0.092898 -0.995175
0.291763 0.793643 -0.632615 -0.059699 0.647349 0.759852
1.049286 -0.100311 -0.031844 0.000102 -0.965033 -0.259106
0.034908 0.183304 0.132822 -0.059699 0.647349 -0.759852
1.103076 -0.050336 0.092426 0.000160 -0.433326 0.900473
0.078970 -0.136141 -0.127012 -0.060155 0.596172 -0.800600
-0.657673 0.009698 -0.104797 -0.000983 0.143287 -0.988883
1.643848 0.049867 0.089607 0.208271 0.473707 0.851661
0.381094 0.358826 0.283379 0.059277 0.622216 -0.780598
-0.461276 0.009736 -0.104793 0.000298 0.152066 -0.987374
-0.544042 0.059721 -0.086659 0.000178 0.592358 -0.804885
0.046296 -0.177302 0.126814 -0.059699 -0.647349 -0.759852
0.113275 -0.358731 -0.295343 -0.060155 0.596172 -0.800600
-1.575582 0.104399 0.013314 -0.000276 0.984414 0.170995
-0.680481 -0.020938 0.103141 -0.000153 -0.241090 0.969762
1.201678 -0.111486 -0.088866 -0.155698 -0.813992 0.559620
0.228616 0.098626 -0.036732 0.000061 0.917087 -0.396799
-0.124227 -0.103278 -0.020250 -0.000262 -0.980682 -0.191663
1.103674 -0.050215 -0.092492 0.000004 -0.473570 -0.879896
1.394536 -0.150442 -0.133332 -0.000000 0.623312 -0.781973
0.372239 -0.505342 -0.406150 0.059731 0.622199 -0.780577
-1.609601 -0.024104 0.102447 0.000073 -0.228599 0.972775
0.109749 -0.071406 0.077315 -0.000195 -0.642287 0.765547
-1.575529 -0.060091 0.086403 0.000178 -0.607149 0.793600
0.151385 -0.303306 -0.225905 -0.059699 -0.647349 0.759852
-1.496744 0.092975 -0.049315 0.000250 0.853699 -0.519273
0.702275 0.035195 -0.099185 -0.000697 0.336191 -0.941021
0.286169 -0.311771 -0.238663 0.059277 -0.622216 0.780598
-0.533469 0.079510 0.068953 0.000053 0.764772 0.643185
1.424269 0.153866 0.109232 -0.000000 0.623312 -0.781973
0.235635 -0.243386 -0.180316 0.059277 -0.622216 0.780598
-1.204041 0.075724 0.073091 -0.000232 0.716198 0.696952
-1.344464 -0.080731 0.067519 0.000015 -0.738942 0.672703
0.066404 0.221420 -0.162820 -0.059699 0.647349 0.759852
1.666853 0.212793 -0.183033 -0.000000 -0.623312 -0.781973
0.915325 0.105244 -0.000000 0.000615 0.999335 0.020811
-0.000666 -0.134988 -0.120170 -0.060155 0.596172 -0.800600
-1.532844 0.071039 -0.077652 -0.000110 0.639213 -0.768149
1.764170 0.205086 0.163475 0.320999 0.539723 -0.778241
0.325022 0.093600 -0.048118 -0.000238 0.885607 -0.462880
-0.017098 -0.305719 -0.246071 -0.060155 0.596172 -0.800600
0.258958 0.727700 0.579013 -0.059699 0.647349 -0.759852
1.054246 -0.027061 -0.101706 -0.000027 -0.243518 -0.969082
0.289742 0.243127 0.184217 0.059277 0.622216 -0.780598
0.445158 0.000000 0.105244 0.000420 -0.045648 0.998103
-0.690444 0.047995 0.093664 0.001521 0.401373 0.914787
0.909783 -0.059927 -0.086516 0.000517 -0.576284 -0.816328
0.228284 -0.403285 0.335815 0.059731 0.622199 0.780577
-0.119805 -0.062402 -0.084749 0.000186 -0.590793 -0.806058
1.625681 -0.198214 -0.144582 -0.000000 -0.623312 0.781973
0.308041 -0.157380 0.117258 0.059277 -0.622216 -0.780598
0.048790 -0.108704 0.104313 -0.060155 0.596172 0.800600
1.184198 0.104089 0.082969 -0.155698 0.813992 -0.559620
-1.246053 0.075102 -0.073729 -0.000051 0.694775 -0.718188
1.550985 -0.099877 -0.066198 0.000000 -0.623312 0.781973
0.362643 0.557236 0.448248 0.059731 -0.622199 0.780577
1.062579 0.041257 0.096820 0.000472 0.430118 0.901986
0.290607 0.595429 0.465104 0.059277 0.622216 -0.780598
-0.560142 -0.100215 -0.032145 -0.000013 -0.953589 -0.298051
0.104961 0.145962 -0.136278 -0.060155 -0.596172 -0.800600
0.169147 0.524205 -0.412703 -0.059699 0.647349 0.759852
0.256394 -0.035037 -0.099241 -0.000282 -0.335214 -0.941375
0.135218 -0.485682 0.391527 -0.060155 0.596172 0.800600
0.285645 -0.467012 -0.382223 0.059731 0.622199 -0.780577
0.980038 0.017586 0.103765 -0.000289 0.161862 0.985726
-0.275098 0.000000 0.105244 -0.000249 -0.017024 0.999366
1.752316 0.344509 -0.274609 -0.155698 0.813992 0.559620
-1.654172 0.097521 -0.036131 -0.084727 0.935936 -0.339473
-0.185647 -0.109658 0.087408 -0.059699 -0.647349 -0.759852
0.415889 -0.426245 -0.339761 0.059277 -0.622216 0.780598
0.415889 0.410611 -0.327299 0.059731 -0.622199 -0.780577
0.415889 -0.754558 0.601460 0.059277 -0.622216 -0.780598
0.415889 -0.551317 0.439456 0.059277 -0.622216 -0.780598
0.415889 0.332441 -0.264990 0.059731 -0.622199 -0.780577
0.415889 0.285540 0.227604 0.059731 -0.622199 0.780577
1.703523 -0.170201 -0.122253 0.000000 -0.623312 0.781973
1.725372 -0.236434 -0.201877 0.000000 0.623312 -0.781973
0.279872 0.065146 -0.082658 -0.001032 0.657541 -0.752517
0.375496 -0.620341 0.497566 0.059731 0.622199 0.780577
0.445158 0.000000 -0.105244 0.000767 -0.026034 -0.999155
0.119895 0.547408 0.436340 -0.059699 0.647349 -0.759852
0.105573 -0.526889 -0.419984 -0.060155 0.596172 -0.800600
-0.009005 0.362732 0.289135 -0.059699 0.647349 -0.759852
-0.161777 0.143857 0.114669 -0.059699 0.647349 -0.759852
0.239248 0.718405 -0.572642 -0.059699 0.647349 0.759852
0.167636 0.615807 0.490861 -0.059699 0.647349 -0.759852
0.038735 0.431131 -0.343655 -0.059699 0.647349 0.759852
-0.870842 0.103152 0.020881 0.000090 0.969300 0.242677
-1.689493 0.097273 0.010530 -0.227007 0.959004 0.162246
0.230572 -0.303115 -0.227541 0.059277 -0.622216 0.780598
0.020862 -0.088203 -0.086948 -0.060155 0.596172 -0.800600
0.154619 0.048338 0.093487 0.000123 0.452040 0.891180
-0.150450 -0.087886 0.057900 0.000013 -0.834269 0.550005
0.346134 0.279660 -0.228255 0.059731 -0.622199 -0.780577
1.315302 0.159570 -0.127194 -0.155698 0.813992 0.559620
1.525069 0.248341 -0.197953 -0.155698 0.813992 0.559620
0.151933 -0.230488 -0.202751 -0.060155 0.596172 -0.800600
0.077682 -0.412024 -0.324317 -0.059699 -0.647349 0.759852
0.243609 0.163520 0.143525 0.059731 -0.622199 0.780577
1.577849 0.191504 -0.139234 -0.000000 0.623312 0.781973
1.486253 -0.146719 -0.130365 -0.000000 0.623312 -0.781973
0.392380 -0.201363 -0.162306 0.059731 0.622199 -0.780577
-1.285267 0.093654 -0.048014 -0.000267 0.879846 -0.473857
-0.050891 -0.101816 -0.026641 0.000046 -0.964158 -0.262515
1.178546 -0.019372 -0.103446 0.001692 -0.208627 -0.977027
0.293053 0.204069 0.153336 0.059277 0.622216 -0.780598
0.260983 0.670195 0.529862 -0.059699 0.647349 -0.759852
0.551360 -0.022469 -0.102818 -0.000187 -0.210125 -0.976909
-1.134207 0.074009 -0.074826 0.000037 0.680723 -0.731578
0.054525 -0.332958 -0.271736 -0.060155 0.596172 -0.800600
0.484973 -0.085045 -0.061998 -0.000673 -0.831702 -0.554231
-1.569135 -0.009153 -0.104846 0.000816 -0.142966 -0.988788
0.288876 0.113950 0.100549 0.059731 -0.622199 0.780577
0.221338 0.286332 -0.243123 0.059731 -0.622199 -0.780577
0.818227 0.104702 0.010666 -0.001681 0.987953 0.149416
-0.220085 -0.035877 0.098940 0.000034 -0.340607 0.939452
-1.601292 0.071217 0.077488 -0.000062 0.639812 0.767608
0.879765 0.021302 0.103066 -0.001259 0.169096 0.984767
0.768983 -0.015575 -0.104085 -0.000198 -0.191088 -0.980825
1.021097 0.092573 0.050066 0.000226 0.878512 0.476224
-1.701434 -0.088135 -0.034332 -0.266949 -0.910769 -0.311817
1.262154 0.027182 -0.101673 0.000241 0.259650 -0.964949
-1.318992 -0.045325 0.094984 0.000126 -0.415473 0.908820
-1.444200 0.078277 -0.070349 0.000022 0.773983 -0.632178
1.579854 -0.225641 0.193274 -0.000000 0.623312 0.781973
0.295393 -0.512628 -0.399466 0.059277 -0.622216 0.780598
1.094717 -0.088518 0.056928 -0.000458 -0.840054 0.541269
0.146612 -0.164331 -0.151594 0.059731 0.622199 -0.780577
1.498878 0.115495 0.078647 0.000000 0.623312 -0.781973
0.210949 0.216945 -0.188609 0.059731 -0.622199 -0.780577
-0.104487 -0.225935 0.180093 -0.059699 -0.647349 -0.759852
-0.622089 0.059597 0.086744 -0.000047 0.602399 0.797264
0.402220 -0.101591 -0.027489 0.000197 -0.961915 -0.270688
1.257376 -0.103552 0.069127 -0.000000 -0.623312 -0.781973
1.538003 0.240211 0.182530 -0.155698 0.813992 -0.559620
0.356241 0.397940 0.321763 0.059731 -0.622199 0.780577
0.316140 -0.758527 -0.600782 -0.059699 -0.647349 0.759852
-1.002295 0.095448 0.044341 -0.000170 0.924733 0.378707
0.385870 0.718138 -0.570150 0.059277 0.622216 0.780598
1.727448 0.030734 -0.032945 1.000000 0.000000 0.000000
1.483003 -0.090462 0.058693 0.000000 -0.623312 -0.781973
0.241533 0.296669 0.223236 0.059277 0.622216 -0.780598
1.686049 0.133517 -0.119842 -0.000000 -0.623312 -0.781973
1.616583 0.273466 0.209037 -0.155698 0.813992 -0.559620
1.332527 0.113664 0.077187 -0.000000 0.623312 -0.781973
0.179442 -0.040920 0.096963 -0.000047 -0.389956 0.920043
0.480737 -0.104915 0.008314 0.002044 -0.990644 0.130553
0.300148 0.025802 -0.102032 -0.000082 0.290288 -0.956168
-1.516549 0.072392 0.076393 0.000048 0.683877 0.728699
0.380646 -0.391714 0.309559 0.059277 -0.622216 -0.780598
0.331084 -0.102467 0.075236 0.059277 -0.622216 -0.780598
1.732591 -0.241797 0.179323 0.000000 -0.623312 -0.781973
0.090824 -0.279988 -0.235020 -0.060155 0.596172 -0.800600
0.125934 0.273938 -0.233152 -0.060155 -0.596172 -0.800600
-0.927638 0.098165 0.037948 -0.001282 0.911094 0.410254
1.699411 0.142546 0.127038 0.000000 -0.623312 0.781973
0.303549 -0.347671 0.285726 0.059731 0.622199 0.780577
-0.075027 0.105244 -0.000000 0.000657 0.997806 0.050735
-0.090898 0.101054 -0.088121 -0.060155 -0.596172 -0.800600
-0.011121 -0.176366 0.130528 -0.059699 -0.647349 -0.759852
-0.086850 0.153217 0.127269 -0.060155 -0.596172 0.800600
0.001249 0.297949 0.241664 -0.060155 -0.596172 0.800600
0.036548 -0.231343 0.194717 -0.060155 0.596172 0.800600
0.199049 0.455999 -0.352246 -0.059699 0.647349 0.759852
0.210844 -0.347251 -0.292485 0.059731 0.622199 -0.780577
0.768331 -0.104850 0.009100 -0.000045 -0.994243 0.101324
0.133346 -0.183933 0.166686 -0.060155 0.596172 0.800600
-0.365046 -0.072267 -0.076510 0.000084 -0.684236 -0.728250
1.498214 0.146775 -0.103580 -0.000000 0.623312 0.781973
0.367876 0.467114 0.376011 0.059731 -0.622199 0.780577
1.036037 0.050917 -0.092108 -0.000002 0.529850 -0.847207
1.525069 -0.248341 -0.197953 -0.155698 -0.813992 0.559620
-0.114935 0.100279 -0.031945 0.000582 0.933997 -0.355156
0.241537 0.104827 0.009368 -0.000337 0.992090 0.117758
1.711667 0.296867 -0.223219 -0.000000 0.623312 0.781973
0.182206 0.337508 -0.252622 -0.059699 0.647349 0.759852
0.262497 0.052310 0.091324 -0.001477 0.529687 0.847206
1.523851 -0.106407 0.098232 -0.000000 0.623312 0.781973
0.377295 -0.769836 -0.610707 0.059277 -0.622216 0.780598
-0.519775 -0.062187 -0.084907 0.000016 -0.626507 -0.778465
-0.936265 -0.038742 -0.097854 -0.000831 -0.326117 -0.944637
0.614947 0.022538 -0.102803 0.000104 0.253997 -0.966404
0.095845 -0.083359 -0.064269 0.000000 0.781973 0.623312
0.276532 0.366457 0.281521 0.059277 0.622216 -0.780598
0.405144 0.105244 -0.000000 -0.000176 0.998072 0.048171
1.014530 -0.085976 -0.060699 -0.000447 -0.793400 -0.607586
0.039316 -0.036136 0.098846 -0.000038 -0.388861 0.920509
-0.772965 -0.010357 -0.104733 0.000523 -0.126228 -0.991061
-0.026260 0.092495 0.086604 -0.060155 -0.596172 0.800600
0.383048 -0.264005 -0.212952 0.059731 0.622199 -0.780577
-0.268315 0.060155 -0.086358 -0.000014 0.583180 -0.811480
-0.091325 -0.134940 0.113322 -0.060155 0.596172 0.800600
0.194485 0.180854 -0.161102 0.059731 -0.622199 -0.780577
-1.770509 -0.057860 -0.022761 -0.570672 -0.777972 -0.253032
0.239846 0.094484 0.088784 0.059731 -0.622199 0.780577
1.241345 0.103838 0.017149 -0.000083 0.986242 0.158943
-0.371854 0.104811 -0.009544 0.000345 0.991561 -0.122798
0.262568 -0.471868 0.387860 0.059731 0.622199 0.780577
1.403287 0.149606 -0.132666 -0.000000 -0.623312 -0.781973
0.178848 -0.125046 0.081674 0.059277 -0.622216 -0.780598
0.207556 -0.364186 0.274473 0.059277 -0.622216 -0.780598
-0.422777 -0.042597 0.096238 0.000013 -0.406305 0.912916
0.179452 -0.417353 -0.320861 -0.059699 -0.647349 0.759852
-1.454039 0.006929 0.105016 -0.000318 0.112787 0.992876
1.482039 -0.058221 -0.087674 0.000300 -0.550955 -0.833732
1.579462 -0.141624 -0.099474 0.000000 -0.623312 0.781973
1.729869 0.223333 -0.191434 0.000000 -0.623312 -0.781973
0.154800 -0.237097 0.207887 -0.060155 0.596172 0.800600
0.543602 -0.072238 0.076538 0.000328 -0.653350 0.756018
1.653618 -0.065139 0.051923 -0.108067 0.777393 -0.619662
1.795094 0.328222 -0.261626 0.320999 -0.638312 -0.699655
-0.677236 0.105073 0.005998 -0.000128 0.995007 0.093833
-0.696944 -0.101222 -0.028818 0.000473 -0.958025 -0.284625
1.753013 -0.290162 -0.217874 0.108503 -0.600894 0.788034
0.112340 0.093679 0.097900 0.019769 -0.614310 0.788272
1.745584 0.303281 0.228331 0.000000 0.623312 -0.781973
-0.085391 -0.253295 -0.201902 -0.060155 0.596172 -0.800600
1.359345 0.152156 0.107869 -0.000000 0.623312 -0.781973
-0.697042 -0.094798 0.045713 -0.000031 -0.877021 0.478964
0.207440 -0.274965 0.235126 0.059731 0.622199 0.780577
-0.911837 0.032281 -0.100171 -0.000008 0.356642 -0.933418
-0.274318 -0.099401 -0.034581 0.000340 -0.929776 -0.366381
0.367590 -0.696870 -0.559173 0.059731 0.622199 -0.780577
0.843686 -0.063943 0.083592 -0.000356 -0.613639 0.788679
0.177159 0.248845 0.216623 0.059731 -0.622199 0.780577
0.375726 0.764228 -0.612241 0.059731 -0.622199 -0.780577
0.199437 -0.181207 0.128004 0.059277 -0.622216 -0.780598
0.304168 -0.224135 0.187208 0.059731 0.622199 0.780577
-1.655266 -0.030386 -0.099340 -0.130727 -0.284124 -0.948425
1.656163 -0.272001 0.203398 -0.000000 -0.623312 -0.781973
0.369877 0.377200 -0.297173 0.059277 0.622216 0.780598
0.296083 -0.588687 0.460145 0.059277 -0.622216 -0.780598
0.088916 0.333308 -0.274582 -0.060155 -0.596172 -0.800600
0.186680 0.391388 0.325177 -0.060155 -0.596172 0.800600
0.099221 0.169185 0.115741 -0.059699 0.647349 -0.759852
-0.114036 0.212255 0.169189 -0.059699 0.647349 -0.759852
1.649862 -0.140404 -0.098502 0.000000 -0.623312 0.781973
0.540233 -0.104105 0.015445 0.001197 -0.983573 0.177808
-1.397641 -0.030192 -0.100821 0.000021 -0.331342 -0.942712
0.613741 -0.104652 0.011148 -0.000669 -0.988669 0.145430
-1.153609 -0.058696 0.087357 -0.000296 -0.572224 0.819092
-0.768576 -0.103790 -0.017435 0.000820 -0.975114 -0.218267
-1.255391 0.068711 0.079719 -0.000259 0.611622 0.790083
0.321553 -0.418275 0.326245 0.059277 -0.622216 -0.780598
-0.811396 -0.042963 -0.096076 -0.000839 -0.410911 -0.910903
0.140363 0.380924 0.292898 -0.059699 0.647349 -0.759852
-1.185116 -0.087316 0.058755 0.000821 -0.811151 0.583580
1.507844 -0.151107 0.133863 -0.000000 0.623312 0.781973
0.550270 0.080675 -0.067586 -0.000688 0.792664 -0.608517
0.168720 0.096494 -0.042016 -0.000098 0.899526 -0.435106
0.685244 -0.105244 -0.000000 -0.000835 -0.997569 -0.057225
-1.309933 0.007620 -0.104968 0.001127 0.046678 -0.998318
1.712690 -0.080633 0.073552 0.320999 0.638312 0.699655
0.415889 0.692022 0.551613 0.059731 -0.622199 0.780577
0.184748 -0.422746 0.348383 -0.060155 0.596172 0.800600
1.318074 0.084736 -0.054128 -0.000000 -0.781973 0.623312
0.319330 -0.451987 -0.352947 0.059277 -0.622216 0.780598
0.302067 0.793256 0.633101 -0.060155 -0.596172 0.800600
1.336503 -0.023950 -0.102483 -0.000293 -0.271282 -0.961773
-1.282065 -0.073418 -0.075406 -0.000037 -0.664138 -0.746612
0.259671 -0.308132 0.257566 0.059731 0.622199 0.780577
0.739394 0.052730 0.091082 -0.000775 0.506267 0.861539
1.211642 0.063572 -0.083874 0.000174 0.603172 -0.796890
0.075655 -0.188359 -0.133928 -0.059699 -0.647349 0.759852
1.345916 -0.102266 -0.068102 0.000000 -0.623312 0.781973
-1.381873 0.093261 -0.048773 -0.000422 0.911516 -0.408982
-0.270391 -0.088731 0.056596 -0.000086 -0.867054 0.496731
-0.049275 0.170132 -0.128214 -0.059699 0.647349 0.759852
1.651681 -0.102621 -0.068385 0.000000 -0.623312 0.781973
-0.902724 0.091157 -0.052599 0.000040 0.855671 -0.516079
1.246832 -0.024041 -0.102462 -0.000003 -0.229730 -0.972458
0.688006 -0.080597 0.067679 0.000005 -0.733819 0.678251
0.178445 -0.557718 0.440524 -0.059699 -0.647349 -0.759852
-0.432431 -0.062165 -0.084923 -0.000375 -0.550456 -0.834027
0.147284 -0.099756 -0.033542 -0.000071 -0.930887 -0.363308
-0.777902 -0.022637 0.102781 -0.000213 -0.225862 0.973383
0.990270 0.050246 -0.092475 0.000068 0.445624 -0.894395
