1.463612 0.443419 0.671440 -0.000000 -0.867929 -0.000017
1.708548 0.470855 0.840909 0.070679 0.002414 0.001792
1.516287 0.410583 0.924516 -0.056146 0.002525 0.001999
2.682096 0.518706 0.616421 -0.000000 -0.217706 -0.000135
1.599528 0.416751 0.865869 0.088883 -0.002560 -0.001900
1.749430 0.428697 0.892831 0.070680 0.008751 0.006449
1.729347 0.888153 1.205070 0.070680 -0.004527 0.003354
1.760188 1.046462 1.396901 -0.070628 0.010110 -0.006835
3.093311 0.465008 0.858607 0.000000 -0.802891 -0.000444
1.701551 0.964247 1.304829 -0.056144 -0.009182 0.007180
1.309992 0.437365 0.872034 -0.070625 -0.006228 -0.004237
1.974828 0.427960 0.727226 0.000000 -0.999734 -0.000000
2.275935 0.654423 0.697463 0.000000 0.958639 -0.000002
0.290258 0.527524 0.614840 0.000000 -0.126587 -0.000029
3.042743 0.674579 0.929713 -0.000001 0.802885 -0.000266
1.012322 0.630783 0.653735 0.000000 0.761900 -0.000013
1.497474 0.341142 1.010455 -0.056145 0.004526 0.003574
2.662121 0.547146 0.844622 0.000000 0.022884 0.000011
0.380516 0.445125 0.789877 0.000000 -0.854439 0.000001
2.772354 0.654114 0.696424 0.000000 0.958516 -0.000009
1.721099 0.786805 0.388902 0.070680 -0.005633 -0.004169
0.046527 0.562558 0.679764 -0.642522 0.000009 -0.000022
2.842066 0.614242 0.848448 0.000000 0.802891 -0.000666
3.155720 0.301833 1.062510 -0.208479 -0.002259 -0.001626
0.910227 0.658817 0.726559 0.000000 0.999730 -0.000000
1.249065 0.658867 0.729726 -0.000000 0.999738 0.000000
3.088257 0.496751 0.623583 0.182410 -0.000099 -0.000218
2.540790 0.427989 0.725976 0.000000 -0.999739 -0.000000
3.119856 0.775969 0.435822 -0.208479 -0.002210 -0.001692
1.761981 0.293740 0.402587 0.088886 -0.002240 0.001662
1.481571 0.722619 0.979946 -0.056139 -0.002394 0.001895
1.654265 0.934842 0.195017 -0.056145 -0.010231 -0.007975
1.656907 0.804477 1.055523 -0.070625 0.006484 -0.004410
1.689258 0.580450 0.619853 0.000000 0.328676 -0.000043
2.230806 0.494323 0.624689 0.000000 -0.435414 -0.000031
1.467846 0.338094 0.446832 -0.056146 0.004657 -0.003677
2.862612 0.485863 0.629104 0.000000 -0.496203 -0.000013
0.114403 0.479136 0.658736 -0.376755 -0.000062 -0.000065
0.984209 0.427956 0.731059 0.000000 -0.999730 0.000000
3.098557 0.667037 0.538897 -0.208479 0.003279 0.002360
1.824645 0.634431 0.658182 -0.000000 0.790943 -0.000023
2.418720 0.539730 0.844624 0.000000 -0.023241 0.000324
0.114403 0.613886 0.664966 -0.376758 0.000065 -0.000062
1.570147 0.543313 0.613745 0.000000 -0.022884 -0.000022
1.418483 0.512477 0.840486 -0.000000 -0.262471 0.000111
2.190116 0.428014 0.724893 0.000000 -0.999734 -0.000000
1.734387 0.601255 0.829162 -0.000001 0.496333 0.000026
0.876935 0.448866 0.662905 -0.000000 -0.818425 -0.000021
1.702451 0.368158 0.478500 0.070680 0.003471 -0.002574
1.782423 0.789423 1.054037 0.088885 0.004480 -0.003322
2.230806 0.640576 0.791603 -0.000001 0.843533 0.000010
0.290258 0.602977 0.828143 0.000000 0.516490 0.000050
0.756345 0.658877 0.729393 0.000000 0.999935 0.000000
3.043128 0.491996 0.832638 -0.000001 -0.368636 0.000005
1.554719 0.224269 1.153351 -0.070624 -0.005825 -0.003964
2.735516 0.614402 0.657396 0.000000 0.596126 -0.000451
0.922064 0.619702 0.815899 0.000000 0.665163 0.000004
2.924475 0.483784 0.648937 0.000000 -0.596126 -0.000451
1.960032 0.449656 0.661779 0.000000 -0.818442 -0.000005
0.040536 0.502847 0.754333 -0.666081 -0.000017 0.000010
1.629652 0.430316 0.553564 0.070678 0.003219 -0.002388
1.479941 0.462906 0.813297 -0.070627 -0.006228 -0.004236
2.867966 0.406443 0.532868 0.112644 -0.004812 0.005119
2.275935 0.598271 0.627623 0.000001 0.451581 -0.000004
1.192838 0.589046 0.835295 0.000000 0.392831 0.000018
1.599000 0.490438 0.626611 0.000000 -0.455986 -0.000029
1.777402 -0.000000 0.004655 0.088885 -0.006399 0.004739
0.741548 0.597978 0.830988 0.000000 0.476351 0.000028
2.456451 0.644602 0.784834 0.000000 0.879211 0.000008
1.468568 0.384107 0.504841 -0.056147 0.002525 -0.001999
2.095419 0.606996 0.632842 0.000000 0.555525 -0.000011
1.735085 0.184458 0.234964 0.070680 0.004024 -0.002983
1.575606 0.399817 0.564782 -0.070625 -0.002116 0.001444
1.788161 0.827421 0.342169 0.070680 -0.010662 -0.007828
1.599000 0.428349 0.719277 -0.000000 -0.996732 -0.000002
2.682096 0.444824 0.789377 -0.000000 -0.856242 0.000036
1.418483 0.576678 0.839801 0.000001 0.283270 0.000025
1.566917 0.839986 1.135806 -0.056145 -0.003607 0.002852
1.192838 0.508522 0.839310 -0.000001 -0.303598 0.000024
1.758037 0.113013 0.141466 0.070682 0.003219 -0.002388
1.463612 0.598858 0.627941 0.000000 0.476432 -0.000014
1.192838 0.486406 0.628793 0.000000 -0.496832 -0.000007
0.245129 0.489844 0.831537 0.000000 -0.456023 0.000029
2.411322 0.433274 0.763981 0.000000 -0.951731 0.000010
0.651290 0.519316 0.842167 -0.000000 -0.217309 0.000034
0.651290 0.451239 0.798820 0.000000 -0.804908 0.000006
1.237967 0.428623 0.741954 0.000000 -0.994611 0.000001
1.472490 0.658867 0.729726 -0.000000 0.906698 0.000000
0.828847 0.540896 0.613801 -0.000000 -0.023241 -0.000021
0.651290 0.638142 0.663212 -0.000000 0.814262 -0.000003
2.997605 0.674739 0.576131 0.000000 -0.802891 -0.000932
1.304551 0.542646 0.844691 -0.000005 -0.004238 0.000233
1.689258 0.647643 0.679552 0.000001 0.900043 -0.000015
1.718826 0.087985 1.350013 -0.056145 0.004066 0.003214
2.727225 0.627829 0.808001 0.000000 0.730996 0.000007
2.095419 0.654558 0.697944 0.000000 0.964908 -0.000004
1.427309 0.697329 0.515337 -0.056146 -0.005050 -0.003985
1.914903 0.652783 0.692212 0.000000 0.944417 -0.000005
2.295170 0.541063 0.844655 0.000000 -0.023241 0.000021
1.605983 0.655724 0.610899 0.088885 0.002560 0.001900
1.328225 0.657746 0.745345 -0.000001 0.974161 0.000001
1.638186 0.854845 0.326823 -0.070624 0.005825 0.003964
2.889828 0.682281 0.892479 0.112641 -0.006297 0.003120
1.604389 0.743325 0.972570 -0.070625 0.007363 -0.005001
3.020703 0.606700 0.838290 0.000000 0.802891 -0.000932
0.555853 0.658782 0.733393 0.000000 0.999730 0.000000
1.382170 0.460006 0.608458 -0.056146 0.005575 -0.004396
2.928846 0.434680 0.851847 0.000000 0.802891 0.000277
2.909598 0.396969 0.902637 0.000000 0.802891 0.000277
1.599000 0.449273 0.796127 -0.000001 -0.818276 0.000021
1.294934 0.542896 0.613755 -0.000000 -0.022876 -0.000011
0.786677 0.487825 0.830452 0.000001 -0.472108 0.000014
0.129374 0.443915 0.710630 -0.318365 -0.000110 -0.000018
1.500622 0.686507 0.556055 -0.070626 0.005715 0.003890
2.681098 0.594464 0.642593 -0.000000 0.596126 -0.000589
0.876935 0.486044 0.829452 0.000000 -0.496832 0.000007
2.366193 0.444867 0.669003 0.000000 -0.854515 -0.000001
1.960032 0.465231 0.814227 0.000000 -0.682191 0.000008
2.050290 0.465231 0.814227 0.000001 -0.680977 0.000016
0.245129 0.641514 0.668327 -0.000000 0.843825 -0.000005
3.088257 0.554052 0.844216 0.179462 0.000020 0.000243
2.140548 0.441317 0.675230 -0.000000 -0.879192 -0.000004
2.771207 0.614242 0.610003 0.000000 0.802891 0.000222
1.826174 0.047656 1.396912 0.070679 0.008450 0.006229
3.120995 0.554132 0.620225 0.178724 0.000144 -0.000974
0.606161 0.613287 0.821153 0.000000 0.611720 0.000039
2.968908 0.374343 0.933112 -0.000000 0.802891 0.000266
2.185677 0.482603 0.827411 0.000000 -0.536251 0.000024
0.072065 0.603213 0.770202 -0.542315 0.000037 0.000024
0.922064 0.475950 0.635486 0.000000 -0.593345 -0.000005
1.540859 0.357437 0.498362 -0.070626 -0.004011 0.002735
1.373354 0.439694 0.678426 0.000001 -0.888947 -0.000002
1.914903 0.431841 0.759060 0.000000 -0.960853 0.000001
1.479941 0.602989 0.828813 0.000000 -0.596126 -0.000897
2.185677 0.602905 0.630266 0.000000 0.516177 -0.000006
1.521303 0.736404 0.457509 -0.056146 -0.002328 -0.001843
1.749430 0.962373 0.176417 0.088885 0.005119 0.003795
1.425183 0.735806 0.466968 -0.056144 -0.004788 -0.003780
1.147709 0.604190 0.631041 0.000000 0.536251 -0.000024
0.121843 0.641703 0.724681 -0.347773 0.000100 -0.000003
2.275935 0.483174 0.827756 0.000000 -0.516859 0.000006
3.102054 0.719992 0.515182 -0.208478 -0.003208 -0.002455
3.098557 0.689823 0.902637 -0.208478 -0.003208 0.002455
3.102054 0.389587 0.960188 -0.000000 -0.802891 -0.000710
3.098557 0.396969 0.555815 0.000001 0.802890 -0.000533
2.952870 0.522095 0.842726 0.000000 -0.194698 0.000019
2.546709 0.454342 0.655709 -0.000000 -0.776570 -0.000006
1.010843 0.544563 0.844681 0.000000 0.023233 0.000021
2.722046 0.658782 0.725059 0.000000 0.999730 -0.000000
0.380516 0.590194 0.623652 0.000001 0.397873 -0.000004
0.696419 0.485429 0.829100 0.000001 -0.491167 0.000007
2.862612 0.450102 0.797276 0.000000 -0.804926 0.000022
1.695279 0.686188 0.521349 0.070680 -0.001836 -0.001363
2.968908 0.397129 0.508422 0.000001 -0.802891 0.000266
1.773816 0.696285 0.941367 0.070680 -0.001836 0.001363
1.373354 0.438479 0.777465 0.000000 -0.909975 0.000003
1.960032 0.555503 0.614387 0.000001 0.103364 -0.000072
1.398372 0.666192 0.572966 -0.070623 0.002336 0.001594
1.512944 0.450713 0.873565 -0.056145 0.013640 0.010503
1.102580 0.514367 0.617452 0.000000 -0.262588 -0.000055
2.456451 0.649367 0.683347 0.000000 0.919379 -0.000006
2.005161 0.637519 0.796127 0.000001 0.816456 0.000005
0.460417 0.547396 0.844616 0.000000 0.022884 0.000022
1.788161 0.247125 1.122568 0.088886 -0.008479 -0.006267
2.636967 0.453659 0.656551 -0.000000 -0.776624 -0.000024
2.772354 0.507570 0.839003 -0.000000 -0.306743 0.000093
1.563904 0.772262 1.020025 -0.070626 0.003572 -0.002436
1.553871 0.638046 0.663076 -0.000000 0.818013 -0.000005
1.528651 0.831009 0.347975 -0.070627 0.003132 0.002137
2.642885 0.658798 0.725726 0.000000 0.999738 -0.000000
1.057451 0.604331 0.631130 0.000000 0.536251 -0.000012
1.628217 0.349533 0.497756 0.088886 -0.001280 0.000950
1.367990 0.375384 0.502939 -0.070625 -0.002116 0.001444
2.456451 0.495461 0.834281 0.000001 -0.414148 0.000033
1.283096 0.488961 0.627385 -0.000001 -0.374618 -0.000004
1.776685 0.354975 0.975592 0.088887 -0.002560 -0.001900
2.501580 0.623624 0.812283 0.000000 0.698837 0.000008
1.484584 0.281468 1.084603 -0.056147 0.002066 0.001636
2.907741 0.588509 0.622927 0.000000 0.393162 -0.000035
1.683444 0.356250 0.998249 0.070680 0.003219 0.002388
1.778836 0.972389 1.299927 0.088887 0.005119 -0.003795
1.575606 0.686976 0.893669 -0.070626 0.002116 -0.001444
2.005161 0.553055 0.844297 -0.000001 0.079588 0.000047
1.695279 0.407965 0.927190 0.070679 0.003672 0.002723
2.366193 0.593670 0.625270 -0.000001 0.435268 -0.000062
1.418483 0.655848 0.702949 0.000000 0.976010 -0.000002
0.696419 0.429780 0.708581 0.000001 -0.984412 -0.000003
1.824645 0.439367 0.679102 -0.000000 -0.899557 -0.000004
1.382170 0.460006 0.849994 -0.056146 0.005575 0.004396
2.636967 0.497824 0.835328 -0.000000 -0.393353 0.000070
1.583429 0.349395 0.450629 -0.056145 0.004394 -0.003471
0.245129 0.495575 0.624119 -0.000000 -0.414475 -0.000132
1.414388 0.325799 0.436155 -0.070626 -0.001896 0.001294
1.560519 0.218071 0.296752 -0.070625 -0.011649 0.007849
2.997999 0.499126 0.622567 0.000000 -0.393336 -0.000141
2.863352 0.427918 0.729559 0.000000 -0.999932 0.000000
1.746561 0.138502 1.262639 0.088887 -0.002880 -0.002137
2.185677 0.525299 0.615175 0.000002 -0.117305 -0.000016
1.022680 0.658833 0.727226 0.000000 0.999730 -0.000000
1.692051 0.776415 0.435464 0.088886 0.002400 0.001781
1.784694 0.543563 0.613747 0.000000 0.022884 -0.000022
1.012322 0.611044 0.822817 -0.000000 0.593259 0.000010
1.439682 0.332126 1.009856 -0.070625 -0.004011 -0.002735
1.801788 0.610851 0.822976 0.070682 -0.006840 0.005055
1.767361 0.923221 1.247783 0.070681 -0.008248 0.006083
2.366193 0.493122 0.833182 -0.000000 -0.435335 0.000062
2.817483 0.459932 0.649416 0.000000 -0.715106 -0.000004
1.283096 0.634329 0.658050 -0.000001 0.790125 -0.000012
1.425882 0.547063 0.613828 0.000000 0.023241 -0.000324
0.967193 0.656934 0.750323 -0.000001 0.978412 0.000001
1.057451 0.462781 0.811904 0.000001 -0.698385 0.000015
3.046071 0.465008 0.599845 -0.000000 -0.802891 0.000932
1.706277 1.019922 0.093646 -0.070622 0.006375 0.004336
2.185677 0.652015 0.690007 0.000000 0.944417 -0.000005
2.830517 0.427138 0.862005 0.000000 0.802891 0.000666
1.679858 0.858252 1.131385 -0.070626 0.011209 -0.007561
0.425645 0.486551 0.628711 0.000001 -0.496425 -0.000026
1.409971 0.670752 0.908001 -0.056146 -0.006821 0.005365
2.095419 0.437622 0.775565 0.000000 -0.919408 0.000006
2.005161 0.471175 0.639121 0.000001 -0.629384 -0.000019
1.793898 0.897273 0.257439 0.088887 0.007199 0.005328
0.696419 0.623236 0.812661 -0.000000 0.698294 0.000008
0.515903 0.573994 0.617878 0.000001 0.261722 -0.000028
3.047989 0.719832 0.990662 0.000000 0.802891 -0.000355
1.826174 0.445113 0.861599 0.070680 0.006840 0.005055
1.777402 0.645174 0.599448 0.088886 0.006959 0.005151
1.057451 0.648573 0.681556 0.000000 0.909782 -0.000007
3.137801 0.735573 0.976157 -0.208479 -0.003208 0.002455
2.456451 0.591939 0.834005 -0.000000 0.413517 0.000008
0.596543 0.428002 0.733059 0.000000 -0.999734 0.000000
1.441303 0.403016 0.927277 -0.056145 0.006821 0.005365
1.668383 0.811082 0.349938 0.070680 -0.010461 -0.007684
1.283096 0.493722 0.833473 -0.000000 -0.435283 0.000031
2.862612 0.616881 0.640145 -0.000000 0.629440 -0.000005
0.786677 0.457971 0.651519 -0.000000 -0.744923 -0.000003
1.766285 0.821536 1.094872 0.088884 0.002080 -0.001544
0.034716 0.512241 0.700824 -0.688988 -0.000013 -0.000013
1.707753 0.427918 0.729393 0.000000 -0.999730 0.000000
3.004460 0.761616 1.023135 0.112642 0.004819 -0.005126
2.966872 0.718082 0.482049 0.112643 0.004812 0.005119
1.595751 0.360010 0.949431 -0.070625 -0.001951 -0.001332
1.685596 0.215097 1.150350 0.088887 -0.007039 -0.005210
2.826279 0.693641 0.931583 0.112642 0.004812 -0.005119
1.595255 0.177785 0.232967 -0.056144 0.005903 -0.004651
0.696419 0.487057 0.628421 -0.000001 -0.487296 -0.000013
0.200000 0.621196 0.643883 -0.074782 0.000195 -0.000209
2.729464 0.447887 0.612491 0.112642 0.006297 -0.003120
0.696419 0.436518 0.772955 -0.000000 -0.928118 0.000006
2.862612 0.502382 0.837173 0.000000 -0.350442 0.000080
1.663003 0.763559 1.001325 0.088887 0.002400 -0.001781
1.582314 0.488428 0.832246 0.070681 0.006438 0.004760
1.635792 0.123004 1.291458 -0.070626 -0.008132 -0.005517
0.335387 0.650072 0.684994 0.000000 0.919441 -0.000001
0.335387 0.625899 0.810020 0.000000 0.714934 0.000015
2.005161 0.526453 0.615001 0.000001 -0.149475 -0.000199
2.321064 0.620418 0.815262 -0.000002 0.661046 0.000017
2.952870 0.651343 0.688212 -0.000001 0.936372 -0.000011
1.592882 0.696690 0.501151 -0.056147 -0.004657 -0.003677
1.283096 0.436704 0.773419 -0.000000 -0.928161 0.000012
1.483284 0.443673 0.578688 -0.056147 0.013640 -0.010503
1.914903 0.587048 0.836135 -0.000001 0.371494 0.000038
2.938992 0.678510 0.571052 0.000001 -0.802887 -0.000277
1.721099 0.299988 1.069550 0.070679 0.005633 0.004169
0.425645 0.437459 0.683270 -0.000000 -0.919266 -0.000006
1.672686 0.421993 0.588691 0.088887 -0.006959 0.005151
1.773816 0.391138 0.926456 0.088886 -0.002920 -0.002167
3.119856 0.756981 1.036728 -0.208480 0.002259 -0.001626
1.635991 0.658798 0.732726 0.000000 0.999738 0.000000
1.564667 0.451530 0.581234 -0.056145 0.004154 -0.003282
2.050290 0.629072 0.651799 -0.000001 0.745260 -0.000013
2.887642 0.663426 0.591368 -0.000002 -0.802866 -0.000222
0.606161 0.590839 0.623946 0.000000 0.414408 -0.000066
2.537831 0.544230 0.844699 -0.000000 0.011444 0.000022
2.682096 0.437049 0.684228 0.000000 -0.919441 -0.000003
2.681098 0.594464 0.815859 -0.000000 0.596126 0.000589
2.591838 0.656392 0.753062 -0.000000 0.980773 0.000001
1.102580 0.578033 0.619065 -0.000000 0.306875 -0.000047
2.948617 0.659655 0.862005 0.000000 -0.802891 0.000333
0.034716 0.584836 0.736972 -0.688993 0.000016 0.000003
1.672686 0.645070 0.574042 0.070681 -0.008751 -0.006449
2.095419 0.558772 0.843675 0.000001 0.126641 0.000118
1.192838 0.578429 0.619193 0.000001 0.304342 -0.000024
0.335387 0.491142 0.626249 -0.000000 -0.456022 -0.000059
2.095419 0.610843 0.822966 -0.000000 0.593345 0.000005
1.473645 0.754897 0.438484 -0.056146 -0.002263 -0.001791
0.831806 0.609069 0.634241 0.000001 0.557750 -0.000006
1.298392 0.637031 0.603114 -0.056146 -0.007433 -0.005838
1.826174 0.224304 0.299457 0.070680 0.009858 -0.007249
2.230806 0.570241 0.841541 -0.000000 0.240219 0.000061
1.644647 0.278439 1.102921 -0.056145 0.007215 0.005670
1.497278 0.629567 0.594525 -0.056148 -0.006821 -0.005365
0.741548 0.630180 0.653044 0.000001 0.740686 -0.000007
1.057451 0.428282 0.738344 0.000000 -0.996731 0.000001
3.042743 0.389427 0.912795 0.000001 0.802889 0.000266
1.012322 0.460223 0.649118 0.000000 -0.713939 -0.000007
1.689258 0.641754 0.789734 0.000000 0.856229 0.000009
1.782423 0.319451 1.024297 0.088887 -0.002400 -0.001781
0.099824 0.458137 0.753484 -0.433692 -0.000066 0.000017
0.876935 0.435026 0.769108 0.000000 -0.936623 0.000001
1.618764 0.334271 1.030111 -0.056149 0.004132 0.003265
0.606161 0.445882 0.667377 0.000000 -0.844071 -0.000019
1.755885 0.850697 0.306984 0.070681 -0.009858 -0.007249
0.606161 0.656449 0.752776 -0.000000 0.975549 0.000001
2.366193 0.638286 0.795035 -0.000001 0.817545 0.000021
2.140548 0.630675 0.804843 0.000000 0.761823 0.000013
1.672737 0.909307 1.232880 -0.056144 -0.011280 0.008763
1.102580 0.429271 0.711623 0.000000 -0.960954 -0.000000
1.004924 0.545396 0.613790 0.000000 0.023241 -0.000042
3.160959 0.444243 0.595681 -0.208477 -0.003279 0.002360
3.179027 0.798417 1.072700 -0.208480 0.002259 -0.001626
3.164573 0.413069 0.904757 -0.208478 -0.003279 -0.002360
2.546709 0.645158 0.674644 -0.000000 0.879061 -0.000008
1.373354 0.637424 0.662189 -0.000001 0.817539 -0.000011
0.099824 0.527108 0.816360 -0.433693 -0.000014 0.000067
0.786677 0.435288 0.769811 0.000000 -0.936366 0.000003
2.366193 0.596058 0.831993 0.000000 0.456055 0.000007
2.005161 0.436704 0.685033 0.000000 -0.928279 -0.000002
2.952870 0.444651 0.789092 0.000000 -0.856009 0.000009
2.501580 0.470462 0.818753 0.000000 -0.629672 0.000009
3.119856 0.329812 1.036728 -0.208478 -0.002259 -0.001626
1.505534 0.625343 0.646236 0.000000 -0.596125 0.000561
1.237967 0.619671 0.815927 0.000001 0.664077 0.000017
0.515903 0.445301 0.668292 0.000000 -0.844059 -0.000005
1.824645 0.655127 0.758416 -0.000000 0.964697 0.000002
1.824645 0.463646 0.812749 0.000000 -0.698927 0.000008
1.644129 0.452871 0.657522 0.000000 -0.790986 -0.000003
0.290258 0.434120 0.766555 0.000000 -0.944437 0.000005
1.728630 0.467565 0.641695 0.088886 -0.006959 0.005151
1.012322 0.483245 0.827799 0.000000 -0.516524 0.000050
1.826174 0.774165 0.418415 0.070680 -0.006136 -0.004539
0.470774 0.640151 0.666181 0.000000 0.843956 -0.000002
2.050290 0.492934 0.625360 0.000001 -0.434096 -0.000016
2.546709 0.522669 0.615624 0.000001 -0.171803 -0.000043
1.471550 0.789383 0.395149 -0.056148 -0.002132 -0.001688
1.914903 0.643042 0.787591 0.000000 0.868001 0.000004
2.862612 0.650023 0.684879 0.000000 0.919441 -0.000002
1.601055 0.167438 1.230753 -0.070626 -0.004946 -0.003369
1.576783 0.934542 1.256040 -0.056147 -0.005640 0.004447
2.489003 0.427964 0.727059 -0.000000 -0.999734 -0.000000
3.153732 0.517503 0.703332 1.000000 -0.000000 0.000000
3.153732 0.569290 0.729226 1.000000 0.000000 0.000000
0.290258 0.436770 0.684879 -0.000000 -0.916335 -0.000002
0.245129 0.450497 0.660639 0.000000 -0.804896 -0.000044
2.877235 0.591616 0.817974 -0.000000 0.596124 0.000451
2.185677 0.461738 0.647568 0.000000 -0.715285 -0.000004
3.137801 0.351219 0.976157 -0.208478 0.003208 0.002455
1.689258 0.450349 0.797612 0.000001 -0.804160 0.000011
0.786677 0.627459 0.808397 0.000000 0.731008 0.000004
1.095182 0.545230 0.844666 0.000000 0.023241 0.000021
1.192838 0.629681 0.652484 0.000000 0.746699 -0.000013
1.483284 0.660667 0.866736 -0.070626 0.011429 -0.007705
1.382077 0.418594 0.567981 -0.070625 -0.004671 0.003183
1.914903 0.476837 0.634863 -0.000000 -0.574667 -0.000021
0.561032 0.590952 0.834454 -0.000000 0.414312 0.000017
3.153732 0.562034 0.803437 1.000000 0.000000 0.000000
2.185677 0.651606 0.769538 -0.000000 0.936119 0.000006
0.290258 0.648141 0.777844 -0.000000 0.910030 0.000007
2.997999 0.438825 0.680228 -0.000001 -0.873536 -0.000001
1.559941 0.655617 0.555973 -0.056145 -0.006821 -0.005365
2.772354 0.441376 0.783331 -0.000000 -0.879091 0.000008
2.140548 0.589237 0.835213 -0.000000 0.393360 0.000035
1.147709 0.645555 0.675377 0.000000 0.889987 -0.000008
1.397649 0.378874 0.946679 -0.070625 -0.002116 -0.001444
1.994063 0.658813 0.726393 0.000000 0.999730 -0.000000
3.098133 0.308904 0.405466 0.112642 -0.004819 0.005127
2.050290 0.528971 0.843796 0.000001 -0.126003 0.000059
1.629652 0.430316 0.904888 0.070682 0.003219 0.002388
1.763775 0.987961 0.123048 0.070682 -0.005834 -0.004317
0.245129 0.596095 0.626478 -0.000000 0.456035 -0.000117
0.425645 0.598528 0.830690 -0.000000 0.476483 0.000111
0.922064 0.644284 0.673032 0.000000 0.879193 -0.000016
2.366193 0.493722 0.624979 -0.000001 -0.367526 -0.000005
1.826174 0.106539 1.317607 0.070680 0.005834 0.004317
3.120995 0.639992 0.780857 0.178724 0.000821 0.000492
1.463612 0.436456 0.772800 0.000000 -0.928218 0.000003
0.425645 0.459788 0.808885 -0.000000 -0.726157 0.000004
0.649811 0.658817 0.726559 0.000068 0.068934 -0.000002
0.380516 0.525299 0.843277 0.000001 -0.148684 0.000050
2.456451 0.450547 0.797880 0.000001 -0.804006 0.000011
2.411322 0.429485 0.710264 0.000001 -0.984393 -0.000003
2.275935 0.657286 0.748311 0.000000 0.983253 0.000001
1.607990 0.878326 1.169804 -0.070625 0.005385 -0.003667
1.607990 0.878326 0.288648 -0.070624 0.010770 0.007271
3.066194 0.591616 0.817974 -0.000000 0.596124 0.000451
1.647224 0.719229 0.939257 0.088885 0.002720 -0.002018
3.044323 0.629486 0.637080 -0.000000 -0.802891 -0.000222
2.997999 0.434585 0.767893 0.000000 -0.944224 0.000005
1.623914 0.642296 0.886470 0.070683 -0.003219 0.002387
1.192838 0.439004 0.778600 0.000000 -0.900349 0.000002
1.147709 0.609376 0.823996 -0.000000 0.574620 0.000043
0.876935 0.587858 0.835803 -0.000001 0.392793 0.000035
1.765926 1.052161 0.036836 0.070680 -0.008450 -0.006229
0.515903 0.650023 0.773572 0.000000 0.919441 0.000003
1.508741 0.498513 0.835623 0.000000 -0.393301 0.000070
1.638186 0.231947 0.326823 -0.070625 -0.005825 0.003964
1.418483 0.456834 0.652795 -0.000000 -0.742808 -0.000003
0.696419 0.655581 0.756596 0.000001 0.969634 0.000004
1.738825 0.658879 0.729226 0.000000 0.999738 0.000000
0.200000 0.475950 0.635486 -0.074779 -0.000170 -0.000230
0.072065 0.505227 0.667580 -0.542310 -0.000022 -0.000038
2.952870 0.580725 0.838503 0.000000 0.328733 0.000173
1.914903 0.483316 0.827842 0.000001 -0.494462 0.000007
0.606161 0.492747 0.625451 -0.000001 -0.434624 -0.000031
2.366193 0.442508 0.785420 0.000000 -0.879217 0.000002
0.967193 0.634967 0.799578 0.000000 0.790639 0.000012
1.237967 0.646335 0.676898 0.000000 0.889714 -0.000008
0.290258 0.460340 0.809453 0.000000 -0.715193 0.000015
0.425645 0.620729 0.643468 0.000001 0.664920 -0.000034
1.376314 0.658859 0.730059 0.000000 0.999730 0.000000
2.230806 0.465109 0.814114 0.000000 -0.682146 0.000016
2.321064 0.435259 0.688719 0.000000 -0.936577 -0.000011
2.095419 0.464072 0.645305 -0.000000 -0.682103 -0.000016
1.102580 0.490289 0.831765 0.000000 -0.456105 0.000015
1.669868 0.914294 0.243748 -0.070626 0.004726 0.003220
2.503799 0.548230 0.613855 0.000000 0.022876 -0.000329
1.603573 0.795920 1.049689 -0.070625 0.001676 -0.001144
1.563904 0.772262 0.438427 -0.070625 0.003572 0.002436
0.651290 0.435537 0.687977 0.000001 -0.924216 -0.000001
1.505513 0.792979 1.070917 -0.056150 -0.002066 0.001636
1.694678 1.002178 1.352081 -0.056147 -0.008132 0.006377
1.960032 0.633921 0.657522 0.000000 0.790967 -0.000023
1.869774 0.601906 0.629663 0.000000 0.516597 -0.000025
3.016585 0.716221 0.938191 -0.000000 -0.802891 0.000355
2.817483 0.429492 0.710223 0.000000 -0.984788 -0.000001
1.713088 0.093408 0.133360 -0.070624 -0.003407 0.002324
1.508741 0.455335 0.654529 -0.000000 -0.761926 -0.000026
1.617980 0.822284 0.371967 -0.070625 0.006264 0.004261
2.321064 0.658640 0.721895 0.000001 0.997375 -0.000002
0.922064 0.611380 0.635882 0.000000 0.593345 -0.000003
1.824645 0.435960 0.771562 0.000000 -0.928242 0.000012
1.328225 0.634457 0.800237 -0.000000 0.790982 0.000006
0.741548 0.564452 0.615681 -0.000000 0.172317 -0.000043
1.776685 0.725456 0.478137 0.070681 -0.001735 -0.001288
1.826174 0.194862 1.198648 0.070681 0.009053 0.006667
1.826174 0.921371 1.238301 0.070681 -0.008248 0.006083
1.826174 0.847768 1.139169 0.070681 -0.004929 0.003651
1.826174 1.053857 0.041713 0.070681 -0.006840 -0.005055
1.826174 0.062377 0.081366 0.070679 0.008450 -0.006230
1.826174 0.685841 0.537374 0.070679 -0.007343 -0.005423
1.826174 0.371510 0.960731 0.070680 0.006941 0.005129
1.826174 0.268466 1.099516 0.070680 0.010662 0.007828
1.826174 0.268466 0.358936 0.070680 0.005331 -0.003947
2.952870 0.624399 0.646927 -0.000000 0.698880 -0.000062
0.561032 0.465596 0.814569 -0.000000 -0.682217 0.000016
2.806376 0.614402 0.801056 -0.000001 0.596124 0.000903
1.760188 0.048813 0.055253 0.070680 0.009657 -0.007104
2.907741 0.517119 0.616775 0.000000 -0.217227 -0.000017
2.636967 0.499899 0.622255 -0.000000 -0.371995 -0.000038
2.907741 0.433440 0.693955 0.000000 -0.951724 -0.000005
2.095419 0.433670 0.693241 0.000000 -0.951042 -0.000002
1.328225 0.507173 0.619577 -0.000001 -0.306667 -0.000047
1.869774 0.645059 0.674461 0.000001 0.843045 -0.000002
3.026238 0.346063 0.451546 0.112643 -0.004812 0.005119
2.729464 0.447887 0.845961 0.112642 0.006297 0.003120
0.876935 0.498513 0.622829 0.000000 -0.393327 -0.000070
1.914903 0.658274 0.740959 -0.000001 0.990021 0.000001
3.089814 0.495177 0.817974 0.000000 -0.596126 0.001038
1.695813 0.960299 0.179639 -0.070626 0.004066 0.002772
1.527856 0.692597 0.946247 -0.056145 -0.004919 0.003883
1.493284 0.269359 0.363414 -0.070624 -0.003352 0.002287
2.997999 0.642873 0.670574 0.000001 0.832142 -0.000002
1.826174 0.641680 0.861599 0.070679 -0.006840 0.005055
1.826174 0.003494 0.002060 0.070679 0.006840 -0.005055
0.425645 0.651592 0.769577 0.000001 0.936511 0.000023
2.636967 0.645158 0.783808 -0.000000 0.879210 0.000008
1.554719 0.862524 0.305100 -0.070623 0.005825 0.003965
1.667000 0.179220 0.253231 -0.070625 -0.004946 0.003369
2.750899 0.428002 0.733059 0.000000 -0.999734 0.000000
2.456451 0.515743 0.617111 -0.000000 -0.240092 -0.000061
0.696419 0.450299 0.660907 0.000000 -0.804921 -0.000011
2.995334 0.495177 0.817974 -0.000001 -0.596125 0.000903
3.046071 0.442222 0.841689 -0.000000 0.802891 0.000932
3.009154 0.629327 0.589687 0.000000 0.802891 0.000932
2.501580 0.443709 0.670933 0.000000 -0.867737 -0.000009
2.817483 0.504021 0.620665 0.000000 -0.350340 -0.000010
1.516277 0.306022 1.038465 -0.070624 -0.001786 -0.001219
1.777402 0.006269 1.458452 0.070681 0.006840 0.005055
1.562459 0.445094 0.629432 -0.070623 -0.003480 0.002374
1.709623 0.740042 1.007931 0.070685 -0.001635 0.001213
0.786677 0.497632 0.623206 0.000000 -0.393124 -0.000009
2.275935 0.457000 0.652609 -0.000000 -0.746753 -0.000013
1.463612 0.648763 0.776479 0.000000 0.910036 0.000014
2.275935 0.444694 0.789163 0.000000 -0.856229 0.000005
0.876935 0.590915 0.623981 0.000002 0.412328 -0.000033
0.786677 0.428177 0.721479 -0.000000 -0.998344 -0.000000
1.508741 0.651227 0.687899 0.000001 0.933359 -0.000003
2.549668 0.658875 0.728893 0.000000 0.999930 -0.000000
1.644129 0.431302 0.701491 -0.000000 -0.970723 -0.000015
1.298392 0.449762 0.603114 -0.070624 -0.006228 0.004237
2.238944 0.427995 0.725726 0.000000 -0.999730 -0.000000
2.681098 0.492328 0.815859 -0.000001 -0.596126 0.000589
1.779516 0.446217 0.791603 -0.000000 -0.844000 0.000010
2.727225 0.501679 0.621542 0.000000 -0.371948 -0.000038
1.757678 0.764569 1.016858 0.088886 0.001200 -0.000891
0.741548 0.471434 0.638911 0.000001 -0.629439 -0.000019
0.786677 0.652550 0.766909 -0.000000 0.944412 0.000010
1.418483 0.632687 0.802451 0.000003 0.639820 0.000004
1.102580 0.467090 0.642553 0.000000 -0.665129 -0.000034
1.799636 0.944107 0.186375 0.070681 -0.007444 -0.005497
1.298392 0.637031 0.855338 -0.056146 -0.007433 0.005838
1.283096 0.434448 0.690952 0.000000 -0.944398 -0.000010
3.046008 0.338521 1.017064 0.112645 -0.004812 -0.005119
1.057451 0.638070 0.795342 -0.000000 0.818013 0.000005
2.050290 0.626482 0.809424 -0.000000 0.714998 0.000015
2.366193 0.656912 0.750446 0.000000 0.985038 0.000001
0.470774 0.502148 0.621366 0.000000 -0.350340 -0.000005
2.185677 0.444178 0.788307 0.000000 -0.856133 0.000002
1.623068 0.763158 0.414528 -0.056145 -0.004132 -0.003265
2.983785 0.637028 0.831530 0.000000 -0.802891 0.000333
3.059891 0.427297 0.549055 -0.000000 -0.802890 0.000266
2.997605 0.412054 0.882321 0.000001 0.802890 0.000932
2.591838 0.633029 0.656421 0.000000 0.776592 -0.000012
1.725044 0.641988 0.874034 0.070681 -0.008751 0.006448
1.535059 0.706332 0.494218 -0.056147 -0.004788 -0.003780
1.898627 0.542563 0.844689 0.000000 -0.022884 0.000022
1.237967 0.472517 0.638063 -0.000001 -0.602387 -0.000010
3.016585 0.393358 0.503343 0.000002 -0.802887 0.000355
0.786677 0.582810 0.837772 0.000000 0.350340 0.000020
1.685596 0.871695 0.308101 -0.070625 0.005385 0.003667
0.191990 0.429616 0.713354 -0.074780 -0.000283 -0.000036
1.734387 0.639456 0.665141 -0.000000 0.831464 -0.000020
2.772354 0.559020 0.843643 0.000000 0.127200 0.000015
2.907741 0.648002 0.778148 0.000000 0.909876 0.000001
1.686313 0.323822 0.454429 0.088886 -0.002400 0.001781
1.488114 0.306416 0.417028 -0.070625 -0.001786 0.001219
2.591838 0.428037 0.734559 0.000000 -0.999734 0.000000
2.636967 0.431021 0.702624 0.000000 -0.970708 -0.000002
2.321064 0.432548 0.761588 0.000001 -0.955620 0.000004
1.779516 0.504493 0.837955 -0.000000 -0.328613 0.000043
1.651169 0.318254 0.405192 0.070680 0.006136 -0.004539
2.456451 0.609342 0.634432 -0.000000 0.574557 -0.000021
1.328225 0.583591 0.837480 -0.000000 0.350445 0.000080
2.095419 0.507570 0.619449 -0.000001 -0.306309 -0.000047
1.723615 0.045640 1.403890 -0.056144 0.012067 0.009348
0.561032 0.507014 0.838824 0.000001 -0.299548 0.000012
1.544275 0.414717 0.875785 -0.070625 -0.005715 -0.003890
1.373354 0.648693 0.776630 0.000001 0.867064 0.000002
1.369373 0.635201 0.614705 -0.070620 0.003114 0.002125
2.456451 0.461738 0.647568 -0.000000 -0.715158 -0.000015
0.335387 0.603726 0.630761 -0.000000 0.515662 -0.000012
1.528609 0.422166 0.591609 -0.070624 -0.005715 0.003890
3.042574 0.495177 0.640478 -0.000001 -0.596125 -0.000903
0.335387 0.443626 0.671078 0.000000 -0.867452 -0.000004
2.411322 0.579540 0.619551 -0.000001 0.306031 -0.000023
3.153732 0.613043 0.701520 1.000000 0.000000 -0.000000
1.553584 0.909750 0.235803 -0.056148 -0.006165 -0.004855
1.623181 0.102665 0.135628 -0.070625 -0.003627 0.002474
1.460787 0.810579 1.089081 -0.056148 -0.002066 0.001636
1.541984 0.897353 1.205953 -0.056148 -0.012853 0.009928
1.588382 0.946939 0.185716 -0.056146 -0.010755 -0.008370
1.507185 0.860165 0.302587 -0.056145 -0.007214 -0.005670
1.692779 1.058506 1.423000 -0.056144 -0.012067 0.009348
1.344791 0.686616 0.536330 -0.056145 -0.005575 -0.004396
0.425645 0.648780 0.682011 0.000000 0.910048 -0.000014
1.147709 0.500016 0.622208 -0.000001 -0.370924 -0.000038
0.515903 0.626424 0.648969 0.000001 0.712120 -0.000015
0.561032 0.645707 0.675674 0.000001 0.847336 -0.000001
2.005161 0.599591 0.830114 -0.000000 0.496635 0.000053
0.515903 0.606546 0.825911 0.000000 0.555025 0.000011
2.878148 0.658861 0.730726 0.000000 0.999935 0.000000
2.972236 0.449924 0.579529 0.000000 -0.802891 0.000333
2.591838 0.588433 0.622895 0.000000 0.393327 -0.000070
0.936861 0.545730 0.613797 0.000000 0.023241 -0.000042
2.636967 0.458850 0.807879 0.000000 -0.731092 0.000028
2.727225 0.588816 0.835393 0.000000 0.393229 0.000018
0.606161 0.629099 0.651830 -0.000001 0.746196 -0.000013
0.290258 0.502850 0.837348 -0.000000 -0.350445 0.000080
0.606161 0.443398 0.786976 0.000001 -0.867765 0.000017
3.155539 0.491003 0.799792 -0.208483 -0.001247 -0.000897
3.105551 0.750160 0.474550 -0.208478 -0.003208 -0.002455
3.064262 0.719992 0.943270 0.000002 -0.802885 0.000355
0.922064 0.437229 0.683806 -0.000000 -0.919388 -0.000013
1.689258 0.588816 0.835393 0.000000 0.393229 0.000004
1.704378 1.070902 0.018756 -0.056145 -0.011018 -0.008567
0.967193 0.465970 0.814901 0.000000 -0.664985 0.000008
0.967193 0.436983 0.774071 -0.000000 -0.919402 0.000026
1.791030 0.875831 1.171704 0.088888 0.003520 -0.002611
1.192838 0.435836 0.687199 0.000000 -0.928242 -0.000006
1.734387 0.567395 0.616266 -0.000001 0.206294 -0.000018
1.689258 0.507371 0.619513 0.000001 -0.306695 -0.000093
1.960032 0.436038 0.771756 0.000001 -0.924829 0.000003
0.831806 0.499899 0.836197 -0.000000 -0.371810 0.000019
0.290258 0.574436 0.617999 -0.000000 0.262339 -0.000055
2.747087 0.663431 0.567558 0.112642 0.004812 0.005119
3.024258 0.769169 0.425145 0.112643 0.004812 0.005119
2.786683 0.408257 0.911239 0.112643 -0.004812 -0.005119
2.945066 0.347835 0.992618 0.112643 -0.004812 -0.005119
2.865875 0.378046 0.951928 0.112644 -0.004812 -0.005119
2.925268 0.731405 0.982445 0.112643 0.004819 -0.005126
2.667896 0.633220 0.608247 0.112644 0.004819 0.005126
1.826174 0.312627 1.040037 0.070683 0.006136 0.004539
1.553871 0.586584 0.622131 -0.000001 0.370581 -0.000019
2.850287 0.667197 0.872163 0.112643 -0.006297 0.003120
3.028219 0.712290 0.477948 0.000000 0.802891 0.000355
0.515903 0.452667 0.800666 0.000000 -0.790958 0.000023
2.321064 0.579778 0.838824 -0.000002 0.304867 0.000047
0.876935 0.653289 0.693756 -0.000001 0.951447 -0.000010
2.636967 0.641581 0.668432 0.000000 0.856229 -0.000009
0.335387 0.438950 0.778487 -0.000000 -0.897595 0.000002
2.275935 0.633029 0.802030 0.000000 0.776594 0.000024
2.501580 0.652070 0.768287 0.000000 0.944073 0.000005
1.734387 0.434311 0.691346 0.000001 -0.940549 -0.000003
1.418483 0.494626 0.624551 -0.000001 -0.413066 -0.000033
2.140548 0.493722 0.833473 0.000000 -0.435414 0.000031
1.599000 0.445569 0.667869 0.000001 -0.843934 -0.000019
0.470774 0.477928 0.824355 0.000000 -0.571761 0.000005
1.644129 0.634737 0.799875 0.000000 0.790996 0.000047
2.997999 0.565107 0.615807 -0.000000 0.195186 -0.000076
2.275935 0.505516 0.620141 0.000000 -0.328731 -0.000086
1.553871 0.646202 0.781814 0.000000 0.889898 0.000015
1.684520 0.265460 0.376093 0.088885 -0.002080 0.001544
2.727225 0.436332 0.772491 0.000000 -0.928025 0.000003
1.607990 0.208466 0.288648 -0.070625 -0.005385 0.003667
0.831806 0.640956 0.791005 -0.000001 0.829369 0.000002
0.245129 0.592582 0.833709 0.000001 0.429734 0.000016
1.508741 0.441456 0.783478 0.000000 -0.879193 0.000016
1.625633 0.544563 0.844681 0.000000 0.023241 0.000324
1.532416 0.543896 0.844697 -0.000000 0.022876 0.000329
2.952870 0.444802 0.669110 -0.000000 -0.856236 -0.000036
1.776685 0.368697 0.488050 0.070680 0.003470 -0.002574
0.335387 0.586854 0.836212 0.000000 0.371985 0.000150
1.012322 0.498590 0.622796 0.000000 -0.393353 -0.000070
1.580993 0.459487 0.868653 -0.056146 0.004154 0.003282
0.831806 0.429823 0.750117 0.000000 -0.985015 0.000003
2.546709 0.443668 0.787446 0.000000 -0.867915 0.000009
1.642562 0.457291 0.867022 0.070681 0.003219 0.002388
1.540250 0.243387 0.331279 -0.070625 -0.012528 0.008424
2.411322 0.649564 0.774645 0.000000 0.919441 0.000002
1.644129 0.642270 0.669574 0.000001 0.832142 -0.000002
3.088257 0.433082 0.695065 0.178591 -0.000234 -0.000070
2.321064 0.503085 0.837436 0.000001 -0.349162 0.000040
0.290258 0.653734 0.695145 0.000000 0.958597 -0.000018
0.741548 0.497517 0.835196 -0.000001 -0.393147 0.000035
0.922064 0.651080 0.770943 0.000000 0.928378 0.000002
0.922064 0.495537 0.834316 0.000000 -0.414746 0.000008
1.643924 0.232425 1.160931 -0.056144 0.006690 0.005264
0.380516 0.500751 0.621914 0.000000 -0.371948 -0.000038
0.651290 0.600242 0.628711 0.000000 0.496668 -0.000053
0.478172 0.547230 0.613832 0.000000 0.022884 -0.000022
1.734387 0.635850 0.798417 0.000000 0.804962 0.000011
2.591838 0.483816 0.828143 -0.000001 -0.516233 0.000025
1.237967 0.649891 0.773879 -0.000000 0.919256 0.000003
2.321064 0.584372 0.621264 -0.000001 0.344742 -0.000010
1.869774 0.495688 0.624067 0.000000 -0.414299 -0.000033
1.147709 0.432619 0.696624 0.000000 -0.958276 -0.000002
1.824645 0.513884 0.840869 0.000000 -0.262385 0.000014
2.501580 0.592995 0.624943 0.000001 0.435274 -0.000062
0.939820 0.545896 0.844651 -0.000000 0.022868 0.000022
0.831806 0.649924 0.684649 0.000000 0.919248 -0.000003
0.072065 0.502421 0.789043 -0.542310 -0.000024 0.000034
1.869774 0.578191 0.839336 0.000000 0.306773 0.000012
1.012322 0.433133 0.694907 0.000000 -0.951783 -0.000002
3.068817 0.637028 0.831530 0.000002 -0.802873 0.000222
1.644129 0.590042 0.623583 0.000001 0.414458 -0.000132
1.661200 0.197864 1.206114 -0.056145 0.006165 0.004856
1.237967 0.485719 0.829265 0.000000 -0.496571 0.000053
1.651528 0.379930 0.970149 0.070680 0.003420 0.002536
1.283096 0.599297 0.628179 -0.000001 0.475924 -0.000028
0.361281 0.658855 0.731310 0.000005 0.189663 0.000000
2.952870 0.651314 0.770318 0.000000 0.936582 0.000023
2.546709 0.615877 0.639331 0.000000 0.630000 -0.000019
1.283096 0.654908 0.699231 0.000000 0.964405 -0.000002
0.541797 0.428002 0.733059 0.000000 -0.999734 0.000000
0.200000 0.640151 0.792271 -0.074778 0.000241 0.000153
2.997999 0.643663 0.786506 0.000001 0.867673 0.000017
3.043128 0.658756 0.734559 0.000000 0.999730 0.000000
1.599000 0.626453 0.809453 -0.000001 0.714841 0.000029
1.508741 0.514005 0.617550 -0.000000 -0.262461 -0.000055
1.102580 0.589429 0.835131 -0.000000 0.393229 0.000009
1.779516 0.497632 0.623206 -0.000000 -0.393253 -0.000035
1.192838 0.532741 0.614236 0.000000 -0.103680 -0.000144
1.848319 0.543563 0.613747 0.000000 0.023241 -0.000011
1.102580 0.651606 0.769538 0.000000 0.936457 0.000011
1.147709 0.442349 0.785127 0.000000 -0.879211 0.000004
1.698148 0.713415 0.939050 0.088884 0.002720 -0.002018
3.022973 0.667037 0.538897 -0.000001 0.802889 0.000533
1.192838 0.466530 0.815400 -0.000000 -0.665126 0.000017
2.411322 0.652015 0.690007 0.000000 0.944381 -0.000003
1.960032 0.599004 0.628020 0.000000 0.476571 -0.000014
2.817483 0.587357 0.622441 0.000000 0.371711 -0.000019
1.535080 0.797913 0.378630 -0.056144 -0.004001 -0.003162
1.426360 0.644311 0.608520 -0.070626 0.003114 0.002124
1.426360 0.442481 0.849932 -0.070626 -0.003114 -0.002124
1.684275 0.157106 0.198806 -0.056145 0.005116 -0.004037
0.380516 0.482603 0.827411 0.000000 -0.536251 0.000012
1.192838 0.658004 0.743361 0.000001 0.980700 0.000000
1.655831 0.721178 0.469533 0.070678 -0.003219 -0.002388
1.826174 0.180142 0.239977 0.070681 0.004124 -0.003057
1.746561 0.955651 1.272552 0.088887 0.002560 -0.001900
2.817483 0.652015 0.768445 -0.000000 0.944402 0.000010
2.366193 0.635553 0.659632 0.000000 0.804948 -0.000003
2.952870 0.583318 0.620870 0.000000 0.350377 -0.000080
1.573935 0.642065 0.886641 -0.056146 -0.002077 0.001644
0.470774 0.435420 0.688290 -0.000001 -0.935214 -0.000006
0.696419 0.575119 0.840264 0.000000 0.284602 0.000025
1.580560 0.356485 0.998614 -0.056141 0.002197 0.001740
2.050290 0.585268 0.621604 0.000002 0.362444 -0.000019
1.463612 0.503241 0.837494 0.000000 -0.350358 0.000020
1.824645 0.655993 0.703600 -0.000000 0.975993 -0.000007
1.373354 0.502694 0.837290 0.000000 -0.350340 0.000040
2.810747 0.652113 0.606605 0.112644 -0.006297 -0.003119
2.865947 0.427138 0.596447 0.000000 0.802891 -0.000222
1.328225 0.436162 0.686387 0.000001 -0.918960 -0.000003
0.651290 0.619516 0.816066 -0.000000 0.665173 0.000017
3.125328 0.627974 0.627215 -0.208478 -0.003315 -0.002537
2.907741 0.513402 0.840738 -0.000000 -0.262576 0.000055
2.727225 0.433389 0.694113 -0.000000 -0.950644 -0.000002
1.790312 1.013996 1.357684 0.088886 0.008958 -0.006618
1.869774 0.651592 0.769577 -0.000000 0.934764 0.000001
1.012322 0.589352 0.623288 -0.000001 0.393071 -0.000070
0.515903 0.476973 0.634768 -0.000000 -0.574603 -0.000043
1.826174 1.009695 0.101192 0.070679 -0.010059 -0.007394
1.826174 0.459834 0.616680 0.070679 0.006840 -0.005055
1.328225 0.440154 0.780961 -0.000001 -0.879175 0.000002
1.386772 0.653795 0.868790 -0.070621 0.004671 -0.003183
3.143045 0.272308 1.094341 0.112643 -0.003213 -0.003419
1.373354 0.575159 0.618199 0.000000 0.284624 -0.000025
1.147709 0.640710 0.791392 -0.000001 0.789765 0.000001
0.200000 0.446642 0.792271 -0.074781 -0.000241 0.000153
2.275935 0.633606 0.657134 -0.000000 0.775553 -0.000006
1.779516 0.575479 0.840158 0.000000 0.284624 0.000051
2.050290 0.438583 0.777692 0.000000 -0.910005 0.000003
2.095419 0.463646 0.812749 0.000000 -0.698882 0.000015
0.967193 0.632025 0.655196 0.000000 0.761861 -0.000013
0.561032 0.572747 0.617539 0.000000 0.258628 -0.000007
1.418483 0.637087 0.661712 0.000000 0.804948 -0.000003
0.200000 0.516957 0.841641 -0.074782 -0.000069 0.000277
1.668383 0.831365 1.093454 -0.070625 0.012088 -0.008137
2.501580 0.585578 0.836724 -0.000000 0.371948 0.000075
1.534450 0.254840 1.122727 -0.056145 0.007477 0.005872
0.114403 0.569499 0.820969 -0.376761 0.000027 0.000086
1.237967 0.570160 0.616891 0.000001 0.239603 -0.000061
1.779516 0.634610 0.658412 0.000001 0.790387 -0.000012
2.140548 0.523531 0.615473 -0.000001 -0.171580 -0.000043
0.380516 0.432016 0.698749 -0.000000 -0.964872 -0.000004
2.727225 0.651548 0.769694 0.000000 0.936579 0.000003
3.125328 0.470212 0.618756 -0.208477 -0.003388 0.002439
2.909598 0.667037 0.538897 0.000000 0.802892 0.000277
1.869774 0.434850 0.689812 0.000000 -0.936623 -0.000001
3.009154 0.434680 0.606605 -0.000001 0.802891 -0.000932
0.144677 0.500548 0.826269 -0.258734 -0.000064 0.000136
2.591838 0.638762 0.794351 -0.000001 0.827460 0.000005
1.960032 0.654423 0.697463 -0.000001 0.951997 -0.000002
1.444017 0.761126 1.018771 -0.070626 0.001896 -0.001294
1.700658 0.625880 0.603214 0.070681 -0.008751 -0.006449
3.072399 0.400900 0.513501 0.000000 -0.802891 0.000355
1.960032 0.503475 0.837582 0.000000 -0.350340 0.000020
1.672686 0.645070 0.884410 0.070681 -0.008751 0.006449
1.418483 0.435026 0.769108 -0.000000 -0.936530 0.000011
1.755885 0.236096 0.306984 0.070680 0.004929 -0.003651
1.755885 0.236096 1.151468 0.070680 0.009858 0.007249
1.605266 0.683485 0.573617 -0.070626 0.002116 0.001444
2.456451 0.431422 0.757446 0.000001 -0.970067 0.000004
2.817483 0.649236 0.683040 -0.000000 0.918967 -0.000006
1.826174 0.803606 0.378762 0.070680 -0.011467 -0.008404
0.831806 0.448842 0.662939 0.000000 -0.818098 -0.000011
1.553871 0.502616 0.621191 0.000000 -0.349795 -0.000020
1.445857 0.427945 0.730559 0.000000 -0.999734 0.000000
2.591838 0.586584 0.836321 -0.000000 0.371563 0.000019
1.357078 0.427952 0.730893 0.000000 -0.999734 0.000000
1.702810 0.174767 1.207247 0.088887 -0.006399 -0.004739
0.425645 0.582615 0.620607 0.000000 0.350340 -0.000020
0.335387 0.650290 0.772916 0.000001 0.916191 0.000003
0.136988 0.548188 0.625574 -0.288726 0.000004 -0.000129
0.651290 0.500286 0.622100 0.000001 -0.371809 -0.000075
0.780019 0.540896 0.613801 0.000000 -0.022876 -0.000011
0.152436 0.457082 0.794407 -0.228519 -0.000139 0.000100
2.050290 0.651899 0.689695 -0.000002 0.930705 -0.000006
1.102580 0.455524 0.804145 0.000000 -0.761860 0.000026
3.153732 0.473083 0.702602 1.000000 0.000000 -0.000000
2.769032 0.654001 0.866291 0.112643 -0.006297 0.003120
2.788830 0.425239 0.581988 0.112642 0.006297 -0.003120
2.828398 0.676648 0.561658 0.112641 -0.006297 -0.003120
2.727225 0.498590 0.835656 -0.000000 -0.393235 0.000018
1.669100 0.680369 0.932378 0.070680 -0.001836 0.001363
1.826174 0.788886 1.059863 0.070680 -0.005734 0.004243
0.184003 0.548663 0.615316 -0.113519 0.000004 -0.000185
2.909598 0.419755 0.538897 0.000000 -0.802891 0.000277
2.945066 0.347835 0.465834 0.112642 -0.004812 0.005119
1.102580 0.653455 0.694272 0.000000 0.951533 -0.000005
0.470774 0.656766 0.707270 0.000001 0.979352 -0.000003
1.599000 0.632398 0.655645 0.000001 0.776000 -0.000012
1.679858 0.247348 0.313103 0.070680 0.009656 -0.007104
1.744409 0.279179 0.363646 0.070680 0.011467 -0.008404
3.005826 0.404671 0.939871 0.000000 -0.802890 -0.000266
3.153732 0.618410 0.800645 0.175176 0.000174 0.000162
1.576783 0.152250 0.202411 -0.070625 -0.004506 0.003071
2.230806 0.610195 0.823421 0.000000 0.574576 0.000021
1.328225 0.506146 0.838530 0.000001 -0.327961 0.000043
1.706277 0.072218 0.089675 -0.056147 0.014165 -0.010883
3.088257 0.635553 0.659632 0.185452 0.000190 -0.000140
1.914903 0.450943 0.798417 0.000000 -0.804948 0.000006
3.046008 0.759665 1.008605 0.112646 -0.006297 0.003119
3.028219 0.351716 0.494866 0.000000 0.802891 -0.000355
3.047989 0.344174 0.973744 0.000000 0.802891 0.000355
0.191990 0.657788 0.718626 -0.074775 0.000285 -0.000023
0.696419 0.639711 0.665522 -0.000000 0.831256 -0.000005
2.810747 0.652113 0.851847 0.112643 -0.006297 0.003120
2.771207 0.449764 0.831530 0.000000 0.802891 0.000222
2.727225 0.649039 0.682580 0.000000 0.919441 -0.000002
0.380516 0.614968 0.819853 0.000000 0.612058 0.000010
2.914850 0.633257 0.826451 0.000000 -0.802891 0.000277
2.938992 0.655724 0.904318 0.000002 0.802879 -0.000277
2.919222 0.438611 0.894160 0.000000 -0.802891 -0.000277
1.784574 0.086240 0.119733 0.088886 -0.008958 0.006618
1.914903 0.581591 0.620251 0.000000 0.328593 -0.000043
0.453018 0.427939 0.727225 0.000069 -0.033962 -0.000002
2.095419 0.658256 0.741125 -0.000001 0.982665 0.000000
1.438909 0.709725 0.959810 -0.056145 -0.005050 0.003985
1.580993 0.627305 0.589799 -0.056146 -0.004154 -0.003282
1.518785 0.214232 0.285891 -0.070626 -0.005825 0.003964
1.484956 0.407736 0.893455 -0.070625 -0.005715 -0.003890
2.995941 0.678351 0.934792 0.000000 0.802889 -0.000266
1.569703 0.323314 0.418955 -0.056144 0.004263 -0.003368
0.509245 0.658833 0.731726 0.000068 0.136798 0.000002
1.328225 0.626744 0.649297 0.000000 0.715634 -0.000004
3.153732 0.474443 0.757997 1.000000 0.000000 0.000000
0.078813 0.589716 0.667888 -0.515884 0.000029 -0.000037
2.411322 0.444544 0.669539 0.000001 -0.855931 -0.000018
2.636967 0.581513 0.838229 -0.000001 0.328253 0.000043
0.191990 0.559268 0.843006 -0.078576 0.000087 0.000534
1.508741 0.434120 0.691897 0.000000 -0.944436 -0.000005
1.824645 0.636642 0.797343 0.000000 0.804958 0.000006
1.356390 0.387780 0.938817 -0.070625 -0.004671 -0.003183
1.356390 0.699013 0.938817 -0.056145 -0.005575 0.004396
2.185677 0.437557 0.683040 -0.000001 -0.918376 -0.000006
0.417507 0.547563 0.844612 0.000000 0.023233 0.000085
2.682096 0.561535 0.615181 -0.000001 0.142952 -0.000026
1.723615 1.045762 0.057984 -0.070623 0.010990 0.007416
1.712015 1.033366 1.383772 -0.070622 0.010990 -0.007416
1.616742 0.376420 0.535686 0.088886 -0.001360 0.001010
0.876935 0.431171 0.702017 0.000001 -0.970161 -0.000004
1.642562 0.653103 0.849498 0.088885 0.002560 -0.001900
1.594213 0.279010 1.097633 -0.056146 0.003870 0.003059
0.741548 0.651957 0.689851 0.000000 0.936623 -0.000003
1.418483 0.434894 0.689695 0.000000 -0.936151 -0.000006
1.744409 0.268669 1.087002 0.088886 -0.008319 -0.006150
1.744409 0.818124 0.371450 0.088885 0.008319 0.006150
2.948356 0.472550 0.848448 0.000000 -0.802891 -0.000333
1.799636 0.124554 0.169081 0.088887 -0.002560 0.001900
1.633955 0.725995 0.998007 0.070681 -0.006438 0.004760
1.566318 0.870034 1.173675 -0.056149 -0.006689 0.005263
0.425645 0.436580 0.773110 0.000000 -0.928199 0.000012
2.230806 0.652440 0.691228 -0.000000 0.942812 -0.000001
0.026315 0.543396 0.762749 -0.727464 0.000000 0.000006
1.779516 0.658179 0.741871 0.000000 0.994611 0.000001
1.557485 0.376685 0.929818 -0.070625 -0.004121 -0.002810
2.893156 0.457306 0.637080 0.000000 0.802891 -0.000222
2.907412 0.415825 0.581210 0.000000 0.802891 -0.000277
0.967193 0.471693 0.638701 0.000000 -0.629897 -0.000074
0.152436 0.587085 0.828171 -0.228522 0.000073 0.000155
0.107061 0.627674 0.766438 -0.405423 0.000071 0.000029
1.283096 0.455632 0.654180 0.000000 -0.761928 -0.000026
1.455297 0.670224 0.911439 -0.056145 -0.013640 0.010503
2.230806 0.598198 0.627583 0.000001 0.471747 -0.000007
2.411322 0.581355 0.838283 0.000000 0.328853 0.000011
1.782423 0.325075 0.429979 0.070680 0.006136 -0.004539
1.551747 0.411425 0.531787 -0.056145 0.002460 -0.001947
2.501580 0.507609 0.839016 0.000001 -0.299548 0.000012
1.802864 0.734955 0.989997 0.070678 -0.001635 0.001213
1.748713 1.019575 0.099482 -0.070625 0.011868 0.007994
1.826174 0.626959 0.616680 0.070679 -0.006840 -0.005055
0.160255 0.628020 0.799497 -0.198099 0.000158 0.000125
1.588052 0.612546 0.850664 0.070680 -0.006438 0.004760
0.561032 0.511793 0.618152 0.000000 -0.284526 -0.000013
2.050290 0.649711 0.774301 0.000000 0.919388 0.000013
