1.314462 1.011252 0.801945 -0.015397 -0.027260 0.017222
2.354780 0.824902 0.683408 -0.000000 0.567343 0.000005
3.069950 0.859397 0.620511 0.000000 0.999608 0.000000
3.131716 0.516019 0.822323 0.025284 0.010431 0.011068
0.630956 0.746364 0.541818 0.000000 -0.395625 -0.000032
3.336703 0.943831 0.485193 -0.052132 0.011543 0.014210
3.336703 0.612329 0.485193 -0.052132 -0.011543 0.014210
2.997156 0.657315 0.529872 0.025286 0.008344 -0.009095
1.781669 0.859296 0.686039 0.044554 -0.014002 0.016825
1.617367 1.272519 1.003397 -0.044539 0.002740 -0.003262
1.588636 0.859433 0.614377 0.000000 0.999609 -0.000000
1.301332 0.814142 0.543810 -0.000001 0.445072 -0.000014
1.086626 0.779649 0.535425 0.000000 0.027581 -0.000008
3.048881 0.518853 0.410971 0.025284 -0.013014 0.016025
2.939261 0.566461 0.448773 0.025286 -0.013013 0.016024
3.048881 1.037307 0.410971 0.025284 0.013014 0.016025
3.290044 1.142046 0.905797 0.025288 0.014870 -0.017752
3.202348 0.452201 0.875556 0.025284 -0.011156 -0.014134
2.720021 0.661678 0.709227 0.025286 -0.014871 -0.017753
3.290044 0.414114 0.905797 0.025286 -0.014871 -0.017753
1.395597 0.601145 0.759714 -0.015394 0.016369 0.014397
1.484856 1.178337 0.301470 -0.044539 0.006795 0.008011
1.733180 1.069845 0.406890 -0.044537 0.015122 0.017079
2.306896 0.699923 0.593988 -0.000000 -0.956456 -0.000004
1.638349 1.434770 0.095378 -0.015395 -0.041145 -0.018546
3.334403 0.434572 0.889553 -0.052134 -0.007696 -0.009599
3.290044 0.414114 0.327806 0.025285 -0.014872 0.017753
3.290044 1.142046 0.327806 0.025286 0.014871 0.017752
2.546316 0.710724 0.571067 0.000001 -0.814489 -0.000002
2.689968 0.851183 0.652640 0.000001 0.890234 0.000003
0.966144 0.715871 0.669333 0.000000 -0.773026 0.000006
1.588636 0.696706 0.615090 -0.000000 -0.999609 -0.000000
1.518214 0.330607 0.263820 -0.044538 -0.012712 0.014580
3.184716 0.548947 0.428467 0.025283 -0.009297 0.012084
3.184716 1.007212 0.428467 0.025285 0.009297 0.012083
1.599448 0.777794 0.698215 0.000000 -0.027976 0.000032
3.000988 0.583842 0.465987 0.025286 0.008345 -0.009096
1.570975 0.517500 0.828304 -0.015396 0.022422 0.016299
1.397100 0.739607 0.545052 0.000000 -0.471054 -0.000013
1.157680 0.859377 0.612379 0.000000 0.999608 -0.000000
2.654250 0.865916 0.547058 0.025284 0.014872 0.017753
2.689968 0.699728 0.638929 0.000001 -0.958787 0.000002
1.764472 0.206326 0.173936 -0.044539 -0.004494 0.005332
1.336587 0.846051 0.571469 -0.000001 -0.783146 0.000183
1.481617 0.382057 0.304832 -0.044538 -0.006795 0.008012
1.555708 0.444256 0.872307 -0.044538 -0.007563 -0.008892
0.774608 0.815323 0.544400 -0.000001 0.443086 -0.000014
2.881504 0.746921 0.692025 0.000000 -0.395732 0.000008
3.020476 0.980781 0.459267 0.025284 -0.007418 -0.008170
3.073040 0.739576 0.545069 0.000000 -0.471367 -0.000026
2.498432 0.843136 0.665762 0.000000 0.790071 0.000001
1.971708 0.822716 0.548714 0.000001 0.533311 -0.000005
1.061912 0.714694 0.667898 0.000002 -0.687540 0.000003
1.157680 0.696806 0.611952 0.000000 -0.997536 -0.000001
1.366210 0.647106 0.520365 -0.044532 -0.002467 0.002937
2.067476 0.822836 0.548792 0.000000 0.543961 -0.000011
1.495994 0.952033 0.491876 -0.044538 0.017832 0.019746
1.636520 0.732433 0.549386 -0.000001 -0.567081 -0.000040
1.743396 1.367212 1.075466 -0.044539 0.008329 -0.009765
1.743396 0.188947 1.075466 -0.044539 -0.008329 -0.009765
0.583072 0.716058 0.564056 0.000000 -0.748014 -0.000003
2.980361 0.696754 0.613378 -0.000000 -0.999608 -0.000000
1.636520 0.823668 0.549345 -0.000001 0.566276 -0.000020
1.604741 1.240980 0.247014 -0.015394 -0.016369 -0.014398
1.230278 0.779364 0.698187 0.000000 0.027987 0.000063
1.828056 0.846672 0.660660 0.000001 0.838210 0.000009
2.845977 0.775369 0.535457 0.000000 -0.027976 -0.000016
0.126554 0.731824 0.558799 -0.223813 -0.000096 -0.000114
0.126554 0.824336 0.558799 -0.223813 0.000096 -0.000114
1.014028 0.849342 0.656187 -0.000000 0.881945 0.000029
3.168808 0.755608 0.695060 0.000000 -0.263682 0.000013
2.163244 0.709177 0.573423 0.000000 -0.839301 -0.000002
1.757002 0.778008 0.535383 0.000039 -0.000042 -0.001935
1.431289 1.033597 0.411969 -0.015396 -0.049188 -0.018916
1.697190 1.084379 0.367216 -0.015395 -0.020910 -0.015920
1.641145 0.509594 0.812549 -0.044537 -0.004001 -0.004752
1.425541 0.873390 0.553720 -0.044538 0.002466 0.002937
2.977272 0.747850 0.692395 -0.000000 -0.369642 0.000069
3.216692 0.830611 0.554593 0.000000 0.655662 -0.000004
3.216692 0.736805 0.546620 -0.000000 -0.495003 -0.000012
2.642084 0.717041 0.670680 -0.000000 -0.754887 0.000024
1.014028 0.837366 0.560997 0.000000 0.735990 -0.000006
2.211128 0.741220 0.689395 0.000000 -0.446378 0.000014
1.397100 0.699474 0.638000 0.000000 -0.962440 0.000002
2.594200 0.825830 0.682743 -0.000001 0.589342 0.000019
2.844432 0.781361 0.698131 0.000000 0.027558 0.000004
1.729301 0.505767 0.810629 0.128112 -0.004158 -0.005234
0.870376 0.734761 0.685743 0.000000 -0.543667 0.000005
1.061912 0.823785 0.684177 0.000000 0.567189 0.000040
2.259012 0.846187 0.572195 -0.000000 0.839129 -0.000018
1.648176 0.644092 0.502419 -0.015393 0.009552 -0.010418
1.875940 0.717064 0.670707 0.000000 -0.753815 0.000006
1.733180 0.486315 0.406890 0.128111 -0.004158 0.005234
2.929388 0.824314 0.549791 -0.000000 0.567188 -0.000040
1.367157 0.955287 0.474232 -0.015400 -0.013637 -0.013107
1.700429 0.467545 0.363853 -0.015396 0.019698 -0.015576
2.961185 0.999220 0.441212 0.025284 0.026009 0.025120
2.689968 0.734402 0.548093 0.000000 -0.543742 -0.000042
1.474426 0.575707 0.466791 -0.044538 -0.017832 0.019746
1.865071 1.237128 0.981295 0.044555 -0.007856 0.009743
1.865071 0.319031 0.981295 0.044555 0.007856 0.009743
1.577582 0.445038 0.348716 -0.015395 0.041747 -0.018580
0.966144 0.825196 0.683206 -0.000000 0.589661 0.000005
1.588636 0.823433 0.684420 0.000001 0.561176 0.000010
1.109796 0.820941 0.547582 0.000000 0.519953 -0.000011
2.689968 0.816835 0.688400 -0.000000 0.471338 0.000026
2.163244 0.710967 0.662889 -0.000001 -0.821976 0.000009
1.539130 0.895195 0.691558 -0.044537 0.017832 -0.019747
1.539130 0.660965 0.691558 -0.044538 -0.017832 -0.019747
3.168808 0.854121 0.587699 0.000000 0.929109 -0.000001
1.331214 0.891638 0.524522 -0.015397 -0.005457 -0.006602
0.870376 0.825772 0.682785 0.000000 0.590103 0.000019
1.433363 0.455939 0.869628 -0.044537 -0.008111 -0.009516
1.588636 0.731287 0.683429 0.000000 -0.567147 0.000040
1.397100 0.816426 0.544985 0.000000 0.471338 -0.000026
1.525087 1.097928 0.862369 -0.044537 0.007672 -0.009017
1.732288 0.736712 0.546673 0.000000 -0.519894 -0.000006
3.025156 0.819753 0.546858 0.000001 0.519743 -0.000045
1.684404 0.859477 0.615946 0.000000 0.999609 -0.000000
3.296912 0.503859 0.831978 -0.052132 0.005780 0.007227
0.774608 0.850082 0.578802 -0.000000 0.881724 -0.000007
1.492868 0.818611 0.687409 0.000000 0.496012 0.000012
0.918260 0.721376 0.558382 -0.000001 -0.694861 -0.000014
1.835008 0.464848 0.860555 0.128111 -0.001960 -0.002468
1.492868 0.736990 0.687090 -0.000001 -0.495095 0.000024
3.132578 0.659261 0.536111 -0.052133 0.008053 -0.010013
3.132578 0.896898 0.536111 -0.052134 -0.008053 -0.010013
0.487304 0.735431 0.547452 -0.000001 -0.520017 -0.000045
0.535188 0.739985 0.688753 -0.000001 -0.470817 0.000051
1.474727 0.532172 0.803299 -0.044538 -0.017832 -0.019746
0.918260 0.822926 0.548850 -0.000000 0.543926 -0.000011
0.535188 0.697377 0.606057 0.000001 -0.988048 -0.000001
0.726724 0.730330 0.550861 -0.000000 -0.590081 -0.000037
2.881504 0.849476 0.655935 -0.000000 0.881724 0.000007
0.774608 0.847467 0.659389 -0.000001 0.853272 0.000008
0.678840 0.808111 0.692474 -0.000000 0.369680 0.000069
3.113894 0.899243 0.724954 0.025285 0.013220 -0.016224
2.689968 0.822477 0.548559 -0.000000 0.543842 -0.000021
0.583072 0.795639 0.696301 0.000000 0.208929 0.000064
2.019592 0.738695 0.688064 0.000000 -0.495892 0.000024
1.875940 0.849059 0.576921 0.000000 0.868384 -0.000008
1.672987 0.894071 0.682827 -0.044536 0.009207 -0.010753
1.061912 0.855946 0.593032 0.000000 0.956831 -0.000008
1.923824 0.736836 0.546602 0.000000 -0.495959 -0.000012
0.966144 0.855987 0.593169 0.000000 0.956856 -0.000001
1.865071 0.220210 1.059760 0.044554 0.012977 0.015693
1.865071 1.335949 1.059760 0.044553 -0.012978 0.015694
1.474426 0.582702 0.775622 -0.015395 0.049191 0.018916
0.630956 0.841692 0.667622 -0.000000 0.772008 0.000003
1.684404 0.734342 0.685472 -0.000001 -0.543674 0.000042
1.492868 0.699314 0.596189 -0.000001 -0.962712 -0.000004
1.923824 0.818580 0.546177 0.000000 0.495959 -0.000006
3.311557 0.848763 0.671167 0.135476 0.000421 0.000334
3.042400 0.986978 0.786084 0.025283 0.007438 -0.009881
1.301332 0.734012 0.685258 -0.000001 -0.539407 0.000011
1.349216 0.851438 0.652129 -0.000000 0.906918 0.000003
0.487304 0.829893 0.554004 -0.000000 0.634389 -0.000017
0.905903 0.776510 0.698179 0.000000 -0.027976 0.000032
1.301332 0.822087 0.685297 0.000001 0.543303 0.000021
1.645024 1.055015 0.842492 -0.015394 -0.011066 0.011534
0.360643 0.779792 0.698199 0.000000 0.014201 0.000062
3.093602 0.689486 0.532804 0.025284 -0.013221 0.016225
1.492868 0.856836 0.596155 -0.000001 0.959567 -0.000004
1.574918 0.304228 0.239064 -0.015395 0.016368 -0.014397
2.402664 0.700151 0.640367 0.000000 -0.956908 0.000008
0.870376 0.700213 0.593032 0.000001 -0.955751 -0.000004
1.120608 0.779792 0.698175 0.000000 0.028393 0.000016
1.253448 0.738013 0.687674 0.000001 -0.489242 0.000006
2.163244 0.846303 0.572375 -0.000000 0.839057 -0.000004
1.349216 0.705104 0.652896 0.000001 -0.869027 0.000002
1.676165 1.015065 0.449506 -0.044538 0.008439 0.009889
1.721453 0.384556 0.298787 -0.015395 0.008641 -0.009672
0.583072 0.709759 0.661079 0.000000 -0.839301 0.000004
1.582869 0.925425 0.714362 -0.044539 0.017832 -0.019746
1.582869 0.630734 0.714362 -0.044538 -0.017832 -0.019746
1.788703 0.061680 1.187679 -0.015393 0.030289 0.017632
1.788703 1.494479 1.187679 -0.015397 -0.015154 0.013866
1.605040 0.972207 0.777197 -0.015394 -0.049192 0.018915
1.714924 1.264811 1.007307 -0.015397 -0.014852 0.013723
1.703155 0.092147 1.162273 -0.015395 0.036322 0.018223
1.703155 1.464013 1.162273 -0.015396 -0.018184 0.015086
1.253448 0.819076 0.687144 0.000001 0.488395 0.000006
3.025156 0.743335 0.690431 -0.000000 -0.421161 0.000059
3.230374 0.475665 0.374119 0.025284 -0.011156 0.014134
3.230374 1.080495 0.374119 0.025283 0.011156 0.014134
1.643828 0.857360 0.688477 -0.015395 -0.012733 0.012595
1.732945 0.037241 0.030322 -0.044539 -0.010302 0.011970
2.737852 0.736285 0.686671 -0.000000 -0.520058 0.000022
3.264576 0.702012 0.587765 -0.055982 -0.000696 -0.000277
3.047295 0.926144 0.725835 0.025285 -0.014833 0.014687
3.019293 0.675319 0.687303 0.025284 0.016686 0.015988
1.327591 0.778365 0.698215 0.000000 0.027987 0.000031
1.540752 0.743529 0.543083 -0.000001 -0.399708 -0.000008
1.455164 0.928847 0.493114 -0.015393 -0.004776 -0.005855
1.385917 0.524272 0.815091 -0.044533 -0.002960 -0.003522
1.641145 1.046566 0.421055 -0.044539 0.004001 0.004752
1.474727 0.532172 0.430305 -0.044538 -0.017832 0.019746
0.544456 0.774798 0.535473 -0.000000 -0.027987 -0.000016
3.073040 0.699577 0.638378 -0.000000 -0.964591 0.000004
1.798156 1.264919 0.226432 0.044554 -0.007856 -0.009744
1.385917 1.029766 0.817763 -0.015388 -0.008190 0.009280
3.114653 1.065872 0.388290 0.025283 0.009297 0.012084
3.114653 0.490287 0.388290 0.025283 -0.009297 0.012084
3.092729 1.056350 0.837754 0.025285 0.022298 -0.023168
1.512461 0.491343 0.386063 -0.015395 0.011218 -0.011638
1.690331 1.197163 0.935965 -0.044539 0.006247 -0.007378
0.295768 0.820972 0.547601 0.000001 0.518931 -0.000023
1.744417 0.282880 0.236961 -0.044537 -0.005371 0.006359
1.712260 1.409184 0.121132 -0.044538 0.014903 0.016857
1.660409 0.160849 1.103855 -0.044539 -0.008329 -0.009765
1.517863 0.598049 0.764513 -0.015396 0.049188 0.018916
1.583170 0.957485 0.468304 -0.015395 -0.049189 -0.018916
0.295768 0.736285 0.546932 0.000001 -0.519177 -0.000022
1.504322 1.137420 0.903947 -0.015395 -0.020002 0.015665
1.538650 1.192956 0.292341 -0.044538 0.006686 0.007885
1.904516 0.777723 0.535390 0.000005 -0.004660 -0.000189
0.357554 0.781932 0.535489 0.000000 0.028405 -0.000016
1.688391 1.187436 0.305682 -0.044538 0.003179 0.003781
3.114179 0.594430 0.463515 0.025284 -0.013014 0.016024
1.602886 1.073831 0.837637 -0.044537 0.007672 -0.009017
2.317708 0.859465 0.615518 0.000000 0.999608 -0.000000
0.451777 0.776438 0.535404 0.000000 -0.013354 -0.000017
1.664260 1.468652 0.068476 -0.015394 -0.036324 -0.018222
2.737852 0.699882 0.594125 0.000000 -0.957088 -0.000001
2.002601 0.777652 0.535393 -0.000000 -0.027987 -0.000016
3.264576 0.727314 0.680460 -0.049796 -0.000515 0.000665
0.630956 0.755471 0.695020 0.000001 -0.273648 0.000012
1.696220 0.476749 0.862498 -0.015395 0.010460 0.011106
1.997967 0.778222 0.698219 -0.000010 0.001369 0.000321
1.875940 0.708006 0.575342 0.000000 -0.853941 -0.000001
1.623929 0.445482 0.348157 -0.015397 0.020000 -0.015666
2.977272 0.856657 0.595501 0.000000 0.964603 -0.000007
3.337725 0.691332 0.547923 -0.052132 -0.007932 0.009887
1.736330 0.311431 0.973173 -0.044537 -0.005809 -0.006870
1.688391 0.368723 0.927922 -0.044537 -0.003179 -0.003781
2.970550 0.920138 0.498032 0.025285 0.026007 0.025120
1.474532 1.083667 0.372117 -0.015395 -0.022121 -0.016227
1.540034 1.025799 0.801018 -0.044538 0.004220 -0.005010
1.617452 1.102207 0.878721 -0.015394 -0.020911 0.015920
1.617452 0.453952 0.878721 -0.015396 0.010459 0.011105
2.794945 0.873568 0.696461 0.025285 0.007438 -0.009880
3.216692 0.855475 0.642069 -0.000001 0.947560 0.000009
3.105552 0.955013 0.468634 0.025283 0.006508 0.008728
1.517863 0.958110 0.764513 -0.015397 -0.049186 0.018917
1.636520 0.852795 0.584463 -0.000001 0.906075 -0.000001
3.107414 0.863875 0.669565 0.000001 0.783143 0.000217
0.247884 0.707988 0.575373 0.000000 -0.829930 -0.000001
3.298062 0.595230 0.469056 -0.052133 -0.004810 0.006039
3.298062 0.963423 0.472196 -0.052132 -0.004817 -0.006034
3.336958 0.924080 0.732729 -0.052132 0.011543 -0.014210
0.247884 0.848153 0.575342 -0.000001 0.849611 -0.000004
1.636520 0.703506 0.584136 0.000000 -0.918422 -0.000012
0.037483 0.752288 0.637370 -0.571708 -0.000020 0.000015
2.306896 0.802123 0.539018 0.000000 0.289906 -0.000023
1.641042 0.317660 0.248238 -0.015396 0.008034 -0.009143
1.413930 0.481350 0.384153 -0.044539 -0.002028 0.002416
3.019672 0.602809 0.761090 0.025282 -0.006612 -0.008858
1.780172 0.815734 0.544615 -0.000000 0.471338 -0.000026
2.873702 0.931529 0.492827 0.025284 0.018587 0.020743
1.660178 0.339106 0.954397 -0.044537 -0.003124 -0.003716
1.732288 0.855294 0.642611 0.000000 0.948422 0.000018
1.474727 1.018250 0.810525 -0.015395 -0.049190 0.018916
1.820461 0.275919 1.008168 0.128111 -0.005464 -0.006876
1.820461 1.280240 1.008168 0.128110 0.005464 -0.006876
1.661148 1.214843 0.967327 -0.015397 -0.017275 0.014757
3.208071 0.560190 0.781277 -0.052133 0.003853 0.004834
1.816582 0.334900 0.272908 0.128111 -0.003207 0.004038
1.405150 1.129837 0.337500 -0.015395 -0.042349 -0.018612
0.454866 0.774513 0.698123 0.000000 -0.027987 0.000031
1.725422 0.525220 0.439061 0.128112 -0.004395 0.005532
1.514975 1.219798 0.265269 -0.015397 -0.008791 -0.009800
3.092444 0.562295 0.440985 0.025284 -0.006508 0.008728
1.727361 0.877554 0.529975 0.044556 -0.005123 -0.006410
1.389040 0.613881 0.483940 -0.015389 0.008189 -0.009280
2.259012 0.717972 0.671714 0.000000 -0.734612 0.000006
2.689968 0.852039 0.582769 -0.000001 0.756757 -0.000001
1.750566 1.292104 1.012069 -0.044534 0.002521 -0.003002
1.430124 1.095985 0.866265 -0.044536 0.008111 -0.009517
2.067476 0.739419 0.545153 0.000000 -0.471108 -0.000006
3.168808 0.717465 0.671162 0.000000 -0.736530 0.000003
2.163244 0.847170 0.659877 0.000001 0.853167 0.000008
3.168808 0.705842 0.579242 -0.000000 -0.881192 -0.000004
3.168808 0.817339 0.545473 -0.000001 0.465793 -0.000006
1.711323 1.335949 1.062659 -0.015401 -0.012727 0.012594
2.259012 0.735157 0.547619 -0.000000 -0.519559 -0.000011
1.612603 1.077368 0.374330 -0.015394 -0.020911 -0.015920
1.569772 1.173056 0.932988 -0.015396 -0.009398 0.010297
3.099299 0.781932 0.698115 0.000000 0.027987 0.000016
1.642704 1.165443 0.321466 -0.044538 0.006686 0.007885
1.312569 0.908882 0.722152 -0.015399 -0.008184 0.009277
1.312569 0.647278 0.722152 -0.015393 0.032706 0.017899
0.072628 0.725909 0.631832 -0.434114 -0.000054 0.000014
3.337980 0.735306 0.542715 -0.062385 -0.000355 -0.000596
1.540952 1.129458 0.345719 -0.044539 0.003617 0.004299
1.576185 1.312140 0.194588 -0.044539 0.002521 0.003002
1.676095 1.140041 0.909342 -0.015397 -0.009246 0.010175
1.480647 1.167510 0.926928 -0.015397 -0.009852 0.010652
1.696220 1.091619 0.847123 -0.044538 0.003781 -0.004494
2.450548 0.851678 0.581992 0.000001 0.906772 -0.000013
1.712260 1.405621 1.116959 -0.015393 -0.022426 0.016298
0.102906 0.781844 0.683838 -0.275448 0.000004 0.000053
0.535188 0.853514 0.586174 0.000000 0.929159 -0.000011
1.673774 1.242452 0.244520 -0.015396 -0.016064 -0.014270
1.812702 1.201807 0.288993 0.128112 0.003207 0.004038
0.391536 0.738821 0.688131 0.000001 -0.465793 0.000006
0.391536 0.817213 0.688198 -0.000000 0.471054 0.000013
1.865071 0.595730 0.472013 0.044554 0.006319 -0.007880
1.865071 0.960430 0.472013 0.044555 -0.012636 -0.015311
1.829189 0.573083 0.773654 0.128110 -0.002198 -0.002767
1.865071 0.999958 0.440626 0.044555 -0.011953 -0.014541
1.757425 1.008605 0.782087 0.128111 0.002198 -0.002767
1.638495 0.407937 0.318622 -0.015394 0.018792 -0.015291
1.668827 0.142653 0.114981 -0.044538 -0.007453 0.008767
1.618548 0.698558 0.688172 -0.015397 0.012731 0.012595
0.583072 0.819692 0.546821 0.000001 0.519218 -0.000022
1.923824 0.744565 0.691002 0.000001 -0.399708 0.000008
1.754318 0.002103 1.231501 -0.000003 -0.782587 0.000061
1.754318 1.554056 1.231501 -0.044542 0.007891 -0.009266
1.452857 1.008872 0.441707 -0.044538 0.017832 0.019746
0.813224 0.780505 0.698155 0.000000 0.027976 0.000063
3.284586 1.012714 0.806519 -0.052134 0.007696 -0.009599
3.093602 0.879971 0.549551 0.025284 -0.014834 -0.014687
2.450548 0.740174 0.544749 0.000000 -0.471054 -0.000013
3.264576 0.809238 0.692025 -0.055979 0.000277 0.000696
2.895406 0.859409 0.613521 0.000000 0.999597 -0.000000
1.498300 0.868707 0.539126 -0.015393 -0.019096 -0.015388
1.681344 0.540599 0.421141 -0.015397 0.005533 -0.006683
1.253448 0.856195 0.639752 0.000001 0.903747 0.000001
2.546316 0.743011 0.690280 -0.000001 -0.420896 0.000029
0.678840 0.764582 0.536509 0.000000 -0.153689 -0.000044
2.881504 0.698223 0.632686 0.000000 -0.977961 0.000001
0.678840 0.843005 0.567673 -0.000002 0.553687 -0.000002
1.827249 0.959381 0.762912 0.044555 -0.013319 0.016073
1.684404 0.705120 0.652928 -0.000001 -0.892123 0.000007
3.195489 0.979458 0.767313 -0.052133 -0.009632 0.011917
1.539431 0.617430 0.505559 -0.044537 -0.017832 0.019747
1.452556 0.965338 0.755410 -0.044538 0.017832 -0.019747
1.769062 1.066470 0.382347 0.044554 -0.005636 -0.007042
1.702147 0.659541 0.720202 0.044553 0.005124 0.006411
0.774608 0.721427 0.675271 0.000000 -0.696919 0.000014
1.666887 1.403780 0.123024 -0.044536 0.008330 0.009765
0.391536 0.814557 0.544017 -0.000000 0.446170 -0.000027
3.039088 0.869724 0.701302 0.025283 0.003719 -0.005095
1.157680 0.815702 0.544598 -0.000002 0.290363 -0.000005
0.150767 0.855908 0.603578 -0.129647 0.000276 -0.000039
0.142647 0.819374 0.682522 -0.161214 0.000122 0.000182
3.272278 0.917732 0.723369 -0.052133 -0.013307 0.016222
1.157680 0.740709 0.544463 0.000000 -0.471433 -0.000026
1.865071 0.022569 0.016912 0.044552 0.006148 -0.007671
1.300875 0.961131 0.472896 -0.044538 0.003946 0.004687
1.223142 0.859487 0.553603 -0.044537 0.007892 0.009267
1.262009 0.910309 0.513249 -0.044542 0.003946 0.004687
1.223142 0.696673 0.553603 -0.044537 -0.007892 0.009267
3.195489 0.585844 0.454777 -0.052133 -0.009619 0.011927
3.195489 0.970316 0.454777 -0.052132 0.009620 0.011927
1.664323 0.777937 0.698219 0.000000 -0.027987 0.000031
2.482985 0.696710 0.614947 -0.000000 -0.999597 -0.000000
0.388447 0.859483 0.615517 0.000000 0.999899 -0.000000
1.378564 0.777937 0.535384 0.000000 -0.028393 -0.000031
1.061912 0.707030 0.577045 -0.000000 -0.867358 -0.000004
2.785736 0.817713 0.545682 0.000000 0.495892 -0.000024
1.573011 0.378868 0.936351 -0.015395 0.018488 0.015190
1.540752 0.855249 0.642746 -0.000000 0.948041 0.000002
1.397100 0.737858 0.687586 0.000000 -0.496012 0.000012
0.918260 0.701338 0.643995 -0.000001 -0.938418 0.000005
1.550669 0.413996 0.335631 -0.044539 -0.003617 0.004299
1.676095 0.416118 0.909342 -0.015395 0.009247 0.010175
0.678840 0.700820 0.591128 0.000001 -0.948097 -0.000009
2.450548 0.725549 0.679011 0.000000 -0.655806 0.000063
2.799203 0.895728 0.525947 0.025284 -0.016686 -0.015988
1.512461 1.064817 0.386063 -0.015393 -0.011219 -0.011638
3.264576 0.796198 0.537422 -0.056543 0.000175 -0.000720
1.109796 0.855656 0.641528 -0.000000 0.956856 0.000001
2.498432 0.810812 0.542256 0.000000 0.395732 -0.000008
1.828219 1.354691 0.156863 0.044554 -0.012977 -0.015693
1.519217 0.391863 0.925177 -0.015396 0.009853 0.010653
1.534705 1.299244 1.030616 -0.015393 -0.030290 0.017632
1.721542 0.544672 0.778458 0.128112 -0.004395 -0.005532
3.337980 0.739914 0.636116 1.000000 0.000000 0.000000
3.337980 0.764191 0.576345 1.000000 -0.000000 0.000000
3.337980 0.783955 0.659171 1.000000 0.000000 0.000000
3.337980 0.811098 0.589609 1.000000 0.000000 -0.000000
3.337980 0.817710 0.632898 1.000000 0.000000 0.000000
2.294539 0.779720 0.698177 0.000000 0.028393 0.000004
3.066783 0.926297 0.490582 0.025283 0.006612 0.008858
3.120924 0.744856 0.542468 -0.000002 -0.284883 -0.000006
1.709633 1.474055 0.066584 -0.044539 0.006576 0.007759
1.109796 0.700504 0.641528 0.000000 -0.956896 0.000004
1.744817 0.427957 0.358633 0.128110 -0.001841 0.002319
0.200000 0.817465 0.545540 0.029487 0.000316 -0.000553
0.200000 0.738695 0.545540 0.029490 -0.000316 -0.000553
1.789428 0.966506 0.479665 0.128111 0.004633 0.005831
1.789428 0.589654 0.479665 0.128111 -0.002316 0.002917
1.828056 0.739261 0.545237 0.000000 -0.471302 -0.000026
1.831128 1.022449 0.428367 0.128111 0.002079 0.002618
1.831128 0.533711 0.805237 0.128111 -0.002079 -0.002618
1.679974 0.396246 0.308704 -0.015396 0.018486 -0.015190
0.542911 0.781218 0.698135 -0.000000 0.027976 0.000016
0.918260 0.855729 0.641289 0.000001 0.952967 0.000004
2.929388 0.722144 0.675968 0.000000 -0.697227 0.000007
3.301278 0.704158 0.655599 -0.056031 -0.002791 0.001685
3.157743 0.626237 0.725421 -0.052132 0.008054 0.010013
1.781669 0.687851 0.558915 0.128110 -0.003564 0.004487
1.468054 0.480963 0.854761 -0.015394 0.022425 0.016299
1.626707 0.170766 0.136103 -0.044539 -0.004165 0.004946
1.824340 0.260868 0.203807 0.044554 0.014343 -0.017197
2.450548 0.850896 0.653215 -0.000000 0.894791 0.000027
1.473020 0.677307 0.551903 -0.044540 -0.002959 0.003521
1.397100 0.819076 0.687144 0.000001 0.494938 0.000024
1.766049 0.128300 0.098270 -0.015397 0.039936 -0.018475
1.780172 0.853937 0.587235 -0.000002 0.927553 -0.000011
1.865071 0.556201 0.440626 0.044555 0.005977 -0.007461
2.785736 0.737641 0.546142 0.000001 -0.495855 -0.000048
2.827619 0.919117 0.727081 0.025286 -0.016685 0.015988
0.822492 0.852922 0.584758 -0.000000 0.918339 -0.000012
1.776406 1.456201 1.157617 -0.015397 -0.017578 0.014870
1.776406 0.099958 1.157617 -0.015397 0.035112 0.018125
1.828219 0.197486 1.071725 0.128111 -0.004514 -0.005682
1.795246 0.182618 0.140019 0.044553 0.012978 -0.015694
1.828219 1.358674 1.071725 0.128110 0.004514 -0.005682
1.732036 0.163526 1.107226 -0.015397 0.022421 0.016300
1.687370 0.274790 0.226858 -0.044538 -0.002685 0.003197
0.576893 0.859413 0.619941 -0.000000 0.999608 0.000000
0.726724 0.698305 0.633070 0.000000 -0.977917 0.000003
1.301332 0.706111 0.578739 0.000000 -0.882075 -0.000001
2.977272 0.856751 0.637759 -0.000000 0.964694 0.000004
1.431061 1.163719 0.923006 -0.015395 -0.039941 0.018473
1.733420 0.326021 0.272495 -0.044539 -0.002905 0.003457
1.444017 0.375500 0.936457 -0.044538 -0.013589 -0.015502
1.492868 0.815639 0.544564 0.000000 0.471758 -0.000006
1.405150 0.426322 0.337500 -0.044539 -0.015341 0.017300
1.492868 0.740583 0.544531 0.000000 -0.471433 -0.000013
0.271054 0.782360 0.698103 0.000000 0.027976 0.000016
1.590538 0.428097 0.898339 -0.015395 0.039337 0.018436
3.259677 0.963264 0.758721 -0.052132 -0.009632 0.011917
3.216692 0.701148 0.643457 -0.000001 -0.946414 0.000005
1.657876 0.280848 1.014374 -0.015395 0.029681 0.017559
0.630956 0.795255 0.537221 0.000000 0.208835 -0.000256
2.929388 0.801952 0.694637 0.000001 0.289306 0.000023
1.014028 0.737548 0.546195 0.000001 -0.494803 -0.000024
2.067476 0.850817 0.580229 0.000001 0.894572 -0.000014
3.337980 0.820854 0.542715 -0.062384 0.000355 -0.000596
2.067476 0.813051 0.690325 0.000000 0.421218 0.000029
1.349216 0.702645 0.586174 0.000001 -0.818962 -0.000001
2.954906 0.601241 0.473403 0.025286 -0.013013 0.016024
0.267964 0.779507 0.535401 0.000000 0.013989 -0.000504
0.391536 0.736346 0.546895 0.000000 -0.519953 -0.000011
1.540752 0.701046 0.643152 0.000000 -0.948307 0.000002
1.583335 1.270337 0.224560 -0.015396 -0.008034 -0.009143
2.754843 0.781076 0.535465 0.000000 0.028393 -0.000062
1.573981 0.373901 0.293364 -0.015395 0.009247 -0.010175
1.684404 0.813695 0.690017 0.000001 0.446176 0.000027
0.966144 0.707951 0.575434 0.000000 -0.868346 -0.000002
0.774608 0.699615 0.595088 0.000001 -0.963957 -0.000004
1.684404 0.812371 0.542963 0.000000 0.420964 -0.000004
3.168808 0.735005 0.547712 0.000000 -0.520013 -0.000011
1.468153 0.777366 0.535401 -0.000000 -0.027987 -0.000063
1.729094 1.445578 0.091596 -0.044537 0.013151 0.015043
1.900654 0.696670 0.617230 0.000000 -0.999597 0.000000
1.855859 0.777723 0.535390 -0.000040 -0.000112 -0.000911
1.793307 0.558192 0.438120 0.044554 0.006319 -0.007880
1.888297 0.859489 0.616374 0.000000 0.999620 -0.000000
1.651502 0.492674 0.849218 -0.015394 0.010460 0.011106
1.684404 0.744273 0.542737 0.000000 -0.421209 -0.000059
0.870376 0.815577 0.544531 0.000000 0.471278 -0.000013
3.301278 0.695204 0.606739 -0.056030 -0.003214 -0.000194
1.349216 0.816206 0.544867 0.000000 0.471409 -0.000051
3.309239 0.469258 0.369885 -0.052133 -0.007696 0.009599
1.704308 0.435989 0.870592 -0.044537 -0.014246 -0.016184
3.233235 1.022345 0.817579 -0.052132 0.005772 -0.007233
2.385673 0.859457 0.615233 0.000000 0.999609 -0.000000
1.205564 0.857460 0.598684 0.000000 0.977961 -0.000003
0.295768 0.739639 0.688568 -0.000000 -0.471377 0.000051
2.259012 0.815451 0.544463 0.000000 0.471477 -0.000051
3.311302 0.866800 0.544597 -0.052130 0.003966 0.004986
1.767123 0.499625 0.843478 0.044555 0.011953 0.014541
2.843476 0.696440 0.674798 0.000001 -0.783141 0.000140
3.011254 0.781860 0.698117 -0.000019 0.000405 0.000546
0.087562 0.745519 0.564982 -0.375783 -0.000039 -0.000058
1.205564 0.698767 0.598406 0.000000 -0.971670 -0.000002
1.495692 0.908499 0.705241 -0.044537 0.017832 -0.019747
1.495692 0.647661 0.705241 -0.044538 -0.017832 -0.019747
1.157680 0.816332 0.688669 0.000000 0.471108 0.000006
1.559020 0.271369 0.213774 -0.015395 0.015157 -0.013866
3.270982 1.078529 0.382506 -0.052133 -0.007706 -0.009591
0.295768 0.814301 0.689714 -0.000000 0.446502 0.000055
3.221420 0.610410 0.475989 -0.052132 -0.011543 0.014210
3.221420 0.945750 0.475989 -0.052133 0.005772 0.007233
1.828056 0.701227 0.643694 0.000000 -0.948516 0.000001
0.295768 0.859248 0.623147 0.000000 0.997535 0.000001
0.087562 0.813495 0.566889 -0.375783 0.000042 -0.000056
1.801065 1.057476 0.842292 0.044555 -0.005636 0.007042
3.270982 0.477630 0.382506 -0.052132 0.007706 -0.009591
0.150767 0.760513 0.539838 -0.129654 -0.000070 -0.000270
0.065334 0.827851 0.608345 -0.462630 0.000047 -0.000009
1.205564 0.742082 0.543778 0.000001 -0.446399 -0.000055
1.157680 0.739072 0.688266 0.000000 -0.471108 0.000003
1.590538 1.128062 0.898339 -0.015396 -0.009853 0.010653
3.073040 0.743011 0.690280 0.000000 -0.420949 0.000015
1.865071 1.296421 0.205230 0.044553 -0.014343 -0.017197
2.833620 0.813790 0.543635 0.000000 0.446545 -0.000014
3.224272 0.442679 0.350488 0.025285 -0.022298 0.023168
3.224272 1.113481 0.350488 0.025284 0.022299 0.023168
0.187661 0.778080 0.698489 0.005561 0.000095 0.003387
1.748697 1.147655 0.891056 -0.044539 0.013369 -0.015272
1.833068 1.061821 0.396785 0.128112 0.001960 0.002468
2.211128 0.827999 0.681115 -0.000000 0.608838 0.000004
3.335170 0.493824 0.842506 -0.052132 -0.011543 -0.014210
3.298445 0.622363 0.737884 -0.052133 0.011558 0.014197
0.439420 0.850334 0.654330 -0.000000 0.881381 0.000001
0.303491 0.696774 0.620939 0.000000 -0.999609 0.000000
2.949051 0.861381 0.560899 -0.000001 0.783143 -0.000196
2.115360 0.701326 0.589642 -0.000000 -0.939148 -0.000005
1.825310 0.924095 0.726183 0.128111 0.002435 -0.003066
3.025156 0.708637 0.659298 0.000000 -0.854059 0.000004
2.498432 0.810812 0.691348 0.000001 0.384462 0.000008
0.643313 0.696748 0.613592 -0.000010 -0.044679 -0.000000
0.200000 0.857937 0.600917 0.029491 0.000626 -0.000115
0.200000 0.698223 0.600917 0.029491 -0.000626 -0.000115
3.025156 0.856591 0.638344 -0.000000 0.964670 0.000015
0.388447 0.696676 0.618086 0.000000 -0.999899 0.000000
1.751606 0.598876 0.765554 0.044554 0.013319 0.016073
2.885089 0.883316 0.693961 0.025285 -0.010431 0.011068
1.444017 1.180659 0.297147 -0.015395 -0.009853 -0.010653
1.461214 0.412332 0.329031 -0.044538 -0.003617 0.004299
1.756455 0.381336 0.938009 0.044554 0.009905 0.012178
1.737299 1.249591 0.977194 -0.044540 0.002740 -0.003262
2.259012 0.849930 0.655085 -0.000001 0.880307 0.000007
1.771002 1.096453 0.854080 0.128109 0.001960 -0.002468
1.015573 0.696716 0.614733 0.000000 -0.999620 -0.000000
1.751536 0.267524 1.026583 -0.015390 0.013646 0.013107
2.970550 0.630204 0.728245 0.025288 0.007301 0.008051
1.612603 0.478792 0.374330 -0.015396 0.010459 -0.011105
1.657876 1.275312 1.014374 -0.015391 -0.007430 0.008589
1.397100 0.851326 0.581251 -0.000001 0.869254 -0.000002
1.560698 0.689384 0.567131 -0.044538 -0.017832 0.019747
1.971708 0.811983 0.690821 -0.000001 0.421039 0.000059
0.227804 0.775868 0.535412 -0.000000 -0.014201 -0.000016
1.284341 0.778365 0.535389 0.000000 0.027976 -0.000016
1.827249 0.622338 0.734225 0.128111 -0.004633 -0.005831
0.439420 0.849218 0.577200 0.000000 0.864612 -0.000002
3.252298 0.466143 0.867045 0.025284 -0.014872 -0.017753
1.614669 0.845275 0.663112 -0.000001 -0.783147 -0.000244
1.301332 0.703925 0.650414 -0.000000 -0.906146 0.000003
1.517277 1.157819 0.320561 -0.044543 0.003617 0.004299
1.607373 1.171372 0.919165 -0.044537 0.003343 -0.003976
1.594417 1.154431 0.327890 -0.044539 0.013588 0.015502
1.494572 0.365117 0.942223 -0.044538 -0.006795 -0.008012
1.706248 1.118422 0.340517 -0.015395 -0.009854 -0.010653
2.972997 0.893876 0.700213 0.025286 -0.014601 0.014515
1.680374 1.024163 0.791482 -0.044536 0.004056 -0.004817
1.865071 0.920902 0.503399 0.044554 -0.013319 -0.016073
1.865071 0.635258 0.503399 0.044554 0.006661 -0.008296
1.674927 0.886925 0.521485 -0.015393 -0.012734 -0.012596
1.674927 0.669234 0.521485 -0.015395 0.025448 -0.016919
1.409721 1.065711 0.391537 -0.044536 0.002110 0.002514
1.756455 0.890098 0.687831 0.128113 0.001782 -0.002244
1.418348 0.567233 0.447025 -0.015393 0.019096 -0.015388
1.205564 0.815577 0.544531 -0.000001 0.469876 -0.000013
1.745787 0.917593 0.734371 0.044554 -0.014002 0.016824
1.804944 0.439284 0.344368 0.044554 0.010588 -0.012974
1.580628 0.872164 0.563772 -0.044537 0.003453 0.004105
1.301332 0.851934 0.651061 0.000000 0.906577 0.000006
1.501050 1.199513 0.948948 -0.044538 0.006795 -0.008012
1.793307 0.997968 0.438120 0.044554 -0.006319 -0.007880
2.976830 0.967349 0.764098 0.025287 -0.014600 0.014514
1.771002 0.647466 0.704995 0.128110 -0.004870 -0.006130
1.372530 0.904041 0.514053 -0.015389 -0.006824 -0.008008
3.221292 0.593055 0.756035 -0.052133 0.004817 0.006034
3.337980 0.775723 0.702318 -0.070143 -0.000025 0.000616
1.731240 0.658734 0.514418 0.044554 0.014001 -0.016824
1.605908 0.683294 0.564655 -0.044535 -0.002302 0.002742
2.871892 0.877290 0.532054 0.025283 0.018588 0.020743
0.678840 0.716105 0.669602 -0.000001 -0.754256 0.000012
2.803460 0.642011 0.723563 0.025284 0.008345 0.009096
2.972997 0.662283 0.700213 0.025284 0.014602 0.014515
1.378062 0.694833 0.547223 -0.015388 0.005460 -0.006605
1.664227 0.642987 0.699354 -0.044536 -0.003453 -0.004106
0.158926 0.804506 0.541281 -0.097960 0.000135 -0.000354
2.833620 0.701558 0.589005 0.000000 -0.939146 -0.000020
0.343652 0.850673 0.579942 0.000000 0.894782 -0.000027
3.337980 0.697963 0.586805 -0.056435 -0.000722 -0.000259
3.120924 0.814748 0.544113 -0.000000 0.446440 -0.000110
1.429537 0.778936 0.698199 -0.000000 0.027987 0.000008
2.115360 0.855566 0.641798 0.000000 0.948041 0.000005
1.729094 0.113726 0.087636 -0.015395 0.039939 -0.018474
1.508314 0.777438 0.698205 0.000000 -0.028417 0.000008
1.624207 1.207765 0.948702 -0.044538 0.012712 -0.014579
1.651305 0.104449 0.081927 -0.044537 -0.006576 0.007759
1.865071 1.118543 0.346468 0.044555 -0.009904 -0.012177
1.865071 1.079015 0.377854 0.044554 -0.010588 -0.012974
1.709905 0.619797 0.751318 0.044554 0.014002 0.016824
1.709905 0.936363 0.751318 0.044554 -0.014002 0.016824
2.019592 0.850673 0.653662 0.000001 0.888245 0.000003
2.781536 0.652780 0.516031 0.025283 -0.011156 0.014134
3.264576 0.855656 0.641528 -0.050320 0.000797 0.000242
1.624207 0.354473 0.956357 -0.015395 0.034513 0.018072
3.073040 0.851799 0.582251 -0.000001 0.906146 -0.000006
2.909248 0.674524 0.705853 0.025284 -0.011156 -0.014134
3.001839 0.862212 0.561945 -0.000001 0.783144 -0.000224
0.343652 0.849342 0.656187 -0.000000 0.882075 0.000004
1.444984 0.745086 0.542369 0.000000 -0.395532 -0.000032
2.908823 0.940843 0.748599 0.025282 0.011156 -0.014134
2.594200 0.706448 0.578109 0.000001 -0.881001 -0.000007
1.731006 1.509193 1.195239 -0.044536 0.005700 -0.006743
1.731006 0.046967 1.195239 -0.044539 -0.005699 -0.006742
1.971708 0.704646 0.651967 0.000000 -0.907077 0.000003
1.806884 0.123003 1.140258 0.044553 0.010246 0.012577
1.806884 1.433156 1.140258 0.044555 -0.010246 0.012576
1.666166 0.906918 0.727524 -0.015393 -0.009551 0.010418
1.713784 0.583577 0.487317 0.128111 -0.002316 0.002917
1.594798 0.520572 0.407228 -0.015395 0.022424 -0.016299
1.784579 0.380556 0.296577 0.044553 0.004953 -0.006200
0.822492 0.738821 0.545473 0.000000 -0.471433 -0.000013
3.120924 0.704865 0.581187 0.000000 -0.894799 -0.000007
3.126856 1.004887 0.441832 0.025284 -0.012517 -0.012876
1.607373 0.384788 0.919165 -0.044537 -0.003343 -0.003976
0.343652 0.705455 0.580006 0.000000 -0.894791 -0.000014
3.303970 1.001305 0.441691 -0.052133 -0.003853 -0.004834
3.303970 0.556933 0.439074 -0.052132 -0.003848 0.004839
3.025156 0.704105 0.582801 0.000000 -0.906563 -0.000006
1.474124 0.619241 0.503278 -0.044540 -0.017831 0.019746
2.737852 0.852234 0.583190 0.000001 0.894647 -0.000002
0.110712 0.744344 0.677842 -0.285507 -0.000057 0.000096
2.750885 0.884129 0.530891 0.025286 0.022298 0.023168
3.120924 0.851135 0.580868 0.000001 0.894741 -0.000027
1.865071 0.121389 1.138226 0.044552 0.008881 0.010969
1.865071 1.434770 1.138226 0.044552 -0.008881 0.010969
1.865071 0.901137 0.714512 0.044553 -0.005124 0.006411
1.835977 1.417343 0.114014 0.128111 0.004039 0.005084
1.700688 0.331074 0.958776 -0.044534 -0.002960 -0.003522
0.975412 0.776082 0.535437 -0.000000 -0.028405 -0.000016
3.137915 0.779935 0.698197 0.000000 0.014189 0.000031
1.688340 1.286233 0.222837 -0.044538 0.005371 0.006359
2.642084 0.850976 0.580548 -0.000001 0.880197 -0.000003
2.833620 0.740048 0.544817 -0.000001 -0.471232 -0.000051
1.611252 0.365335 0.298353 -0.044539 -0.003179 0.003781
1.793307 0.550437 0.785717 0.128110 -0.004395 -0.005532
2.977272 0.731199 0.550236 0.000001 -0.560890 -0.000005
1.796216 0.879464 0.532380 0.044554 -0.014002 -0.016825
3.114653 0.490287 0.845314 0.025285 -0.009297 -0.012083
3.148780 0.546737 0.805612 0.025284 -0.009297 -0.012083
1.444984 0.811724 0.542662 0.000001 0.420949 -0.000029
1.407527 0.633524 0.511380 -0.044537 -0.002960 0.003522
0.726724 0.813181 0.543339 0.000000 0.420949 -0.000015
1.732288 0.702434 0.646899 0.000000 -0.929150 0.000022
1.753753 1.389581 1.105272 -0.015394 -0.044759 0.018732
0.439420 0.704801 0.581315 0.000000 -0.894427 -0.000001
1.521848 0.462467 0.859006 -0.044540 -0.003836 -0.004558
1.652336 0.216345 0.175813 -0.044538 -0.002302 0.002741
3.057843 0.946171 0.757096 0.025286 0.006611 -0.008857
1.804944 1.097112 0.873543 0.044553 -0.005294 0.006621
1.756455 1.174824 0.938009 0.044555 -0.009905 0.012177
0.837938 0.859433 0.619227 -0.000000 0.999620 0.000000
1.829189 0.992958 0.781501 0.128110 0.002198 -0.002767
1.763243 1.037784 0.427388 0.128110 0.002079 0.002618
1.431661 0.616422 0.748516 -0.015396 0.016367 0.014398
1.680374 0.545567 0.808573 -0.015394 0.011066 0.011534
1.745787 0.917593 0.499233 0.044554 -0.014001 -0.016824
1.663798 1.101763 0.354324 -0.015397 -0.009852 -0.010652
1.645024 0.501144 0.391111 -0.015396 0.011065 -0.011534
1.808823 1.136748 0.904794 0.044555 -0.004953 0.006199
1.519770 0.516414 0.813892 -0.044539 -0.008439 -0.009889
1.787488 1.333798 1.062470 0.044555 -0.014342 0.017196
1.787488 0.222362 1.062470 0.044554 0.014343 0.017196
1.757354 1.326146 0.193385 -0.044540 0.002302 0.002741
2.354780 0.746069 0.691658 0.000001 -0.374612 0.000008
1.818521 0.058358 0.053008 0.128112 -0.003089 0.003889
2.675294 0.780862 0.535459 0.000000 0.027581 -0.000032
1.253448 0.740709 0.544463 0.000000 -0.471433 -0.000026
1.804944 1.123373 0.352550 0.128110 0.003683 0.004636
1.767989 1.437795 0.090491 -0.015394 -0.020003 -0.015665
3.301278 0.768017 0.533926 -0.056030 -0.000194 -0.003214
1.670045 0.613808 0.510121 -0.044538 -0.017832 0.019746
1.560023 1.228094 0.969482 -0.044536 0.003179 -0.003781
1.678590 1.336398 0.180206 -0.044540 0.009206 0.010752
1.312569 0.647278 0.511452 -0.015391 0.008188 -0.009279
1.763243 0.529379 0.820074 0.044555 0.005977 0.007461
3.298445 0.931303 0.492580 -0.052132 0.011543 0.014210
3.298445 0.622363 0.495720 -0.052133 0.011558 -0.014197
1.574918 0.304228 0.994539 -0.015397 0.016366 0.014397
1.438181 0.691143 0.543175 -0.015393 0.008187 -0.009278
1.744817 0.427957 0.874971 0.128111 -0.003683 -0.004636
1.706026 0.916491 0.497844 0.044554 -0.014001 -0.016824
1.518214 0.330607 0.969784 -0.044538 -0.006357 -0.007505
1.582398 1.205224 0.949004 -0.044536 0.006357 -0.007506
2.737852 0.849998 0.654960 -0.000000 0.881724 0.000007
3.182907 0.593213 0.753349 -0.052132 0.004817 0.006034
1.865071 1.177836 0.299388 0.044553 -0.009222 -0.011374
1.313200 0.944891 0.746374 -0.044538 0.001973 -0.002351
1.313200 0.611268 0.746374 -0.044541 -0.003946 -0.004687
0.065334 0.792056 0.665314 -0.462630 0.000015 0.000046
1.235467 0.712913 0.665667 -0.044538 -0.007891 -0.009267
1.709633 0.083676 0.064605 -0.015396 0.017578 -0.014870
2.306896 0.764160 0.536583 0.000001 -0.147959 -0.000011
1.554654 0.777937 0.535384 -0.000000 -0.027558 -0.000016
1.595618 1.337551 1.059192 -0.044539 0.005042 -0.005975
1.619260 1.370960 0.145465 -0.015398 -0.012730 -0.012595
1.249053 0.663735 0.708091 -0.015394 0.010914 0.011429
1.249053 0.892425 0.708091 -0.015394 -0.010915 0.011429
2.896950 0.781218 0.698135 -0.000000 0.027976 0.000016
1.482949 0.454087 0.357613 -0.015396 0.021212 -0.016000
1.717663 0.992035 0.762372 -0.044538 0.016874 -0.018822
1.723393 1.181539 0.291008 -0.015394 -0.034515 -0.018071
1.772941 1.096224 0.358943 0.044554 -0.011271 -0.013762
0.487304 0.814046 0.689841 0.000001 0.446176 0.000027
3.170893 1.060601 0.843262 0.025285 0.007438 -0.009881
1.504322 0.415281 0.899592 -0.044539 -0.007234 -0.008515
1.729094 0.110582 1.142008 -0.044537 -0.013151 -0.015043
1.729094 1.445578 1.142008 -0.044537 0.006576 -0.007759
1.519217 1.167545 0.921086 -0.044536 0.003398 -0.004041
1.692341 1.072167 0.402567 -0.044537 0.007563 0.008892
1.702628 1.234812 0.966819 -0.044536 0.005809 -0.006870
1.584441 1.017358 0.791357 -0.044538 0.004220 -0.005010
1.444984 0.855498 0.591602 -0.000000 0.948334 -0.000005
1.694210 1.216615 0.281554 -0.044539 0.005919 0.006997
3.220653 1.012482 0.438362 -0.052133 -0.007706 -0.009591
3.220653 0.543678 0.438362 -0.052133 0.007706 -0.009591
3.337980 0.706462 0.663592 -0.059215 -0.000617 0.000391
1.453766 0.427499 0.896136 -0.015396 0.021212 0.016000
1.301332 0.852174 0.583060 0.000001 0.905183 -0.000006
1.518214 1.224033 0.971697 -0.015396 -0.017578 0.014870
1.575921 1.192195 0.285585 -0.015395 -0.008792 -0.009800
1.584441 1.007245 0.429511 -0.015395 -0.011672 -0.011939
1.535378 0.305983 0.992401 -0.015398 0.016365 0.014398
2.785736 0.818890 0.687250 -0.000000 0.496041 0.000024
1.396780 1.021826 0.427582 -0.044542 0.002959 0.003521
1.758884 0.059973 0.045176 -0.015400 0.015152 -0.013866
2.711507 0.700180 0.679509 -0.000001 -0.783096 0.000056
0.343652 0.705876 0.654425 0.000000 -0.882075 0.000002
1.751813 1.385409 0.143369 -0.044539 0.008110 0.009516
1.397100 0.852024 0.650867 -0.000000 0.906949 0.000006
3.207597 0.644776 0.714010 -0.052134 0.008053 0.010013
1.653932 1.384849 1.099637 -0.015396 -0.023027 0.016437
1.396780 0.537163 0.424019 -0.015398 0.019090 -0.015389
1.688260 1.438918 1.138800 -0.044537 0.007453 -0.008767
1.501050 0.356646 0.284656 -0.044538 -0.006795 0.008012
3.098830 1.025858 0.810982 0.025286 -0.012516 0.012876
2.833620 0.853660 0.586538 0.000000 0.929166 -0.000022
2.895838 0.640557 0.511873 0.025285 0.012516 -0.012876
2.941709 0.601034 0.759940 0.025284 -0.013014 -0.016025
3.168808 0.836897 0.673096 0.000001 0.715806 0.000013
1.438654 0.890610 0.523226 -0.015396 -0.016367 -0.014398
1.630078 1.138148 0.343618 -0.044536 0.007124 0.008390
0.247884 0.849846 0.655243 0.000001 0.881711 0.000029
0.439420 0.705614 0.653917 0.000001 -0.894365 0.000014
0.726724 0.851199 0.652608 -0.000000 0.894428 0.000007
3.216692 0.817496 0.688046 0.000001 0.495919 0.000191
0.487304 0.858170 0.631423 0.000000 0.983268 0.000005
2.486075 0.776082 0.698167 0.000000 -0.027987 0.000016
3.301278 0.730655 0.685508 -0.056030 -0.001687 0.002789
0.102906 0.842597 0.635389 -0.315923 0.000094 0.000024
1.865071 0.200446 0.158150 0.044554 0.011612 -0.014152
0.487304 0.699104 0.636584 0.000000 -0.971718 0.000007
1.604437 0.659154 0.689277 -0.044539 -0.017832 -0.019746
1.604437 0.897006 0.689277 -0.044538 0.017832 -0.019747
3.148780 0.541750 0.434272 0.025284 0.010431 -0.011068
3.148780 1.014409 0.799332 0.025286 -0.010431 0.011068
2.622003 0.859445 0.614805 0.000000 0.999608 -0.000000
2.306896 0.813663 0.690033 -0.000002 0.318983 0.000005
3.219943 0.885602 0.539264 -0.052132 -0.004027 -0.005051
3.219943 0.670557 0.539264 -0.052132 0.004027 -0.005051
3.219943 0.877970 0.703953 -0.052135 0.004021 -0.005055
3.301278 0.816877 0.690724 -0.056028 0.001708 0.002824
1.971708 0.744694 0.542542 0.000000 -0.421308 -0.000015
1.670347 0.985886 0.473634 -0.044538 0.016874 0.018822
1.801065 0.478920 0.857985 0.044554 0.005636 0.007042
1.775851 0.281977 0.217807 0.044554 0.007856 -0.009744
2.498432 0.702856 0.647960 0.000000 -0.918669 0.000001
0.966144 0.745348 0.691348 -0.000001 -0.389612 0.000008
2.594200 0.827548 0.552139 -0.000000 0.612358 -0.000009
1.745929 1.479246 0.058627 -0.015394 -0.017580 -0.014870
1.713784 0.583577 0.746286 0.128111 -0.004633 -0.005831
1.764213 0.341592 0.969124 0.044555 0.009222 0.011373
3.298062 0.592737 0.761407 -0.052132 0.004817 0.006034
1.444984 0.701024 0.590519 -0.000001 -0.924262 -0.000001
1.875940 0.809435 0.691941 0.000000 0.395604 0.000032
2.711507 0.698518 0.556189 0.000000 -0.783149 -0.000056
3.081577 1.012841 0.433384 0.025286 -0.007302 -0.008052
1.810763 0.650660 0.524586 0.128111 -0.004870 0.006130
1.769062 0.489689 0.382347 0.044554 0.005636 -0.007042
1.801065 1.084156 0.384329 0.128111 0.003920 0.004935
1.553545 0.339575 0.267020 -0.015395 0.017579 -0.014870
2.594200 0.703562 0.649599 -0.000000 -0.918151 0.000003
1.780172 0.700089 0.640162 0.000000 -0.956954 0.000004
1.660178 0.346285 0.270166 -0.015395 0.008641 -0.009672
2.896264 0.703920 0.549385 0.000001 -0.783146 -0.000280
1.971708 0.848061 0.575190 0.000001 0.853108 -0.000008
0.487304 0.745414 0.691376 0.000000 -0.395222 0.000032
3.195252 0.618995 0.499924 -0.052133 0.004027 -0.005051
3.195252 0.937165 0.499924 -0.052129 -0.004027 -0.005051
1.831128 1.032331 0.813083 0.128111 0.002079 -0.002618
1.366207 0.696688 0.617872 0.000000 -0.999597 0.000000
3.082008 0.614939 0.737805 0.025286 0.008345 0.009096
1.061912 0.743335 0.690431 0.000000 -0.421209 0.000059
1.643828 0.682243 0.667625 -0.044540 -0.004603 -0.005461
1.716694 0.913056 0.699501 0.128112 0.001782 -0.002244
1.447288 1.120190 0.344194 -0.015396 -0.042348 -0.018613
3.142299 0.597066 0.769063 0.025288 -0.011154 -0.014132
3.125046 0.945661 0.758824 0.025282 0.006509 -0.008728
1.913011 0.778508 0.698211 0.000000 0.027558 0.000008
2.642084 0.746725 0.691941 0.000000 -0.396036 0.000008
2.750209 0.775084 0.698139 0.000000 -0.027976 0.000032
2.510789 0.776938 0.535413 -0.000000 -0.028405 -0.000062
1.648477 0.956860 0.766088 -0.015395 -0.049190 0.018916
1.648477 0.599300 0.766088 -0.015396 0.049188 0.018916
2.677611 0.775369 0.698147 0.000000 -0.027976 0.000016
2.977272 0.835653 0.674375 -0.000000 0.716647 0.000003
3.264576 0.722144 0.557636 -0.055812 -0.000508 -0.000553
2.546316 0.854319 0.645369 0.000002 0.625695 0.000001
1.381616 0.888754 0.695321 -0.044539 0.004932 -0.005846
1.381616 0.667406 0.695321 -0.044535 -0.004933 -0.005847
2.115360 0.699615 0.638516 -0.000001 -0.960023 0.000002
1.513548 0.844357 0.569335 0.000001 -0.783145 0.000183
0.030886 0.771834 0.589435 -0.597593 -0.000004 -0.000017
1.602769 0.257791 1.025921 -0.044542 -0.002740 -0.003261
1.604738 0.628744 0.491310 -0.015395 0.049189 -0.018916
3.233765 0.635411 0.736962 -0.052132 -0.013290 -0.016238
1.476332 0.503110 0.827575 -0.044538 -0.004220 -0.005010
2.642084 0.854221 0.645637 -0.000001 0.938061 0.000005
1.469545 0.851918 0.680836 -0.015394 -0.016369 0.014397
3.104151 0.649513 0.706940 0.025285 0.007418 0.008170
3.138632 0.706231 0.687129 0.000000 -0.783148 0.000596
1.444501 0.691203 0.690505 -0.015397 0.008185 0.009277
0.072628 0.778080 0.562509 -0.441283 0.000001 -0.000025
1.641042 1.238500 0.985366 -0.015394 -0.008035 0.009143
3.136577 1.075394 0.852874 0.025285 0.018586 -0.020743
1.476332 0.508062 0.399793 -0.015395 0.002918 -0.003680
3.055431 0.670672 0.690139 0.025285 0.014833 0.014687
1.745787 0.625676 0.515466 0.128111 -0.002435 0.003066
1.865071 0.121389 0.095378 0.044555 0.008880 -0.010969
1.721542 1.011487 0.455146 -0.044537 0.004056 0.004817
0.175324 0.841691 0.667530 -0.034307 0.000839 0.000708
3.304353 0.971678 0.768389 -0.052132 -0.004817 0.006034
1.582869 0.912693 0.503207 -0.015396 -0.049188 -0.018916
1.051099 0.776225 0.535433 -0.000000 -0.027976 -0.000032
0.630956 0.853303 0.585643 0.000000 0.929123 -0.000005
1.828056 0.756090 0.695191 0.000000 -0.263382 0.000100
2.889227 0.774798 0.535473 -0.000000 -0.027987 -0.000031
3.246110 0.660412 0.517294 -0.052133 -0.013289 0.016238
3.246110 0.895747 0.517294 -0.052131 0.013290 0.016238
3.219943 0.678190 0.703953 -0.052135 -0.004021 -0.005055
1.828056 0.853699 0.586638 0.000000 0.928513 -0.000003
1.717663 0.580054 0.451171 0.044554 0.013319 -0.016073
1.626707 0.170766 1.097500 -0.044540 -0.008329 -0.009764
1.282796 0.859473 0.617801 -0.000000 0.999608 0.000000
1.604738 0.628744 0.742294 -0.015396 0.049188 0.018916
1.604738 0.927415 0.742294 -0.015396 -0.049188 0.018916
1.936181 0.696662 0.616945 0.000000 -0.999609 0.000000
1.672047 0.696662 0.616659 0.000000 -0.999608 -0.000000
1.672286 0.995613 0.768012 -0.044538 0.008439 -0.009889
1.812702 0.379776 0.936044 0.044555 0.009221 0.011373
1.812702 1.176383 0.936044 0.044559 -0.004611 0.005776
1.748697 1.147655 0.342547 -0.044539 0.013369 0.015272
0.142647 0.708150 0.583125 -0.161212 -0.000200 -0.000090
3.076527 0.625631 0.487222 0.025283 -0.006612 0.008858
1.738029 0.871814 0.563330 0.128113 0.001782 0.002244
3.235227 0.696734 0.613520 -0.000067 -0.449252 -0.000003
2.711507 0.855148 0.680555 0.000001 0.783051 0.000056
1.718803 0.271476 0.210739 -0.015395 0.007428 -0.008588
3.337980 0.738450 0.600706 1.000000 0.000000 -0.000000
0.583072 0.744306 0.542722 0.000000 -0.420964 -0.000015
1.548334 1.268532 0.229533 -0.044533 0.002960 0.003522
2.428923 0.696686 0.615803 0.000000 -0.999609 -0.000000
