3.739835 0.957534 0.823287 -0.026388 0.018080 -0.017056
3.712791 0.891080 0.766108 -0.026387 0.027109 -0.021630
3.712791 0.891080 0.235744 -0.026387 0.027109 0.021630
3.631658 0.474052 0.407282 -0.026386 -0.031618 0.023181
2.446562 0.682993 0.445361 0.000000 0.880427 -0.000020
3.230246 0.480214 0.551591 -0.000001 -0.872809 0.000001
3.489604 0.455873 0.605043 -0.026388 0.017860 0.017479
2.029271 1.106584 0.054830 -0.051469 0.010211 0.010764
1.985501 0.321805 0.296141 0.094296 -0.003603 0.004185
2.185334 0.483092 0.444810 -0.000000 -0.868101 -0.000011
2.369935 0.468434 0.502647 0.000009 -0.036870 0.000000
1.767369 0.570581 0.614751 0.000000 -0.113751 0.000165
1.979701 0.134656 0.121572 -0.051470 -0.014294 0.014801
2.707790 0.495546 0.426903 -0.000000 -0.766738 -0.000002
0.513474 0.691367 0.537527 -0.000000 0.950018 0.000003
2.498807 0.659641 0.585883 -0.000000 0.679644 0.000005
2.655545 0.676489 0.435002 0.000001 0.811707 -0.000007
3.334738 0.689211 0.543398 0.000000 0.933299 0.000015
2.864527 0.516040 0.593871 -0.000001 -0.581508 0.000053
2.873235 0.585241 0.615361 0.000000 0.025321 0.000025
2.551053 0.524686 0.599524 0.000000 -0.517817 0.000016
2.707790 0.684025 0.554575 0.000001 0.880269 0.000020
0.983684 0.632039 0.604323 -0.000001 0.428825 0.000080
1.875814 0.341817 0.307041 -0.051470 -0.003064 0.003286
3.021264 0.636694 0.399872 -0.000001 0.474079 -0.000070
1.453895 0.632325 0.604187 -0.000000 0.419847 0.000005
1.401649 0.677595 0.436607 -0.000001 0.827156 -0.000013
1.871860 0.631998 0.604342 0.000000 0.429003 0.000160
2.289825 0.483677 0.443787 0.000000 -0.865347 -0.000003
2.061280 0.003406 0.000847 0.000000 -0.758017 -0.000109
1.453895 0.693248 0.531373 0.000000 0.964772 0.000003
3.277977 0.466226 0.406068 0.012098 0.041846 -0.012872
0.565719 0.486013 0.561947 0.000001 -0.840131 0.000006
1.976351 0.525904 0.600224 0.000000 -0.496130 0.000017
1.956608 0.763513 0.368974 -0.051470 0.012763 0.013313
3.492744 0.510598 0.443017 0.061389 -0.000607 -0.000522
1.767369 0.645280 0.596917 0.000000 0.539665 0.000059
0.499542 0.578173 0.615301 0.000000 -0.025321 0.000025
3.660936 0.250788 0.213018 -0.026386 -0.018082 0.017056
3.660936 0.248653 0.786351 -0.026388 0.017741 0.017400
3.057836 0.468486 0.504731 0.000000 -0.999679 0.000000
2.446562 0.483182 0.557199 0.000000 -0.867939 0.000001
0.666728 0.586328 0.386518 0.000000 0.025321 -0.000050
3.047387 0.697302 0.504007 0.000000 0.999679 0.000000
3.525235 0.372386 0.687230 -0.026387 -0.022597 -0.019630
1.779901 0.282362 0.760858 -0.028069 0.009609 0.011031
1.767369 0.687144 0.453620 0.000000 0.913798 -0.000008
2.812281 0.693153 0.531723 0.000000 0.964832 0.000005
3.596476 0.376354 0.676041 -0.026387 0.011091 0.012082
0.774702 0.666086 0.579576 -0.000001 0.732231 0.000009
2.144416 0.047534 0.961561 0.051509 0.008118 0.009320
2.144416 0.249386 0.213972 0.051508 0.012176 -0.013773
2.144416 0.938812 0.807178 0.051508 -0.005412 0.006256
2.144416 0.226958 0.807178 0.051508 0.010824 0.012311
2.144416 0.759387 0.349057 0.051509 -0.016233 -0.017996
2.144416 0.339099 0.291163 0.051508 0.014881 -0.016617
2.144416 0.137246 0.117482 0.051508 0.016233 -0.017996
2.144416 1.118236 0.961561 0.051511 -0.008118 0.009320
2.144416 0.451239 0.614199 0.051509 0.013528 0.015209
2.144416 0.938812 0.194674 0.051508 -0.010824 -0.012311
2.394316 0.562686 0.388227 0.000000 -0.188902 -0.000098
2.446562 0.527719 0.400603 -0.000001 -0.433673 -0.000005
3.613628 0.597668 0.584762 0.382928 0.000018 0.000112
0.931439 0.638922 0.401087 0.000000 0.496493 -0.000008
2.289825 0.507490 0.587081 0.000000 -0.660919 0.000043
2.551053 0.478479 0.547900 0.000000 -0.913825 0.000004
1.871860 0.554187 0.390086 -0.000000 -0.262895 -0.000278
0.123294 0.621612 0.410682 -0.338091 0.000051 -0.000110
2.021618 0.944529 0.796753 -0.051469 0.017355 -0.017675
0.617965 0.500406 0.421523 0.000000 -0.715944 -0.000018
0.252246 0.482476 0.445920 0.000001 -0.880318 -0.000020
1.844569 0.783872 0.342141 -0.051472 0.009299 0.009834
3.464021 0.790564 0.675085 0.012099 -0.032976 0.012571
2.032454 0.311092 0.259447 0.051508 0.006596 -0.007604
2.080842 0.641898 0.599031 0.000000 0.518151 0.000016
3.319302 0.325976 0.279872 0.012099 -0.035558 0.014021
3.628876 0.954177 0.820399 0.012100 0.035556 -0.014022
2.057735 0.392478 0.331195 0.051509 0.008118 -0.009320
2.014395 0.446945 0.601647 0.094297 -0.009300 -0.010757
0.252246 0.496011 0.575505 0.000000 -0.750701 0.000002
0.931439 0.501798 0.420095 0.000000 -0.716091 -0.000009
2.080842 0.529874 0.602410 0.000000 -0.474100 0.000018
3.230246 0.685990 0.550694 0.000001 0.903234 0.000018
1.890012 0.838027 0.274389 -0.028070 -0.010045 -0.011476
2.254995 0.583972 0.615393 -0.000000 0.025649 0.000025
1.582438 0.443229 0.621091 -0.051470 -0.017501 -0.017808
0.252246 0.650099 0.408244 -0.000001 0.581548 -0.000053
2.551053 0.679659 0.439752 0.000000 0.841781 -0.000006
0.304491 0.657940 0.587380 -0.000000 0.660978 0.000022
3.386983 0.526573 0.401245 -0.000000 -0.496328 -0.000133
0.722456 0.662352 0.418510 -0.000000 0.698069 -0.000039
3.021264 0.525196 0.402032 -0.000000 -0.496230 -0.000033
0.617965 0.688101 0.546078 0.000000 0.923811 0.000008
2.080842 0.684696 0.553290 0.000000 0.892181 0.000005
1.244913 0.483677 0.558064 0.000000 -0.868032 0.000011
3.334738 0.638450 0.601034 0.000000 0.496360 0.000066
0.617965 0.470811 0.477524 -0.000000 -0.976896 -0.000004
1.354628 0.583066 0.386435 0.000000 0.025321 -0.000050
2.760036 0.681366 0.442533 -0.000000 0.855191 -0.000011
3.355345 0.444161 0.614482 0.012099 0.040019 0.012824
1.633272 0.468404 0.501469 0.000000 -0.999679 0.000000
2.916773 0.687659 0.454780 -0.000002 0.685930 -0.000001
3.235471 0.578717 0.386536 0.000000 -0.025313 -0.000050
1.899724 0.582885 0.615421 -0.000000 0.025313 0.000200
1.983098 0.961928 0.168885 -0.028069 -0.014848 -0.015927
2.446562 0.643294 0.403666 -0.000001 0.515002 -0.000016
3.460965 0.833450 0.287923 0.012099 -0.032974 -0.012571
3.267706 0.820730 0.296275 0.012098 0.039499 0.014165
3.474089 0.896985 0.771189 0.012099 0.044409 -0.014302
2.958132 0.706347 0.394695 0.012099 0.039495 0.014166
3.603078 0.221125 0.812197 0.012098 -0.053236 -0.014470
3.603078 0.944645 0.189655 0.012100 0.053231 0.014471
3.396695 0.868390 0.255267 0.012098 0.031129 0.013798
3.396695 0.297380 0.255267 0.012098 -0.031129 0.013798
3.396695 0.297380 0.746584 0.012099 -0.031125 -0.013800
3.061323 0.744475 0.361888 0.012100 0.039491 0.014168
3.216110 0.364104 0.689173 0.012099 -0.068840 -0.014651
3.216110 0.801666 0.689173 0.012099 0.068841 -0.014651
3.706269 0.182997 0.156848 0.012099 -0.035558 0.014021
3.164515 0.782602 0.329082 0.012099 0.059097 0.014551
3.499887 0.906517 0.222461 0.012099 0.022245 0.012999
3.706269 0.982773 0.156848 0.012099 0.035558 0.014022
3.706269 0.182997 0.845003 0.012099 -0.035558 -0.014022
0.722456 0.694092 0.473724 0.000000 0.971125 -0.000009
0.670211 0.468793 0.510432 0.000000 -0.996030 0.000003
1.506141 0.518341 0.595484 0.000001 -0.553219 0.000007
2.136571 0.581979 0.386454 0.000000 -0.025321 -0.000012
2.185334 0.486111 0.562100 0.000000 -0.841808 0.000006
1.880560 0.285596 0.746795 -0.051472 -0.002808 -0.003013
1.880560 0.285596 0.255056 -0.051470 -0.011232 0.011793
1.088176 0.605933 0.388775 0.000000 0.213726 -0.000043
1.506141 0.681460 0.442688 0.000000 0.855295 -0.000006
1.610632 0.518641 0.595687 -0.000001 -0.553219 0.000007
3.355345 0.715867 0.380696 0.012099 0.037774 0.014107
0.826948 0.475395 0.461503 0.000000 -0.942095 -0.000007
2.064959 1.065206 0.906003 -0.051468 0.011232 -0.011793
2.064959 0.100564 0.906003 0.094297 -0.007021 -0.008138
1.715123 0.629155 0.396207 0.000001 0.396221 -0.000011
1.453895 0.659641 0.415969 0.000000 0.679467 -0.000005
2.185334 0.540413 0.394600 0.000000 -0.382700 -0.000011
3.021264 0.527719 0.601249 0.000000 -0.473958 0.000018
1.887998 0.968156 0.167213 -0.028068 -0.014849 -0.015927
0.826948 0.512518 0.410611 0.000000 -0.621936 -0.000024
1.976351 0.638607 0.600944 0.000000 0.496493 0.000017
0.774702 0.543547 0.393406 0.000000 -0.331200 -0.000007
3.136463 0.420702 0.639274 0.012099 0.031409 0.012494
3.136463 0.745068 0.639274 0.012098 -0.031412 0.012493
0.461228 0.494150 0.428572 0.000000 -0.782941 -0.000015
3.073509 0.631179 0.604731 0.000001 0.428797 0.000080
2.394316 0.653110 0.591353 -0.000000 0.621689 0.000012
1.621728 0.706831 0.603705 -0.051470 0.017501 -0.017808
1.035930 0.504002 0.417941 0.000000 -0.698007 -0.000005
1.088176 0.690937 0.538769 -0.000000 0.941877 0.000007
0.826948 0.622137 0.393375 0.000000 0.335243 -0.000027
1.406874 0.697348 0.499657 0.000000 0.999679 -0.000000
2.551053 0.630439 0.396777 0.000000 0.405986 -0.000011
1.771792 0.831221 0.284300 -0.028069 -0.005460 -0.006503
1.687809 0.828273 0.289785 -0.028068 -0.018713 -0.018897
1.732531 0.361539 0.315307 -0.051469 -0.002735 0.002935
0.461228 0.474205 0.536924 0.000000 -0.950263 0.000025
2.093852 0.020113 0.978837 0.094295 -0.005543 -0.006432
2.093852 1.145657 0.978837 -0.051471 0.014294 -0.014801
2.551053 0.532017 0.398357 0.000000 -0.451512 -0.000019
0.826948 0.549304 0.610378 0.000001 -0.286748 0.000032
3.334738 0.554012 0.390133 -0.000000 -0.260813 -0.000009
1.401649 0.488073 0.436757 0.000000 -0.827932 -0.000013
2.932334 0.468955 0.598955 0.012099 -0.078532 -0.014729
1.244913 0.690253 0.461161 0.000000 0.942095 -0.000003
1.715123 0.684635 0.553411 0.000001 0.891290 0.000010
3.406238 0.836187 0.720387 0.012100 0.031124 -0.013800
3.125755 0.484036 0.558694 0.000000 -0.868041 0.000003
2.015106 0.144615 0.882944 -0.028067 0.022702 0.021425
2.015106 1.021155 0.882944 -0.028068 -0.011356 0.012774
1.297158 0.535248 0.396814 -0.000001 -0.405235 -0.000021
1.778070 0.712091 0.404259 -0.051468 0.005471 0.005846
0.983684 0.689488 0.542679 0.000000 0.929913 0.000002
0.826948 0.674844 0.432725 0.000000 0.798041 -0.000007
2.812281 0.646191 0.596323 0.000000 0.560906 0.000028
2.028597 0.662060 0.418225 0.000000 0.697853 -0.000019
2.185334 0.690891 0.462954 0.000000 0.942083 -0.000003
2.289825 0.683337 0.446000 0.000001 0.810380 -0.000001
1.610632 0.683788 0.446838 0.000000 0.880240 -0.000010
1.819614 0.631916 0.397471 -0.000001 0.419438 -0.000005
2.932334 0.696815 0.598955 0.012099 0.078532 -0.014729
1.140421 0.471063 0.476373 0.000000 -0.976585 -0.000001
0.513474 0.475582 0.460992 0.000000 -0.933261 -0.000004
2.864527 0.471218 0.526187 -0.000000 -0.976897 0.000008
2.498807 0.474727 0.463381 0.000000 -0.932133 -0.000001
1.976351 0.535828 0.396556 0.000000 -0.405942 -0.000043
2.090241 0.695450 0.410841 0.094295 0.003696 0.004292
3.613628 0.502889 0.471810 0.387670 -0.000105 -0.000037
0.983684 0.620728 0.392874 0.000000 0.335295 -0.000053
2.760036 0.527680 0.400624 0.000000 -0.474090 -0.000035
1.983098 0.195571 0.823354 -0.051469 -0.008169 -0.008670
0.722456 0.511950 0.590789 -0.000000 -0.622078 0.000048
0.879193 0.671620 0.573280 0.000000 0.766967 0.000016
1.401649 0.480398 0.551955 0.000001 -0.891608 0.000010
0.565719 0.635532 0.399258 0.000000 0.451012 -0.000009
0.356737 0.473393 0.534377 0.000000 -0.957851 0.000023
2.021618 0.944529 0.205099 -0.051469 0.017355 0.017675
1.983098 0.961928 0.832966 -0.028069 -0.014848 0.015927
2.864527 0.635491 0.399237 0.000000 0.451679 -0.000009
2.760036 0.611583 0.611766 0.000000 0.262756 0.000035
3.125755 0.535414 0.396740 -0.000000 -0.405373 -0.000011
3.021264 0.478037 0.546906 0.000001 -0.887623 0.000001
1.453895 0.541428 0.607643 -0.000000 -0.358776 0.000012
0.565719 0.525353 0.401942 0.000000 -0.493801 -0.000008
2.289825 0.656352 0.588731 -0.000000 0.641673 0.000023
2.655545 0.528956 0.399936 -0.000000 -0.474090 -0.000035
3.439229 0.627869 0.395640 0.000000 0.382294 -0.000011
2.014395 0.792651 0.336682 0.094296 0.004342 0.005041
3.515692 0.825587 0.288425 0.012097 0.026692 0.013479
2.446562 0.549608 0.610469 -0.000000 -0.286355 0.000016
2.942895 0.468480 0.497392 0.000000 -0.999679 -0.000000
2.185334 0.674353 0.569778 0.000000 0.798171 0.000007
2.603299 0.540582 0.607317 0.000000 -0.359398 0.000025
0.408982 0.686224 0.550202 -0.000000 0.903304 0.000009
0.035282 0.570208 0.460522 -0.683048 -0.000006 -0.000019
1.943866 0.273531 0.248286 -0.051469 -0.005106 0.005460
1.924106 0.696545 0.514670 0.000000 0.993502 0.000004
1.819614 0.547102 0.609676 0.000001 -0.308957 0.000029
3.334738 0.629031 0.396151 0.000000 0.405978 -0.000043
2.185334 0.660239 0.416523 -0.000002 0.644939 -0.000005
2.237579 0.628037 0.395710 0.000000 0.405948 -0.000085
0.461228 0.600804 0.387848 0.000000 0.163946 -0.000228
2.707790 0.688934 0.457784 0.000000 0.923873 -0.000002
0.304491 0.671446 0.428363 -0.000000 0.766850 -0.000008
2.342071 0.590177 0.386672 0.000000 0.063274 -0.000299
2.446562 0.481237 0.448238 -0.000000 -0.892147 -0.000005
2.289825 0.521711 0.404152 -0.000000 -0.539693 -0.000030
0.356737 0.526612 0.401222 -0.000000 -0.496328 -0.000066
3.261947 0.718073 0.612808 0.012100 -0.041838 0.012874
3.261947 0.713684 0.383942 0.012099 0.039494 0.014167
3.261947 0.452086 0.617909 0.012099 -0.039496 -0.014166
0.931439 0.502379 0.582329 0.000000 -0.695721 0.000005
1.662878 0.533117 0.397821 0.000000 -0.428997 -0.000080
0.200000 0.650652 0.593212 -0.073528 0.000207 0.000275
3.489604 0.460984 0.390869 -0.026386 -0.018202 0.017133
2.864527 0.499530 0.422441 -0.000000 -0.733432 -0.000035
3.125755 0.685679 0.551349 0.000000 0.903349 0.000009
1.845865 0.986872 0.848531 -0.028069 -0.014848 0.015927
3.334738 0.690374 0.461503 -0.000000 0.942047 -0.000003
2.812281 0.538906 0.606627 0.000001 -0.373003 0.000012
0.722456 0.473042 0.468647 -0.000000 -0.957674 -0.000001
0.670211 0.638961 0.401110 -0.000000 0.496251 -0.000033
3.399452 0.423965 0.643065 0.012099 -0.079502 -0.014735
2.144416 1.028524 0.117482 0.051509 -0.016232 -0.017996
2.133088 0.476494 0.458623 0.000000 -0.933261 -0.000004
0.774702 0.488327 0.565470 0.000000 -0.827917 0.000013
1.035930 0.533117 0.604031 0.000001 -0.426728 0.000010
3.230246 0.519654 0.405478 -0.000000 -0.560810 -0.000056
3.178001 0.637971 0.601292 -0.000001 0.471711 0.000018
0.617965 0.686768 0.452796 0.000000 0.903443 -0.000002
2.760036 0.473107 0.533421 0.000000 -0.957829 0.000006
2.342071 0.477218 0.456863 0.000000 -0.923873 -0.000008
1.610632 0.686049 0.550571 -0.000001 0.902649 0.000009
1.558386 0.652968 0.410386 0.000000 0.621965 -0.000012
3.428306 0.713790 0.606218 -0.026386 -0.018098 0.017638
3.330624 0.713019 0.607114 0.012101 -0.040012 0.012826
0.200000 0.543120 0.393558 -0.073526 -0.000124 -0.000321
1.192667 0.543120 0.608294 0.000000 -0.359199 0.000049
2.969018 0.643177 0.598256 -0.000000 0.517817 0.000016
2.072182 0.276697 0.246497 0.094295 -0.003234 0.003756
3.282492 0.476087 0.459681 -0.000000 -0.933274 -0.000029
1.506141 0.472860 0.469255 -0.000001 -0.956241 -0.000003
1.715123 0.680661 0.441370 -0.000000 0.848757 -0.000001
3.596151 0.510588 0.558581 0.380797 -0.000388 0.000275
2.655545 0.484663 0.559745 0.000000 -0.851593 0.000003
1.453895 0.468721 0.509620 0.000000 -0.998006 0.000000
0.408982 0.543803 0.608537 0.000000 -0.335399 0.000027
1.558386 0.530198 0.399278 0.000000 -0.451745 -0.000037
3.178001 0.535704 0.605240 0.000001 -0.405792 0.000085
2.551053 0.490708 0.433014 0.000001 -0.795713 -0.000007
1.140421 0.684983 0.449128 -0.000001 0.892045 -0.000019
0.670211 0.512163 0.410893 0.000000 -0.622068 -0.000095
1.990283 0.468399 0.501288 0.000000 -0.999680 0.000000
3.491474 0.630025 0.605259 0.000000 0.405917 0.000085
2.707790 0.511099 0.590112 -0.000000 -0.622078 0.000048
0.931439 0.684819 0.448805 -0.000001 0.891708 -0.000010
1.978278 0.807999 0.295925 0.051509 -0.014543 -0.016268
2.394316 0.686651 0.549302 -0.000001 0.902649 0.000009
1.976351 0.695122 0.478323 -0.000001 0.979975 -0.000002
2.028597 0.695829 0.519650 0.000001 0.979607 0.000001
1.924106 0.634925 0.398951 0.000000 0.451679 -0.000037
3.627589 0.393257 0.336467 -0.026386 -0.013563 0.013793
3.021264 0.688101 0.455774 0.000000 0.923885 -0.000008
2.394316 0.676278 0.434707 0.000000 0.813288 -0.000014
3.351212 0.402216 0.652492 0.012099 0.084225 0.013343
3.351212 0.763554 0.652492 0.012097 -0.021217 0.011622
1.140421 0.564832 0.387870 0.000000 -0.163932 -0.000228
2.086629 0.214043 0.811070 0.094297 -0.002864 -0.003327
1.295417 0.697339 0.499295 0.000000 0.999680 -0.000000
3.334738 0.537236 0.605921 -0.000001 -0.405098 0.000021
1.662878 0.528916 0.601894 -0.000000 -0.474098 0.000018
3.178001 0.687972 0.455484 -0.000000 0.913772 -0.000008
2.090241 0.470320 0.591011 0.094296 -0.003696 -0.004292
0.139852 0.686722 0.500926 -0.281676 0.000078 0.000002
0.983684 0.470821 0.524372 0.000001 -0.975901 0.000004
1.140421 0.685351 0.551996 -0.000000 0.892181 0.000002
0.931439 0.469978 0.481979 -0.000000 -0.986403 -0.000003
3.386983 0.477669 0.455774 0.000000 -0.923879 -0.000016
1.724159 0.755832 0.348166 -0.028071 -0.004680 -0.005601
3.431737 0.763942 0.340171 0.012098 0.035562 0.014020
3.271839 0.386985 0.667566 0.012101 0.020949 0.011588
3.271839 0.778785 0.667566 0.012100 -0.041838 0.012874
1.793180 0.231764 0.803043 -0.051470 -0.010211 -0.010763
1.793180 0.231764 0.198809 -0.051470 -0.010211 0.010763
2.707790 0.599505 0.387650 -0.000000 0.138855 -0.000034
1.244913 0.566445 0.387625 0.000000 -0.138897 -0.000068
1.192667 0.525943 0.401605 0.000000 -0.496348 -0.000033
2.498807 0.689797 0.541875 -0.000000 0.933259 0.000007
1.771792 0.835356 0.712746 -0.051469 0.003064 -0.003286
1.771792 0.330414 0.712746 -0.051472 -0.003063 -0.003286
3.052558 0.468006 0.597852 0.012098 0.083208 0.013337
1.297158 0.643294 0.403666 -0.000001 0.515002 -0.000016
1.035930 0.640968 0.599594 -0.000000 0.518069 0.000008
3.230246 0.691734 0.465444 0.000000 0.950262 -0.000012
1.244913 0.481745 0.447277 0.000000 -0.880334 -0.000003
1.826745 0.762925 0.663264 -0.028069 -0.015908 0.016795
1.963831 0.783626 0.651086 -0.051470 0.012763 -0.013313
2.394316 0.478847 0.548728 0.000000 -0.913883 0.000008
1.819614 0.488480 0.436156 -0.000000 -0.827877 -0.000026
3.125755 0.645280 0.404934 0.000000 0.539693 -0.000030
0.670211 0.632448 0.604128 0.000002 0.428661 0.000080
2.864527 0.638607 0.600944 -0.000000 0.496267 0.000033
2.812281 0.692858 0.469081 0.000000 0.957831 -0.000006
1.610632 0.478663 0.548314 0.000000 -0.913881 0.000017
0.513474 0.557978 0.389181 -0.000000 -0.213709 -0.000173
1.035930 0.475031 0.462527 -0.000000 -0.942074 -0.000013
1.662878 0.633793 0.603474 -0.000001 0.451666 0.000075
2.133088 0.633470 0.398214 -0.000001 0.451144 -0.000019
1.913735 0.461260 0.383567 -0.028068 0.008736 -0.010121
1.349404 0.685433 0.551834 0.000000 0.892181 0.000002
3.344950 0.808437 0.305125 0.012098 0.035561 0.014021
3.680471 0.973241 0.836802 0.012100 0.035557 -0.014022
1.992725 0.849603 0.261110 0.051508 -0.013191 -0.014852
3.506149 0.307980 0.262228 0.012099 -0.026687 0.013480
2.342071 0.539743 0.606974 0.000000 -0.382700 0.000023
2.185334 0.536656 0.605663 0.000001 -0.405625 0.000043
3.491474 0.535704 0.396611 0.000000 -0.405941 -0.000085
1.924106 0.480052 0.450585 0.000000 -0.902509 -0.000005
3.613628 0.625378 0.503401 1.000000 0.000000 0.000000
0.173922 0.560404 0.610320 -0.140931 -0.000079 0.000339
0.076436 0.553400 0.432217 -0.521319 -0.000023 -0.000049
2.108299 0.307898 0.733022 0.094296 -0.003603 -0.004185
2.011495 1.017991 0.136023 -0.051470 0.007148 0.007608
2.144416 0.849099 0.729986 0.051508 -0.006765 0.007796
0.513474 0.671790 0.428785 0.000000 0.783045 -0.000004
0.356737 0.633429 0.398193 -0.000000 0.451729 -0.000075
0.565719 0.523562 0.598843 0.000000 -0.518214 0.000016
2.036494 0.039074 0.965230 -0.051470 -0.016335 -0.016733
2.036494 1.126696 0.965230 -0.051469 0.016335 -0.016733
1.610632 0.481659 0.447436 0.000000 -0.880365 -0.000005
1.863427 1.004494 0.138158 -0.028067 -0.027931 -0.024038
1.715123 0.476412 0.458835 0.000000 -0.933252 -0.000007
1.140421 0.502509 0.582455 0.000000 -0.697861 0.000010
2.551053 0.642402 0.598725 0.000001 0.517820 0.000031
1.401649 0.645357 0.596868 0.000002 0.532568 0.000015
3.282492 0.688413 0.456528 0.000000 0.923873 -0.000008
1.767369 0.523484 0.403056 -0.000000 -0.518278 -0.000008
0.408982 0.678383 0.437770 -0.000000 0.823794 -0.000003
2.603299 0.480013 0.450667 0.000000 -0.902113 -0.000002
0.513474 0.475647 0.541029 0.000000 -0.932423 0.000002
0.304491 0.607261 0.612786 0.000001 0.213682 0.000173
0.461228 0.638646 0.600922 -0.000000 0.496236 0.000033
0.565719 0.631711 0.604478 0.000000 0.428759 0.000020
1.088176 0.553443 0.611563 0.000000 -0.262867 0.000139
1.879217 0.203323 0.178399 -0.051469 -0.018375 0.018600
1.904634 0.363898 0.698197 -0.028069 0.005460 0.006503
1.819614 0.580710 0.386486 0.000000 -0.025313 -0.000374
1.662878 0.631670 0.397354 0.000000 0.428803 -0.000020
1.662878 0.689406 0.542890 -0.000001 0.933203 0.000015
1.192667 0.472581 0.531592 0.000000 -0.964809 0.000005
0.879193 0.480910 0.552966 0.000000 -0.892147 0.000019
1.819614 0.650652 0.593212 -0.000000 0.601577 0.000006
2.021618 0.221241 0.205099 0.094296 -0.005728 0.006645
2.342071 0.627074 0.606541 0.000001 0.382485 0.000092
2.237579 0.694620 0.475974 -0.000000 0.971572 -0.000001
2.812281 0.478885 0.453041 0.000000 -0.903255 -0.000002
3.052558 0.695866 0.600058 0.012100 0.078527 -0.014730
1.989113 0.699828 0.582142 0.094296 0.003388 -0.003935
3.073509 0.543505 0.393421 0.000000 -0.335382 -0.000106
1.610632 0.564608 0.387907 -0.000000 -0.163847 -0.000114
3.022502 0.468243 0.403724 0.012099 0.083203 -0.013337
1.819614 0.479449 0.549998 -0.000000 -0.903296 0.000004
1.192667 0.628202 0.395783 0.000001 0.405235 -0.000021
0.617965 0.604864 0.388569 -0.000000 0.188832 -0.000049
3.334738 0.476494 0.543228 -0.000000 -0.931800 0.000002
2.029271 0.062633 0.050825 -0.028068 0.031414 -0.025418
2.028597 0.473754 0.535546 -0.000000 -0.950107 0.000006
1.844569 0.381898 0.342141 -0.051470 -0.009299 0.009834
2.007172 0.393232 0.354891 0.094296 -0.004342 0.005041
3.205216 0.407828 0.348621 0.012099 -0.034575 0.013978
3.021264 0.633062 0.603837 0.000000 0.428708 0.000005
1.691975 0.388450 0.664356 -0.051468 -0.008753 -0.009273
3.125755 0.478111 0.454780 -0.000000 -0.913854 -0.000004
1.767369 0.690983 0.538641 0.000000 0.942095 0.000013
3.491474 0.532544 0.603759 -0.000002 -0.324320 0.000007
2.969018 0.535869 0.396538 0.000000 -0.405503 -0.000021
0.931439 0.688205 0.545826 0.000000 0.923811 0.000008
1.506141 0.509036 0.413441 -0.000001 -0.639710 -0.000011
0.356737 0.560193 0.613146 0.000000 -0.188774 0.000025
1.849660 0.481021 0.599667 -0.028068 0.017467 0.017997
1.088176 0.614686 0.610912 0.000000 0.287149 0.000063
3.073509 0.690106 0.460780 -0.000000 0.933283 -0.000004
0.879193 0.616683 0.391538 -0.000000 0.286781 -0.000016
3.439229 0.476836 0.457784 0.000000 -0.923873 -0.000008
0.774702 0.594152 0.386990 0.000000 0.088448 -0.000107
0.471677 0.697258 0.505728 -0.000009 0.073582 0.000000
0.061994 0.634207 0.540652 -0.577979 0.000033 0.000024
1.920215 0.900668 0.763076 -0.051470 0.002553 -0.002740
2.079406 1.099228 0.052222 0.051507 -0.012853 -0.014494
3.078355 0.707296 0.395798 0.012099 -0.052245 -0.013069
2.289825 0.477530 0.545743 -0.000000 -0.923857 0.000016
3.623081 0.762718 0.654365 -0.026386 -0.013309 0.014042
3.230246 0.512163 0.590958 -0.000000 -0.622038 0.000024
2.864527 0.541555 0.394160 -0.000000 -0.359164 -0.000098
2.101076 0.384081 0.666568 0.094297 -0.004435 -0.005148
2.101076 0.781689 0.666568 0.094296 0.004435 -0.005148
3.553186 0.651294 0.557642 0.061390 0.001213 0.001044
3.644262 0.843747 0.727109 -0.026386 0.018082 -0.017056
3.021264 0.478847 0.453123 0.000000 -0.913852 -0.000004
3.489604 0.704786 0.610982 -0.026386 0.018202 -0.017133
2.498807 0.690800 0.462698 0.000001 0.941677 -0.000007
2.864527 0.674134 0.431784 0.000000 0.798441 -0.000029
3.402081 0.504781 0.560623 0.061390 -0.001820 0.001565
0.774702 0.691805 0.536192 -0.000000 0.950076 0.000006
1.349404 0.475000 0.462613 -0.000000 -0.942051 -0.000007
0.252246 0.675144 0.568729 0.000000 0.798261 0.000002
0.148265 0.505890 0.574115 -0.240755 -0.000141 0.000127
1.192667 0.644174 0.597627 -0.000000 0.539653 0.000059
2.289825 0.686923 0.548728 -0.000000 0.913832 0.000017
2.018007 0.363910 0.303911 0.051509 0.007273 -0.008369
2.133088 0.690106 0.541071 0.000001 0.932634 0.000007
2.133088 0.474544 0.537958 0.000000 -0.950234 0.000003
1.930130 0.216329 0.820747 -0.028068 0.029673 0.024760
3.230246 0.627534 0.395502 0.000000 0.376143 -0.000006
2.007172 0.274562 0.775556 0.051510 0.011838 0.013409
1.801391 0.352287 0.297842 -0.028068 0.005460 -0.006503
2.969018 0.537733 0.606142 0.000000 -0.406505 0.000011
1.767369 0.523484 0.598796 0.000000 -0.517063 0.000008
0.408982 0.480910 0.448885 -0.000000 -0.892159 -0.000010
1.635124 0.390363 0.335273 -0.051470 -0.013127 0.013670
3.543720 0.692129 0.466650 0.387813 0.000124 -0.000041
0.879193 0.632776 0.603973 0.000000 0.428818 0.000020
2.185334 0.636534 0.602066 0.000000 0.474100 0.000018
1.892299 0.683968 0.401277 -0.028068 -0.008736 -0.010121
2.050512 0.149750 0.121852 0.051508 0.015557 -0.017310
1.930130 0.210126 0.188314 -0.051469 -0.009190 0.009722
2.144416 0.871527 0.252567 0.051509 -0.013528 -0.015209
3.599866 0.719525 0.381844 -0.026386 0.015823 0.015516
3.599866 0.444750 0.618270 -0.026387 0.015526 0.015813
2.498807 0.622308 0.393436 0.000000 0.335417 -0.000053
1.662878 0.475395 0.540349 -0.000000 -0.941884 0.000003
3.644262 0.845456 0.276728 -0.026387 -0.017742 -0.017400
0.997617 0.580167 0.615352 0.000000 -0.025312 0.000012
3.613628 0.577944 0.458649 1.000000 -0.000000 0.000000
2.919310 0.659399 0.565321 -0.000001 0.756501 0.000019
1.884595 0.832764 0.702392 -0.051470 0.006127 -0.006538
2.080842 0.689341 0.458792 -0.000001 0.910607 -0.000002
3.543720 0.630688 0.396887 0.389133 0.000053 -0.000119
3.386983 0.694571 0.526099 0.000000 0.976897 0.000017
2.028842 0.844277 0.733701 0.051508 -0.006596 0.007604
1.673781 0.734325 0.367725 -0.028069 -0.011231 -0.012652
3.204966 0.475975 0.404378 0.012099 -0.068839 0.014651
1.767369 0.468617 0.493860 0.000000 -0.997600 -0.000001
3.641789 0.793342 0.320921 -0.026387 -0.011091 -0.012082
3.357412 0.471824 0.398598 0.012097 -0.037778 0.014106
1.349404 0.686729 0.452714 -0.000001 0.795433 -0.000001
1.853905 0.717568 0.374982 -0.028068 -0.015908 -0.016795
3.073509 0.620515 0.392798 -0.000000 0.335330 -0.000027
3.073509 0.688899 0.544151 0.000000 0.923873 0.000016
1.880989 1.022116 0.878856 -0.028067 -0.013103 0.014407
1.880989 0.143654 0.878856 -0.051469 -0.014294 -0.014801
2.969018 0.632980 0.397976 0.000000 0.428970 -0.000020
0.252246 0.605621 0.388715 -0.000001 0.188670 -0.000099
2.289825 0.651520 0.409294 0.000000 0.602047 -0.000050
1.821221 0.929982 0.204528 -0.051469 0.010211 0.010763
3.577130 0.271545 0.231310 0.012099 -0.070782 0.014668
2.812281 0.626948 0.395259 0.000000 0.382294 -0.000011
3.415781 0.358796 0.311135 0.012099 0.074992 -0.013286
0.191277 0.474254 0.466843 -0.073523 -0.000330 -0.000099
3.305903 0.461342 0.599747 0.012098 0.020038 0.011453
1.506141 0.686997 0.548563 0.000000 0.912789 0.000004
3.178001 0.479741 0.550612 0.000000 -0.902954 0.000005
2.662510 0.468454 0.503463 0.000000 -0.999679 0.000000
3.470218 0.687415 0.405384 -0.026386 0.018202 0.017133
3.441430 0.393142 0.668938 0.012099 -0.070783 -0.014668
1.861655 0.220945 0.808290 -0.051469 -0.004596 -0.004919
1.760100 0.437253 0.614145 -0.051472 -0.005470 -0.005846
1.453895 0.670457 0.574670 -0.000000 0.766810 0.000008
0.670211 0.536573 0.605627 0.000000 -0.405997 0.000171
0.304491 0.511099 0.590112 0.000000 -0.622146 0.000024
3.567363 0.297899 0.743331 0.012099 0.023569 0.011905
2.133088 0.540921 0.607447 0.000000 -0.359001 0.000025
0.294042 0.580528 0.386461 -0.000000 -0.012659 -0.000199
3.258940 0.774019 0.338387 0.012099 -0.041844 -0.012872
1.893799 0.770669 0.329766 -0.028070 -0.005460 -0.006503
3.422044 0.755257 0.654424 0.012097 0.035566 -0.014019
1.819614 0.688136 0.455858 0.000000 0.923873 -0.000004
1.088176 0.478534 0.548024 0.000000 -0.913104 0.000004
3.602778 0.862868 0.256563 -0.026386 0.027109 0.021630
0.370669 0.697256 0.496033 0.000000 0.999680 -0.000000
3.613827 0.318372 0.725715 -0.026387 0.017742 0.017400
2.603299 0.673752 0.570575 0.000000 0.798497 0.000029
1.244913 0.515855 0.593739 -0.000000 -0.581610 0.000013
1.683776 0.697366 0.500382 0.000000 0.999679 -0.000000
2.115523 0.209287 0.183079 0.094297 -0.002957 0.003434
1.978278 0.460566 0.384374 0.051508 0.006202 -0.007156
1.934938 0.703175 0.578252 -0.051470 0.010211 -0.010763
1.558386 0.664035 0.581691 0.000000 0.716253 0.000005
3.393339 0.332854 0.714549 0.012097 0.032981 0.012569
0.304491 0.686885 0.548810 0.000000 0.903443 0.000002
1.971055 0.700944 0.421006 0.094297 0.006775 0.007854
3.592422 0.495325 0.424513 -0.026386 -0.023664 0.020150
3.596516 0.912877 0.783567 0.012100 -0.074984 0.013287
1.937354 0.975757 0.170106 -0.051470 0.016335 0.016733
1.558386 0.476940 0.457533 0.000000 -0.923873 -0.000004
1.925203 0.758131 0.662895 -0.028069 -0.010919 0.012348
0.099268 0.495319 0.496485 -0.439574 -0.000040 -0.000001
3.680322 0.932352 0.198504 -0.026386 0.009043 0.009781
3.577130 0.895933 0.233296 0.012100 -0.074985 -0.013287
1.244913 0.679659 0.562100 -0.000000 0.841734 0.000003
3.035526 0.734943 0.631762 0.012100 0.078527 -0.014730
3.035526 0.430827 0.631762 0.012100 -0.078527 -0.014730
2.342071 0.692520 0.533899 0.000000 0.957844 0.000003
2.097464 0.405351 0.354036 0.094296 -0.004342 0.005041
0.076436 0.648258 0.464641 -0.521317 0.000051 -0.000027
3.491474 0.479508 0.550120 0.000001 -0.903297 0.000036
1.924106 0.542486 0.608050 0.000001 -0.359032 0.000098
2.342071 0.691960 0.466133 0.000000 0.950282 -0.000003
2.080842 0.471397 0.474868 0.000000 -0.971143 -0.000002
3.491474 0.693725 0.529624 0.000000 0.964824 0.000001
0.252246 0.535041 0.604945 0.000000 -0.429218 0.000005
3.439229 0.531977 0.603474 0.000000 -0.451651 0.000037
3.178001 0.475794 0.460442 0.000000 -0.933176 -0.000007
2.655545 0.626739 0.606679 0.000000 0.382599 0.000023
3.073509 0.537443 0.606013 -0.000001 -0.396767 0.000011
1.297158 0.489808 0.567587 0.000000 -0.813444 0.000007
2.025230 0.468173 0.417116 0.094298 -0.003388 0.003935
0.076436 0.543335 0.564377 -0.521318 -0.000032 0.000048
2.969018 0.474078 0.536537 0.000000 -0.950274 0.000012
1.297158 0.646679 0.595992 -0.000000 0.560811 0.000056
1.905345 0.917909 0.221685 -0.051469 0.010211 0.010764
3.352153 0.580528 0.615391 0.000000 -0.013157 0.000048
0.252246 0.514032 0.409458 -0.000000 -0.602042 -0.000100
1.558386 0.477114 0.544738 0.000000 -0.923776 0.000001
2.760036 0.688795 0.544403 0.000000 0.923873 0.000008
1.732940 0.401127 0.340585 -0.028064 0.004681 -0.005602
2.104687 0.317954 0.277934 0.094296 -0.003603 0.004185
2.133088 0.623073 0.608131 0.000000 0.359051 0.000049
1.863427 0.161276 0.138158 -0.051469 -0.016335 0.016733
2.144416 0.428811 0.368355 0.051507 0.006766 -0.007796
2.144416 0.473667 0.406951 0.051509 0.013528 -0.015209
2.144416 0.804243 0.691390 0.051508 -0.007442 0.008560
3.525609 0.896459 0.769872 0.012097 -0.023572 0.011904
0.200000 0.633308 0.398132 -0.073526 0.000155 -0.000307
3.238954 0.468505 0.496395 -0.000000 -0.999680 -0.000000
0.931439 0.541597 0.607708 -0.000000 -0.358917 0.000025
3.178001 0.687512 0.547403 0.000000 0.914001 0.000004
2.028597 0.622308 0.393436 -0.000001 0.335285 -0.000053
3.112919 0.402232 0.345485 0.012100 -0.049312 0.014406
2.010783 0.769844 0.670884 0.051508 -0.007949 0.009131
3.073509 0.475441 0.461375 0.000000 -0.941987 -0.000003
3.441430 0.388444 0.338373 0.012100 0.074986 -0.013287
1.858149 0.415383 0.654073 -0.028068 0.031787 0.025552
2.003560 0.749042 0.348375 0.051509 -0.017021 -0.018786
0.029101 0.597144 0.534153 -0.707430 0.000007 0.000015
1.795340 0.382135 0.662956 -0.051471 -0.018593 -0.018795
1.088176 0.695584 0.480727 0.000000 0.986452 -0.000002
0.107156 0.507820 0.448679 -0.401111 -0.000077 -0.000051
3.131955 0.480267 0.409030 0.012099 -0.029648 0.013706
3.334738 0.512660 0.410499 0.000000 -0.622022 -0.000048
3.522762 0.746396 0.637081 -0.026388 -0.015525 0.015813
1.349404 0.473537 0.534854 0.000000 -0.957853 0.000006
1.540971 0.581798 0.615393 0.000009 -0.002039 0.000309
0.931439 0.540329 0.394634 0.000000 -0.382294 -0.000011
1.932427 0.371846 0.338972 -0.051469 -0.006382 0.006806
1.849660 0.481021 0.402185 -0.028068 0.017467 -0.017997
3.351212 0.406060 0.344892 0.012099 -0.079499 0.014736
0.826948 0.509001 0.588381 0.000000 -0.641716 0.000023
0.131525 0.577761 0.399895 -0.305988 -0.000011 -0.000143
3.543720 0.475517 0.540690 0.386932 -0.000123 0.000044
1.935171 0.422848 0.615225 -0.051471 -0.005106 -0.005460
1.924106 0.476836 0.544068 -0.000001 -0.923798 0.000016
1.700308 0.499220 0.579234 -0.028070 0.011230 0.012652
0.609257 0.587053 0.615315 0.000000 0.025313 0.000025
3.604374 0.433675 0.374052 -0.026387 0.031025 -0.023770
3.595359 0.708449 0.610477 -0.026386 0.031618 -0.023181
0.879193 0.687457 0.454324 0.000001 0.910782 -0.000004
2.063427 0.583429 0.615407 0.000004 0.007024 0.000180
3.190063 0.726834 0.379946 0.012099 -0.072929 -0.013273
2.057735 0.795720 0.311897 0.051509 -0.008118 -0.009320
3.282492 0.482889 0.556687 0.000000 -0.868041 0.000001
1.888804 0.694499 0.609127 -0.028067 -0.008736 0.010122
0.962786 0.579804 0.386509 0.000000 -0.025313 -0.000050
0.107156 0.605809 0.589464 -0.401112 0.000022 0.000094
0.995875 0.697329 0.498932 0.000000 0.999680 -0.000000
0.252246 0.473867 0.535890 0.000000 -0.950232 0.000012
1.586251 0.697366 0.501469 -0.000000 0.999671 0.000000
2.080842 0.525589 0.401807 0.000000 -0.495988 -0.000017
3.592422 0.670445 0.424513 -0.026387 0.023664 0.020149
3.324289 0.468509 0.496214 -0.000000 -0.999680 -0.000000
3.527269 0.408299 0.355241 -0.026387 0.013309 -0.014042
2.498807 0.544657 0.393011 0.000000 -0.335367 -0.000106
1.617562 0.757785 0.350436 -0.028069 -0.022451 -0.021281
1.659159 0.770481 0.663393 -0.028067 -0.014974 0.016032
0.395050 0.587959 0.615292 0.000000 0.025321 0.000025
1.952647 0.890711 0.228689 -0.028070 -0.008299 -0.009656
1.791095 0.413502 0.367786 -0.051470 -0.009299 0.009834
0.461228 0.690694 0.462399 -0.000000 0.942077 -0.000027
2.093852 0.149074 0.133978 0.094296 -0.008499 0.009839
2.655545 0.689846 0.541748 0.000001 0.931391 0.000007
1.819614 0.689260 0.543271 -0.000000 0.933168 0.000007
0.814757 0.468477 0.504369 0.000000 -0.999680 0.000000
1.963831 0.382144 0.651086 0.094297 -0.008684 -0.010051
1.985501 0.828801 0.723334 0.051509 -0.007442 0.008560
2.289825 0.546542 0.609492 -0.000000 -0.311436 0.000116
1.962139 1.008667 0.131127 -0.028068 -0.013102 -0.014407
2.072182 0.283589 0.763365 0.051508 0.006765 0.007796
2.498807 0.537568 0.606068 0.000001 -0.403275 0.000011
1.795340 0.783635 0.338895 -0.051469 0.018594 0.018796
1.244913 0.604686 0.613317 -0.000001 0.188646 0.000099
3.578674 0.560675 0.403616 0.386760 -0.000078 -0.000462
1.889554 0.413028 0.374277 -0.051470 -0.018594 0.018795
1.349404 0.539157 0.395120 -0.000000 -0.382675 -0.000046
2.022330 0.117610 0.108710 -0.051468 -0.006127 0.006538
3.531102 0.433540 0.625380 -0.026388 0.023219 0.020605
3.613628 0.599744 0.540010 1.000000 0.000000 0.000000
3.178001 0.531856 0.398439 0.000000 -0.451712 -0.000075
0.304491 0.483587 0.443945 0.000000 -0.868134 -0.000022
1.960299 0.102666 0.911416 -0.051470 -0.012253 -0.012809
1.960299 1.063104 0.911416 -0.051470 0.006127 -0.006538
2.760036 0.566894 0.614289 0.000000 -0.138751 0.000034
0.148265 0.502282 0.431730 -0.240754 -0.000147 -0.000120
3.570548 0.798805 0.311469 -0.026387 0.022597 0.019630
0.461228 0.496161 0.575675 -0.000000 -0.750111 0.000008
1.781760 0.798141 0.690651 -0.028066 -0.015909 0.016796
2.046900 0.907496 0.786868 0.051508 -0.006089 0.007028
2.046900 0.907496 0.214984 0.051509 -0.006089 -0.007028
1.506141 0.599101 0.387594 0.000000 0.138911 -0.000270
1.088176 0.647054 0.406114 0.000001 0.560718 -0.000056
3.190063 0.723987 0.625215 0.012100 0.068834 -0.014652
3.190063 0.438936 0.621905 0.012100 0.072929 0.013273
0.617965 0.495080 0.574392 0.000000 -0.766953 0.000008
0.983684 0.488327 0.565470 0.000000 -0.827907 0.000013
3.125755 0.610175 0.612111 0.000000 0.238356 0.000039
2.342071 0.632980 0.397976 0.000001 0.428814 -0.000040
2.101076 0.365788 0.311179 0.051508 0.008118 -0.009320
0.826948 0.593204 0.614946 -0.000000 0.088607 0.000213
2.057735 0.795720 0.689955 0.051508 -0.016233 0.017996
2.018007 0.351848 0.683922 0.094296 -0.007945 -0.009202
1.506141 0.487387 0.564082 -0.000000 -0.827854 0.000006
2.289825 0.562686 0.388227 0.000000 -0.188774 -0.000025
1.924106 0.619185 0.609507 -0.000000 0.311422 0.000116
1.861655 0.944825 0.193561 -0.051469 0.004595 0.004919
0.513474 0.669579 0.575709 -0.000002 0.619971 0.000003
3.464021 0.790564 0.326767 0.012100 -0.032973 -0.012572
3.348670 0.697359 0.502557 0.000000 0.999918 0.000000
1.706188 0.774105 0.668092 -0.028065 -0.009361 0.010775
3.162011 0.685266 0.408754 0.012099 0.059098 0.014551
3.473714 0.366734 0.682590 0.012099 0.065712 0.013216
1.715123 0.657186 0.588032 0.000002 0.639487 0.000023
2.108299 0.086421 0.078263 0.094296 -0.007021 0.008138
3.439229 0.479858 0.550857 -0.000000 -0.903317 0.000009
3.021264 0.690983 0.538641 -0.000000 0.942039 0.000001
0.200000 0.605933 0.613077 -0.073523 0.000074 0.000336
2.097464 0.755939 0.348830 0.051508 -0.017021 -0.018786
2.394316 0.521863 0.404054 0.000001 -0.522503 -0.000004
2.760036 0.652136 0.409758 0.000001 0.601721 -0.000025
2.104687 0.355387 0.699376 0.051507 0.007442 0.008560
1.021998 0.468454 0.503463 0.000000 -0.999680 0.000000
3.151878 0.697274 0.496758 -0.000004 0.283065 -0.000000
2.108299 1.079349 0.923589 0.094297 0.007021 -0.008138
2.108299 0.086421 0.923589 0.094296 -0.007021 -0.008138
2.916773 0.588140 0.615288 -0.000000 0.025313 0.000374
2.418698 0.697334 0.502738 0.000000 0.999679 0.000000
2.899357 0.468401 0.500019 0.000000 -0.999920 -0.000000
0.156754 0.649199 0.586596 -0.207703 0.000143 0.000175
0.304491 0.692155 0.466737 0.000000 0.957843 -0.000023
2.760036 0.569185 0.387261 -0.000000 -0.113740 -0.000041
0.722456 0.563938 0.388019 0.000000 -0.163943 -0.000228
3.303837 0.725400 0.383100 0.012099 -0.040018 -0.012825
3.491474 0.473754 0.466306 0.000000 -0.950224 -0.000006
3.282492 0.621454 0.608719 0.000000 0.335330 0.000053
2.446562 0.511276 0.590253 0.000000 -0.621529 0.000012
1.964684 0.310419 0.257394 -0.028068 0.009173 -0.010579
3.596516 0.252893 0.783567 0.012100 0.074984 0.013288
3.441729 0.311366 0.266005 0.012100 -0.026685 0.013481
1.035930 0.695584 0.521125 0.000000 0.982021 0.000001
1.035930 0.678485 0.437920 -0.000000 0.841864 -0.000024
3.439229 0.696236 0.484845 -0.000001 0.990097 -0.000005
1.035930 0.540413 0.394600 0.000000 -0.382666 -0.000091
1.937354 0.975757 0.831746 -0.051470 0.008169 -0.008670
1.942235 0.352356 0.680327 -0.051471 -0.003064 -0.003286
3.258940 0.393649 0.336181 0.012099 -0.039497 0.014166
3.515692 0.336553 0.709208 0.012098 0.056404 0.013122
1.889554 0.737850 0.644883 -0.028067 -0.015909 0.016796
1.953070 0.843583 0.294212 -0.051470 0.005872 0.006269
3.556123 0.478593 0.408606 -0.026387 -0.011838 0.012349
3.146983 0.689181 0.588547 0.012100 -0.031406 0.012495
2.498807 0.622650 0.608294 -0.000000 0.359111 0.000012
2.342071 0.501007 0.420907 0.000001 -0.715661 -0.000018
2.446562 0.592572 0.615002 0.000000 0.088599 0.000426
2.289825 0.618883 0.609605 0.000000 0.311041 0.000029
0.165310 0.684112 0.457486 -0.174421 0.000256 -0.000102
3.357849 0.813203 0.700828 0.012098 0.017801 -0.012235
3.380440 0.828150 0.291403 0.012099 -0.037671 -0.012754
3.357849 0.352567 0.700828 0.012098 -0.017802 -0.012234
1.810527 0.288904 0.245271 -0.028069 0.009609 -0.011031
3.515692 0.336553 0.292644 0.012099 0.028273 -0.012307
3.164390 0.415818 0.358615 0.012100 0.062608 -0.013189
1.999102 0.999123 0.849143 -0.051469 0.007659 -0.008140
1.858043 0.234448 0.198660 -0.028068 0.016594 -0.017335
0.499542 0.468395 0.501288 0.000000 -0.999920 0.000000
2.147020 0.697357 0.500020 0.000000 0.999680 -0.000000
1.871860 0.687512 0.454449 0.000000 0.909296 -0.000001
2.760036 0.492683 0.571435 0.000000 -0.782918 0.000008
2.916773 0.506810 0.586482 -0.000000 -0.660980 0.000022
1.625077 0.441795 0.619424 -0.051469 -0.006565 -0.006998
1.642639 0.424173 0.367265 -0.051470 -0.013127 0.013670
2.969018 0.474488 0.464066 -0.000000 -0.950177 -0.000006
1.589953 0.477039 0.589098 -0.051471 -0.004376 -0.004686
1.930345 0.141567 0.119480 -0.028069 0.012229 -0.013604
0.691109 0.697360 0.502467 0.000000 0.999922 0.000000
2.634646 0.697316 0.498389 0.000000 0.999680 -0.000000
3.406238 0.329583 0.281464 0.012100 -0.031123 0.013800
1.589953 0.479254 0.410178 -0.028067 0.014974 -0.016032
3.613628 0.667871 0.505876 0.377881 0.000114 0.000005
3.613628 0.582885 0.500926 1.000000 0.000000 0.000000
1.960299 0.104733 0.088033 -0.028067 0.010483 -0.011916
3.230246 0.660704 0.584897 -0.000000 0.679570 0.000020
0.983684 0.666394 0.579244 0.000000 0.733542 0.000004
1.244913 0.668201 0.424578 0.000000 0.750415 -0.000017
2.032454 0.865361 0.271863 0.094296 0.003603 0.004185
0.774702 0.471295 0.526541 0.000000 -0.971690 0.000001
2.054056 1.144318 0.021459 -0.051469 0.016335 0.016733
3.491474 0.680755 0.441525 0.000001 0.855192 -0.000046
0.759028 0.697284 0.497120 0.000000 0.999680 -0.000000
1.954915 0.172391 0.154943 -0.051470 -0.016335 0.016733
1.610632 0.657151 0.413790 0.000000 0.641468 -0.000023
0.983684 0.491008 0.432616 -0.000000 -0.798445 -0.000029
1.871860 0.469509 0.485024 0.000000 -0.990327 -0.000000
0.069131 0.515162 0.518461 -0.549963 -0.000046 0.000011
3.359478 0.679665 0.425380 0.012099 -0.037671 -0.012754
0.722456 0.605310 0.613197 0.000001 0.188194 0.000049
0.131525 0.675847 0.540819 -0.305989 0.000130 0.000052
3.501924 0.588503 0.386573 0.000000 0.025321 -0.000025
2.721722 0.697316 0.503463 0.000000 0.999680 0.000000
3.441579 0.813516 0.702392 0.012100 0.062022 -0.014585
1.949458 0.346028 0.287296 -0.028067 0.020085 -0.019824
1.297158 0.500817 0.421101 0.000000 -0.715924 -0.000009
3.543720 0.527320 0.601034 0.391013 -0.000064 0.000113
1.999102 0.166647 0.849143 -0.051469 -0.015314 -0.015775
3.282492 0.549868 0.610547 -0.000000 -0.287229 0.000253
2.061347 0.447976 0.395225 0.094297 -0.009300 0.010757
2.144416 0.294243 0.749284 0.051509 0.013528 0.015208
3.240695 0.697261 0.505638 0.000000 0.999679 0.000000
3.282492 0.684860 0.552966 -0.000000 0.892154 0.000038
1.871860 0.516298 0.407796 0.000001 -0.577564 -0.000007
3.439229 0.541682 0.394111 -0.000000 -0.359161 -0.000098
3.439229 0.676858 0.566333 0.000000 0.813201 0.000002
1.725572 0.583247 0.386440 0.000000 0.025321 -0.000050
3.419137 0.842448 0.279101 0.012100 -0.032973 -0.012571
3.073509 0.476282 0.542679 -0.000000 -0.933265 0.000007
0.722456 0.675171 0.568693 0.000000 0.798538 0.000007
0.722456 0.492018 0.431277 -0.000000 -0.798157 -0.000004
1.977861 1.080726 0.075273 -0.051469 0.006127 0.006538
1.818256 0.697287 0.392994 -0.028068 -0.015908 -0.016795
1.684012 0.693765 0.400782 -0.028069 -0.011231 -0.012653
3.546655 0.770358 0.335514 -0.026387 0.013563 0.013792
2.237579 0.496940 0.576559 0.000000 -0.750262 0.000017
3.151491 0.743763 0.361061 0.012098 0.029650 0.013705
2.996704 0.686571 0.410271 0.012100 0.059097 0.014551
1.862998 0.862552 0.731633 -0.051469 0.002808 -0.003013
0.156754 0.649199 0.415256 -0.207705 0.000143 -0.000175
2.050512 1.016020 0.121852 0.051508 -0.015557 -0.017310
2.655545 0.568780 0.387307 -0.000000 -0.113739 -0.000165
2.028597 0.681734 0.558694 0.000000 0.868041 0.000003
1.849660 0.684749 0.599667 -0.028068 -0.017467 0.017997
1.921564 0.147966 0.871986 -0.051469 -0.007148 -0.007608
1.921564 1.017804 0.871986 -0.051470 0.007148 -0.007608
2.057735 0.207586 0.188836 0.094296 -0.002864 0.003327
2.046900 0.248969 0.225798 0.094296 -0.003234 0.003756
1.675068 0.468392 0.501016 0.000000 -0.999671 0.000000
0.513474 0.540162 0.607148 0.000000 -0.382294 0.000011
3.332051 0.362099 0.309225 0.012100 -0.039983 0.014183
1.942161 0.703989 0.618890 0.051508 -0.006202 0.007156
2.356003 0.581616 0.615389 0.000000 -0.025321 0.000025
0.356737 0.469345 0.486191 -0.000001 -0.963213 -0.000000
3.672663 0.883269 0.760683 -0.026386 0.027110 -0.021630
3.618574 0.414127 0.644835 -0.026387 0.013309 0.014041
3.235022 0.471230 0.591959 0.012099 0.036630 0.012718
1.886400 0.327978 0.706944 -0.051469 -0.005872 -0.006269
1.913415 0.810683 0.296074 -0.028066 -0.005024 -0.006000
3.089000 0.684059 0.584860 0.012097 -0.026186 0.012149
1.901022 0.791471 0.689493 -0.028069 -0.010919 0.012348
2.864527 0.487387 0.564082 -0.000000 -0.827854 0.000006
0.139852 0.480245 0.516650 -0.273535 -0.000164 0.000021
1.799585 0.815002 0.310004 -0.051469 0.003191 0.003423
1.688218 0.794224 0.321499 -0.051472 0.002735 0.002935
2.117414 0.468404 0.500382 0.000000 -0.999679 -0.000000
0.931439 0.622308 0.608415 0.000000 0.335347 0.000053
1.889554 0.413028 0.627574 -0.051470 -0.009299 -0.009834
1.506141 0.622479 0.608355 -0.000000 0.335022 0.000027
1.819614 0.665332 0.421491 0.000000 0.715985 -0.000037
1.713703 0.421782 0.631808 -0.051471 -0.004376 -0.004686
3.261594 0.584970 0.615394 0.000000 0.012491 0.000051
2.050512 0.413280 0.653249 0.051508 0.017021 0.018786
2.916773 0.614729 0.390953 -0.000000 0.287181 -0.000063
2.104687 0.836602 0.287583 0.094297 0.008130 0.009414
2.864527 0.695948 0.518934 -0.000001 0.950540 0.000001
1.140421 0.486894 0.438531 0.000000 -0.841887 -0.000024
1.764490 0.732923 0.617935 -0.051468 0.002735 -0.002935
1.760508 0.482379 0.406547 -0.028068 0.014973 -0.016032
1.799585 0.357488 0.699657 -0.028067 0.010920 0.012349
1.192667 0.694997 0.524151 -0.000000 0.976570 0.000002
1.880560 0.872593 0.246245 -0.028067 -0.018340 -0.018633
2.760036 0.468680 0.492865 -0.000001 -0.899437 -0.000000
1.662878 0.691847 0.465789 -0.000000 0.949893 -0.000003
2.061347 0.709867 0.386013 0.051509 -0.017021 -0.018786
3.282492 0.572340 0.386926 0.000000 -0.088585 -0.000213
3.108411 0.458237 0.605778 0.012100 0.026180 0.012151
2.969018 0.690466 0.461759 -0.000001 0.940302 -0.000007
0.029101 0.547468 0.493647 -0.707433 -0.000018 -0.000003
1.956258 0.901112 0.781866 -0.028069 -0.016594 0.017335
3.282492 0.649988 0.408165 -0.000001 0.581572 -0.000053
2.655545 0.647579 0.406470 -0.000000 0.559631 -0.000007
1.992725 0.316167 0.740741 0.051509 0.013190 0.014852
3.553186 0.514476 0.557642 0.061390 -0.001213 0.001044
0.879193 0.691268 0.537829 0.000000 0.950249 0.000002
1.330247 0.468424 0.499567 0.000000 -0.998759 -0.000000
3.146983 0.480385 0.592960 0.012099 -0.029648 -0.013706
3.159757 0.656077 0.569182 -0.000001 0.758020 0.000188
3.543720 0.468977 0.489343 0.388191 -0.000130 -0.000012
2.812281 0.675382 0.568398 -0.000000 0.813375 0.000014
2.394316 0.472498 0.470566 -0.000000 -0.964667 -0.000003
1.871860 0.649472 0.407796 0.000000 0.579500 -0.000003
1.692608 0.367140 0.317709 -0.051468 -0.002735 0.002935
1.349404 0.622479 0.393497 0.000000 0.335441 -0.000027
3.531102 0.732230 0.376472 -0.026387 -0.023220 -0.020605
3.279981 0.510642 0.431567 -0.000001 -0.758018 -0.000151
3.613628 0.500656 0.522959 0.386596 -0.000109 0.000027
0.879193 0.571032 0.387049 -0.000000 -0.113751 -0.000041
3.613628 0.542482 0.575857 0.382067 -0.000055 0.000099
1.297158 0.562419 0.613574 0.000000 -0.188832 0.000099
2.101076 -0.000000 0.004806 -0.000000 -0.758018 -0.000236
2.268927 0.468422 0.502194 0.000000 -0.946080 0.000000
1.643456 0.498178 0.423828 -0.028068 0.014973 -0.016032
2.064959 0.326820 0.726660 0.051508 0.007442 0.008560
2.573693 0.697348 0.499657 0.000000 0.999679 -0.000000
2.206232 0.468413 0.501832 0.000000 -0.999679 0.000000
3.454628 0.859170 0.739947 0.012098 0.026690 -0.013479
3.428830 0.316132 0.731746 0.012099 -0.031125 -0.013800
1.959266 0.312753 0.715982 -0.051470 -0.002808 -0.003013
1.822500 0.741971 0.622271 -0.051470 0.018594 -0.018795
1.853905 0.448202 0.626870 -0.028069 0.015908 0.016795
1.867812 0.809491 0.319936 -0.051468 0.006383 0.006807
1.913735 0.722332 0.404280 -0.051470 0.005106 0.005460
3.293005 0.699662 0.595646 0.012100 -0.020950 0.011588
3.592422 0.670445 0.577338 -0.026387 0.023664 -0.020149
2.041946 0.083799 0.934043 -0.028068 0.009610 0.011032
2.041946 1.081971 0.934043 -0.028067 -0.009610 0.011032
1.715123 0.579261 0.615329 0.000000 -0.025321 0.000374
1.818256 0.455166 0.408471 -0.051469 -0.009300 0.009834
3.596476 0.789416 0.676041 -0.026386 -0.022173 0.020065
