1.318639 0.564855 0.650372 0.000000 0.999564 -0.000000
1.726233 0.564892 0.652576 -0.000004 0.263072 0.000000
0.846404 0.450100 0.572437 -0.000000 -0.362056 -0.000044
1.376177 0.664602 0.407187 -0.070687 0.007993 0.005275
1.507221 0.168664 0.222693 -0.081590 0.004487 -0.003678
1.507221 0.168664 1.081515 -0.081590 0.008973 0.007324
3.642800 0.622413 0.454716 0.005802 0.145024 0.004443
1.541309 0.343167 0.865682 0.070766 0.002787 0.002044
1.382621 0.404062 0.525466 -0.081588 0.006382 -0.005224
2.354681 0.533930 0.717740 -0.000000 0.641502 0.000020
1.004414 0.394879 0.654308 0.000000 -0.999564 0.000000
1.600543 0.547741 0.600877 -0.000000 0.803639 -0.000013
3.216554 0.563923 0.664971 0.000001 0.985593 0.000003
3.714123 0.611435 0.832799 -0.013409 0.058691 -0.009549
3.710446 0.647649 0.425399 -0.013410 -0.046750 -0.009548
2.462415 0.424105 0.587889 0.000000 -0.664011 -0.000019
0.846404 0.563898 0.665127 0.000000 0.986800 0.000000
1.380478 0.542055 0.592258 0.000001 -0.591729 0.000499
2.570149 0.432091 0.581746 0.000000 -0.570865 -0.000049
2.677883 0.523647 0.579204 0.000000 0.521282 -0.000056
1.449772 0.356838 0.844920 -0.081591 0.003335 0.002736
1.603429 0.289393 0.931493 0.070764 0.004733 0.003466
2.947218 0.400097 0.681606 0.000000 -0.942459 0.000002
3.605301 0.566924 0.774186 -0.013415 0.027434 -0.008785
3.487684 0.394949 0.656670 0.000000 -0.999553 0.000000
1.505044 0.703182 0.365604 -0.070689 0.014174 0.009231
0.469335 0.435234 0.724491 0.000000 -0.521211 0.000028
2.731750 0.424703 0.587377 0.000000 -0.641393 -0.000010
1.607734 0.375750 0.777154 0.061276 -0.015302 -0.010899
1.008005 0.493699 0.736007 -0.000001 0.162274 0.000206
1.654410 0.410878 0.701842 0.000000 -0.803798 0.000002
0.954138 0.418895 0.711398 0.000000 -0.706918 0.000004
3.539756 0.559527 0.622344 -0.000001 0.905897 -0.000002
1.345883 0.419643 0.713401 -0.070688 -0.014702 -0.009560
1.487422 0.480962 0.737117 0.000000 0.029516 0.000019
3.190626 0.370555 0.801014 0.005801 -0.146411 -0.004443
3.637435 0.710914 0.966877 0.005799 0.097639 -0.004395
3.006646 0.539033 0.571490 0.000000 0.591692 -0.000014
3.243192 0.603489 0.483680 0.005801 0.098532 0.004398
3.400889 0.646459 0.879067 0.005800 0.169802 -0.004471
3.558586 0.270291 0.937607 0.005803 -0.121461 -0.004419
3.111777 0.392040 0.532463 0.005803 -0.192663 0.004504
3.269475 0.349070 0.830284 0.005802 -0.061861 -0.004366
3.295757 0.617812 0.840040 0.005800 0.122665 -0.004418
1.543769 0.644873 0.450718 0.061276 0.005830 0.004260
0.307734 0.527239 0.722728 0.000001 0.541160 0.000007
1.446105 0.272700 0.921818 -0.070688 -0.014777 -0.009607
1.446105 0.272700 0.382389 -0.070687 -0.007389 0.004881
1.769492 0.056462 1.228915 0.070765 0.014302 0.010291
1.769492 0.056462 0.075293 0.070765 0.014302 -0.010291
1.769492 0.530185 0.720663 0.070764 -0.010938 0.007935
3.054953 0.400892 0.683663 0.000000 -0.932066 0.000007
2.785617 0.511823 0.730915 0.000001 0.389405 0.000080
1.459270 0.786007 0.235029 -0.081589 -0.004729 -0.003877
1.459270 0.786007 1.069178 -0.081588 -0.004729 0.003877
1.363817 0.700733 0.953006 -0.081593 -0.006184 0.005063
1.331999 0.287412 0.389925 -0.070688 -0.007992 0.005275
1.395635 0.729157 0.312477 -0.081591 -0.005699 -0.004668
1.586541 0.899706 0.080133 -0.081591 -0.011155 -0.009075
1.586541 0.899706 1.224074 -0.081591 -0.011155 0.009075
1.540635 0.749218 0.300845 -0.070689 0.006183 0.004091
3.001086 0.395022 0.646280 0.000000 -0.997138 -0.000001
0.112726 0.482019 0.579277 -0.297283 0.000000 -0.000031
2.731750 0.408247 0.697965 -0.000000 -0.836951 0.000006
2.117666 0.479309 0.567074 0.000000 -0.029510 -0.000005
0.846404 0.507543 0.571695 0.000001 0.326536 -0.000012
3.539756 0.509473 0.731828 0.000000 0.362051 0.000175
1.762144 0.430539 0.582825 0.000001 -0.570104 -0.000024
3.108820 0.434197 0.723846 0.000000 -0.546334 0.000026
3.485889 0.564696 0.657967 -0.000001 0.997133 0.000003
3.378155 0.432844 0.581243 0.000000 -0.546267 -0.000052
0.792537 0.530770 0.583989 -0.000001 0.594565 -0.000023
2.300814 0.547362 0.600374 -0.000001 0.783211 -0.000007
3.604396 0.474979 0.567202 -0.000000 -0.029900 -0.000019
3.432022 0.558119 0.618835 0.000000 0.920823 -0.000007
0.361601 0.432252 0.722574 -0.000000 -0.570870 0.000049
3.215195 0.421663 0.733433 0.000000 -0.591733 0.000084
3.108820 0.550785 0.699021 -0.000000 0.837563 0.000022
1.546676 0.409884 0.603785 -0.000000 -0.820971 -0.000012
2.570149 0.444287 0.729343 0.000000 -0.416723 0.000037
3.270421 0.562076 0.630373 0.000001 0.965365 -0.000002
0.738670 0.435939 0.579286 -0.000001 -0.521048 -0.000056
2.898738 0.394822 0.652655 0.000000 -0.999891 0.000000
0.738670 0.564794 0.655882 0.000000 0.999564 0.000000
0.684803 0.557247 0.616853 0.000000 0.909067 -0.000031
2.516282 0.531276 0.719844 -0.000000 0.594902 0.000006
1.977612 0.421309 0.713773 0.000000 -0.685943 0.000018
1.392257 0.481120 0.737113 0.000000 0.029510 0.000038
3.578238 0.647369 0.878571 0.005802 -0.074800 0.004153
1.698146 0.154057 0.215652 0.061274 -0.015545 0.011062
1.698146 0.154057 1.088555 0.061273 -0.007774 -0.005661
1.607734 0.583970 0.777154 0.061274 0.015302 -0.010899
1.628031 0.730497 1.010515 0.070767 -0.008414 0.006133
0.577069 0.552247 0.607477 0.000000 0.853359 -0.000021
1.342473 0.332349 0.845279 -0.070686 -0.004449 -0.002949
1.273918 0.562566 0.547725 -0.070690 0.009802 0.006448
0.630936 0.547834 0.703203 0.000001 0.800432 0.000006
2.031479 0.527371 0.581566 0.000000 0.570665 -0.000006
0.469335 0.552042 0.607141 -0.000001 0.852983 -0.000021
1.714138 0.285112 0.380154 0.070765 0.009465 -0.006887
3.386891 0.345002 0.834804 0.005802 0.087971 0.004163
1.816011 0.551898 0.697302 0.000000 0.853329 0.000005
2.300814 0.412870 0.599724 0.000000 -0.785736 -0.000027
3.162687 0.538239 0.590272 -0.000000 0.685820 -0.000036
1.816011 0.408677 0.698625 -0.000000 -0.835479 0.000003
3.162687 0.408526 0.605813 -0.000000 -0.837579 -0.000044
2.246947 0.396442 0.668616 -0.000000 -0.981482 0.000003
1.316090 0.301625 0.894920 -0.070688 -0.017188 -0.011094
0.361601 0.418895 0.592809 0.000001 -0.695582 -0.000004
0.684803 0.525854 0.723631 -0.000000 0.546301 0.000104
1.061872 0.423869 0.716109 -0.000000 -0.663275 0.000010
2.408548 0.545699 0.598275 -0.000001 0.766450 -0.000014
2.516282 0.426032 0.717942 -0.000000 -0.641411 0.000020
0.954138 0.435200 0.579737 0.000000 -0.521048 -0.000028
1.540635 0.749218 1.003362 -0.070688 0.006183 -0.004091
0.846404 0.396053 0.666526 -0.000000 -0.986627 0.000003
3.139344 0.483403 0.737045 -0.000008 0.002264 0.000250
0.600412 0.483481 0.737043 0.000000 0.029894 0.000019
3.528355 0.587139 0.801581 0.005802 0.190950 -0.004501
2.408548 0.413820 0.598517 0.000000 -0.785786 -0.000027
1.546676 0.409660 0.700100 -0.000000 -0.821020 0.000012
0.147091 0.399809 0.637717 -0.155223 -0.000269 -0.000040
0.954138 0.561242 0.676791 0.000000 0.960663 0.000002
2.839484 0.412821 0.704422 -0.000001 -0.785146 0.000013
1.923745 0.453822 0.733056 -0.000001 -0.304117 0.000013
0.900271 0.395829 0.639042 0.000000 -0.986612 -0.000003
1.678465 0.203646 0.285251 0.061274 -0.008745 0.006355
3.687409 0.581737 0.515050 -0.013409 -0.035090 -0.009271
1.223474 0.439739 0.727081 -0.000001 -0.469519 0.000032
3.697459 0.518101 0.703333 0.130664 0.000172 0.000235
0.900271 0.563166 0.635011 0.000002 0.882383 -0.000001
0.361601 0.545949 0.598579 0.000002 0.633637 -0.000002
1.869878 0.493000 0.736122 -0.000001 0.162109 0.000207
1.705527 0.006824 -0.000000 -0.000000 -0.591733 -0.000638
1.705527 0.006824 1.304207 0.000000 -0.591730 0.000638
3.216554 0.528406 0.721922 0.000000 0.570920 0.000012
0.523202 0.525656 0.723760 0.000001 0.545800 0.000026
1.459613 0.619844 0.866848 -0.081591 -0.013337 0.010808
2.139213 0.542819 0.709273 0.000000 0.746794 0.000008
2.193080 0.395500 0.641381 0.000000 -0.991101 -0.000005
1.516092 0.386632 0.809493 0.070766 0.005048 0.003696
1.516092 0.573089 0.494715 0.070766 -0.005048 -0.003696
0.577069 0.414856 0.706929 -0.000000 -0.767039 0.000028
1.169607 0.433339 0.580920 -0.000000 -0.546356 -0.000013
3.669235 0.562826 0.620639 -0.162382 0.000321 -0.000103
3.216554 0.509176 0.572274 0.000000 0.332841 -0.000012
2.246947 0.518903 0.576553 -0.000001 0.457329 -0.000008
3.270421 0.410604 0.602750 -0.000000 -0.820971 -0.000012
0.415468 0.550398 0.699614 -0.000000 0.837370 0.000003
1.277341 0.411417 0.601637 0.000000 -0.803649 -0.000013
1.719058 0.249983 0.332887 0.070766 0.008624 -0.006284
2.139213 0.527759 0.581836 -0.000001 0.570768 -0.000049
0.577069 0.427202 0.585333 -0.000000 -0.618471 -0.000043
3.539756 0.401570 0.685300 -0.000000 -0.920957 0.000014
1.366079 0.623094 0.468393 -0.070688 0.008897 0.005863
1.137286 0.477656 0.567123 -0.000000 -0.029516 -0.000019
1.546676 0.553694 0.609915 -0.000001 0.868068 -0.000010
2.408548 0.431024 0.721720 -0.000000 -0.570873 0.000006
1.331208 0.453935 0.571115 0.000001 -0.306048 -0.000053
1.977612 0.412285 0.600467 -0.000000 -0.769451 -0.000002
2.300814 0.444180 0.729293 -0.000000 -0.416668 0.000037
0.253867 0.426243 0.718119 -0.000000 -0.641528 0.000162
2.408548 0.526085 0.723481 -0.000000 0.545945 0.000013
2.193080 0.564643 0.645534 0.000000 0.997242 -0.000001
2.624016 0.428254 0.719703 0.000000 -0.618527 0.000043
0.469335 0.413089 0.599445 -0.000000 -0.785774 -0.000053
0.253867 0.414679 0.597490 -0.000001 -0.767019 -0.000057
1.500124 0.283260 0.941029 -0.081589 0.011398 0.009269
0.307734 0.452697 0.571513 0.000000 -0.306450 -0.000013
1.342473 0.332349 0.458928 -0.070688 -0.017791 0.011460
1.204728 0.401111 0.544821 -0.070687 -0.009802 0.006448
0.490882 0.483796 0.737033 0.000000 0.029900 0.000019
2.031479 0.549049 0.701555 -0.000000 0.819832 0.000006
1.346389 0.383033 0.768462 -0.070684 -0.003676 -0.002438
3.001086 0.455022 0.733442 0.000000 -0.306450 0.000026
0.630936 0.414022 0.598275 0.000001 -0.749798 -0.000004
3.230949 0.568237 0.532873 0.005801 -0.196295 -0.004271
2.624016 0.547313 0.600312 0.000000 0.785793 -0.000003
1.705527 0.397663 0.771753 0.070765 0.005469 0.004003
2.139213 0.431832 0.581926 0.000000 -0.571009 -0.000012
2.570149 0.508137 0.732302 -0.000000 0.334190 0.000096
1.628031 0.745587 0.304770 0.061275 0.009717 0.007045
1.492809 0.406960 0.608317 0.000000 -0.853396 -0.000021
3.054953 0.551603 0.606440 0.000000 0.837483 -0.000006
1.115740 0.395276 0.643338 -0.000000 -0.994441 -0.000001
1.654410 0.548327 0.702539 0.000001 0.803520 0.000025
0.792537 0.395370 0.642437 -0.000000 -0.994609 -0.000000
0.104342 0.549746 0.656251 -0.329815 0.000053 0.000002
3.432022 0.529311 0.721293 -0.000001 0.567019 0.000012
0.121203 0.455706 0.723550 -0.255969 -0.000054 0.000144
3.496662 0.475294 0.737015 0.000000 -0.029516 0.000038
3.791083 0.318216 0.872317 -0.013409 -0.093520 -0.009736
1.923745 0.552432 0.696428 -0.000001 0.839790 0.000003
1.977612 0.564147 0.640835 -0.000000 0.985019 -0.000001
1.223474 0.550742 0.699087 0.000000 0.837539 0.000011
2.839484 0.504699 0.570765 0.000000 0.306107 -0.000026
1.923745 0.540882 0.592865 -0.000000 0.727741 -0.000064
1.869878 0.406300 0.609436 -0.000000 -0.868480 -0.000019
0.289778 0.564766 0.647380 0.000000 0.999564 -0.000000
2.246947 0.530770 0.720219 0.000000 0.594902 0.000011
2.677883 0.409322 0.604593 0.000000 -0.837596 -0.000006
0.413673 0.481829 0.567087 -0.000008 0.000811 -0.000698
1.385075 0.408376 0.606044 0.000000 -0.835479 -0.000003
1.650176 0.956555 0.002685 0.000000 0.591735 -0.000638
1.650176 0.956555 1.301522 0.000001 0.591732 0.000638
1.533313 0.410245 0.528949 0.070765 0.010096 -0.007337
0.129763 0.513270 0.722239 -0.222631 0.000082 0.000159
1.600543 0.411136 0.602017 0.000000 -0.803798 -0.000006
1.636027 0.686540 0.949673 0.070766 -0.004628 0.003390
1.665183 0.394833 0.651474 0.000000 -0.999564 -0.000000
0.792537 0.517495 0.728359 -0.000001 0.442523 0.000034
1.574522 0.589413 0.824726 0.070765 -0.013250 0.009561
2.893352 0.549319 0.701167 0.000000 0.821032 0.000012
3.230949 0.391483 0.532873 0.005801 0.196295 -0.004271
1.061872 0.527371 0.722642 -0.000000 0.570851 0.000049
1.394606 0.626772 0.837698 -0.070688 0.008596 -0.005667
1.277341 0.408204 0.697899 0.000000 -0.837370 0.000001
3.669235 0.469165 0.740189 -0.145463 -0.000006 0.000377
3.485889 0.506273 0.571272 -0.000000 0.306234 -0.000211
1.600543 0.497069 0.735387 0.000000 0.191457 0.000087
1.607734 0.393007 0.514386 0.070766 0.013250 -0.009561
3.378155 0.546217 0.705288 0.000000 0.785805 0.000027
2.246947 0.441943 0.575988 -0.000000 -0.443380 -0.000017
1.666164 0.063647 0.095802 0.061274 -0.019429 0.013597
1.666164 0.063647 1.208406 0.061273 -0.019430 -0.013597
1.437094 0.405314 0.519963 -0.081591 0.012761 -0.010353
2.031479 0.451954 0.732433 0.000000 -0.334289 0.000096
1.410514 0.318737 0.857060 -0.070689 -0.008595 -0.005667
3.773189 0.715191 0.330346 0.005803 0.145016 0.004443
3.601206 0.329800 0.853932 0.005800 0.074822 0.004151
2.893352 0.552925 0.608586 0.000000 0.853427 -0.000010
0.954138 0.525392 0.580275 0.000000 0.545213 -0.000013
1.560375 0.542824 0.762952 0.070768 -0.005048 0.003696
1.528393 0.673307 0.890630 -0.070689 0.007389 -0.004881
3.054953 0.549903 0.700326 0.000000 0.820712 0.000012
1.331208 0.404809 0.612122 -0.000000 -0.882348 -0.000005
2.467802 0.564874 0.651002 0.000000 0.999553 -0.000000
1.552063 0.479703 0.567062 -0.000000 -0.029451 -0.000038
2.785617 0.551775 0.697503 0.000000 0.853424 0.000021
3.623684 0.553958 0.554051 -0.013408 -0.027305 -0.008905
1.668624 0.255089 0.947853 0.061273 -0.005345 -0.003908
3.593623 0.395162 0.644434 -0.000000 -0.994014 -0.000001
3.696478 0.400751 0.545633 -0.013409 0.058388 -0.009689
1.574853 0.837641 0.172088 -0.070688 0.017490 0.011277
3.795132 0.205836 1.025417 0.005801 -0.097597 -0.004397
3.795132 0.205836 0.278791 0.005801 -0.097600 0.004397
3.216554 0.408462 0.605912 0.000000 -0.837350 -0.000006
1.574853 0.830030 1.137706 -0.081589 -0.007518 0.006147
3.661427 0.635667 0.867258 0.005802 0.073435 -0.004377
1.738740 0.136115 0.180120 0.070765 0.005259 -0.003850
1.738740 0.136115 1.124087 0.070767 0.005259 0.003849
0.684803 0.438082 0.726172 0.000001 -0.495553 0.000059
2.293632 0.564878 0.651159 0.000000 0.999564 -0.000000
2.300814 0.509694 0.731742 0.000000 0.362036 0.000044
0.792537 0.445039 0.729687 0.000000 -0.416741 0.000037
3.378155 0.400635 0.621206 -0.000000 -0.932157 -0.000026
1.392086 0.671859 0.921487 -0.081589 -0.006427 0.005261
2.334930 0.480962 0.567090 0.000000 0.029516 -0.000019
1.719058 0.709738 0.971321 0.070765 -0.008624 0.006284
1.719058 0.709738 0.332887 0.070766 -0.008624 -0.006284
0.307734 0.448118 0.731001 -0.000000 -0.361870 0.000022
1.606504 0.630836 0.463333 0.061273 0.006438 0.004700
1.769492 0.761135 1.035295 0.070764 -0.013881 0.010000
1.769492 0.761135 0.268913 0.070766 -0.013881 -0.010000
3.668058 0.686545 0.369373 0.005800 0.097628 0.004396
1.736895 0.629447 0.444408 0.070767 -0.002787 -0.002044
3.432022 0.524991 0.580025 0.000000 0.520789 -0.000014
1.331208 0.549454 0.603235 -0.000000 0.821008 -0.000024
3.369383 0.590001 0.800400 0.005802 -0.087972 0.004162
3.190626 0.370555 0.503193 0.005801 -0.146421 0.004443
2.839484 0.410334 0.603138 -0.000000 -0.821040 -0.000012
3.324288 0.409592 0.700002 0.000001 -0.730328 0.000002
3.304574 0.537640 0.570467 -0.000001 0.591682 -0.000140
3.519042 0.580512 0.511510 0.005803 0.097573 0.004398
3.734469 0.425281 0.568563 -0.166987 -0.000200 -0.000297
1.721518 0.409396 0.561085 0.061274 -0.006316 0.004612
3.717308 0.675429 0.920560 0.005801 0.190961 -0.004500
3.456938 0.357524 0.487621 0.005802 0.205815 -0.004285
3.773189 0.244529 0.330346 -0.013410 -0.023526 0.008492
3.668058 0.687649 0.934024 0.005800 -0.099438 0.004170
3.611152 0.255968 0.347087 0.005802 -0.097586 0.004398
1.600543 0.409064 0.699219 -0.000000 -0.837581 0.000011
3.673929 0.551569 0.556148 -0.013410 -0.115855 -0.009954
1.578827 0.648263 0.861744 0.061275 0.005830 -0.004260
2.562967 0.564864 0.650687 0.000000 0.999553 -0.000000
1.639102 0.338356 0.831353 0.061273 -0.003219 -0.002360
1.392658 0.539731 0.543569 -0.081590 -0.012762 -0.010353
1.438942 0.410109 0.700746 -0.000001 -0.820586 0.000012
1.491490 0.530685 0.754674 0.070764 -0.010096 0.007337
1.437094 0.581619 0.539938 -0.070688 0.015870 0.010285
2.947218 0.430090 0.583145 -0.000000 -0.594794 -0.000023
1.491490 0.560341 0.571303 0.061274 0.011660 0.008408
2.893352 0.463966 0.568564 0.000001 -0.191359 -0.000087
2.139213 0.398956 0.678292 -0.000000 -0.951539 0.000003
0.200000 0.523109 0.578875 0.015808 0.000736 -0.001203
3.308940 0.400247 0.762754 0.005802 -0.074138 -0.004378
3.734469 0.499903 0.606411 1.000000 0.000000 0.000000
3.734469 0.432240 0.637209 1.000000 0.000000 -0.000000
3.734469 0.529755 0.652104 1.000000 0.000000 0.000000
3.734469 0.482609 0.701923 1.000000 0.000000 0.000000
1.437094 0.554407 0.784244 -0.081589 -0.012762 0.010353
1.459270 0.173714 1.069178 -0.070690 -0.011159 -0.007321
1.459270 0.173714 0.235029 -0.070688 -0.005580 0.003694
3.539756 0.424340 0.587680 0.000000 -0.664270 -0.000005
1.923745 0.443285 0.575324 0.000000 -0.443577 -0.000009
0.684803 0.524352 0.579635 -0.000000 0.521209 -0.000111
2.624016 0.452772 0.571489 -0.000001 -0.303775 -0.000027
1.495203 0.272451 0.388302 -0.070688 -0.007389 0.004881
1.521012 0.351643 0.503208 0.061275 -0.011660 0.008408
1.682155 0.868634 1.172683 0.061274 0.005830 -0.004261
1.682155 0.868634 0.131525 0.061273 0.011660 0.008408
3.551955 0.319513 0.435393 0.005801 0.171361 -0.004240
2.864622 0.564846 0.650057 0.000000 0.999564 -0.000000
1.169607 0.553401 0.694805 0.000000 0.868499 0.000019
3.605301 0.389484 0.532453 -0.013409 0.027304 -0.008905
1.505044 0.703182 0.938604 -0.070689 0.007088 -0.004684
0.100188 0.411383 0.652104 -0.345968 -0.000050 0.000001
2.785617 0.448485 0.573064 0.000000 -0.362002 -0.000087
1.115740 0.443893 0.729162 -0.000001 -0.416616 0.000148
1.420870 0.258062 0.342713 -0.081591 0.005942 -0.004866
1.420870 0.258062 0.961494 -0.081590 0.011883 0.009655
3.659835 0.356051 0.823378 -0.013410 -0.029401 -0.008895
0.038190 0.479860 0.686761 -0.594206 0.000001 0.000013
1.061872 0.525788 0.580533 0.000001 0.525101 -0.000003
3.343100 0.376881 0.513564 0.005802 0.149120 -0.004216
3.690979 0.390128 0.629987 -0.166822 -0.001374 -0.000252
3.734469 0.427603 0.737116 -0.172881 -0.000177 0.000297
3.734469 0.522448 0.742349 -0.168435 0.000156 0.000319
3.734469 0.380109 0.654853 -0.190797 -0.000313 0.000004
0.138395 0.526300 0.587382 -0.189036 0.000132 -0.000173
1.479189 0.365973 0.777139 0.061274 -0.011660 -0.008408
1.277341 0.507692 0.732460 0.000000 0.334299 0.000096
1.099579 0.564836 0.649742 0.000000 0.999564 -0.000000
3.669235 0.469165 0.564019 -0.145465 -0.000006 -0.000377
2.731750 0.559385 0.682231 0.000001 0.930445 0.000003
3.270421 0.448925 0.572893 0.000000 -0.362108 -0.000044
2.751502 0.477813 0.737089 0.000000 -0.029894 0.000019
2.031479 0.440608 0.576664 -0.000000 -0.469656 -0.000032
1.654410 0.552227 0.607443 0.000001 0.779471 -0.000001
3.456082 0.388739 0.779444 0.005802 -0.202047 -0.004517
2.527056 0.394861 0.653678 0.000000 -0.999559 0.000000
1.738801 0.480333 0.567071 -0.000000 0.028811 -0.000020
2.816142 0.564836 0.649742 0.000000 0.999564 -0.000000
1.392086 0.280906 0.387825 -0.070688 -0.015983 0.010355
3.457795 0.629251 0.856782 0.005803 0.097575 -0.004398
3.400032 0.617324 0.840398 0.005799 0.086400 -0.004386
3.427172 0.306100 0.415384 0.005802 -0.097584 0.004398
3.324288 0.563249 0.668771 0.000000 0.981506 0.000007
0.253867 0.524117 0.724716 0.000000 0.521208 0.000111
3.731158 0.367029 0.806686 -0.013410 -0.029402 -0.008895
0.684803 0.396321 0.636209 0.000000 -0.981501 -0.000003
1.239323 0.556323 0.761065 -0.081588 -0.007882 0.006442
0.182292 0.397217 0.672074 -0.018525 -0.002357 0.000492
1.744275 0.682140 0.373507 0.070766 -0.008624 -0.006284
1.688306 0.771986 1.041654 0.061273 0.017487 -0.012345
1.223474 0.396517 0.635204 -0.000000 -0.981501 -0.000003
1.331999 0.672308 0.389925 -0.081591 -0.006669 -0.005458
1.420870 0.701659 0.342713 -0.081589 -0.011883 -0.009655
2.300814 0.395166 0.644395 -0.000001 -0.992528 -0.000001
1.727669 0.902233 0.071675 0.070765 -0.014302 -0.010291
1.727669 0.902233 1.232532 0.070766 -0.014302 0.010291
1.688306 0.763325 0.256196 0.070766 -0.013881 -0.010000
1.446105 0.687020 0.921818 -0.070688 0.007389 -0.004881
1.395635 0.729157 0.991730 -0.081590 -0.005699 0.004668
3.324288 0.497608 0.735274 0.000001 0.220352 0.000150
1.515175 0.798163 1.091196 -0.081587 -0.004244 0.003480
1.515175 0.798163 0.213012 -0.081589 -0.004244 -0.003480
0.954138 0.461190 0.735066 -0.000001 -0.220221 0.000075
1.618190 0.238927 0.339569 0.061275 -0.005344 0.003908
0.200000 0.443285 0.575324 0.015805 -0.000626 -0.001265
1.744188 0.480333 0.737136 0.000000 0.029894 0.000019
0.304143 0.394844 0.650056 -0.000000 -0.999891 -0.000000
3.590867 0.678469 0.382255 0.005800 -0.062436 -0.004140
1.277341 0.511382 0.573121 0.000000 0.361716 -0.000005
3.539756 0.525656 0.580447 -0.000000 0.546356 -0.000026
1.654410 0.510208 0.572665 -0.000000 0.361990 -0.000087
3.485889 0.410716 0.701619 0.000000 -0.821005 0.000003
1.708277 0.553635 0.609813 0.000000 0.868494 -0.000010
1.600543 0.508211 0.571932 -0.000000 0.334274 -0.000048
1.600603 0.861204 0.125212 -0.081590 -0.013095 -0.010617
1.600603 0.861204 1.178996 -0.081590 -0.013095 0.010617
3.518185 0.404055 0.750881 0.005802 0.076196 0.004153
1.606504 0.337389 0.438469 0.070766 0.005574 -0.004079
1.728899 0.779996 1.065856 0.070767 -0.006941 0.005071
1.728899 0.779996 0.238352 0.070765 -0.006941 -0.005071
3.290172 0.394928 0.655961 0.000000 -0.999565 0.000000
3.532303 0.277453 0.376357 0.005803 -0.073423 0.004378
2.085346 0.416195 0.708478 0.000000 -0.747740 0.000030
1.923745 0.394889 0.654623 0.000000 -0.999559 0.000000
1.296392 0.597108 0.805613 -0.070686 0.007352 -0.004857
3.378155 0.454647 0.733321 0.000001 -0.306145 0.000106
3.216554 0.403220 0.688962 0.000000 -0.896217 0.000008
1.762144 0.554986 0.612261 0.000001 0.880375 -0.000005
1.590762 0.115478 0.147139 -0.081590 0.013095 -0.010617
1.590762 0.115478 1.157068 -0.081590 0.013095 0.010617
2.085346 0.560282 0.679750 0.000000 0.942475 0.000012
3.669235 0.401292 0.693340 -0.165088 -0.000288 0.000165
1.517919 0.259192 0.331570 -0.081591 0.005214 -0.004273
3.251110 0.557774 0.756495 0.005802 -0.063018 0.004142
2.961583 0.564820 0.649191 0.000000 0.999564 -0.000000
1.331208 0.501019 0.569741 -0.000000 0.249317 -0.000033
1.977612 0.518973 0.727618 0.000000 0.469773 0.000032
3.586919 0.586515 0.510855 0.005801 -0.099429 -0.004171
1.498871 0.625572 0.822536 -0.070688 0.016586 -0.010725
2.031479 0.394931 0.656040 0.000000 -0.999559 0.000000
1.638487 0.690781 0.349053 0.070765 -0.009255 -0.006736
0.702759 0.483403 0.737045 -0.000000 0.030266 0.000019
1.415072 0.445540 0.571797 -0.081590 0.009094 -0.007421
3.673929 0.551569 0.748059 -0.013409 -0.058385 0.009690
2.478575 0.481277 0.737108 -0.000000 0.029894 0.000019
2.221809 0.480647 0.567081 0.000000 0.029894 -0.000076
2.516282 0.519077 0.576645 -0.000000 0.466993 -0.000008
1.568271 0.788147 0.245768 -0.070688 0.005278 0.003496
0.469335 0.403779 0.690091 0.000000 -0.896324 0.000034
2.749706 0.394875 0.650057 -0.000000 -0.999564 -0.000000
3.578751 0.617228 0.462214 0.005802 0.168199 0.004470
3.528988 0.657657 0.893454 0.005802 -0.147747 0.004214
0.954138 0.396846 0.670543 0.000000 -0.975370 0.000002
0.577069 0.517954 0.576075 0.000000 0.443415 -0.000034
1.568271 0.774106 1.068746 -0.081591 -0.004244 0.003480
1.385075 0.405382 0.693163 0.000000 -0.882782 0.000002
3.734469 0.519945 0.560719 -0.169614 0.000137 -0.000325
1.555455 0.425378 0.751988 0.070766 0.005048 0.003696
2.124849 0.479860 0.737150 0.000000 0.030266 0.000075
1.578111 0.168652 0.213534 -0.081590 0.004244 -0.003480
1.578111 0.168652 1.090674 -0.081593 0.004244 0.003480
2.677883 0.516789 0.728709 -0.000000 0.443415 0.000034
0.900271 0.438459 0.726386 -0.000001 -0.472081 0.000004
1.723979 0.232619 0.994386 0.070765 0.007783 0.005679
2.193080 0.440435 0.727451 0.000000 -0.468661 0.000008
3.270421 0.454347 0.733225 0.000001 -0.305519 0.000026
0.900271 0.524924 0.724224 -0.000000 0.521603 0.000007
0.533976 0.394836 0.650607 -0.000000 -0.998439 -0.000000
1.518552 0.302325 0.867932 0.061274 -0.011660 -0.008408
3.054953 0.446519 0.730332 0.000001 -0.389179 0.000040
1.837558 0.479860 0.567057 0.000000 0.029516 -0.000153
3.399175 0.369580 0.503910 0.005802 0.172937 -0.004242
3.369383 0.590001 0.503807 0.005802 -0.172937 -0.004242
2.516282 0.443428 0.575258 -0.000000 -0.416384 -0.000019
3.304532 0.599559 0.488303 0.005800 0.061880 0.004365
3.748926 0.660890 0.404323 -0.013409 0.070346 0.009633
1.508711 0.613664 0.438553 0.070765 -0.002787 -0.002044
1.252455 0.358474 0.817472 -0.070688 -0.009802 -0.006448
3.001086 0.551517 0.697899 -0.000000 0.837065 0.000006
0.388535 0.564780 0.656355 0.000000 0.999564 0.000000
1.637872 0.189338 0.269970 0.061274 -0.008745 0.006355
1.479189 0.593748 0.527068 -0.070689 0.017791 0.011460
1.816011 0.518130 0.728045 0.000000 0.443350 0.000069
0.514224 0.483796 0.567174 0.000004 0.008062 -0.000140
1.682155 0.100404 1.179522 0.070761 0.005049 0.003697
1.682155 0.100404 0.124686 0.070762 0.005049 -0.003696
0.087892 0.437029 0.698923 -0.385906 -0.000055 0.000064
1.546676 0.558610 0.684211 0.000001 0.914497 0.000004
2.947218 0.507469 0.732539 -0.000000 0.329358 0.000006
0.307734 0.556837 0.688249 0.000000 0.908802 0.000008
1.578827 0.627923 0.427533 0.070767 -0.002524 -0.001852
0.480109 0.564783 0.656276 0.000000 0.999564 0.000000
3.487561 0.578931 0.783734 0.005803 -0.205786 0.004285
3.311719 0.478206 0.567082 -0.000000 -0.014376 -0.000079
1.438942 0.563482 0.636635 -0.000000 0.981385 -0.000002
3.744736 0.723795 0.985004 0.005800 0.097621 -0.004396
2.785617 0.553713 0.609950 -0.000001 0.868348 -0.000019
1.169607 0.400649 0.683039 -0.000000 -0.932151 0.000013
1.704297 0.355370 0.829518 0.070766 0.002787 0.002044
1.672929 0.573911 0.770214 0.061274 0.015302 -0.010899
1.705527 0.562057 0.532455 0.070768 -0.005469 -0.004002
1.385075 0.437911 0.726074 -0.000000 -0.495067 0.000015
1.740597 0.394828 0.651631 0.000000 -0.999559 -0.000000
1.268363 0.564855 0.650372 0.000000 0.999564 -0.000000
2.839484 0.524151 0.724696 0.000000 0.521172 0.000056
2.387002 0.480805 0.737122 0.000000 0.029516 0.000019
1.476649 0.394837 0.651316 0.000000 -0.999564 -0.000000
1.816011 0.442296 0.728394 0.000000 -0.443241 0.000009
1.566427 0.394837 0.651316 0.000002 -0.456600 -0.000000
3.647490 0.406632 0.608855 -0.165087 -0.000288 -0.000165
0.253867 0.506836 0.571453 0.000001 0.306048 -0.000053
3.593623 0.438801 0.726582 0.000000 -0.495568 0.000007
0.630936 0.558786 0.620435 0.000000 0.931983 -0.000007
1.340330 0.366751 0.510454 -0.070688 -0.014701 0.009560
1.385075 0.552760 0.695890 -0.000000 0.853460 0.000005
0.096061 0.530517 0.695760 -0.354005 0.000072 0.000058
2.586309 0.478443 0.567099 0.000000 -0.029516 -0.000019
1.714138 0.288089 0.907617 0.061274 -0.010931 -0.007900
1.487249 0.660873 0.383823 -0.081590 -0.006184 -0.005063
1.518552 0.329095 0.416625 0.070765 0.010096 -0.007337
1.714138 0.647960 0.887749 0.070766 -0.004733 0.003466
1.723979 0.218881 0.301284 0.061274 -0.008988 0.006528
1.741815 0.312910 0.882864 0.070766 0.009465 0.006887
2.893352 0.462189 0.735291 0.000000 -0.220574 0.000038
3.054953 0.444216 0.574897 0.000001 -0.413331 -0.000019
2.085346 0.400464 0.621646 0.000000 -0.932093 -0.000007
2.193080 0.517883 0.728167 0.000000 0.442836 0.000017
1.352449 0.541215 0.757258 -0.081590 -0.005912 0.004841
3.560123 0.352848 0.822099 0.005800 0.087167 0.004161
3.054953 0.515684 0.574980 0.000000 0.416329 -0.000005
3.506789 0.327342 0.442804 0.005803 -0.042950 0.004340
0.738670 0.400193 0.681864 0.000000 -0.932161 0.000003
3.108820 0.517636 0.728290 0.000000 0.443349 0.000069
1.459507 0.430865 0.548191 0.070765 0.010096 -0.007337
1.573907 0.328296 0.838294 0.061274 -0.006438 -0.004700
1.392086 0.280906 0.916382 -0.070688 -0.007992 -0.005275
1.371257 0.656646 0.885671 -0.070689 0.008595 -0.005667
1.869878 0.554634 0.611600 -0.000001 0.882404 -0.000018
3.374606 0.639297 0.434897 0.005802 0.086360 0.004388
1.575137 0.589000 0.523583 0.061277 0.008745 0.006355
1.673545 0.407022 0.741380 0.061275 -0.015302 -0.010899
3.174873 0.398784 0.761680 0.005802 0.149128 0.004215
3.332570 0.603907 0.820220 0.005799 -0.075553 0.004151
0.386739 0.475452 0.737019 0.000000 -0.029516 0.000019
0.523202 0.439148 0.726767 0.000000 -0.469583 0.000016
1.415072 0.514180 0.571797 0.000000 -0.591730 0.001995
1.737510 0.378069 0.794613 0.070767 0.010937 0.007935
1.737510 0.581652 0.509595 0.070765 -0.010937 -0.007935
1.737510 0.378069 0.509595 0.070764 0.005469 -0.004003
1.737510 0.546121 0.746208 0.070765 -0.010937 0.007935
1.977612 0.502277 0.570065 0.000000 0.277819 -0.000015
3.687775 0.336169 0.454179 -0.013410 -0.029402 0.008895
1.441699 0.730257 0.316722 -0.070687 0.013571 0.008852
1.441699 0.724352 0.991820 -0.081591 -0.005457 0.004470
3.001086 0.555004 0.612296 -0.000000 0.882690 -0.000009
0.241298 0.564762 0.647223 0.000000 0.999553 -0.000000
1.258009 0.411366 0.737120 -0.070688 -0.009802 -0.006448
3.734469 0.438858 0.680534 1.000000 0.000000 0.000000
1.223474 0.550936 0.605418 0.000000 0.836804 -0.000006
3.054953 0.516647 0.728778 -0.000000 0.431628 0.000004
0.560909 0.564790 0.648168 0.000000 0.916350 -0.000000
1.631106 0.280222 0.394487 0.061275 -0.005830 0.004260
3.485889 0.403866 0.613940 -0.000000 -0.896319 -0.000034
1.383693 0.575254 0.802746 -0.081591 -0.012761 0.010353
0.307734 0.553128 0.608923 0.000001 0.868457 -0.000039
3.605546 0.599493 0.811323 0.005800 -0.171394 0.004239
1.340330 0.592969 0.510454 -0.070686 0.003676 0.002438
3.690979 0.512632 0.565692 -0.166823 0.000416 -0.001333
1.522839 0.250711 0.983601 -0.081591 0.010428 0.008493
1.454693 0.611363 0.448324 -0.081590 -0.006669 -0.005458
1.459613 0.339876 0.437360 -0.081590 0.013337 -0.010808
3.424602 0.390577 0.533538 0.005802 0.205812 -0.004285
1.438942 0.404957 0.611844 -0.000000 -0.882398 -0.000005
3.479738 0.667944 0.395870 0.005800 0.085560 0.004386
3.453454 0.298938 0.898580 0.005801 -0.085551 -0.004387
1.268364 0.344262 0.467373 -0.070688 -0.009802 0.006448
1.268364 0.615459 0.467373 -0.081589 -0.005912 -0.004841
3.542129 0.298483 0.898332 0.005802 0.074807 0.004152
1.714138 0.662748 0.408691 0.061274 0.010931 0.007900
3.426315 0.335234 0.850155 0.005802 -0.202044 -0.004517
3.386891 0.345002 0.469403 0.005803 0.087954 -0.004163
3.426315 0.625461 0.454768 0.005801 -0.205837 -0.004284
2.731750 0.440191 0.727322 0.000000 -0.469734 0.000032
1.737510 0.413599 0.746208 0.070765 0.010937 0.007935
1.577597 0.206854 0.300086 0.061274 -0.019429 0.013597
1.577597 0.206854 1.004122 0.061274 -0.019429 -0.013597
3.174873 0.560100 0.541913 0.005802 0.146396 0.004444
1.237838 0.481592 0.567109 -0.000004 0.007543 -0.000150
0.415468 0.517283 0.728464 -0.000000 0.443087 0.000034
0.147091 0.560623 0.642484 -0.155054 0.000547 -0.000035
1.541924 0.344479 0.812929 0.061274 -0.017487 -0.012345
1.541924 0.615241 0.491278 0.061274 0.017487 0.012345
1.400041 0.678966 0.373039 -0.081592 -0.006184 -0.005063
1.470483 0.754151 1.031827 -0.081591 -0.004972 0.004075
1.470483 0.754151 0.272381 -0.081591 -0.004972 -0.004075
3.399702 0.478443 0.567078 0.000000 -0.015135 -0.000075
1.762144 0.557083 0.687712 -0.000001 0.908524 0.000008
2.085346 0.562272 0.631136 0.000000 0.968271 -0.000004
2.214627 0.479388 0.737136 0.000000 -0.029521 0.000010
1.623885 0.564902 0.652261 0.000000 0.999564 0.000000
0.738670 0.514502 0.574438 -0.000000 0.416010 -0.000019
0.630936 0.514144 0.729933 -0.000000 0.416707 0.000009
3.486705 0.550772 0.559858 0.005802 -0.076193 -0.004154
1.385075 0.522083 0.725918 -0.000000 0.495504 0.000030
1.528393 0.286413 0.413577 0.061274 -0.011660 0.008408
1.528393 0.312133 0.909510 0.070765 0.010096 0.007337
1.558530 0.668741 0.416671 0.061275 0.005830 0.004260
1.698146 0.805663 0.215652 0.061273 0.007774 0.005661
2.498327 0.481435 0.567104 0.000000 0.029516 -0.000019
2.408548 0.554986 0.691947 -0.000000 0.882786 0.000005
1.727669 0.035260 0.050748 0.061274 -0.015545 0.011062
1.727669 0.035260 1.253460 0.061274 -0.015545 -0.011062
1.762144 0.403015 0.615671 0.000000 -0.909119 -0.000004
1.698146 0.798052 1.094142 0.070768 -0.006100 0.004461
3.752603 0.627160 0.852052 -0.013410 -0.046749 0.009548
3.752603 0.626470 0.451649 -0.013409 0.046996 0.009410
3.752603 0.332561 0.852052 -0.013410 0.046749 0.009548
2.031479 0.555627 0.613481 0.000001 0.888680 -0.000004
0.666848 0.483324 0.567160 0.000000 0.029516 -0.000038
3.578751 0.342492 0.462214 0.005803 -0.085522 0.004388
3.399175 0.369580 0.800298 0.005802 0.087972 0.004163
3.378155 0.396555 0.669196 0.000000 -0.981195 0.000001
1.557915 0.721043 0.345482 -0.070688 0.012968 0.008472
1.737510 0.940372 1.276158 0.061273 0.015545 -0.011062
1.737510 0.940372 0.028049 0.061274 0.015545 0.011062
3.506533 0.313100 0.880300 0.005801 -0.085546 -0.004387
3.345711 0.352233 0.479109 0.005801 0.149133 -0.004215
1.662474 0.152093 1.111464 0.070766 0.006100 0.004461
1.662474 0.152093 0.192743 0.070765 0.006100 -0.004461
3.690001 0.234483 0.986390 0.005802 -0.145033 -0.004443
3.528988 0.656828 0.410145 0.005802 0.145024 0.004443
1.061872 0.437159 0.578563 -0.000000 -0.495668 -0.000059
0.155838 0.431643 0.719303 -0.121218 -0.000218 0.000286
3.619833 0.642898 0.871902 0.005801 -0.147772 0.004213
3.731595 0.720767 0.324487 0.005802 -0.147746 -0.004214
2.947218 0.424222 0.716423 0.000000 -0.663343 0.000010
1.008005 0.406358 0.694874 -0.000001 -0.840940 0.000001
0.361601 0.404198 0.690938 0.000000 -0.882782 0.000002
1.115740 0.554893 0.612087 -0.000000 0.882788 -0.000036
3.162687 0.439531 0.577237 0.000000 -0.469258 -0.000016
1.621265 0.296134 0.887023 0.061275 -0.002915 -0.002137
1.573292 0.692609 0.921584 0.061274 0.005830 -0.004261
3.244988 0.540148 0.572308 0.000001 0.591640 -0.000070
1.331208 0.399425 0.679713 -0.000001 -0.784760 0.000001
3.108820 0.405460 0.693300 0.000000 -0.868394 0.000005
1.733819 0.815124 1.113123 0.070766 -0.006100 0.004461
1.733819 0.815124 0.191084 0.070765 -0.006100 -0.004461
1.523473 0.400962 0.570141 0.061274 -0.011660 0.008408
0.469335 0.521912 0.578192 0.000001 0.495676 -0.000119
0.577069 0.448815 0.731272 -0.000000 -0.361870 0.000022
1.688306 0.187735 1.041654 0.061274 -0.008745 -0.006355
1.708277 0.501362 0.734378 -0.000001 0.237270 0.000017
1.541924 0.615241 0.812929 0.061272 0.004373 -0.003202
3.033406 0.481435 0.737113 -0.000069 0.013217 0.001625
1.816011 0.514574 0.574471 0.000000 0.416693 -0.000037
1.631106 0.664735 0.383650 0.070764 -0.009465 -0.006887
1.639102 0.625220 0.438441 0.070767 -0.002787 -0.002044
2.988517 0.482852 0.567146 0.000000 0.029516 -0.000019
1.522839 0.726200 0.970983 -0.070688 0.006485 -0.004289
2.408548 0.403936 0.690409 0.000001 -0.895725 0.000008
0.939774 0.480333 0.567064 0.000000 0.015133 -0.000037
1.022370 0.480333 0.567064 0.000000 0.014376 -0.000039
2.731750 0.561877 0.629611 -0.000000 0.958186 -0.000001
2.017114 0.480018 0.567062 0.000000 0.029521 -0.000019
1.427057 0.365373 0.519487 -0.070688 -0.017791 0.011460
3.323837 0.400317 0.541402 0.005803 -0.146366 0.004445
0.361601 0.453935 0.571115 0.000000 -0.306196 -0.000053
1.769492 0.198585 0.268913 0.070766 0.013881 -0.010000
1.769492 0.198585 1.035295 0.070766 0.013881 0.010000
1.548074 0.681510 0.350842 0.070766 -0.004733 -0.003466
1.548074 0.278210 0.953365 0.070765 0.004733 0.003466
1.738740 0.850253 0.143817 0.070766 -0.005259 -0.003849
1.738740 0.850253 1.160391 0.070764 -0.005259 0.003850
1.449653 0.228262 1.001501 -0.081590 0.010913 0.008882
1.449653 0.228262 0.302706 -0.081590 0.005457 -0.004470
0.523202 0.561899 0.629687 0.000000 0.968289 -0.000001
2.300814 0.515397 0.574848 0.000001 0.413081 -0.000019
1.631106 0.679498 0.909721 0.061274 0.005830 -0.004260
2.408548 0.513020 0.573798 -0.000001 0.389312 -0.000040
1.607119 0.354538 0.498218 0.061274 -0.015302 0.010899
1.830375 0.394819 0.652261 0.000000 -0.999564 0.000000
1.556070 0.317725 0.405634 0.070767 0.002524 -0.001852
1.556070 0.641995 0.898574 0.070765 -0.002524 0.001852
1.671699 0.325620 0.452122 0.061274 -0.003219 0.002360
1.642261 0.053130 0.064560 -0.081590 0.009216 -0.007519
1.642261 0.053130 1.239648 -0.081590 0.009216 0.007519
1.626352 0.892378 0.083922 -0.081591 -0.011155 -0.009075
1.626352 0.892378 1.220286 -0.081591 -0.011155 0.009075
3.568485 0.564883 0.650529 0.000000 0.999888 -0.000000
1.513513 0.198240 1.025301 -0.070685 -0.006183 -0.004091
1.513513 0.198240 0.278907 -0.070688 -0.012365 0.008090
1.575137 0.370721 0.523583 0.061274 -0.008745 0.006355
3.748926 0.661994 0.899074 -0.013410 -0.069979 0.009776
3.717308 0.282359 0.919141 -0.013409 0.069982 0.009776
1.518552 0.630625 0.887582 0.070765 -0.010096 0.007337
3.807259 0.677705 0.921635 -0.013410 0.070343 -0.009634
3.727114 0.375251 0.510458 -0.013409 0.069981 -0.009776
3.767553 0.285576 0.386556 -0.013410 -0.070344 0.009633
3.687409 0.580080 0.790373 -0.013410 0.035272 -0.009141
2.085346 0.496489 0.735500 -0.000001 0.191359 0.000087
2.597083 0.478443 0.737108 0.000000 -0.029894 0.000019
3.108820 0.517706 0.575953 -0.000000 0.443457 -0.000069
3.528355 0.369407 0.504957 0.005801 0.099424 -0.004171
3.082784 0.394910 0.655331 0.000002 -0.500464 0.000000
2.704817 0.481592 0.567109 0.000000 0.029516 -0.000038
1.600543 0.557843 0.686025 0.000001 0.917592 0.000004
2.408548 0.445794 0.574182 -0.000001 -0.386934 -0.000020
3.655791 0.362617 0.494982 -0.013410 0.035088 -0.009272
1.311289 0.438681 0.727376 -0.081592 0.005911 0.004841
1.654410 0.441343 0.727923 0.000001 -0.442850 0.000034
1.169607 0.513491 0.573998 0.000000 0.389549 -0.000080
3.727114 0.583642 0.509851 -0.013410 0.070342 0.009634
3.734469 0.459818 0.606411 1.000000 -0.000000 0.000000
1.459613 0.318487 0.851147 -0.070688 -0.016586 -0.010725
3.791816 0.230447 0.991021 -0.013410 0.023404 0.008608
3.719027 0.393351 0.769090 -0.013410 0.069977 0.009776
3.758732 0.569102 0.773682 -0.013410 0.070342 -0.009634
1.546676 0.518554 0.727836 0.000000 0.443426 0.000017
1.640947 0.415705 0.549292 0.070766 0.013250 -0.009561
1.597278 0.193402 0.241204 0.070765 0.015143 -0.010871
1.597278 0.193402 1.063003 0.070764 0.015143 0.010871
0.200000 0.452622 0.732670 0.015807 -0.000472 0.001330
1.115740 0.507692 0.732460 0.000000 0.334284 0.000096
1.708277 0.444574 0.574733 0.000001 -0.415361 -0.000019
0.648892 0.564804 0.655567 0.000000 0.999553 0.000000
1.496400 0.479703 0.567062 -0.000000 -0.029452 -0.000038
1.352510 0.614643 0.824828 -0.070688 0.015870 -0.010285
1.611425 0.630812 0.876702 0.070765 -0.002524 0.001852
2.807164 0.481435 0.567104 0.000000 0.029516 -0.000019
3.238101 0.477341 0.737085 -0.000067 -0.013529 0.001587
2.663519 0.394875 0.654150 -0.000004 -0.144166 0.000000
1.639717 0.600153 0.802519 0.061274 0.015302 -0.010899
0.598616 0.483481 0.567165 0.000000 0.029516 -0.000038
1.187562 0.477813 0.737089 0.000000 -0.029894 0.000009
1.640332 0.565162 0.520409 0.070766 -0.013250 -0.009561
1.573292 0.267112 0.382624 0.061273 -0.005830 0.004261
1.869878 0.409193 0.699417 0.000000 -0.837567 0.000011
1.646482 0.095471 1.163009 0.061274 -0.011660 -0.008408
1.646482 0.095471 0.141198 0.061274 -0.005830 0.004260
0.871542 0.479703 0.737148 0.000000 -0.014757 0.000077
2.300814 0.443822 0.575078 -0.000001 -0.416425 -0.000037
3.191416 0.478521 0.567077 0.000000 -0.014376 -0.000010
1.555455 0.534343 0.552219 0.070766 -0.005048 -0.003696
3.304532 0.360161 0.815904 0.005801 -0.061868 -0.004366
3.614615 0.382995 0.780740 -0.013407 0.027308 0.008904
3.690979 0.501977 0.741836 -0.166820 0.000433 0.001389
3.690979 0.572278 0.652104 -0.166822 0.002904 0.000176
1.355348 0.634954 0.432408 -0.081590 -0.006912 -0.005655
1.043917 0.477656 0.737085 0.000000 -0.029894 0.000019
2.085346 0.508397 0.571998 0.000000 0.334304 -0.000096
1.654410 0.463386 0.568678 0.000001 -0.191066 -0.000044
1.654410 0.518412 0.727905 0.000001 0.442671 0.000034
1.459507 0.397796 0.731743 0.061274 -0.011660 -0.008408
0.577069 0.558871 0.683552 0.000001 0.931523 0.000007
1.816011 0.447752 0.573354 0.000001 -0.382779 -0.000010
1.667394 0.835883 1.126534 0.061275 0.006802 -0.004962
1.667394 0.835883 0.177673 0.061274 0.013603 0.009748
1.689536 0.543377 0.748222 0.070768 -0.005469 0.004002
3.455225 0.413843 0.566390 0.005801 0.076200 -0.004153
3.162687 0.452326 0.732565 -0.000000 -0.334284 0.000048
3.775641 0.693073 0.362505 -0.013410 -0.093031 -0.009881
2.624016 0.557247 0.687354 -0.000000 0.909084 0.000008
2.839484 0.443285 0.728883 0.000000 -0.443501 0.000017
1.472488 0.656296 0.872177 -0.070687 0.007993 -0.005275
1.592358 0.563549 0.747739 0.061277 0.008745 -0.006355
1.372584 0.388135 0.796845 -0.081590 0.006381 0.005224
2.139213 0.561680 0.675277 0.000000 0.959287 0.000002
3.244988 0.419572 0.572308 -0.000000 -0.591723 -0.000070
0.469335 0.443464 0.575242 0.000000 -0.417618 -0.000005
1.592358 0.396171 0.747739 0.061274 -0.008745 -0.006355
2.462415 0.446664 0.730394 -0.000000 -0.389455 0.000040
1.573292 0.267112 0.921584 0.061275 -0.002915 -0.002137
1.257589 0.394856 0.653521 0.000000 -0.999559 0.000000
0.286187 0.484583 0.567197 0.000000 0.029516 -0.000019
1.567756 0.715434 0.997220 0.070766 -0.008624 0.006284
1.654410 0.403220 0.615246 -0.000000 -0.896311 -0.000008
1.736895 0.615159 0.833044 0.061274 0.006438 -0.004700
1.588668 0.314836 0.898602 0.070766 0.005048 0.003696
1.603429 0.679210 0.360613 0.070766 -0.004733 -0.003466
0.049069 0.511886 0.624504 -0.537837 0.000027 -0.000022
0.296961 0.484583 0.737010 0.000000 0.029894 0.000019
1.169607 0.512403 0.730670 0.000000 0.389473 0.000080
1.513632 0.444168 0.731403 0.070765 0.010096 0.007337
3.274781 0.538894 0.732820 0.000001 0.591640 0.000070
3.345711 0.606651 0.478495 0.005803 0.146368 0.004445
3.345711 0.353069 0.825712 0.005802 -0.146379 -0.004444
3.485889 0.439565 0.726989 0.000000 -0.469749 0.000128
1.479189 0.396942 0.504336 0.070766 0.010096 -0.007337
1.492809 0.559014 0.683185 0.000000 0.932149 0.000013
0.121203 0.546957 0.617665 -0.255961 0.000135 -0.000074
1.671699 0.629659 0.458173 0.061275 0.006438 0.004700
1.593588 0.653365 0.394642 0.070764 -0.002524 -0.001852
0.027718 0.454527 0.644368 -0.621682 -0.000017 -0.000005
1.606504 0.626395 0.834823 0.061274 0.012874 -0.009249
3.432022 0.443002 0.728744 0.000000 -0.443426 0.000017
3.734469 0.572314 0.614552 -0.166892 0.000334 -0.000130
1.639717 0.373412 0.491527 0.070765 0.013250 -0.009561
1.671699 0.340493 0.853693 0.070767 0.005574 0.004079
1.640332 0.394559 0.783798 0.070766 0.013250 0.009561
0.415468 0.404938 0.611878 -0.000000 -0.882787 -0.000009
0.577069 0.397429 0.672995 0.000000 -0.968439 0.000004
1.492809 0.553089 0.608855 0.000000 0.868569 -0.000002
2.354681 0.557296 0.687247 0.000000 0.909050 0.000004
1.335152 0.417363 0.756419 -0.081590 0.005912 0.004841
3.619833 0.642898 0.432306 0.005803 -0.074788 -0.004153
3.509231 0.475294 0.567193 -0.000000 -0.029516 -0.000019
0.064157 0.434002 0.628566 -0.478720 -0.000045 -0.000021
3.162687 0.559861 0.680937 0.000002 0.941217 0.000012
1.600543 0.459045 0.734555 0.000001 -0.248282 0.000033
3.647490 0.564906 0.652104 -0.145454 0.000377 0.000006
1.242100 0.525612 0.724019 0.000000 -0.591733 -0.000499
3.642287 0.308823 0.416923 0.005803 -0.061262 0.004366
3.528988 0.302892 0.410145 0.005802 -0.073429 0.004377
3.712968 0.252760 0.341849 0.005802 -0.145040 0.004443
3.604008 0.278361 0.927337 0.005800 -0.061292 -0.004364
3.660914 0.665946 0.903735 0.005801 -0.123770 0.004191
3.712968 0.706960 0.962359 0.005802 0.145027 -0.004443
3.791816 0.729274 0.991021 0.005801 -0.099430 0.004171
3.353630 0.400456 0.762908 0.005802 -0.074138 -0.004378
0.684803 0.450321 0.572353 0.000001 -0.324779 -0.000012
0.630936 0.401540 0.685227 0.000000 -0.921004 0.000004
3.190626 0.589165 0.801014 0.005802 0.146378 -0.004444
0.821266 0.479703 0.567060 0.000000 -0.014757 -0.000077
3.182438 0.564808 0.648797 0.000000 0.999564 -0.000000
1.719058 0.688470 0.931068 0.061274 0.010688 -0.007729
3.108820 0.449953 0.572494 0.000000 -0.361995 -0.000087
1.830375 0.480018 0.737145 0.000000 0.029521 0.000019
1.289826 0.568249 0.782105 -0.081591 -0.005912 0.004841
1.263186 0.382079 0.790108 -0.081588 0.003941 0.003232
3.593623 0.556046 0.614328 -0.000000 0.896313 -0.000034
2.462415 0.401816 0.618327 0.000000 -0.919749 -0.000002
3.642800 0.337308 0.454716 -0.013410 -0.058688 0.009549
2.731750 0.402162 0.617533 -0.000001 -0.908651 -0.000008
3.629146 0.312403 0.882406 0.005801 -0.073440 -0.004377
3.613322 0.688539 0.935816 0.005803 -0.062407 0.004142
1.522839 0.709009 0.320606 -0.081591 -0.010428 -0.008493
3.586674 0.553670 0.547788 -0.013409 0.054796 0.009511
3.642311 0.566936 0.768127 -0.013410 -0.027301 0.008906
3.642311 0.395268 0.534257 -0.013410 -0.054794 0.009512
3.647490 0.542610 0.594699 -0.167528 0.000245 -0.000217
2.785617 0.395848 0.638925 -0.000000 -0.984704 -0.000001
3.432022 0.396246 0.636596 0.000000 -0.981425 -0.000002
2.570149 0.556291 0.614822 0.000000 0.896236 -0.000001
1.530516 0.564874 0.651002 0.000000 0.999553 -0.000000
3.238101 0.478443 0.567078 0.000000 -0.014757 -0.000153
3.660449 0.439975 0.596031 0.130665 -0.000344 -0.000469
3.660449 0.438319 0.706961 0.130664 -0.000344 0.000469
2.516282 0.402999 0.688500 -0.000000 -0.908906 0.000008
0.415468 0.558181 0.618980 0.000000 0.921100 -0.000007
3.623440 0.437503 0.591795 0.130665 -0.000172 -0.000235
1.487249 0.279557 0.906224 -0.070688 -0.007389 -0.004881
1.404839 0.562996 0.513663 -0.081590 -0.012762 -0.010353
1.733819 0.171244 1.076820 0.070767 0.006100 0.004461
1.733819 0.171244 0.227388 0.070765 0.006100 -0.004461
3.432022 0.441167 0.576372 0.000000 -0.443380 -0.000017
1.543959 0.131758 1.131202 -0.081589 0.007518 0.006147
1.543959 0.131758 0.173005 -0.081590 0.007518 -0.006147
2.654541 0.481277 0.567099 0.000000 0.029516 -0.000010
1.577597 0.752866 0.300086 -0.070689 0.011762 0.007706
2.462415 0.513999 0.729995 0.000000 0.389393 0.000020
3.408679 0.564790 0.648168 0.000000 0.999564 -0.000000
3.678462 0.619132 0.464683 -0.013410 -0.058381 -0.009690
1.357815 0.430308 0.560632 -0.081589 0.005912 -0.004841
1.331208 0.558426 0.684647 -0.000000 0.921033 0.000007
0.079846 0.492169 0.593627 -0.417343 0.000017 -0.000070
1.404839 0.585403 0.774097 -0.070688 0.015870 -0.010285
1.567756 0.244287 0.997220 0.070766 0.008624 0.006284
1.567756 0.244287 0.306987 0.070765 0.008624 -0.006284
2.354681 0.556902 0.616101 -0.000001 0.748060 -0.000001
3.266006 0.556032 0.546434 0.005802 0.061863 0.004366
3.539756 0.540436 0.711788 0.000000 0.707107 0.000017
0.200000 0.499836 0.734771 0.015810 0.000352 0.001367
1.671699 0.628110 0.865794 0.070767 -0.005574 0.004079
0.746750 0.478639 0.567075 -0.000000 -0.015127 -0.000075
2.731750 0.510979 0.572964 0.000000 0.362049 -0.000044
1.311289 0.521039 0.727376 0.000000 -0.591731 -0.000997
1.413291 0.614538 0.487324 -0.070688 0.008897 0.005863
1.567756 0.404176 0.779398 0.070767 0.003786 0.002775
1.708277 0.558672 0.684066 -0.000000 0.932161 0.000003
0.792537 0.480963 0.737134 -0.000000 0.014376 0.000039
1.762144 0.448889 0.731300 -0.000001 -0.359728 0.000011
1.008005 0.401754 0.618472 -0.000001 -0.920906 -0.000014
0.164628 0.524585 0.722950 -0.087079 0.000281 0.000417
1.187562 0.564846 0.654150 -0.000000 0.999541 0.000000
3.554121 0.475137 0.737010 0.000000 -0.029894 0.000019
2.139213 0.512839 0.730486 -0.000000 0.389548 0.000040
3.291391 0.595978 0.811026 0.005801 0.061868 -0.004366
2.977743 0.482930 0.737059 -0.000008 0.002264 0.000250
3.642800 0.334271 0.847262 -0.013410 0.058381 0.009690
2.947218 0.513528 0.574013 -0.000001 0.385132 -0.000020
3.678462 0.619132 0.839524 -0.013411 -0.029246 0.009021
2.796391 0.477499 0.737080 0.000000 -0.029516 0.000010
1.616960 0.800242 1.106859 0.070765 -0.013461 0.009707
3.108820 0.563354 0.635978 0.000000 0.981501 -0.000007
1.671699 0.616335 0.827883 0.061276 0.006437 -0.004700
3.714123 0.346905 0.831786 -0.013410 0.058381 0.009690
3.731158 0.593520 0.806078 -0.013410 -0.029248 0.009020
3.270421 0.545320 0.597822 0.000001 0.766960 -0.000028
1.516092 0.386632 0.494715 0.070766 0.010096 -0.007337
1.616960 0.816514 0.209293 -0.070689 0.009349 0.006156
3.304574 0.419294 0.731694 -0.000000 -0.591721 0.000084
