0.318357 0.661007 0.589390 0.000000 0.029870 -0.000162
3.691543 0.580579 0.632826 -0.000000 -0.862513 -0.000006
2.922220 0.590587 0.618798 -0.000000 -0.758398 -0.000033
3.889745 0.660680 0.589380 0.000000 0.029881 -0.000021
1.535313 0.810684 0.852609 -0.072495 -0.007040 0.007309
0.910144 0.606145 0.746930 0.000000 -0.580103 0.000007
2.152897 0.650215 0.589414 -0.000001 -0.075479 -0.000256
1.663291 0.430024 0.456306 0.055602 -0.011449 0.010883
3.599996 0.759346 0.796777 0.000002 0.717616 -0.000971
0.990928 0.659617 0.589348 0.000001 0.029568 -0.000164
1.665377 0.569196 0.678673 0.000001 -0.998105 0.000000
1.137466 0.742360 0.673359 0.000000 0.999554 -0.000000
2.981399 0.616486 0.753127 0.000001 -0.451041 0.000038
3.632365 0.732620 0.715948 0.000000 0.892378 0.000020
3.960259 0.457940 0.457881 0.000000 -0.717617 0.000989
3.841002 0.556926 0.588202 -0.000002 0.717593 -0.000228
3.986862 0.574209 0.577686 0.000001 -0.717617 0.001073
2.863042 0.727891 0.627854 -0.000000 0.831168 -0.000013
3.869080 0.737000 0.645701 0.000001 0.939945 -0.000007
2.507969 0.687456 0.756547 0.000000 0.368626 0.000024
3.460470 0.795714 0.531699 0.085330 0.011554 0.015516
3.691543 0.730247 0.631590 -0.000000 0.863495 -0.000023
3.691543 0.581404 0.720374 -0.000000 -0.863448 0.000023
3.493600 0.552203 0.796777 0.000000 -0.717616 -0.001013
1.749782 1.030407 0.282883 0.063514 -0.013133 -0.012482
4.003485 0.737698 0.697845 0.114161 0.001496 0.000298
2.389612 0.741822 0.665610 0.000000 0.994397 -0.000001
1.441875 0.749645 0.784682 -0.072497 -0.006264 0.006510
1.626582 0.225165 1.113486 -0.063484 -0.005530 -0.005019
1.528745 0.539801 0.777360 -0.063483 -0.014078 -0.012522
0.732608 0.697701 0.751730 0.000000 0.477831 0.000004
3.543252 0.825840 0.851132 0.085331 0.011794 -0.015833
1.792023 0.226251 0.230183 0.063514 0.011750 -0.011214
1.792023 1.085298 0.230183 0.063516 -0.005876 -0.005678
1.733691 0.366615 0.369485 0.063514 0.007949 -0.007655
3.578105 0.521448 0.828467 0.000001 -0.717617 -0.001520
3.897659 0.529160 0.531266 0.000000 -0.717617 0.001119
3.780367 0.489007 0.489892 -0.000002 -0.717612 0.000457
1.857004 0.577025 0.639734 0.000000 -0.905612 -0.000018
1.326374 0.555875 0.572956 -0.063483 -0.010187 0.009163
3.954939 0.434687 0.917867 -0.000000 -0.717617 -0.000494
3.691543 0.624891 0.756864 -0.000000 -0.368479 0.000024
1.726651 0.767773 0.783337 0.055602 0.014902 -0.013971
3.598439 0.845925 0.871827 0.085330 0.011794 -0.015833
1.548899 0.569206 0.672787 0.000000 -0.999532 -0.000000
0.318357 0.580579 0.718961 0.000000 -0.863405 0.000011
0.377536 0.726336 0.625598 0.000000 0.814299 -0.000014
1.771908 0.872533 0.447580 0.063514 -0.009332 -0.008961
3.944298 0.388179 0.965789 -0.000000 -0.717618 -0.000989
3.944298 0.923370 0.385998 -0.181950 0.003060 0.003149
0.046525 0.645919 0.635911 -0.553021 -0.000010 -0.000037
1.826217 1.309298 0.002496 0.000001 0.696430 -0.000390
3.718949 0.470191 0.881283 -0.000000 -0.717617 -0.000771
3.757280 0.524421 0.554708 -0.000001 0.717617 -0.001542
2.322918 0.569231 0.679818 0.000000 -0.999532 0.000000
1.625074 0.936013 0.948571 -0.063480 0.007277 -0.006586
1.607976 1.151119 0.165485 -0.072497 -0.014793 -0.015120
1.857004 0.621108 0.596477 0.000000 -0.396380 -0.000011
3.158935 0.684044 0.593972 0.000000 0.340397 -0.000013
2.330433 0.705270 0.747025 0.000000 0.580368 0.000014
3.809901 0.733525 0.714160 0.000000 0.892318 0.000010
3.849307 0.838419 0.473532 -0.000000 0.717618 0.000742
3.711888 0.751248 0.760108 0.000001 -0.717616 0.000628
4.051628 0.621042 0.656799 1.000000 0.000000 -0.000000
1.585599 0.940359 0.394717 -0.063481 0.007277 0.006586
3.647331 0.561988 0.758369 0.000001 0.717616 0.000971
3.775286 0.449688 0.449378 -0.000002 -0.717612 0.000457
3.775286 0.435532 0.888671 0.000002 0.717611 0.000457
3.775286 0.876017 0.888671 -0.000002 -0.717610 0.000457
1.648708 0.190386 0.190104 -0.072496 0.014793 -0.015120
1.620289 0.610108 0.602250 0.000001 -0.529100 -0.000016
1.975361 0.732197 0.716742 0.000000 0.878330 0.000021
2.282527 0.742337 0.672623 0.000000 0.999553 -0.000000
0.555072 0.740212 0.656430 0.000000 0.974390 -0.000004
3.987437 0.686505 0.756924 0.119112 0.000120 0.000332
3.040578 0.707136 0.606092 -0.000000 0.604750 -0.000051
0.732608 0.739544 0.653730 -0.000000 0.967209 -0.000020
1.916182 0.669580 0.761440 -0.000000 0.165358 0.000115
2.060841 0.742416 0.676548 -0.000000 0.999532 0.000000
1.779954 0.968231 1.002080 0.063514 -0.007949 0.007655
2.171684 0.742377 0.673931 0.000000 0.999543 -0.000000
1.501873 0.853444 0.890235 -0.072496 -0.014077 0.014416
3.662611 0.476538 0.505369 0.000001 0.717617 -0.000628
2.981399 0.721895 0.731903 -0.000001 0.758390 0.000067
3.578822 0.742308 0.680145 0.000000 0.999543 0.000000
3.831623 0.429185 0.923536 -0.000000 -0.717616 -0.000494
3.831623 0.429185 0.428251 0.000000 -0.717617 0.000989
1.608982 0.894287 0.904289 -0.063483 0.007858 -0.007105
3.613682 0.573852 0.577317 0.000001 -0.717616 0.000971
2.389612 0.583998 0.627344 0.000000 -0.831468 -0.000026
3.944298 0.923370 0.965789 -0.181951 0.003060 -0.003149
4.042074 0.575570 0.593250 -0.181949 -0.006815 0.007011
1.796045 0.183698 1.165083 0.063514 0.005185 0.005015
1.796045 1.106666 1.143254 0.063513 -0.005185 0.005015
1.495335 0.992941 1.023314 -0.072497 -0.005608 0.005832
0.969323 0.701787 0.749320 -0.000000 0.530145 0.000031
3.958534 0.716378 0.599285 -0.000001 0.717617 0.001073
1.729668 0.104315 0.115385 0.055601 -0.020523 0.018690
0.119644 0.669498 0.601008 -0.267165 0.000023 -0.000153
1.515953 0.438332 0.910609 -0.072496 0.013123 0.013471
1.975361 0.637586 0.760625 0.000000 -0.225179 0.000021
1.640662 0.744729 0.599071 0.055601 0.006909 0.006655
1.725645 0.379554 0.952472 0.055601 -0.019735 -0.018053
1.761851 0.529509 0.811880 0.063513 0.013046 0.012403
1.681394 0.229494 0.248230 0.055601 -0.015001 0.014057
2.744684 0.638027 0.591074 -0.000000 -0.193569 -0.000025
3.336471 0.727573 0.627378 -0.000000 0.830216 -0.000003
3.218114 0.726835 0.725490 -0.000000 0.811371 0.000003
3.981541 0.550956 0.798062 -0.000001 -0.717617 -0.001073
4.032520 0.777735 0.801563 -0.181949 0.003408 -0.003508
1.383574 0.738883 0.651367 0.000000 0.959296 -0.000001
1.781965 0.110195 1.242108 0.063515 0.015205 0.014353
1.781965 1.201354 0.109679 0.063515 -0.015205 -0.014353
3.395650 0.573394 0.649023 0.000000 -0.950131 -0.000006
3.632365 0.686120 0.757063 0.000000 0.340413 0.000027
3.757280 0.787128 0.554708 -0.000002 -0.717608 -0.000386
3.395650 0.736111 0.708373 0.000000 0.929547 0.000015
2.744684 0.678611 0.759487 0.000000 0.253882 0.000018
3.976221 0.783847 0.529764 -0.181950 0.003408 0.003508
1.949059 0.742295 0.671233 0.000000 0.998278 -0.000000
3.750722 0.581958 0.630505 0.000000 -0.847896 -0.000006
3.809901 0.618651 0.754192 -0.000000 -0.424150 0.000165
1.445301 0.843213 0.874731 -0.072496 -0.007398 0.007677
1.649211 0.328104 1.029704 0.063514 0.015896 0.014967
3.545945 0.659535 0.589345 0.000000 0.030245 -0.000020
1.501931 0.571942 0.697820 -0.000000 -0.967103 0.000005
1.371255 0.537710 0.800765 -0.072494 0.004176 0.004349
0.039173 0.691429 0.671564 -0.581592 0.000059 -0.000004
2.034540 0.574660 0.706394 0.000000 -0.940057 0.000007
3.454829 0.730371 0.719985 0.000001 0.863116 0.000023
2.448791 0.719152 0.616795 0.000001 0.737187 -0.000009
1.501931 0.607565 0.747897 0.000000 -0.555411 0.000029
0.146010 0.590864 0.625040 -0.164538 -0.000217 -0.000160
1.679382 0.944435 0.390196 0.055601 0.019734 0.018053
3.829259 0.709371 0.620667 0.097358 0.004748 -0.004887
3.875753 0.488695 0.489571 0.000000 -0.717617 0.001119
3.780781 0.569144 0.673767 -0.000000 -0.999894 -0.000000
1.547382 0.843012 0.466970 -0.072496 -0.007040 -0.007309
1.383574 0.702550 0.748843 0.000000 0.530163 0.000031
1.692959 1.208289 0.110758 -0.063484 0.015132 0.013412
1.800068 1.170404 1.208563 0.063513 -0.008986 0.008635
1.826217 0.885606 0.912714 0.063514 -0.008641 0.008309
1.745760 0.069479 1.287371 0.063515 0.015205 0.014353
1.324395 0.622460 0.755894 0.000000 -0.396687 0.000022
1.493827 0.479657 0.868763 -0.072496 0.014077 0.014416
0.686580 0.742332 0.679327 0.000000 0.999542 0.000000
4.051628 0.632477 0.707959 1.000000 -0.000000 0.000000
1.427198 0.498884 0.508166 -0.072495 0.007517 -0.007799
1.477358 0.563023 0.564606 -0.072496 0.011543 -0.011891
1.311244 0.569201 0.672950 0.000000 -0.999553 -0.000000
2.803863 0.639030 0.760913 0.000000 -0.193569 0.000025
3.970900 0.504448 0.845984 0.000001 -0.717617 -0.000742
3.218114 0.661088 0.589396 -0.000001 0.073982 -0.000065
1.826217 0.298835 0.308100 0.063513 0.006567 -0.006340
1.826217 1.033898 1.065516 0.063516 -0.013132 0.012482
1.826217 0.341204 0.351758 0.063514 0.007258 -0.006999
1.783977 0.321949 1.023731 0.063514 0.014514 0.013734
1.826217 0.991529 1.021859 0.063514 -0.014514 0.013734
0.865056 0.569201 0.672950 0.000000 -0.999543 -0.000000
3.632365 0.700396 0.601606 0.000001 0.493244 -0.000004
2.448791 0.571520 0.655632 0.000000 -0.974400 -0.000004
3.634443 0.810603 0.502194 0.000000 0.717617 0.001045
3.662611 0.490694 0.860157 0.000002 -0.717614 -0.000628
3.723631 0.536284 0.813180 -0.000001 -0.717616 -0.000771
3.841002 0.754622 0.588202 0.000001 -0.717616 -0.000457
1.645188 0.513653 0.512907 0.063514 0.013046 -0.012403
3.661415 0.556862 0.588136 0.000000 0.717617 -0.000628
2.922220 0.693564 0.597908 0.000000 0.424182 -0.000021
1.703519 1.028209 1.049843 0.055603 0.008291 -0.007958
1.087680 0.704732 0.747397 0.000001 0.555393 0.000029
0.754213 0.651932 0.762439 -0.000001 -0.030014 0.000322
1.501931 0.631326 0.592762 -0.000000 -0.283067 -0.000066
2.744684 0.584453 0.725123 0.000000 -0.831461 0.000026
1.558444 0.433233 0.460256 -0.063483 -0.008004 0.007235
0.880085 0.650624 0.589387 -0.000000 -0.029892 -0.000162
3.218114 0.613060 0.751295 -0.000001 -0.502528 0.000017
3.721290 0.808311 0.847232 -0.000003 0.717611 -0.000771
3.718949 0.470191 0.470504 -0.000001 -0.717616 0.000771
1.761851 1.285174 1.330315 0.063517 -0.012441 0.011850
1.761851 0.026375 0.021472 0.063515 0.012441 -0.011850
1.324395 0.686505 0.756924 -0.000000 0.368688 0.000098
2.140686 0.569206 0.679000 -0.000000 -0.998278 0.000000
3.336471 0.582261 0.630020 -0.000001 -0.843854 -0.000006
3.809901 0.698311 0.751397 0.000000 0.469217 0.000005
2.610358 0.742350 0.678755 -0.000001 0.978612 0.000000
3.514007 0.580455 0.633038 0.000001 -0.863133 -0.000011
1.648708 0.561157 0.562178 0.063515 0.003024 -0.002932
1.674354 0.517617 0.832130 0.063514 0.013046 0.012403
1.648708 0.545957 0.774857 0.055601 -0.003455 -0.003346
3.514007 0.704188 0.747760 -0.000000 0.555610 0.000014
3.994273 0.832001 0.501389 -0.181949 -0.003609 -0.003301
2.507969 0.741782 0.665286 -0.000000 0.990679 -0.000001
3.115725 0.655120 0.589242 -0.000000 -0.014565 -0.000021
2.279709 0.657328 0.589279 -0.000001 0.029579 -0.000164
1.679382 0.944435 0.961592 0.055602 0.009870 -0.009432
2.790712 0.742411 0.676711 0.000000 0.999543 0.000000
1.501873 0.448114 0.471247 -0.063483 -0.008441 0.007623
1.857004 0.630149 0.758678 0.000000 -0.282859 0.000033
3.893502 0.658146 0.762520 -0.000000 0.014565 0.000011
1.697485 0.187768 1.147839 0.055600 -0.013422 -0.012664
1.650216 0.708091 0.745885 0.063513 -0.012096 0.011533
0.340902 0.569256 0.671152 -0.000000 -0.999543 -0.000000
1.674354 0.793932 0.519657 0.063514 -0.013046 -0.012403
1.547382 0.468537 0.884817 -0.072496 0.007040 0.007309
1.424935 0.417469 0.921446 -0.063482 -0.016878 -0.014862
1.659268 0.440456 0.884411 0.055602 -0.011449 -0.010883
1.560708 0.769109 0.580343 -0.063483 0.018332 0.016048
3.867773 0.453814 0.898158 0.000000 -0.717617 -0.000494
1.636136 0.120884 0.124738 -0.063482 -0.015133 0.013412
1.670833 1.162487 0.148258 -0.072496 -0.012885 -0.013234
1.538079 0.914540 0.399333 -0.072496 -0.012169 -0.012519
3.260384 0.569206 0.679000 0.000000 -0.999543 0.000000
1.561110 0.739955 0.696474 0.000001 0.969527 0.000002
0.436715 0.611930 0.750635 -0.000000 -0.504175 0.000033
3.632365 0.622009 0.596088 0.000000 -0.396562 -0.000090
1.087680 0.701718 0.602424 0.000000 0.530065 -0.000008
1.585599 0.384108 0.382180 -0.072497 0.006085 -0.006325
3.549937 0.531700 0.533883 0.000000 -0.717617 0.001520
3.549937 0.779849 0.533883 0.000000 0.717617 0.001520
0.102499 0.725652 0.667409 -0.289535 0.000062 -0.000006
1.445301 0.843213 0.477056 -0.072496 -0.014793 -0.015120
3.158935 0.569406 0.682921 -0.000001 -0.996765 0.000001
1.616022 0.801860 0.506157 0.063513 -0.003025 -0.002932
1.561110 0.686274 0.594780 -0.000001 0.339193 -0.000027
4.051628 0.687256 0.603143 0.112550 0.000146 -0.000324
0.241331 0.569265 0.680963 0.000000 -0.999543 0.000000
1.582079 0.245501 1.102136 -0.072495 0.004654 0.004844
3.987437 0.620207 0.596867 0.119114 -0.000150 -0.000319
1.584845 0.811028 0.857926 0.063511 -0.006049 0.005844
1.246430 0.742335 0.679246 0.000000 0.999531 0.000000
1.645188 0.813398 0.823835 0.055602 0.014902 -0.013971
3.158935 0.629215 0.758376 0.000000 -0.311853 0.000059
1.600936 0.457416 0.450917 0.063515 0.020040 -0.018551
1.699497 0.315215 0.313398 0.063514 0.007258 -0.006999
1.477509 0.657082 0.762516 -0.000000 0.029892 0.000041
1.206038 0.727459 0.724579 0.000000 0.831461 0.000026
3.691543 0.730949 0.718997 0.000000 0.863417 0.000023
2.548361 0.659126 0.762454 0.000001 0.029579 0.000164
3.835263 0.569256 0.671152 -0.000000 -0.999543 -0.000000
3.336471 0.578061 0.714233 -0.000001 -0.883934 0.000002
1.576799 0.500714 0.536061 0.055602 -0.006909 0.006654
1.741737 0.994905 1.018582 0.055602 0.018157 -0.016753
1.769897 0.004823 1.351787 0.000000 -0.696432 0.000341
0.318357 0.727368 0.724715 -0.000000 0.831403 0.000013
1.560708 0.565177 0.558278 0.063515 0.006049 -0.005844
1.975361 0.581958 0.630505 0.000000 -0.847881 -0.000024
3.465431 0.749094 0.786214 -0.000002 0.717610 -0.000507
1.410855 0.437241 0.450715 -0.063483 -0.008440 0.007623
1.535313 0.826703 0.514725 -0.063481 0.009023 0.008138
3.987437 0.627505 0.757815 0.119113 -0.000120 0.000332
1.521862 0.726428 0.581310 -0.072497 -0.008949 -0.009264
1.608982 0.417262 0.904289 0.055602 -0.010659 -0.010160
3.401286 0.652259 0.589338 0.000000 -0.030620 -0.000005
3.661814 0.767305 0.546809 -0.000001 0.717617 0.000628
0.154928 0.581442 0.714906 -0.129866 -0.000319 0.000155
0.181920 0.742142 0.681118 -0.033827 0.000698 0.000021
1.779954 0.957639 0.360621 0.063514 -0.007949 -0.007655
2.901555 0.659453 0.762444 -0.000001 0.030372 0.000319
1.797825 0.581784 0.630783 -0.000001 -0.845644 -0.000012
2.685506 0.616303 0.598752 -0.000000 -0.451360 -0.000038
0.825603 0.652667 0.762462 0.000000 -0.030245 0.000041
4.009691 0.764615 0.570824 -0.181948 -0.003609 -0.003301
1.767885 0.808796 0.512888 0.063514 -0.002506 -0.002430
2.922220 0.580373 0.718608 0.000000 -0.863382 0.000006
2.448791 0.604946 0.746075 0.000000 -0.580411 0.000014
3.759621 0.739925 0.776766 -0.000000 0.717617 -0.000771
3.574763 0.813096 0.506706 0.085331 0.011794 0.015833
3.402225 0.659862 0.762432 0.000000 0.029870 0.000162
4.035580 0.730717 0.644851 0.104188 0.001548 -0.000525
3.438860 0.569224 0.679573 0.000016 -0.019368 0.000000
3.928258 0.695501 0.752906 0.000000 0.451289 0.000077
1.732685 0.517536 0.540930 0.055602 -0.014902 0.013971
1.265217 0.688786 0.756019 0.000000 0.368626 0.000024
0.614251 0.577042 0.712090 -0.000001 -0.904433 0.000009
1.620289 0.695172 0.598715 -0.000001 0.446657 -0.000010
1.265217 0.697844 0.600136 -0.000000 0.477546 -0.000009
2.271255 0.621897 0.755651 -0.000000 -0.396659 0.000045
1.206038 0.574619 0.706278 -0.000000 -0.940022 0.000007
1.265217 0.596917 0.739492 -0.000000 -0.674321 0.000042
0.436715 0.571672 0.654996 -0.000001 -0.965280 -0.000003
1.797825 0.623257 0.756215 -0.000000 -0.368682 0.000098
0.910144 0.611223 0.601565 -0.000000 -0.504313 -0.000033
1.453095 0.933624 0.962193 -0.072495 -0.012885 0.013234
1.515953 0.883206 0.450874 -0.063483 0.008440 0.007623
1.407775 0.802693 0.832105 -0.072497 -0.011543 0.011891
4.051628 0.689526 0.747619 0.105203 0.000167 0.000341
1.506650 0.949051 0.377720 -0.063482 0.007277 0.006586
3.759621 0.571624 0.776766 -0.000001 -0.717616 -0.000771
0.850966 0.728505 0.628773 0.000001 0.819108 -0.000003
1.552913 0.292749 1.046259 -0.063483 -0.006694 -0.006065
1.781965 1.222538 1.263937 0.063515 -0.015205 0.014353
2.507969 0.611082 0.601647 0.000000 -0.504040 -0.000017
1.146859 0.609276 0.749016 0.000000 -0.529782 0.000008
1.146859 0.569675 0.666098 0.000001 -0.989113 -0.000001
0.453623 0.742303 0.680309 0.000000 0.999543 0.000000
1.470444 0.422906 0.440608 -0.063482 -0.016878 0.014862
1.438261 0.472882 0.859362 -0.063483 -0.018041 -0.015812
0.085799 0.670961 0.737510 -0.399241 0.000021 0.000077
0.530649 0.569241 0.680145 0.000000 -0.999543 0.000000
3.738114 0.821321 0.519475 0.000000 -0.717617 -0.000771
1.755817 0.734098 0.763033 0.063514 -0.012096 0.011533
1.657256 1.019465 0.314653 -0.063482 0.006112 0.005543
1.560204 0.964477 0.985942 -0.063483 0.014551 -0.012922
3.679037 0.518615 0.520401 0.000002 -0.717614 0.000628
3.695462 0.532380 0.562909 0.000001 0.717616 -0.001257
0.357810 0.742293 0.671152 0.000000 0.999543 -0.000000
1.545873 0.302636 0.315715 -0.063483 -0.013387 0.011935
4.051628 0.726404 0.711881 0.111666 0.000316 0.000167
3.675575 0.569135 0.677366 0.000000 -0.999888 0.000000
1.620289 0.731727 0.717605 0.000000 0.878328 0.000021
1.732685 0.794013 0.540930 0.055600 0.014902 0.013971
0.969323 0.700043 0.601400 0.000000 0.503962 -0.000004
1.463404 0.878757 0.900993 -0.063482 0.008441 -0.007623
2.389612 0.675039 0.591410 -0.000000 0.224620 -0.000084
1.687428 0.964006 0.345606 0.063514 -0.007949 -0.007655
1.528273 0.494732 0.524912 -0.063483 -0.009023 0.008138
2.646053 0.652259 0.762449 -0.000001 -0.030017 0.000322
1.579816 0.606673 0.749005 0.063514 0.012096 0.011533
1.573530 0.402484 0.427929 -0.063483 -0.007858 0.007105
0.377536 0.583067 0.628739 0.000000 -0.831826 -0.000002
1.779954 0.360540 0.375381 0.055602 -0.009081 0.008698
1.411754 0.657246 0.762511 -0.000000 0.030245 0.000010
1.424935 0.894080 0.430341 -0.072495 -0.013839 -0.014181
0.688459 0.569199 0.678837 0.000064 -0.189796 0.000003
3.767630 0.742303 0.680309 0.000000 0.999543 0.000000
0.200000 0.722348 0.731376 0.009987 0.001843 0.001465
3.454829 0.612000 0.601111 0.000000 -0.504279 -0.000017
1.916182 0.581054 0.719774 0.000000 -0.862355 0.000003
1.568753 0.521577 0.793585 0.055602 -0.006909 -0.006654
3.407476 0.759293 0.775479 0.085331 -0.016328 0.011110
3.693121 0.499333 0.822930 0.000003 0.717609 0.000665
1.391715 0.813785 0.510666 -0.072497 -0.006264 -0.006510
1.797825 0.733864 0.638326 -0.000000 0.905405 -0.000009
0.495894 0.729331 0.630089 0.000000 0.847836 -0.000012
0.778636 0.742347 0.672950 0.000000 0.999543 -0.000000
1.826217 0.758498 0.781741 0.063514 -0.012096 0.011533
1.826217 0.779683 0.548217 0.063513 -0.006049 -0.005844
1.383574 0.612777 0.600657 0.000000 -0.504235 -0.000033
3.797812 0.894271 0.928724 0.085330 0.011794 -0.015833
1.945302 0.569268 0.670743 0.000001 -0.978612 -0.000000
1.771908 0.444957 0.888779 0.055601 -0.010660 -0.010160
1.340454 0.775446 0.799204 -0.072494 -0.008352 0.008655
3.336471 0.616449 0.598678 0.000000 -0.450803 -0.000019
1.722677 0.653322 0.762481 0.000000 -0.030620 0.000158
2.489182 0.569172 0.677856 0.000000 -0.999554 0.000000
1.738646 0.581404 0.631413 0.000000 -0.863559 -0.000006
3.859792 0.892615 0.934099 -0.000002 0.717613 -0.000494
3.923327 0.496571 0.854100 0.000000 -0.717617 -0.000742
3.786417 0.660189 0.762422 0.000000 0.030245 0.000020
1.595908 0.767702 0.772809 0.055602 0.006909 -0.006654
1.775931 0.925678 0.958601 0.063515 -0.008641 0.008309
1.686422 0.864712 0.471781 0.055602 0.011449 0.010883
1.655245 0.846020 0.887549 0.063514 -0.010023 0.009609
1.738646 0.731571 0.633895 -0.000000 0.878097 -0.000005
1.826217 0.737314 0.591875 0.063514 -0.012096 -0.011533
3.040578 0.579352 0.716742 -0.000001 -0.878029 0.000021
0.673430 0.615792 0.752777 0.000000 -0.450523 0.000010
1.679468 0.624017 0.756517 0.000000 -0.368734 0.000024
3.824178 0.555780 0.764766 -0.000002 0.717610 0.000457
1.792023 0.236843 1.110689 0.063512 0.011751 0.011214
3.497099 0.659535 0.589345 0.000000 0.030234 -0.000041
3.875753 0.822854 0.862217 0.000000 0.717616 -0.001119
3.930205 0.709572 0.634622 0.097356 0.004748 -0.004887
3.880283 0.755351 0.764336 -0.000000 -0.717617 0.001119
3.847425 0.495500 0.524908 -0.000000 0.717617 -0.001119
3.947892 0.548663 0.551363 0.000000 -0.717616 0.001119
3.358076 0.569128 0.674830 -0.000000 -0.999883 -0.000000
0.910144 0.690591 0.755245 0.000000 0.396503 0.000045
3.395650 0.738283 0.649412 -0.000000 0.950093 -0.000013
1.324395 0.731093 0.633038 0.000000 0.863475 -0.000006
1.729668 0.112583 1.244426 0.063515 0.017968 0.016782
3.950727 0.361627 0.365720 0.085332 -0.002889 0.003912
1.711565 0.251884 1.082898 0.055603 -0.007501 -0.007215
1.641165 0.349656 0.343555 0.063514 0.007949 -0.007655
1.711565 0.261702 0.259361 0.063514 0.006567 -0.006340
3.675575 0.742414 0.674421 0.000000 0.999883 -0.000000
1.028502 0.623903 0.756472 -0.000000 -0.368687 0.000049
1.481255 0.973169 0.348847 -0.072497 -0.011931 -0.012280
2.981399 0.569684 0.666017 -0.000000 -0.994414 -0.000004
1.544616 0.584166 0.624625 0.055602 -0.013817 0.013014
1.383574 0.578374 0.636934 0.000000 -0.892340 -0.000020
0.555072 0.701301 0.749624 -0.000001 0.529859 0.000031
3.964524 0.349528 0.984372 -0.181952 0.001620 0.001482
3.964524 0.962021 0.367415 -0.181946 -0.001620 -0.001482
1.602441 0.654548 0.589269 -0.000000 -0.030598 -0.000040
1.592639 0.361303 0.967257 -0.063482 -0.007277 -0.006586
3.809901 0.615393 0.599217 0.000000 -0.478049 -0.000071
1.693558 0.653240 0.589308 -0.000000 -0.030598 -0.000158
1.521862 0.746839 0.750668 -0.063482 0.014078 -0.012523
3.514007 0.613776 0.751690 -0.000000 -0.478096 0.000036
1.176918 0.654466 0.762516 0.000000 -0.029881 0.000082
0.850966 0.615357 0.752551 0.000000 -0.477984 0.000018
1.561110 0.681712 0.758581 0.000000 0.311853 0.000029
1.520227 0.532303 0.820950 -0.072496 0.015032 0.015354
3.691543 0.612354 0.600905 -0.000000 -0.504372 -0.000133
3.862452 0.895144 0.443407 -0.000000 -0.717617 -0.000494
3.825520 0.842357 0.882313 0.000000 0.717617 -0.001119
3.867773 0.439658 0.467368 -0.000000 0.717618 -0.000494
1.691451 0.336767 1.016917 0.063514 0.007949 0.007655
1.741737 0.987670 0.326184 0.063514 -0.014514 -0.013733
1.650216 0.101112 1.247423 -0.063485 -0.015132 -0.013411
1.826217 1.012713 0.308100 0.063516 -0.013132 -0.012482
3.454829 0.695063 0.753127 0.000001 0.451300 0.000153
4.035580 0.580831 0.644851 0.105206 -0.000359 -0.000123
1.790011 0.064358 0.069387 0.055603 -0.017367 0.016091
2.863042 0.636589 0.591392 0.000001 -0.224202 -0.000042
1.523998 0.894768 0.932081 -0.072496 -0.013123 0.013471
1.600685 0.971108 0.362390 -0.063482 0.013678 0.012183
1.975361 0.732805 0.636204 0.000000 0.892414 -0.000010
2.642296 0.652913 0.589318 0.000001 -0.030386 -0.000318
0.673430 0.690741 0.755180 0.000000 0.396470 0.000045
1.620289 0.579508 0.634758 -0.000001 -0.824651 -0.000001
3.218114 0.736367 0.644060 0.000000 0.929486 -0.000004
1.520227 0.795954 0.804735 -0.063484 0.009168 -0.008267
2.705232 0.742382 0.677692 0.000000 0.999543 0.000000
0.146010 0.631242 0.597168 -0.164535 -0.000090 -0.000260
1.324395 0.730495 0.719774 -0.000000 0.861768 0.000001
0.154928 0.703462 0.606806 -0.129866 0.000207 -0.000282
1.420095 0.730275 0.587869 -0.072497 -0.008352 -0.008655
0.732608 0.587890 0.622034 -0.000000 -0.777708 -0.000016
2.803863 0.731649 0.717748 0.000000 0.878452 0.000003
3.691543 0.698524 0.600513 -0.000000 0.504400 -0.000033
1.679468 0.730103 0.720445 0.000001 0.861411 0.000011
1.797825 0.579860 0.717676 -0.000000 -0.861596 0.000001
3.277292 0.695026 0.598641 -0.000000 0.451199 -0.000038
1.206038 0.732768 0.636131 -0.000000 0.892317 -0.000020
2.330433 0.703780 0.603754 -0.000001 0.553198 -0.000015
0.732608 0.667760 0.590074 -0.000000 0.135526 -0.000142
1.719611 1.071398 1.113899 0.063516 -0.006567 0.006339
1.450895 0.569317 0.599473 -0.063483 -0.007640 0.006911
1.488547 0.397352 0.404650 -0.072495 0.006443 -0.006695
3.573186 0.694041 0.598143 0.000001 0.446657 -0.000010
3.808144 0.801163 0.511921 -0.000001 0.717617 0.000914
3.880283 0.570354 0.573713 0.000000 -0.717616 0.001119
3.936940 0.797274 0.544253 -0.000000 -0.717617 -0.001119
3.897659 0.529160 0.820521 0.000000 -0.717616 -0.001119
0.791787 0.697341 0.599862 -0.000000 0.477947 -0.000036
2.194228 0.653649 0.762491 0.000000 -0.029892 0.000162
3.478312 0.742332 0.679327 -0.000000 0.999543 0.000000
2.034540 0.570099 0.662854 -0.000000 -0.986227 -0.000013
1.707542 1.038640 0.290874 0.055601 0.008291 0.007959
1.765874 0.195668 0.196281 0.063515 0.005185 -0.005015
1.568753 0.767924 0.536805 0.063515 -0.006049 -0.005844
3.869080 0.576553 0.711010 -0.000000 -0.917692 0.000008
1.576799 0.522072 0.836454 0.063514 0.006049 0.005844
4.003485 0.571686 0.686964 0.148282 -0.000283 0.000004
2.863042 0.616559 0.753164 0.000000 -0.451288 0.000038
2.330433 0.618577 0.597630 -0.000000 -0.424156 -0.000021
1.560204 0.355684 0.357487 -0.072494 0.005608 -0.005833
3.158935 0.677384 0.759809 0.000000 0.253887 0.000074
3.869080 0.622762 0.756019 0.000000 -0.368626 0.000012
1.404695 0.740121 0.754362 -0.063482 0.010187 -0.009164
1.766827 0.569263 0.680881 -0.000000 -0.999534 0.000000
0.119644 0.706259 0.732880 -0.267166 0.000103 0.000109
2.884646 0.742374 0.673850 0.000008 0.079216 -0.000000
1.975361 0.661333 0.589414 0.000000 0.075415 -0.000128
4.051628 0.659504 0.636435 1.000000 0.000000 0.000000
3.750722 0.734996 0.640777 0.000000 0.917692 -0.000004
3.662611 0.820855 0.860157 -0.000001 0.717617 -0.000628
3.661814 0.767305 0.804979 -0.000002 0.717616 -0.001257
1.697485 1.112757 0.193250 0.063516 -0.011750 -0.011214
1.857004 0.570370 0.690547 0.000000 -0.985139 0.000002
1.265217 0.613632 0.600175 0.000000 -0.477836 -0.000018
1.488547 0.914196 0.404650 -0.072495 -0.006443 -0.006695
1.502627 0.377580 0.967511 -0.072496 0.006085 0.006325
3.916129 0.398430 0.396561 -0.000001 -0.717617 0.000989
3.965580 0.844511 0.856207 0.000001 -0.717612 0.000494
3.926770 0.430782 0.458222 -0.000000 0.717617 -0.000494
3.898602 0.870515 0.883002 0.000002 -0.717610 0.000494
3.921450 0.904020 0.434261 -0.000000 -0.717617 -0.000494
3.954939 0.876862 0.917867 -0.181948 0.006816 -0.007012
1.735702 0.186454 1.167758 0.063517 0.005184 0.005015
2.567148 0.577580 0.713239 0.000000 -0.891702 0.000001
2.944765 0.651768 0.762435 0.000000 -0.030380 0.000319
1.668319 0.767175 0.805112 0.063514 -0.013046 0.012403
1.386655 0.538514 0.550243 -0.072494 0.004176 -0.004349
1.450895 0.569317 0.752314 -0.063483 -0.007640 -0.006911
1.584845 0.500520 0.493861 0.063515 0.006049 -0.005844
1.576799 0.810835 0.815726 -0.063482 0.009023 -0.008138
1.545873 1.004951 0.311870 -0.072497 -0.010976 -0.011321
1.509415 0.298835 1.043687 -0.063482 -0.013387 -0.011935
3.666181 0.660271 0.762420 0.000000 0.029876 0.000324
1.796045 1.138443 0.175790 0.063516 -0.005184 -0.005015
1.796045 0.173105 0.175790 0.063514 0.005185 -0.005015
1.741737 0.316644 0.333205 0.055601 -0.018157 0.016753
1.409876 0.569253 0.671233 -0.000000 -0.999531 -0.000000
1.419269 0.742402 0.674749 0.000000 0.999543 -0.000000
0.969323 0.623257 0.595572 0.000002 -0.363161 -0.000025
3.869080 0.741461 0.688852 0.000000 0.990777 0.000000
3.514007 0.732657 0.715875 0.000001 0.892108 0.000010
1.592639 0.937327 0.979794 -0.072497 -0.005608 0.005832
3.277292 0.730681 0.632332 -0.000000 0.863456 -0.000011
3.928258 0.579704 0.717389 0.000000 -0.878343 0.000042
3.454829 0.610941 0.750057 0.000000 -0.530187 0.000062
2.567148 0.732657 0.635912 -0.000000 0.892378 -0.000020
1.697485 0.187768 0.203948 0.055602 -0.013422 0.012663
2.487304 0.654875 0.589259 -0.000008 -0.002461 -0.000249
1.619793 1.012289 1.032796 -0.063484 0.006258 -0.005674
2.234620 0.569233 0.679900 0.000000 -0.999532 0.000000
1.738646 0.577129 0.712276 -0.000000 -0.905422 0.000005
2.448791 0.736744 0.706776 0.000000 0.929528 0.000004
0.172894 0.645410 0.761249 -0.060088 -0.000117 0.000771
1.738646 0.614423 0.599745 0.000000 -0.477975 -0.000036
2.212076 0.690741 0.596607 0.000000 0.396567 -0.000090
3.598548 0.569248 0.671397 -0.000000 -0.998278 -0.000000
3.277292 0.579195 0.716455 -0.000000 -0.878063 0.000011
1.587862 0.564710 0.750668 0.055600 -0.013817 -0.013015
2.863042 0.573908 0.647470 0.000001 -0.935857 -0.000004
1.823187 0.656183 0.762543 0.000000 0.030598 0.000040
3.896880 0.830542 0.481648 -0.000002 0.717606 0.000371
0.771121 0.569221 0.679491 0.000000 -0.999543 0.000000
1.641165 0.977739 0.992853 -0.063482 0.006694 -0.006065
1.464358 0.742411 0.675076 0.000000 0.999543 -0.000000
3.218114 0.695063 0.753127 -0.000001 0.451167 0.000077
1.790011 1.268376 1.304229 0.055601 0.014212 -0.013364
3.928258 0.687684 0.595331 0.000001 0.368681 -0.000195
3.336471 0.696300 0.599295 0.000000 0.477947 -0.000018
0.495894 0.596525 0.612654 0.000000 -0.674338 -0.000003
0.094088 0.594611 0.703421 -0.366851 -0.000086 0.000036
0.094088 0.594611 0.648366 -0.366851 -0.000086 -0.000036
3.780781 0.651359 0.589365 -0.000000 -0.030234 -0.000041
2.389612 0.580212 0.718323 0.000000 -0.878368 0.000005
1.393695 0.782921 0.540056 -0.072497 -0.003132 -0.003264
1.604456 0.265801 0.280816 -0.063484 -0.012223 0.010936
1.680388 0.833176 0.504758 0.055602 0.002863 0.002774
1.605462 0.727231 0.769697 0.063515 -0.006049 0.005844
1.600936 0.854132 0.450917 0.063515 -0.020040 -0.018551
1.691451 0.575094 0.771343 0.063516 0.013046 0.012403
1.757828 1.100185 1.128350 0.055600 0.006712 -0.006467
3.151420 0.742428 0.676466 0.000000 0.999883 0.000000
1.620289 0.730763 0.632473 0.000000 0.862625 -0.000003
2.212076 0.577788 0.713683 0.000000 -0.901999 0.000002
2.152897 0.733691 0.637956 0.000000 0.905643 -0.000002
0.588889 0.742300 0.680390 -0.000000 0.999553 0.000000
1.468115 0.656919 0.589266 0.000000 0.030245 -0.000041
1.146859 0.620808 0.596607 0.000000 -0.396556 -0.000090
0.377536 0.736473 0.707461 0.000000 0.929558 0.000031
3.514007 0.731727 0.634183 -0.000000 0.877758 -0.000005
3.869080 0.692601 0.754331 -0.000000 0.424149 0.000083
3.869080 0.579665 0.634470 0.000000 -0.878309 -0.000021
3.919564 0.555468 0.765087 -0.000000 0.717617 0.001119
0.838754 0.653403 0.589302 0.000065 -0.002132 -0.001439
0.470531 0.569241 0.680145 0.000000 -0.999543 0.000000
3.869331 0.775584 0.566603 -0.000000 -0.717616 -0.001119
1.620289 0.577858 0.713831 0.000000 -0.905643 0.000002
0.200000 0.635035 0.591750 0.009993 -0.000601 -0.002287
1.788000 1.042745 1.078125 0.063516 -0.013132 0.012482
1.788000 0.289988 1.056296 0.063513 0.006567 0.006340
1.788000 1.042745 0.273663 0.063515 -0.006567 -0.006340
1.788000 0.268804 0.273663 0.063515 0.013132 -0.012482
1.225764 0.652259 0.762449 -0.000001 -0.030017 0.000322
1.523495 0.279063 0.287726 -0.063483 -0.006112 0.005543
1.563976 1.035500 0.280761 -0.072498 -0.005011 -0.005215
1.568250 0.977417 0.336014 -0.072496 -0.005608 -0.005832
2.803863 0.679517 0.592554 0.000000 0.283082 -0.000066
0.673430 0.698347 0.600410 0.000000 0.478443 -0.000004
3.493600 0.538046 0.568748 0.000000 0.717617 -0.001013
3.437262 0.558549 0.761913 0.000000 0.717616 0.001013
2.034540 0.619874 0.597023 -0.000000 -0.424016 -0.000041
0.318357 0.577895 0.637883 0.000000 -0.892231 -0.000002
2.271255 0.680811 0.758852 -0.000001 0.282083 0.000033
1.600936 0.854132 0.900871 0.063514 -0.020040 0.018551
1.600936 0.457416 0.900871 0.063514 0.020040 0.018551
1.703519 0.789967 0.825380 0.063514 -0.013046 0.012403
0.673430 0.620207 0.596867 0.000000 -0.424639 -0.000010
3.928258 0.614423 0.752042 -0.000001 -0.478017 0.000142
1.738646 0.690365 0.755342 0.000000 0.396574 0.000022
3.336471 0.616741 0.753257 -0.000000 -0.451294 0.000038
1.146859 0.682800 0.593564 0.000000 0.311853 -0.000015
0.259179 0.739230 0.699244 0.000000 0.959180 0.000001
0.555072 0.574159 0.646778 -0.000001 -0.940186 -0.000014
3.454829 0.578891 0.715875 -0.000001 -0.891455 0.000010
1.799063 0.852589 0.470613 0.063514 -0.009332 -0.008961
1.552662 0.586729 0.772037 0.063514 0.012096 0.011533
1.623062 0.583513 0.768917 0.063515 0.006049 0.005844
1.400735 0.514220 0.817530 -0.063481 -0.007640 -0.006911
2.626327 0.735434 0.641791 -0.000000 0.917693 -0.000004
3.645516 0.660026 0.589360 0.000000 0.030234 -0.000041
0.259179 0.690741 0.596607 -0.000000 0.396513 -0.000090
2.721200 0.569164 0.674177 -0.000000 -0.999554 -0.000000
3.843543 0.590742 0.757066 0.000001 -0.717616 -0.000914
3.780367 0.489007 0.861895 -0.000003 -0.717601 -0.000457
0.850966 0.734541 0.712016 -0.000001 0.902887 0.000005
1.467175 0.358152 0.369221 -0.063482 -0.007276 0.006586
2.093719 0.736322 0.707841 0.000000 0.929578 0.000002
0.200000 0.581611 0.720727 0.009989 -0.002046 0.001171
0.181920 0.576872 0.640382 -0.025065 -0.001746 -0.000721
3.437262 0.558549 0.589875 0.000000 0.717616 -0.001013
3.571828 0.749094 0.565573 0.000000 0.717617 0.001520
3.571828 0.562454 0.565573 0.000000 -0.717617 0.001520
3.536362 0.562454 0.786214 0.000000 -0.717616 -0.001520
1.797825 0.688482 0.756140 -0.000000 0.368626 0.000024
1.471872 0.569268 0.670743 0.000001 -0.978612 -0.000000
2.567148 0.733248 0.714707 0.000000 0.891914 0.000005
1.324395 0.696695 0.599510 -0.000000 0.478011 -0.000036
0.949597 0.742330 0.672378 0.000000 0.998278 -0.000000
3.901262 0.466816 0.467027 -0.000001 -0.717613 0.000247
1.608982 0.417262 0.447498 0.055602 -0.005330 0.005149
3.239719 0.651932 0.762439 -0.000001 -0.029607 0.000163
3.070637 0.742281 0.681044 0.000001 0.998200 0.000000
0.163893 0.699811 0.748740 -0.095038 0.000264 0.000409
1.087680 0.578910 0.635875 -0.000001 -0.890356 -0.000010
3.928258 0.734541 0.712016 -0.000000 0.905565 0.000018
2.093719 0.676514 0.760037 0.000000 0.253969 0.000295
2.626327 0.686809 0.756803 0.000000 0.368688 0.000049
3.311109 0.659126 0.589333 0.000000 0.029870 -0.000010
1.691451 0.563553 0.591644 0.055602 -0.014902 0.013971
1.723131 1.266687 1.308693 -0.072497 -0.009068 0.009386
1.527770 0.337146 0.342980 -0.072495 0.005608 -0.005832
0.495894 0.733864 0.713461 0.000000 0.905583 0.000018
1.738646 0.694588 0.598420 -0.000001 0.450941 -0.000038
3.040578 0.579665 0.634470 0.000000 -0.878285 -0.000003
1.679468 0.578467 0.715036 0.000001 -0.891556 0.000010
1.066076 0.742350 0.673032 0.000000 0.999532 -0.000000
1.625074 0.375535 0.403216 0.055601 -0.009870 0.009432
1.617028 0.897236 0.943815 0.063516 -0.018658 0.017377
1.642925 0.257465 1.096793 -0.072496 0.004654 0.004844
3.949774 0.512137 0.513725 -0.000001 -0.717616 0.000742
3.923327 0.814977 0.854100 0.000001 0.717617 -0.000742
2.507969 0.688330 0.595587 0.000000 0.368751 -0.000024
1.621554 0.541213 0.812642 0.063515 0.006049 0.005844
1.631108 0.749587 0.790389 0.063515 -0.006049 0.005844
1.602445 0.499717 0.857146 0.063513 0.006049 0.005844
4.051628 0.674869 0.710626 1.000000 0.000000 0.000000
1.642925 0.247647 0.264523 -0.063483 -0.005530 0.005019
0.081703 0.655774 0.614347 -0.423196 0.000001 -0.000037
1.679468 0.689840 0.596218 -0.000001 0.395610 -0.000045
2.713686 0.650787 0.762405 0.000000 -0.029870 0.000162
4.051628 0.611218 0.741456 0.110650 -0.000208 0.000295
2.212076 0.617911 0.597942 0.000000 -0.424042 -0.000010
2.212076 0.733359 0.714488 0.000000 0.892155 0.000010
4.051628 0.655774 0.675894 1.000000 0.000000 0.000000
3.796401 0.534402 0.564993 0.000003 0.717601 -0.000457
3.808144 0.801163 0.839867 -0.000003 0.717598 -0.000457
3.830050 0.760698 0.798171 0.000002 0.717610 -0.000457
0.969323 0.630737 0.758852 0.000000 -0.282068 0.000016
1.713577 0.155687 0.150306 0.063514 0.010368 -0.009931
3.336471 0.732934 0.715328 0.000001 0.891781 0.000010
0.111021 0.713563 0.630619 -0.300778 0.000102 -0.000075
1.665302 0.271220 1.059275 0.055601 -0.016579 -0.015421
2.448791 0.633057 0.592269 0.000000 -0.253887 -0.000074
3.314866 0.654629 0.762538 0.000000 -0.015304 0.000020
4.003485 0.715747 0.735866 0.125407 0.000936 0.001067
2.418732 0.569268 0.681044 0.000000 -0.999554 0.000000
0.791787 0.632661 0.759414 0.000000 -0.253919 0.000037
2.981399 0.617325 0.598235 -0.000000 -0.451259 -0.000077
1.755817 0.550237 0.779011 0.055602 -0.014902 -0.013971
1.633119 0.354672 0.970712 0.055601 -0.019735 -0.018053
2.744684 0.740405 0.694521 -0.000001 0.966818 0.000001
3.928258 0.617836 0.597977 -0.000000 -0.451289 -0.000306
3.661814 0.544244 0.804979 0.000002 -0.717613 -0.000628
3.619960 0.792859 0.802984 0.000001 -0.717617 0.000971
3.606274 0.497041 0.526495 -0.000001 0.717616 -0.000971
1.625074 0.936013 0.403216 -0.063481 0.007277 0.006586
3.277292 0.734996 0.711010 0.000000 0.917991 0.000017
1.713577 1.155861 1.201482 0.063516 -0.010368 0.009931
1.590376 0.292807 1.057619 -0.072496 0.005131 0.005339
1.617028 0.897236 0.407972 0.063515 -0.018658 -0.017377
3.953213 0.739631 0.776464 -0.000001 0.717617 -0.001073
3.949619 0.397277 0.928090 0.000000 0.717617 0.000989
3.976221 0.513546 0.808285 -0.000000 0.717616 0.001119
3.960259 0.867764 0.471619 -0.000000 -0.717617 -0.000989
3.613682 0.573852 0.774470 -0.000002 -0.717616 -0.000971
3.986862 0.751495 0.760363 0.000002 -0.717617 0.001073
3.613682 0.737697 0.577317 -0.000001 0.717616 0.000971
3.613682 0.751853 0.760732 -0.000001 -0.717617 0.000971
3.757280 0.524421 0.797079 -0.000003 0.717592 0.000386
3.723631 0.775264 0.538608 -0.000003 0.717612 0.000771
3.947892 0.777041 0.786686 -0.000000 -0.717617 0.001119
3.661814 0.544244 0.546809 0.000001 -0.717617 0.001257
3.919564 0.741924 0.572962 -0.000001 0.717617 0.001119
3.955873 0.569388 0.601043 0.000000 0.717618 -0.000537
0.436715 0.736805 0.645163 0.000000 0.940266 -0.000014
1.713577 1.165507 0.159667 -0.063483 0.015714 0.013898
2.152897 0.628710 0.758211 -0.000000 -0.311894 0.000236
1.087680 0.577042 0.712090 0.000001 -0.896826 0.000002
0.137149 0.735845 0.685616 -0.143409 0.000150 0.000014
3.573186 0.575823 0.642467 0.000000 -0.913668 -0.000002
1.432855 0.779666 0.556678 -0.063479 0.003821 0.003474
1.738720 0.833944 0.867478 0.063513 -0.005012 0.004849
0.436715 0.698347 0.751378 -0.000000 0.503962 0.000008
3.750722 0.618133 0.753949 0.000000 -0.423900 0.000021
1.300912 0.655938 0.762553 -0.000000 0.015293 0.000020
2.803863 0.573138 0.701987 0.000000 -0.950131 0.000006
0.732608 0.620432 0.755018 0.000000 -0.396994 0.000011
1.631108 0.749587 0.561398 0.063515 -0.006049 -0.005844
3.797812 0.410199 0.921855 0.085331 0.016328 0.011110
3.797812 0.410199 0.429932 0.085331 0.016328 -0.011110
1.723634 0.220590 1.116110 0.055600 -0.007502 -0.007215
1.641165 0.977739 0.358934 -0.063483 0.006694 0.006065
1.633119 0.940341 0.986760 0.063515 -0.017277 0.016182
0.528771 0.660434 0.762415 0.000001 0.030014 0.000322
1.421415 0.589793 0.732623 -0.063482 -0.010187 -0.009164
3.963854 0.618425 0.728542 0.097358 -0.002374 0.002446
2.744684 0.722579 0.620698 -0.000000 0.777319 -0.000008
0.137149 0.627172 0.751311 -0.199008 -0.000083 0.000200
3.099756 0.575839 0.709358 0.000000 -0.917796 0.000008
1.639154 0.524390 0.555472 0.055602 -0.013817 0.013015
3.514007 0.577025 0.712053 0.000000 -0.905587 0.000009
2.093719 0.736322 0.643946 0.000000 0.929553 -0.000031
2.527696 0.569219 0.679409 0.000000 -0.999553 0.000000
1.691451 0.736455 0.580444 0.063514 -0.013046 -0.012403
3.573186 0.632503 0.592415 0.000000 -0.283083 -0.000066
3.307352 0.742281 0.681044 -0.000000 0.999532 0.000000
1.531990 0.742281 0.670743 0.000001 0.978612 -0.000000
1.589119 1.075934 0.239464 -0.072498 -0.004534 -0.004720
3.965580 0.467038 0.856207 0.000001 0.717615 0.000494
1.582330 0.314359 0.315641 -0.072495 0.005131 -0.005339
3.573186 0.577823 0.713757 0.000000 -0.905643 0.000002
2.567148 0.579978 0.633895 -0.000000 -0.878097 -0.000005
3.726299 0.651359 0.589365 0.000000 -0.030245 -0.000020
1.582079 1.066048 1.102136 -0.072498 -0.004653 0.004844
1.582079 0.245501 0.249651 -0.072495 0.004654 -0.004844
2.190471 0.657246 0.589276 0.000000 0.029870 -0.000162
0.614251 0.688938 0.595828 0.000000 0.396600 -0.000045
1.582330 1.005113 1.028457 -0.063483 0.013387 -0.011935
0.200000 0.737696 0.647624 0.009990 0.002251 -0.000721
1.640662 0.566820 0.599071 0.055601 -0.006909 0.006654
3.843543 0.720807 0.757066 0.000002 0.717590 -0.000228
1.212613 0.656919 0.589266 0.000000 0.030234 -0.000041
1.616022 0.491689 0.523626 0.055604 -0.003455 0.003346
1.767885 0.502753 0.512888 0.063515 0.005012 -0.004849
3.232204 0.742347 0.678837 -0.000000 0.999543 0.000000
3.099756 0.692193 0.754522 0.000001 0.423327 0.000041
1.692959 0.107738 0.106412 -0.072497 0.010976 -0.011321
1.729668 1.207233 1.236402 -0.063482 0.013387 -0.011935
3.957378 0.742398 0.678429 0.000000 0.999883 0.000000
1.757828 1.079000 0.245266 0.055603 0.007501 0.007215
1.757828 0.232548 0.245266 0.055602 -0.015000 0.014057
1.823187 0.660271 0.589368 0.000000 0.030620 -0.000158
1.775931 0.402749 0.932593 0.055602 -0.009870 -0.009432
1.620289 0.618133 0.753949 -0.000000 -0.424162 0.000041
3.066879 0.651114 0.762415 -0.000001 -0.029653 0.000163
3.487706 0.660434 0.762415 0.000001 0.029607 0.000163
4.019532 0.605268 0.610072 0.114159 -0.000848 -0.001268
3.836944 0.873266 0.465950 0.000000 -0.717617 -0.000494
1.646590 0.651114 0.762415 -0.000001 -0.029653 0.000163
0.614251 0.734558 0.711979 0.000000 0.905643 0.000002
3.728313 0.709171 0.606711 0.097356 0.004748 -0.004887
0.555072 0.575377 0.708221 0.000000 -0.929552 0.000015
1.649211 0.983445 0.322083 0.063514 -0.015896 -0.014967
3.630525 0.471081 0.859123 0.085331 0.016328 0.011110
2.152897 0.575227 0.643946 0.000000 -0.929578 -0.000001
0.987171 0.742372 0.673768 0.000000 0.999543 -0.000000
1.638902 1.053470 1.076194 -0.063486 0.005675 -0.005150
0.297692 0.658065 0.762521 0.000000 0.015304 0.000080
3.010519 0.650624 0.762400 0.000001 -0.029642 0.000163
1.424905 0.657409 0.589281 0.000000 0.029870 -0.000021
2.626327 0.573266 0.702375 0.000001 -0.945523 0.000003
0.032010 0.629759 0.691620 -0.610039 -0.000019 0.000011
1.620289 0.688026 0.756321 -0.000000 0.364366 0.000006
1.357272 0.742377 0.677856 -0.000016 0.019373 0.000000
1.530112 0.657246 0.589276 0.000000 0.030245 -0.000041
3.963854 0.693124 0.728542 0.097358 0.002374 0.002446
1.562467 0.874450 0.916476 -0.072497 -0.013123 0.013471
1.568250 0.334132 1.015773 -0.072496 0.005608 0.005832
1.738646 0.737111 0.705778 -0.000001 0.938258 0.000004
1.797051 0.828514 0.851554 0.055603 0.005725 -0.005527
3.521768 0.769597 0.807341 0.000000 0.717616 -0.001013
3.916129 0.384274 0.941487 0.000000 0.717617 0.000989
3.437262 0.738843 0.576136 0.000001 0.717616 0.001013
3.508193 0.738843 0.576136 0.000000 0.717616 0.001013
3.859792 0.404777 0.431426 -0.000000 0.717618 -0.000494
3.887961 0.917023 0.930924 -0.000001 -0.717616 0.000494
3.695462 0.532380 0.788878 -0.000002 0.717614 0.000628
3.690780 0.845262 0.494806 -0.000001 -0.717617 -0.001331
3.695462 0.779169 0.562909 0.000003 -0.717607 -0.000628
3.690780 0.466286 0.856982 -0.000000 0.717617 0.001331
3.893281 0.879613 0.920702 0.000001 0.717616 -0.000494
3.606274 0.497041 0.825292 -0.000000 0.717617 0.000971
3.747118 0.865765 0.473679 -0.000000 -0.717617 -0.001616
3.549937 0.517543 0.804165 0.000000 0.717616 0.001520
3.723631 0.536284 0.538608 -0.000002 -0.717615 0.000771
3.747118 0.851609 0.891846 0.000001 0.717617 -0.001616
3.619960 0.532846 0.816723 -0.000001 -0.717617 -0.000971
3.599996 0.538046 0.568748 -0.000001 0.717616 -0.000971
3.757280 0.772972 0.810818 0.000002 0.717608 -0.000386
3.747118 0.445783 0.473679 0.000000 0.717616 -0.001616
3.571828 0.763251 0.772476 0.000000 -0.717617 0.001520
3.634443 0.500945 0.502194 0.000000 -0.717617 0.001045
3.775286 0.861861 0.449378 -0.000002 0.717612 0.000457
0.791787 0.576066 0.709884 0.000000 -0.918086 0.000002
2.956037 0.657900 0.589296 0.000000 0.030245 -0.000020
1.797051 0.506717 0.832149 0.063514 0.002506 0.002430
3.294909 0.576088 0.758003 0.085331 -0.005778 -0.007811
2.981399 0.688330 0.595587 0.000000 0.368875 -0.000012
0.069625 0.619052 0.717345 -0.462492 -0.000040 0.000042
1.655245 0.465528 0.464238 0.063514 0.010023 -0.009609
1.558444 0.433233 0.891531 -0.063483 -0.008004 -0.007235
1.663291 0.867572 0.442766 0.063515 -0.009332 -0.008960
1.528745 0.752435 0.555684 -0.072496 -0.005772 -0.006002
1.521862 0.564710 0.750668 -0.063483 -0.014078 -0.012522
1.528745 0.771748 0.777360 -0.063485 0.007040 -0.006374
4.003485 0.715747 0.615921 0.125408 0.001067 -0.000936
3.869080 0.691266 0.596834 0.000000 0.396380 -0.000011
3.648128 0.508438 0.538240 0.000000 0.717617 -0.000523
3.752198 0.826447 0.837594 0.000000 -0.717617 0.001616
3.742796 0.556321 0.587579 0.000001 0.717616 -0.000771
3.662213 0.808236 0.532958 0.000003 -0.717608 -0.000628
3.742796 0.755227 0.587579 -0.000001 -0.717616 -0.001542
1.657256 0.292083 0.314653 0.055602 -0.008291 0.007959
1.883305 0.651114 0.589373 -0.000001 -0.029579 -0.000164
0.335266 0.656429 0.762546 0.000000 0.015119 0.001301
1.797051 0.474940 0.486895 0.063516 0.005012 -0.004849
1.680388 0.843768 0.857944 0.055603 0.005725 -0.005527
0.354052 0.651032 0.589375 -0.000000 -0.030245 -0.000020
1.715085 1.245135 0.064566 -0.072497 -0.009068 -0.009386
1.544616 0.727382 0.727162 -0.000001 -0.696436 -0.000400
1.028502 0.735320 0.641528 0.000000 0.918086 -0.000004
1.146859 0.686505 0.756924 -0.000000 0.368626 0.000012
3.395650 0.623675 0.756381 0.000000 -0.368657 0.000098
1.797825 0.738998 0.700028 0.000001 0.957115 0.000003
1.561110 0.717224 0.614791 -0.000001 0.716939 -0.000019
3.277292 0.616084 0.598863 -0.000000 -0.451160 -0.000019
1.577553 0.392053 0.934929 -0.063483 -0.007422 -0.006716
0.877267 0.742335 0.679246 0.000004 0.287347 0.000000
2.360492 0.655284 0.762541 0.000000 -0.030245 0.000041
1.753805 1.263621 0.042944 0.063517 -0.012441 -0.011850
1.579816 0.606673 0.602782 0.063514 0.012096 -0.011533
3.886706 0.816777 0.827630 -0.000000 -0.717617 0.001119
3.836473 0.489424 0.861465 -0.000000 -0.717617 -0.001119
3.808144 0.496229 0.525659 0.000001 0.717617 -0.000914
3.858378 0.529889 0.532017 0.000000 -0.717617 0.001119
3.858378 0.781660 0.819770 0.000000 0.717616 -0.001119
3.886706 0.494771 0.827630 -0.000001 0.717617 0.001119
3.886706 0.494771 0.524157 -0.000001 0.717617 -0.001119
3.908612 0.776313 0.565852 -0.000000 -0.717616 -0.001119
3.869331 0.535965 0.566603 -0.000000 0.717616 -0.001119
3.858378 0.781660 0.532017 0.000000 0.717617 0.001119
3.836473 0.489424 0.490322 -0.000000 -0.717617 0.001119
3.919564 0.756080 0.765087 -0.000000 -0.717616 0.001119
3.886706 0.816777 0.524157 -0.000000 -0.717616 -0.001119
1.671337 0.912980 0.928536 0.055602 0.021312 -0.019318
2.271255 0.736639 0.707043 -0.000000 0.929552 0.000015
3.853575 0.389906 0.942766 0.085330 0.016329 0.011110
3.853575 0.914565 0.402152 0.085331 0.011794 0.015833
3.898602 0.441033 0.883002 -0.000001 0.717616 0.000494
3.924110 0.419155 0.905546 0.000000 0.717617 0.000494
3.806115 0.451063 0.900993 0.000000 -0.717617 -0.000494
3.831623 0.882364 0.428251 0.000001 0.717615 0.000494
3.862452 0.416404 0.908381 0.000001 0.717614 0.000494
3.929430 0.854984 0.456464 -0.000002 0.717610 0.000494
2.484486 0.659944 0.762430 -0.000000 0.030598 0.000158
1.798057 0.022310 0.025417 0.055602 -0.014211 0.013364
0.521256 0.660271 0.589368 -0.000001 0.030017 -0.000322
1.665302 1.026549 0.279139 0.063514 -0.014514 -0.013733
0.605797 0.651686 0.762432 0.000000 -0.029870 0.000005
0.069625 0.709543 0.662641 -0.462494 0.000057 -0.000012
0.318357 0.735839 0.642730 0.000000 0.929559 -0.000031
2.626327 0.622160 0.755764 -0.000000 -0.396421 0.000045
3.634443 0.824759 0.835855 0.000000 -0.717616 0.001045
1.577553 0.905888 0.403652 -0.072495 -0.012169 -0.012519
4.019532 0.644945 0.593638 0.114160 -0.000095 -0.001454
2.946643 0.569243 0.680227 -0.000001 -0.979809 0.000000
0.732608 0.572342 0.699322 0.000000 -0.959110 0.000003
3.463238 0.531962 0.796390 0.085332 0.016328 0.011110
1.709554 0.463650 0.487255 0.055601 -0.005725 0.005527
1.663291 0.433384 0.919936 0.063515 0.009332 0.008960
1.639154 0.787158 0.796315 0.055600 0.013817 -0.013015
1.590230 0.742402 0.674749 0.000000 0.999543 -0.000000
2.803863 0.736020 0.643186 -0.000000 0.929486 -0.000008
1.916182 0.737584 0.704471 0.000000 0.940266 0.000007
1.916182 0.691934 0.597144 0.000000 0.424042 -0.000021
1.028502 0.685121 0.757425 -0.000000 0.340365 0.000053
2.093719 0.682800 0.593564 -0.000000 0.311894 -0.000236
1.826217 0.044620 1.305633 0.063517 0.009677 0.009285
