1.858366 0.108867 1.082607 -0.080031 -0.009386 -0.011056
1.766908 1.238374 0.202897 -0.099947 -0.005163 -0.007329
1.858366 0.108867 0.086689 -0.080031 -0.009386 0.011056
1.597058 0.535170 0.418712 -0.080030 -0.011191 0.013145
1.662385 0.428594 0.833590 -0.080030 -0.009026 -0.010637
1.923693 0.002292 0.003683 0.000000 -0.788948 -0.000304
1.897563 1.451526 0.036885 -0.099948 -0.009293 -0.013152
1.923693 1.494156 1.165613 0.000000 0.788944 0.000304
3.578409 0.815598 0.539818 0.000000 0.824979 -0.000006
0.377811 0.809681 0.531995 0.000000 0.769326 -0.000031
3.139056 0.667423 0.580522 0.000000 -0.999531 -0.000000
2.807895 0.800038 0.522494 0.000000 0.638756 -0.000022
3.955670 0.753050 0.503869 -0.000063 0.004265 -0.001373
2.689354 0.789089 0.654494 0.000000 0.513117 0.000031
2.926435 0.799859 0.646951 0.000000 0.638844 0.000044
3.044976 0.807604 0.639623 -0.000000 0.726298 0.000004
1.148325 0.691006 0.641866 0.000000 -0.707107 0.000005
0.733433 0.689111 0.639907 0.000000 -0.728575 0.000017
2.689354 0.801986 0.524171 -0.000000 0.662151 -0.000010
0.911244 0.805772 0.527761 0.000000 0.706937 -0.000018
0.377811 0.797086 0.649158 0.000000 0.614445 0.000012
3.282058 0.800877 0.523191 0.000000 0.662937 -0.000003
0.377811 0.686717 0.532055 -0.000001 -0.761814 -0.000004
3.104246 0.688030 0.530565 0.000001 -0.740684 -0.000004
2.926435 0.803256 0.525322 -0.000000 0.684984 -0.000039
4.029644 0.855618 0.514948 -0.000001 -0.614465 -0.001350
3.993302 0.703522 0.652110 -0.182944 -0.000123 0.000192
2.807895 0.810477 0.636343 -0.000000 0.769098 0.000002
0.448371 0.667326 0.582701 0.000000 -0.999883 -0.000000
3.163517 0.822810 0.553248 0.000000 0.926725 -0.000004
1.741029 0.692738 0.643548 -0.000000 -0.685027 0.000010
1.691282 1.039204 0.816983 -0.099947 -0.003485 0.004951
0.119262 0.695069 0.536191 -0.248884 -0.000116 -0.000112
1.727858 0.829133 0.584025 0.000000 0.999519 -0.000000
1.877771 0.544461 0.731107 0.064060 -0.004456 -0.005707
1.818708 1.216211 0.957168 -0.099948 -0.005163 0.007329
3.574557 0.647882 0.492554 0.000000 -0.614464 0.000827
3.787203 0.579576 0.467241 -0.000004 0.614397 -0.000361
0.200000 0.779769 0.510121 0.029589 0.000308 -0.000698
1.563218 0.697949 0.648057 -0.000000 -0.614782 0.000024
3.595450 0.483170 0.791084 0.235794 -0.001084 -0.003317
1.827009 0.255467 0.193682 -0.099948 0.005163 -0.007329
4.018068 0.471385 0.800262 -0.399689 -0.001129 -0.001687
1.992940 0.259815 0.968635 0.080089 0.004178 0.005358
0.970514 0.687360 0.531324 0.000001 -0.731323 -0.000004
3.555338 0.577365 0.437632 -0.000001 -0.614464 0.000827
3.760947 0.653120 0.672663 -0.000000 -0.614464 -0.000631
1.142681 0.752272 0.503845 0.000000 0.030614 -0.000151
3.717598 0.465379 0.790997 0.000001 0.614461 0.000361
3.752401 0.522478 0.746526 -0.000003 0.614441 0.000361
1.978110 0.675208 0.619527 0.000001 -0.892436 0.000002
1.827009 1.240981 0.193682 -0.099948 -0.005163 -0.007329
1.715031 0.412886 0.318188 -0.099948 0.003227 -0.004584
2.828593 0.667348 0.586361 0.000000 -0.999531 0.000000
0.652524 0.744565 0.665464 0.000000 -0.031378 0.000009
3.855421 0.613590 0.675563 -0.000002 0.614464 0.001366
3.679272 0.613480 0.703536 -0.000000 -0.614464 -0.000540
3.798513 0.636418 0.511512 0.000004 0.614451 -0.000723
3.647949 0.896829 0.482851 0.000003 -0.614443 -0.000540
3.747565 0.397251 0.311295 0.235796 -0.001084 0.003317
1.622163 0.871236 0.478978 -0.099948 -0.007185 -0.010187
1.622163 0.625212 0.478978 -0.099949 0.007185 -0.010187
1.115397 0.667370 0.587061 0.000000 -0.999508 0.000000
2.850231 0.829085 0.586828 0.000000 0.999531 0.000000
1.859569 0.785265 0.512705 0.000000 0.459561 -0.000036
3.966061 0.574232 0.435192 0.000000 -0.614466 0.001012
2.307390 0.667432 0.589085 0.000000 -0.999531 0.000000
0.674163 0.667775 0.593354 0.000000 -0.994161 0.000001
3.459869 0.799589 0.647175 0.000001 0.638780 0.000044
2.511543 0.826063 0.562501 0.000000 0.965944 -0.000010
1.563218 0.801665 0.645409 -0.000001 0.660549 0.000010
1.980489 1.077677 0.846102 0.080089 -0.005653 0.007240
1.089055 0.682699 0.537167 0.000001 -0.806562 -0.000014
2.028217 1.055673 0.345193 0.080091 -0.011304 -0.014373
2.028217 1.104394 0.307247 0.080089 -0.010322 -0.013145
1.029785 0.827387 0.601427 -0.000000 0.979988 0.000002
3.848975 0.339971 0.266683 0.235794 -0.001084 0.003317
3.967330 1.007103 0.369078 -0.000002 0.614460 0.000603
3.990022 0.600685 0.685614 0.000001 0.614465 0.000675
1.746002 0.648884 0.530240 0.064061 -0.010753 0.013617
1.837306 0.401480 0.295146 0.080090 0.005653 -0.007240
1.848375 1.287066 0.158634 -0.099948 -0.009293 -0.013152
1.848375 1.287066 1.010662 -0.099949 -0.009293 0.013152
2.215191 0.811992 0.534834 -0.000000 0.788698 -0.000007
1.793039 0.215443 0.169695 -0.080030 -0.010830 0.012729
3.595969 0.563433 0.742515 -0.000000 -0.614465 -0.002020
3.675793 0.543205 0.730383 -0.000001 0.614463 0.000298
1.738779 1.127920 0.284063 -0.099950 -0.005938 -0.008425
3.578409 0.812782 0.633449 0.000000 0.788280 0.000002
1.721267 0.873656 0.505641 -0.080030 0.010048 0.011824
1.754302 0.649179 0.689685 0.080092 0.004301 0.005514
1.871546 0.594670 0.449098 0.080090 0.009278 -0.011833
2.511543 0.702719 0.651560 0.000000 -0.565155 0.000054
3.104246 0.764278 0.663958 0.000000 0.198856 0.000182
3.739286 0.746277 0.503750 0.000000 -0.015300 -0.000038
3.244426 0.751260 0.665483 -0.000000 0.030614 0.000010
1.860133 0.497793 0.372484 0.080090 0.006636 -0.008491
1.857059 0.244764 0.968154 -0.080030 -0.006138 -0.007258
1.724175 0.588851 0.728429 -0.099949 0.004389 0.006232
1.886072 0.988200 0.759986 0.064060 0.004456 -0.005707
1.563218 0.696499 0.522420 -0.000000 -0.638792 -0.000022
1.836788 0.826981 0.665483 0.080091 -0.008602 0.010981
1.570414 0.644136 0.498649 -0.099949 0.006024 -0.008546
2.737335 0.829056 0.587762 0.000000 0.999531 0.000000
1.775977 1.132519 0.876187 -0.080032 0.008303 -0.009795
3.696950 0.821660 0.550648 0.000000 0.901953 -0.000001
4.060399 0.748224 0.491074 -0.213275 0.000003 -0.000214
2.985706 0.673477 0.615651 0.000001 -0.917538 0.000002
1.998128 0.920207 0.721660 0.080092 -0.001782 0.002287
1.998128 0.576241 0.447636 0.080090 0.001782 -0.002287
3.802602 0.945920 0.416730 -0.000002 0.614452 0.000390
3.802602 0.945920 0.752566 -0.000005 0.614377 -0.000390
3.874764 0.902501 0.478433 -0.000001 -0.614465 -0.001366
3.882948 0.555746 0.420795 0.000001 -0.614465 0.001366
1.982564 0.122292 1.068437 0.064060 -0.015974 -0.019903
1.916161 1.001421 0.376035 0.080090 -0.006636 -0.008491
2.511543 0.674771 0.550683 0.000000 -0.901875 -0.000004
3.637680 0.678978 0.542780 -0.000000 -0.858153 -0.000022
2.772145 0.752194 0.503842 0.000000 0.030614 -0.000301
1.189721 0.745188 0.665483 -0.000001 -0.031138 0.000296
1.762527 1.172278 0.919358 -0.099949 -0.002711 0.003852
4.010076 0.787302 0.659106 -0.178362 0.000120 0.000201
0.662873 0.744643 0.503830 0.000000 -0.030614 -0.000019
0.901836 0.745188 0.665483 -0.000008 -0.002077 0.000282
3.961465 0.882837 0.493749 0.000002 -0.614461 -0.000675
1.965963 1.277370 0.177591 0.064063 0.005224 0.006685
4.029644 0.640830 0.654348 0.000001 0.614465 0.001350
3.985383 1.067894 0.819678 -0.000000 -0.614464 0.000904
1.972189 0.487285 0.783320 0.064061 -0.008296 -0.010564
1.797342 0.318581 0.912182 -0.080030 -0.003791 -0.004491
1.661001 0.984189 0.774557 -0.099949 -0.003743 0.005317
1.859095 0.641165 0.654270 0.064059 -0.005377 -0.006880
2.028217 1.006953 0.786158 0.080090 -0.003072 0.003942
1.739009 0.943025 0.755176 -0.099948 -0.008261 0.011702
0.314777 0.743709 0.503859 -0.000000 -0.030996 -0.000019
2.000203 0.969030 0.409822 0.080090 -0.006636 -0.008491
1.720180 1.020508 0.381699 -0.080029 0.009748 0.011476
1.622488 0.709121 0.513804 0.000000 -0.486330 -0.000017
1.974264 1.345331 0.114100 0.080092 -0.006390 -0.008179
1.654475 0.667437 0.580055 0.000000 -0.999531 -0.000000
3.967330 0.475825 0.386436 0.000000 0.614465 -0.000603
0.792703 0.759480 0.504516 -0.000000 0.138122 -0.000265
1.681758 0.794629 0.518353 -0.000000 0.565128 -0.000027
1.444677 0.786885 0.513558 0.000000 0.475982 -0.000004
3.967330 1.007103 0.800218 -0.000001 0.614464 -0.001205
2.001240 1.334483 1.044000 0.080088 -0.006390 0.008179
2.001240 0.161965 0.125296 0.080091 0.006390 -0.008179
1.984639 0.369846 0.883784 0.080089 0.010322 0.013145
1.880884 1.072759 0.852416 0.080090 -0.006144 0.007866
1.880884 0.423688 0.852416 0.080090 0.012287 0.015595
2.274462 0.819163 0.623581 0.000000 0.873675 0.000005
1.860133 0.482865 0.777645 0.064060 -0.004148 -0.005315
2.558583 0.829061 0.587606 -0.000000 0.999531 0.000000
1.800473 0.825188 0.501511 0.080092 -0.004301 -0.005515
4.001981 0.974772 0.775037 -0.399687 0.001181 -0.001764
1.961813 0.602586 0.476622 0.064061 -0.011598 0.014654
1.800299 0.828618 0.593858 -0.000001 0.993686 0.000002
3.815490 0.704571 0.516514 0.000000 -0.539423 -0.000029
0.851974 0.814365 0.631278 0.000000 0.824979 0.000006
1.677448 0.578062 0.439016 -0.099948 0.008777 -0.012428
1.757992 0.505611 0.791147 -0.099948 0.003873 0.005500
3.874761 0.798898 0.521551 0.000000 0.614470 -0.000006
1.882806 1.354466 1.062311 -0.099950 -0.007228 0.010247
2.952778 0.752661 0.665440 -0.000000 0.030614 0.000151
1.842635 0.667384 0.587528 0.000000 -0.999531 0.000000
3.065674 0.829044 0.588151 0.000000 0.999531 0.000000
1.746002 0.822499 0.671238 0.080090 -0.008602 0.010982
1.768675 0.482568 0.360626 -0.099948 0.003614 -0.005134
2.452273 0.827243 0.602113 0.000000 0.973382 0.000002
2.940547 0.667377 0.587295 0.000000 -0.999531 0.000000
2.960304 0.829020 0.580367 0.000000 0.999531 -0.000000
3.459869 0.794436 0.518221 -0.000000 0.563157 -0.000007
3.325334 0.747211 0.503735 0.000000 -0.016065 -0.000036
0.318541 0.792795 0.652194 -0.000000 0.537341 0.000007
3.696950 0.676442 0.622001 0.000000 -0.887150 0.000005
1.786276 0.279813 0.953483 -0.099947 0.004905 0.006964
2.155921 0.769130 0.662820 0.000000 0.258711 0.000017
3.647345 0.500552 0.405694 -0.000003 0.614420 -0.000298
1.385407 0.780624 0.658798 -0.000000 0.397761 0.000005
2.689354 0.685373 0.635624 0.000000 -0.769318 0.000015
3.874761 0.706089 0.515562 0.000000 -0.513131 -0.000031
1.782316 0.672156 0.500360 0.080092 0.004301 -0.005515
3.594403 0.751649 0.503825 0.000000 0.030996 -0.000019
2.748625 0.757666 0.665017 -0.000000 0.107760 0.000085
3.961123 1.070332 0.319833 -0.000000 0.614466 0.000904
1.903710 0.192262 0.161771 0.064061 -0.004609 0.005903
1.903710 1.304186 1.007525 -0.080030 0.010830 -0.012729
3.341328 0.820819 0.620405 0.000000 0.897255 0.000002
3.974318 0.375485 0.861010 -0.000002 0.614464 0.001205
1.872583 1.047989 0.335327 0.080091 -0.006144 -0.007866
0.318541 0.704571 0.652782 0.000000 -0.539466 0.000058
1.622488 0.824228 0.556875 0.000000 0.933160 -0.000002
0.200000 0.667909 0.594593 0.029590 -0.000759 0.000082
3.920013 0.639631 0.655282 -0.000002 0.614460 0.000675
0.136893 0.797756 0.642463 -0.180253 0.000156 0.000171
2.452273 0.712643 0.511969 -0.000000 -0.431714 -0.000039
1.225471 0.667320 0.585427 0.000000 -0.999519 0.000000
3.724254 0.953571 0.758525 -0.000003 0.614428 -0.000344
3.888690 0.639289 0.513748 -0.000002 0.614459 -0.000675
3.841173 0.419719 0.314851 -0.000000 -0.614464 0.000904
1.669147 0.893616 0.457463 -0.099948 -0.008777 -0.012428
1.711879 0.985786 0.781929 -0.099947 -0.003873 0.005500
1.749691 0.530381 0.396596 -0.099949 0.003872 -0.005500
1.622488 0.784297 0.512204 0.000000 0.459111 -0.000009
1.677448 0.566636 0.715609 -0.080030 -0.011191 -0.013145
0.496352 0.782049 0.511128 0.000000 0.431997 -0.000039
1.919273 0.840729 0.647831 0.064061 0.011598 -0.014654
3.935674 0.843127 0.672506 -0.000000 0.614465 -0.000675
3.634026 0.641344 0.487462 0.000002 -0.614463 0.000896
3.600048 0.829127 0.586284 0.000000 0.999883 0.000000
1.650318 0.529588 0.419599 -0.080029 -0.005596 0.006621
1.870508 1.208055 0.239343 -0.080029 0.006860 0.008106
0.496352 0.712013 0.512276 -0.000000 -0.458839 -0.000018
1.991902 0.661809 0.513646 0.080090 0.008602 -0.010982
1.052364 0.752038 0.665459 -0.000000 0.030614 0.000151
3.918137 0.407218 0.333001 0.000001 0.614463 -0.000452
3.966656 0.452650 0.828797 -0.000001 -0.614460 -0.000452
1.759845 0.667353 0.586516 0.000000 -0.999531 0.000000
1.882806 1.354466 0.106985 -0.099948 -0.007228 -0.010247
0.614892 0.704571 0.652782 0.000000 -0.539423 0.000014
3.968785 1.133978 0.899034 -0.399690 0.001181 -0.001764
3.104246 0.787905 0.514126 -0.000000 0.486489 -0.000033
2.393003 0.682285 0.537733 0.000000 -0.808008 -0.000002
3.298992 0.745188 0.665483 0.000000 -0.030614 0.000038
3.028042 0.667384 0.587528 0.000000 -0.999531 0.000000
1.762603 0.600819 0.677842 0.064060 -0.005377 -0.006880
3.772716 0.515512 0.417345 0.000002 0.614462 -0.000780
3.519139 0.708304 0.514259 0.000000 -0.486552 -0.000008
1.885034 0.411303 0.307657 0.080090 0.005653 -0.007240
1.800299 0.796082 0.649897 -0.000000 0.589949 0.000013
2.452273 0.668424 0.598060 -0.000001 -0.980091 0.000002
3.752965 0.868180 0.477278 0.000001 0.614458 0.000316
1.988790 1.199888 0.940439 0.080090 -0.004670 0.005986
1.988790 1.175527 0.247830 0.080090 -0.009339 -0.011911
2.511543 0.786851 0.655757 0.000001 0.486053 0.000033
4.033942 0.547516 0.740969 -0.399688 -0.001129 -0.001687
1.914086 1.208380 0.954661 0.080089 -0.004670 0.005986
3.608453 0.940067 0.748007 -0.000001 0.614463 -0.001010
0.614892 0.793504 0.651714 -0.000000 0.564594 0.000013
2.985706 0.700491 0.519307 -0.000002 -0.589616 -0.000051
1.610123 0.513855 0.767185 -0.080030 -0.010469 -0.012312
4.010076 0.778042 0.506023 -0.176588 0.000287 -0.000921
4.010076 0.826849 0.554830 -0.182110 0.000218 -0.000073
3.888690 0.857159 0.655548 0.000001 -0.614465 0.000675
1.724175 0.924737 0.706422 -0.080030 0.005596 -0.006621
1.841457 0.573479 0.705552 0.064060 -0.011598 -0.014654
3.222787 0.760638 0.504678 0.000000 0.168523 -0.000108
1.622488 0.712432 0.657227 0.000001 -0.431712 0.000039
3.772918 1.113517 0.869155 0.235798 0.001068 -0.003267
1.698814 0.531977 0.765328 -0.099948 0.004131 0.005866
2.155921 0.678798 0.626215 0.000001 -0.854780 0.000006
0.318541 0.825366 0.560189 -0.000001 0.841886 -0.000001
1.622488 0.783735 0.657361 -0.000000 0.431958 0.000077
0.259270 0.695630 0.523141 0.000001 -0.623804 -0.000003
1.754302 0.847269 0.479612 0.080091 -0.004301 -0.005515
1.583993 0.939963 0.435314 -0.099948 -0.004389 -0.006232
4.018579 0.895168 0.713038 -0.399693 0.000590 -0.000882
1.266866 0.803653 0.525695 0.000000 0.684959 -0.000005
0.259270 0.790292 0.515522 0.000000 0.513285 -0.000062
0.926297 0.667358 0.586672 0.000000 -0.999519 0.000000
1.503947 0.795171 0.650564 -0.000000 0.590255 0.000013
1.982564 1.398516 0.081886 0.064059 0.013518 0.016984
3.846537 0.746121 0.503752 0.000000 -0.015300 -0.000019
3.771541 0.592924 0.719546 0.000002 -0.614463 -0.000723
3.796773 0.874889 0.697244 0.000002 0.614462 -0.000723
3.822005 0.650194 0.674942 -0.000001 -0.614464 -0.000723
3.717598 1.017550 0.808354 -0.000004 0.614415 -0.000361
1.266866 0.705621 0.653455 0.000000 -0.539423 0.000014
1.787504 0.967727 0.736022 -0.080029 0.005235 -0.006196
1.503947 0.701088 0.650426 -0.000000 -0.590143 0.000025
1.961813 1.466517 0.018447 0.080092 -0.008847 -0.011291
1.923693 0.002292 1.165613 -0.000001 -0.788946 0.000304
1.684750 0.467901 0.808682 -0.099948 0.003485 0.004951
1.739009 0.959427 0.435180 -0.080030 0.011552 0.013560
3.638831 0.850993 0.518550 0.000004 -0.614432 -0.000448
1.768675 1.028808 0.379793 -0.080032 0.004874 0.005770
1.978110 0.820203 0.547676 -0.000000 0.888229 -0.000005
3.255715 0.667432 0.589085 0.000000 -0.999531 0.000000
2.274462 0.680489 0.628924 0.000000 -0.841682 0.000012
1.853907 0.351940 0.911044 0.080089 0.005161 0.006613
1.444677 0.827207 0.602265 -0.000000 0.973487 0.000002
3.577432 0.592053 0.692338 0.000001 0.614464 0.000896
1.817074 0.874728 0.464618 0.080091 -0.004301 -0.005515
3.129648 0.745889 0.503792 -0.000000 -0.030996 -0.000019
1.779203 0.552753 0.452668 0.064061 -0.010754 0.013617
3.483389 0.752194 0.665454 0.000001 0.030280 0.000152
0.970514 0.794661 0.650922 -0.000000 0.565424 0.000007
1.978110 0.708644 0.655227 0.000000 -0.486552 0.000017
1.800299 0.706323 0.653874 0.000000 -0.512231 0.000008
3.875860 1.111151 0.881255 -0.000000 0.614465 -0.001205
1.804105 0.480655 0.774808 0.064060 -0.008296 -0.010564
1.674067 0.490943 0.378138 -0.099948 0.003873 -0.005500
0.851974 0.735503 0.504730 -0.000000 -0.168369 -0.000054
2.028217 1.421075 1.108695 0.080089 -0.008848 0.011292
2.028217 0.075372 0.060601 0.080091 0.008847 -0.011291
1.385407 0.828639 0.575632 0.000000 0.994142 -0.000002
4.026850 0.737707 0.671263 -0.184882 -0.000054 0.000885
4.060399 0.701437 0.503611 -0.192325 -0.000122 -0.000204
1.326136 0.682400 0.537576 0.000000 -0.807237 -0.000014
1.776975 1.038650 0.827117 -0.099949 -0.007228 0.010247
2.197316 0.829090 0.586672 0.000000 0.999508 0.000000
3.665048 0.917813 0.702788 -0.000001 -0.614464 0.001079
2.274462 0.817570 0.542947 0.000000 0.857960 -0.000011
3.850891 1.097048 0.299025 -0.000000 0.614467 0.000603
3.519139 0.671014 0.560413 0.000001 -0.841886 -0.000001
1.940024 0.528646 0.420807 0.064061 -0.002228 0.002859
3.259478 0.829150 0.584804 0.000000 0.999877 0.000000
2.028217 0.635656 0.672321 0.080090 0.008602 0.010982
2.333732 0.825146 0.559524 0.000000 0.948165 -0.000012
1.770903 0.599639 0.726578 0.080088 0.004301 0.005515
1.897485 1.146090 0.285409 0.064060 0.007067 0.009020
1.503947 0.787939 0.514145 -0.000000 0.486486 -0.000033
0.970514 0.826536 0.564269 -0.000001 0.963100 -0.000002
3.104246 0.675528 0.620194 -0.000000 -0.901846 0.000004
1.385407 0.715682 0.658735 -0.000000 -0.403877 0.000084
1.980489 0.394411 0.304222 0.080091 0.005653 -0.007240
3.474907 0.897343 0.686845 -0.000002 -0.614463 0.001240
3.474907 0.883824 0.465093 0.000000 0.614465 0.001240
3.430492 0.848566 0.676742 0.000000 0.614465 -0.001653
1.681758 0.676639 0.622381 0.000000 -0.888067 0.000002
1.837306 1.111924 0.316916 -0.080029 0.004152 0.004918
1.984639 1.154833 0.897787 0.064060 0.006453 -0.008244
1.991902 0.883359 0.475700 0.080090 -0.009278 -0.011833
1.847682 0.559308 0.419126 0.080089 0.001782 -0.002287
1.503947 0.826244 0.563178 -0.000001 0.959953 -0.000002
1.787504 0.967727 0.433275 -0.080029 0.005235 0.006196
0.792703 0.828194 0.572234 0.000000 0.990418 -0.000001
1.563218 0.794500 0.518265 0.000001 0.564664 -0.000027
1.503947 0.670224 0.563103 -0.000000 -0.965980 -0.000002
1.706219 0.748613 0.503732 0.000000 0.030614 -0.000038
1.853907 1.144508 0.258252 0.080090 -0.005161 -0.006613
1.004383 0.745344 0.665488 0.000000 -0.030614 0.000038
3.913450 0.941790 0.447834 -0.000001 -0.614465 -0.001366
3.813761 0.927364 0.459070 0.000000 -0.614465 -0.001560
3.791443 0.991514 0.760190 0.000005 -0.614394 0.000390
3.879974 1.038015 0.796407 0.000000 -0.614466 0.001366
3.821945 0.530884 0.401431 -0.000000 -0.614465 0.001366
3.813761 0.569084 0.710227 -0.000000 0.614465 0.001560
3.799627 1.029714 0.351468 -0.000001 0.614465 0.001366
3.902292 0.973865 0.746444 -0.000002 -0.614464 0.001366
3.863605 0.921058 0.436094 0.000001 0.614465 0.001366
0.136893 0.702345 0.645402 -0.180255 -0.000145 0.000181
3.925033 0.297011 0.233223 0.235797 -0.001068 0.003267
3.925033 1.199437 0.936073 0.235796 0.001068 -0.003267
3.961465 0.882837 0.675548 -0.000000 -0.614464 0.000675
1.664741 0.648385 0.490053 -0.099947 0.003593 -0.005103
3.430492 0.634363 0.659384 0.000000 0.614466 0.001653
3.394476 0.634363 0.509912 0.000000 0.614465 -0.001653
3.455461 0.633779 0.481570 0.000000 -0.614465 0.001240
3.538541 0.848566 0.492554 0.000000 0.614464 0.000827
1.837306 0.401480 0.874151 0.080089 0.005653 0.007240
3.400598 0.718701 0.659994 0.000000 -0.375576 0.000046
1.708498 0.423543 0.842807 -0.099950 0.003227 0.004584
1.918840 0.707693 0.654694 -0.000001 -0.510409 0.000008
0.496352 0.704834 0.652950 0.000000 -0.539442 0.000115
1.982824 0.870731 0.684685 0.080092 -0.004301 0.005515
3.721642 0.614407 0.674928 -0.000002 0.614461 0.000631
0.548096 0.746588 0.665551 0.000000 -0.015300 0.000019
3.882812 1.144737 0.261883 0.000001 0.614463 0.001205
3.367277 0.884398 0.478590 0.235796 0.001084 0.003317
1.787504 0.550099 0.763471 0.080091 0.001782 0.002287
1.889184 1.109710 0.880349 0.080091 -0.005653 0.007240
1.889184 0.386738 0.880349 0.080091 0.005653 0.007240
3.935674 0.843127 0.496790 -0.000002 0.614461 0.000675
0.318541 0.669704 0.565060 0.000000 -0.973467 -0.000002
3.578409 0.710456 0.656215 -0.000000 -0.459490 0.000071
1.904172 0.091842 1.092153 -0.080032 -0.007942 -0.009374
0.792703 0.789423 0.654294 -0.000001 0.502782 0.000008
1.029785 0.675107 0.619316 0.000000 -0.901875 0.000004
3.985383 0.428554 0.349618 -0.000001 0.614465 -0.000904
3.828688 0.426771 0.848953 -0.000001 -0.614463 -0.000904
2.853053 0.745811 0.665502 0.000000 -0.030614 0.000301
3.131530 0.829011 0.589241 0.000000 0.999531 0.000000
3.341328 0.701371 0.650633 0.000000 -0.590255 0.000013
1.978110 0.787123 0.655606 -0.000000 0.486564 0.000066
1.715875 0.595744 0.482267 -0.080030 -0.006138 0.007258
1.643786 0.950489 0.420564 -0.099948 -0.008003 -0.011339
1.795959 0.396900 0.846287 -0.080029 -0.009387 -0.011057
1.982564 1.398516 1.087410 0.064060 0.013518 -0.016984
1.982564 0.097932 0.081886 0.064060 -0.013518 0.016984
4.060399 0.761643 0.629470 1.000000 0.000000 0.000000
4.060399 0.707705 0.608042 1.000000 0.000000 0.000000
4.060399 0.711523 0.555629 1.000000 0.000000 -0.000000
4.060399 0.786550 0.557812 1.000000 0.000000 -0.000000
1.916161 1.001421 0.793261 0.080090 -0.006636 0.008491
1.937949 0.937433 0.724668 0.064060 0.002228 -0.002859
1.937949 0.540745 0.738898 0.064064 -0.002228 -0.002859
3.874761 0.673728 0.616264 0.000000 -0.914818 0.000002
1.681758 0.710076 0.656018 0.000000 -0.458839 0.000018
2.096651 0.827278 0.567335 0.000000 0.980166 -0.000001
1.643786 0.956203 0.741397 -0.080031 0.011191 -0.013145
1.779203 0.921578 0.745024 0.080089 -0.004301 0.005515
1.817074 0.893480 0.680601 0.064062 0.005377 -0.006880
1.988790 0.293058 0.233353 0.064061 -0.005838 0.007465
1.970114 1.491287 1.169296 0.000000 0.788944 0.000304
1.970114 0.005160 -0.000000 0.000000 -0.788948 -0.000304
1.697815 1.049862 0.344013 -0.099949 -0.003614 -0.005134
3.341328 0.789089 0.654494 -0.000000 0.513146 0.000031
1.667534 0.496256 0.775995 -0.080030 -0.005235 -0.006195
3.934031 0.712678 0.511952 0.000000 -0.431847 -0.000077
1.941062 0.339896 0.273716 0.064060 -0.006453 0.008244
3.756641 0.447836 0.364636 0.000000 0.614465 -0.000780
3.939631 1.086540 0.834201 0.000004 -0.614425 0.000452
2.171915 0.745889 0.503792 -0.000000 -0.030996 -0.000298
1.845607 1.135957 0.871773 -0.080028 0.008665 -0.010217
0.733433 0.793343 0.517472 0.000000 0.565285 -0.000027
3.848975 1.156477 0.902614 0.235795 0.001084 -0.003317
1.984639 1.114422 0.874298 0.080090 -0.005161 0.006613
1.984639 1.114422 0.294999 0.080091 -0.005161 -0.006613
1.914086 1.208380 0.214635 0.080090 -0.004670 -0.005986
1.918840 0.779982 0.659081 -0.000000 0.403910 0.000021
1.266866 0.669780 0.564758 0.000000 -0.965885 -0.000002
1.148325 0.788144 0.655037 -0.000000 0.483781 0.000008
0.496352 0.793890 0.651450 -0.000000 0.565137 0.000108
3.755315 0.995966 0.377752 0.000000 0.614465 0.000780
0.154775 0.671527 0.603938 -0.110742 -0.000392 0.000086
1.732246 1.117262 0.876932 -0.099950 -0.002969 0.004218
3.163517 0.786165 0.656126 0.000000 0.458858 0.000018
2.294219 0.829099 0.582936 0.000000 0.999520 -0.000000
3.782851 0.860201 0.511379 0.000004 -0.614453 -0.000723
3.714684 0.995553 0.405960 0.000000 -0.614465 -0.000688
3.658377 0.752272 0.665452 -0.000000 0.030614 0.000010
3.696950 0.708372 0.655075 -0.000001 -0.486555 0.000066
1.865320 0.885487 0.490995 0.064060 0.011598 0.014654
1.882806 0.141981 1.062311 -0.099950 0.007228 0.010247
1.882806 0.141981 0.106985 -0.099949 0.007228 -0.010247
1.865320 0.625428 0.696877 0.080091 0.009277 0.011833
2.647959 0.751260 0.665483 0.000000 0.030614 0.000151
1.296972 0.743320 0.665425 0.000000 -0.031378 0.000147
1.089055 0.724921 0.662139 0.000000 -0.288474 0.000123
0.614892 0.704801 0.516367 0.000000 -0.539030 -0.000014
4.001981 0.521676 0.394259 0.000000 -0.614465 0.001366
0.200000 0.829114 0.582156 0.038373 0.000294 -0.000005
3.542853 0.925550 0.460482 0.000000 -0.614465 -0.000827
2.274462 0.674420 0.551465 0.000000 -0.914800 -0.000016
3.879974 1.038015 0.372890 0.000000 -0.614465 -0.001366
3.934031 0.791811 0.516472 0.000000 0.539452 -0.000115
3.987256 0.587418 0.473349 0.000002 0.614462 -0.000675
0.455897 0.743942 0.665444 0.000000 -0.031378 0.000005
3.699889 0.840401 0.670383 0.000001 0.614456 -0.000270
3.721793 0.639173 0.513658 0.000003 0.614404 -0.000316
0.414502 0.752427 0.503849 0.000000 0.030614 -0.000019
0.037868 0.757285 0.552801 -0.567099 0.000009 -0.000030
1.148325 0.828673 0.575942 0.000000 0.994161 -0.000001
0.259270 0.671896 0.611545 0.000000 -0.948161 0.000050
3.516447 0.619675 0.698711 0.000000 -0.614465 -0.000827
1.918840 0.674888 0.618859 -0.000000 -0.901917 0.000018
2.373246 0.744877 0.665473 -0.000001 -0.030280 0.000152
1.776975 0.457798 0.827117 -0.099947 0.003614 0.005134
2.867165 0.766864 0.505906 -0.000000 0.228962 -0.000079
3.035568 0.751649 0.503825 0.000000 0.031378 -0.000147
1.701515 0.751571 0.665473 -0.000001 0.030292 0.000152
0.145808 0.791179 0.519822 -0.145585 0.000173 -0.000245
1.806105 0.194128 1.016203 -0.080030 -0.010830 -0.012729
3.784591 0.664625 0.635816 0.013855 -0.019615 0.008816
3.780284 1.010070 0.802529 0.000000 0.614466 -0.000780
0.106257 0.748224 0.516681 -0.308034 0.000000 -0.000030
1.804105 0.995888 0.800364 0.080090 -0.006636 0.008491
1.503947 0.705621 0.515842 0.000000 -0.539249 -0.000007
0.076855 0.791934 0.619822 -0.414364 0.000055 0.000041
3.836078 0.863213 0.509033 -0.000001 -0.614464 -0.000780
1.859569 0.736427 0.504592 0.000000 -0.138126 -0.000265
1.590013 0.612164 0.695549 -0.099946 0.003012 0.004279
1.655198 0.631204 0.690159 -0.099950 0.003593 0.005103
1.590013 0.884284 0.695549 -0.099946 -0.003012 0.004279
2.630084 0.708746 0.514013 0.000001 -0.482545 -0.000017
3.627974 0.669672 0.645828 0.013855 -0.019615 0.008816
1.871546 0.915692 0.702332 0.064061 0.011598 -0.014654
3.756641 0.447836 0.804660 0.000002 0.614462 0.000780
3.791443 0.504934 0.760190 0.000002 0.614462 0.000780
3.650824 0.557308 0.449898 0.000000 0.614465 -0.001079
1.360946 0.749002 0.503744 0.000000 0.030613 -0.000019
3.921634 0.502939 0.761743 -0.000001 0.614465 0.001366
3.400598 0.780410 0.658892 0.000000 0.403957 0.000084
3.558652 0.667396 0.581379 -0.000000 -0.999519 -0.000000
3.732997 1.060117 0.327789 -0.000001 0.614465 0.001560
0.241395 0.743398 0.665428 0.000000 -0.030614 0.000019
1.374117 0.667324 0.585582 0.000000 -0.999531 0.000000
1.385407 0.711598 0.512490 -0.000000 -0.459382 -0.000071
1.859095 0.641165 0.515026 0.064063 -0.005377 0.006880
1.918840 0.704670 0.516451 -0.000000 -0.539410 -0.000029
2.985706 0.822232 0.617368 -0.000000 0.914737 0.000016
1.688233 0.859252 0.479295 -0.099948 -0.007185 -0.010187
3.618365 0.855275 0.681968 0.000002 0.614462 -0.000896
1.800109 0.384884 0.313313 -0.080031 -0.004152 0.004918
0.150286 0.826689 0.584648 -0.136889 0.000160 0.000005
1.909935 0.302128 0.922463 0.064060 -0.006453 -0.008244
1.771134 0.749002 0.503744 0.000000 0.030614 -0.000010
1.800299 0.669911 0.605027 -0.000000 -0.965941 0.000010
3.815490 0.790727 0.515782 0.000000 0.513821 -0.000004
3.341328 0.822868 0.553392 0.000000 0.926858 -0.000004
2.642314 0.667387 0.587606 0.000000 -0.999531 0.000000
3.784591 0.831823 0.635816 0.013855 0.019615 0.008816
3.636600 0.549501 0.753366 0.000002 -0.614460 -0.000540
3.727169 0.507362 0.383111 0.000000 -0.614465 0.000723
1.820706 1.063858 0.355702 -0.080029 0.004513 0.005344
1.901905 0.829085 0.586828 0.000000 0.999531 0.000000
3.818970 1.062877 0.815770 -0.000001 -0.614464 0.001366
3.689715 0.981450 0.752351 0.000000 -0.614464 0.000631
3.934031 0.674956 0.550296 0.000000 -0.901845 -0.000018
1.781126 1.051034 0.332956 -0.099949 -0.003614 -0.005134
3.961465 0.627129 0.476391 -0.000002 -0.614461 0.000675
4.029644 0.654349 0.497590 -0.000001 -0.614465 0.001350
1.826931 0.868732 0.507169 0.064060 0.005377 0.006880
3.995555 0.855709 0.486991 0.000002 0.614459 0.000675
0.093479 0.713244 0.637438 -0.349425 -0.000058 0.000081
3.459869 0.702333 0.518001 -0.000001 -0.565125 -0.000108
1.926536 1.257715 0.177479 0.080092 -0.004178 -0.005357
1.950400 0.449885 0.810676 0.064061 -0.007682 -0.009793
1.607435 0.667375 0.582079 -0.000000 -0.999531 -0.000000
0.172820 0.726118 0.662342 -0.040683 -0.000337 0.001060
2.215191 0.719647 0.508942 -0.000000 -0.346773 -0.000050
3.578409 0.711356 0.512616 0.000000 -0.459454 -0.000071
1.978110 0.823687 0.613883 -0.000000 0.938016 0.000002
3.222787 0.679078 0.542613 -0.000000 -0.858047 -0.000011
0.851974 0.816505 0.541225 -0.000001 0.840541 -0.000012
1.691282 0.457243 0.352313 -0.099948 0.003485 -0.004951
1.733245 1.041823 0.804199 -0.080031 0.009747 -0.011476
1.997090 0.223070 0.172465 0.080091 0.003687 -0.004729
1.997090 1.273378 0.996831 0.080093 -0.003687 0.004729
0.085103 0.691179 0.566501 -0.382119 -0.000082 -0.000023
3.909092 0.477749 0.360047 -0.000001 -0.614460 0.000301
3.906649 0.626530 0.475924 0.000000 -0.614464 0.001012
3.658090 0.478641 0.808554 -0.000003 -0.614404 -0.000316
3.671508 1.056237 0.824543 0.235796 0.001068 -0.003267
1.853907 0.351940 0.258252 0.080090 0.005161 -0.006613
2.333732 0.676854 0.622796 0.000000 -0.887103 0.000002
1.795959 1.086462 0.863088 -0.099948 -0.006712 0.009519
1.727712 0.322019 0.252701 -0.080031 -0.007582 0.008951
1.787504 0.550099 0.405825 0.080091 0.001782 -0.002287
2.666775 0.744410 0.503837 0.000001 -0.030762 -0.000300
3.812435 0.621730 0.472186 -0.000000 -0.614464 0.000361
1.820706 1.045428 0.837257 0.080090 -0.006144 0.007866
1.800299 0.709427 0.513634 -0.000000 -0.486672 -0.000017
1.770903 0.599639 0.442718 0.080091 0.008602 -0.010982
1.833925 1.182087 0.935029 -0.099947 -0.005680 0.008060
3.282058 0.820596 0.620859 0.000000 0.887900 0.000005
3.673430 0.746511 0.503746 -0.000000 -0.016065 -0.000036
1.770903 0.919662 0.697235 -0.080030 0.005596 -0.006621
1.996926 0.746356 0.665519 0.000000 -0.030614 0.000151
1.830044 1.002590 0.402661 0.064061 0.004456 0.005707
1.741029 0.818878 0.624092 -0.000000 0.873542 0.000010
3.001699 0.750559 0.665504 0.000016 0.000464 0.000631
1.953649 0.749158 0.503749 0.000000 0.031378 -0.000147
3.683059 0.464538 0.349757 0.000000 -0.614465 0.001376
1.825893 0.523844 0.389286 0.080090 0.003564 -0.004571
3.358459 0.862085 0.659384 0.000000 -0.614465 0.001653
3.711770 0.960038 0.433621 -0.000001 -0.614462 -0.000344
3.842774 0.743865 0.665442 -0.000062 -0.004332 0.001351
1.707318 0.824889 0.501127 -0.099950 -0.006884 -0.009762
1.699018 0.821621 0.547181 -0.000001 -0.788940 0.000422
1.990865 0.049539 1.125776 0.064062 -0.011060 -0.013995
2.096651 0.733353 0.664198 0.000000 -0.198865 0.000364
1.830044 1.002590 0.766635 0.064061 0.004456 -0.005707
3.282058 0.705096 0.516178 0.000000 -0.539451 -0.000029
0.259270 0.828356 0.595905 -0.000001 0.990382 0.000010
3.608151 0.506848 0.382711 0.000001 -0.614462 0.000540
1.907860 0.938620 0.446152 0.064061 0.002228 0.002859
2.037380 0.778541 0.509624 -0.000003 0.248898 -0.000009
3.291219 0.655010 0.512049 0.235798 -0.001084 0.003317
3.778958 0.984462 0.414599 0.000001 -0.614460 -0.000390
1.835231 0.603684 0.487776 0.064061 -0.010753 0.013617
3.782563 0.750093 0.665548 -0.000000 0.016065 0.000073
1.930686 1.270099 1.001041 0.080088 -0.004178 0.005358
1.930686 0.226348 0.168256 0.080090 0.004178 -0.005358
1.859569 0.773496 0.661520 0.000000 0.317850 0.000110
0.037868 0.766513 0.612249 -0.567097 0.000018 0.000025
1.925499 0.625514 0.671862 0.064061 -0.011598 -0.014654
1.941419 0.667334 0.583403 0.000000 -0.999531 -0.000000
3.934031 0.783173 0.657630 0.000000 0.431892 0.000154
1.829006 0.408557 0.336309 0.064060 -0.015360 0.019180
2.028217 0.343334 0.269302 0.080090 0.004670 -0.005986
1.988790 0.333100 0.911980 0.080090 0.004670 0.005986
3.721793 0.857275 0.513658 0.000000 -0.614464 -0.000631
1.660334 0.802510 0.646653 0.000000 -0.788944 -0.000843
3.459869 0.717473 0.659497 -0.000000 -0.375546 0.000046
3.558213 0.961393 0.404679 -0.000002 0.614461 0.000896
3.433367 0.904395 0.692338 0.000001 -0.614465 0.001653
3.392630 0.597730 0.467437 0.235797 -0.001084 0.003317
1.846645 0.819234 0.625180 0.000000 -0.788944 -0.000594
3.508048 0.841514 0.671250 0.000001 0.614464 -0.001240
3.552463 0.890291 0.681353 0.000000 -0.614465 0.001653
3.552463 0.606156 0.487943 0.000000 0.614465 -0.001653
3.430492 0.848566 0.492554 0.000000 0.614464 0.001653
3.416570 0.833878 0.637416 0.000000 0.788947 0.000309
3.520533 0.634363 0.509912 0.000000 0.614465 -0.000827
3.512361 0.918498 0.703322 0.000000 -0.614465 0.000827
3.512361 0.577950 0.465974 0.000000 0.614464 -0.000827
1.604613 0.747056 0.503756 -0.000000 -0.031378 -0.000037
3.902292 0.960346 0.405495 0.000001 0.614465 0.001366
3.841288 0.985208 0.783165 -0.000001 0.614465 -0.001366
3.855421 0.869338 0.692921 0.000001 0.614465 -0.001366
3.844263 0.581515 0.468751 0.000001 0.614464 -0.001366
2.252823 0.744565 0.503833 0.000000 -0.030614 -0.000151
1.741545 0.430592 0.345704 -0.080030 -0.004513 0.005344
2.748625 0.677285 0.623581 -0.000000 -0.868788 0.000003
1.972189 0.996983 0.395462 0.064060 0.016588 0.020621
3.659297 0.833193 0.636882 0.013855 0.019615 0.008816
2.491786 0.749936 0.503773 0.000000 0.030614 -0.000151
3.987256 0.909030 0.473349 0.000002 -0.614462 -0.000675
3.972530 0.816250 0.651573 0.013856 0.039192 0.010186
4.026850 0.670967 0.625196 -0.184884 -0.000840 0.000378
4.060399 0.792636 0.599365 1.000000 0.000000 0.000000
4.060399 0.749585 0.537881 1.000000 0.000000 0.000000
2.630084 0.712713 0.657361 0.000000 -0.431997 0.000019
3.533244 0.535639 0.736275 -0.000000 0.614466 0.001653
2.689354 0.818575 0.624636 -0.000000 0.872244 0.000003
1.837306 1.094968 0.874151 0.080090 -0.005653 0.007240
1.563218 0.672980 0.614424 -0.000000 -0.926756 0.000007
2.333732 0.803993 0.643281 -0.000000 0.685027 0.000010
1.817593 0.535997 0.436494 0.064061 -0.004456 0.005707
3.874761 0.706824 0.654174 -0.000000 -0.513285 0.000062
1.918840 0.676442 0.547295 -0.000000 -0.888179 -0.000010
3.140938 0.744410 0.665459 0.000000 -0.030614 0.000151
1.818631 0.670363 0.666634 0.080090 0.004301 0.005515
3.909802 0.434170 0.815304 0.000001 0.614461 0.000226
2.867165 0.675023 0.550156 0.000000 -0.901857 -0.000018
1.746002 0.847564 0.530240 -0.080029 0.009627 0.011336
1.754302 0.871596 0.658449 -0.080031 0.012274 -0.014389
2.065604 0.667305 0.584337 0.000000 -0.999531 -0.000000
1.925499 0.861811 0.683576 0.080091 -0.009277 0.011833
3.874761 0.669722 0.564984 0.000001 -0.896298 -0.000001
3.737153 0.589811 0.475213 -0.000000 0.614464 -0.000631
3.730497 0.525832 0.425383 0.000001 0.614462 -0.000688
3.705830 0.906979 0.474946 0.000003 -0.614402 -0.000316
3.721642 0.882041 0.674928 0.000000 -0.614465 0.000631
3.788468 1.061789 0.326486 -0.000001 0.614465 0.001366
1.464434 0.751571 0.665473 0.000001 0.031138 0.000296
1.769060 1.186805 0.246607 -0.080031 0.003791 0.004491
3.951906 0.667444 0.589474 0.000000 -0.999531 0.000000
1.641249 0.646674 0.651921 -0.080033 -0.004212 -0.004988
3.711062 0.829023 0.588852 0.000000 0.999531 0.000000
1.903710 1.304186 0.161771 -0.080031 0.010830 0.012729
1.089055 0.820701 0.548646 -0.000000 0.901580 -0.000004
1.089055 0.816421 0.628202 0.000000 0.841627 0.000006
3.746309 0.945678 0.724490 -0.000001 -0.614459 0.000361
3.680145 0.486534 0.774520 -0.000000 0.614466 0.000344
1.847682 0.965354 0.739069 0.064060 0.004456 -0.005707
1.800299 0.785577 0.512866 0.000000 0.459489 -0.000036
4.026850 0.661609 0.574131 -0.184886 -0.000885 -0.000054
2.028217 0.836432 0.653348 0.080091 -0.008602 0.010981
3.468687 0.941678 0.433978 0.235796 0.001084 0.003317
3.508275 0.933186 0.742648 0.000000 0.614465 -0.000827
3.344537 0.662570 0.637416 0.000000 -0.788947 0.000309
3.222787 0.675124 0.619351 0.000000 -0.901885 0.000018
1.707318 0.650794 0.641508 -0.080030 -0.010048 -0.011824
0.154775 0.708681 0.516158 -0.110745 -0.000211 -0.000341
1.641249 0.836873 0.500811 -0.099950 -0.007185 -0.010187
0.733433 0.782295 0.658051 0.000001 0.424665 0.000010
0.128040 0.675303 0.571017 -0.214701 -0.000191 -0.000030
3.184214 0.746044 0.503787 0.000000 -0.030996 -0.000019
1.518666 0.833387 0.650977 -0.099949 -0.006024 0.008546
0.755071 0.829039 0.588307 -0.000001 0.998047 0.000000
1.991902 0.661809 0.655650 0.080090 0.008602 0.010982
1.715031 1.083562 0.318188 -0.099948 -0.006454 -0.009154
1.688516 0.385964 0.302504 -0.080030 -0.004152 0.004918
1.444677 0.734044 0.504980 0.000000 -0.168369 -0.000014
1.920311 0.144196 0.122985 0.064061 -0.015974 0.019903
1.920311 1.352251 1.046312 -0.080031 0.009386 -0.011056
1.518666 0.663061 0.650977 -0.080030 -0.008424 -0.009936
3.894107 0.587821 0.445776 -0.000001 -0.614465 0.001366
3.893878 0.391261 0.848723 0.000000 0.614467 0.000603
3.841288 0.985208 0.386131 -0.000000 0.614465 0.001366
3.860631 0.491596 0.798465 0.000001 -0.614465 -0.001366
3.818970 0.447090 0.336168 -0.000001 -0.614465 0.001366
3.971479 0.495726 0.767361 -0.000002 0.614464 0.001366
3.943816 0.376573 0.888050 0.000000 -0.614463 -0.001205
3.813761 0.927364 0.710227 0.000005 -0.614393 0.000390
3.913314 1.145825 0.288922 -0.000001 -0.614463 -0.001205
3.799627 0.466734 0.817828 -0.000001 -0.614465 -0.001366
3.938283 1.159928 0.891358 -0.000002 -0.614462 0.001205
1.326136 0.817330 0.542546 -0.000001 0.856953 -0.000006
3.641102 0.992370 0.408440 0.000000 -0.614465 -0.000597
2.570813 0.777459 0.660111 -0.000000 0.375741 0.000011
3.637680 0.765689 0.505629 0.000000 0.228826 -0.000039
0.851974 0.676963 0.623003 0.000000 -0.873652 0.000003
1.998808 0.751727 0.503828 0.000000 0.030614 -0.000151
3.483305 0.577365 0.437632 -0.000000 -0.614465 0.001240
3.930142 0.626787 0.693172 0.000002 -0.614448 -0.000337
3.963295 0.935484 0.744438 -0.000000 0.614464 -0.001366
3.782936 0.408124 0.863476 0.000001 -0.614465 -0.000904
3.907782 0.337607 0.918398 -0.000000 -0.614466 -0.001205
3.972530 0.666679 0.634215 0.013856 -0.039192 0.010186
3.899410 1.065134 0.323881 0.000000 0.614465 0.000904
4.060399 0.839865 0.603570 -0.191706 0.000234 0.000045
2.013860 0.667418 0.580678 -0.000001 -0.976634 -0.000000
3.443335 0.569090 0.445131 0.235796 -0.001084 0.003317
2.949955 0.750170 0.503780 0.000000 0.030614 -0.000038
1.818631 0.651749 0.526562 0.064061 -0.010754 0.013617
3.558213 0.974912 0.747259 -0.000002 -0.614464 0.000896
3.519392 0.970318 0.411672 0.235797 0.001084 0.003317
2.294219 0.746511 0.503773 0.000000 -0.030996 -0.000298
1.949363 0.298507 0.226358 0.080090 0.009339 -0.011911
1.847682 0.937139 0.419126 0.080090 -0.003564 -0.004571
1.862208 0.312426 0.910560 0.064061 -0.012903 -0.016242
1.829775 1.180944 0.257926 -0.080029 0.003972 0.004704
1.851832 0.519078 0.748766 0.064060 -0.008911 -0.011332
0.101971 0.774143 0.645884 -0.316279 0.000049 0.000106
1.949363 1.180584 0.254323 0.064059 0.006453 0.008244
3.647949 0.599618 0.482851 0.000003 0.614443 -0.000540
3.598166 0.667416 0.588540 -0.000016 -0.018504 0.000001
3.408398 0.876772 0.470585 0.000000 0.614464 0.001653
3.408398 0.606156 0.681353 0.000000 0.614466 0.001653
3.616982 0.745421 0.665500 -0.000062 -0.004337 0.001350
3.583182 0.520952 0.775601 -0.000000 -0.614465 -0.002020
1.917237 1.421867 1.113960 -0.099949 -0.005163 0.007329
1.917237 0.074581 0.055336 -0.099949 0.005163 -0.007329
3.519139 0.822374 0.617048 0.000000 0.914258 0.000004
0.713676 0.829051 0.587918 0.000000 0.999519 0.000000
3.906649 0.883437 0.493282 0.000001 -0.614465 -0.001012
1.715031 1.083562 0.851108 -0.099948 -0.003227 0.004584
1.609098 0.858522 0.662674 -0.080032 0.004212 -0.004989
1.741029 0.785749 0.656341 -0.000001 0.458463 0.000018
1.841457 0.906382 0.726849 0.080091 -0.009277 0.011833
1.965963 1.301730 1.010678 0.064061 0.004609 -0.005903
1.965963 0.194717 0.158618 0.064061 -0.004609 0.005903
2.155921 0.674483 0.551322 0.000001 -0.914559 -0.000016
2.748625 0.677172 0.545919 0.000000 -0.873484 -0.000005
3.847237 0.831138 0.635282 0.013856 0.019614 0.008816
3.472032 0.641415 0.653892 0.000000 0.614465 0.001240
3.474907 0.599105 0.482451 -0.000000 0.614465 -0.001240
3.452586 0.833878 0.531880 0.000000 0.788945 -0.000617
1.868433 0.473023 0.815259 0.080091 0.013269 0.016810
3.570097 0.497490 0.389366 0.235796 -0.001084 0.003317
3.608151 0.989600 0.382711 0.000001 0.614462 0.000540
2.393003 0.814453 0.538147 0.000000 0.824979 -0.000006
0.128040 0.815618 0.553642 -0.214700 0.000173 -0.000073
1.016614 0.667382 0.581846 0.000000 -0.999531 -0.000000
3.696950 0.789490 0.654254 0.000000 0.513285 0.000124
1.882959 0.817801 0.542277 0.000001 -0.788943 0.000594
0.911244 0.709257 0.513728 -0.000000 -0.486423 -0.000033
0.516108 0.667317 0.583246 -0.000000 -0.999877 -0.000000
0.516108 0.829037 0.580912 0.000000 0.999531 -0.000000
1.988790 0.296560 0.940439 0.080090 0.004670 0.005986
1.207596 0.820668 0.620721 -0.000000 0.901930 0.000035
0.792703 0.707896 0.654810 0.000000 -0.486423 0.000017
0.822809 0.743320 0.665425 0.000000 -0.031378 0.000147
1.872583 1.049632 0.806735 0.064060 0.008296 -0.010564
1.768675 0.467640 0.789503 -0.080029 -0.004874 -0.005770
2.807895 0.719281 0.660219 -0.000000 -0.346777 0.000050
3.044976 0.823453 0.554836 -0.000000 0.926778 -0.000015
3.358459 0.647882 0.676742 0.000001 -0.614465 -0.001653
3.358459 0.848566 0.492554 0.000000 0.614466 0.001653
1.991902 0.834639 0.513646 0.080090 -0.008602 -0.010982
1.878809 0.277630 0.966384 0.080091 0.009339 0.011910
1.757992 0.490314 0.397790 -0.080030 -0.005416 0.006408
3.578409 0.786372 0.513278 0.000000 0.458839 -0.000018
3.400598 0.674872 0.550472 0.000000 -0.901857 -0.000009
1.860133 0.986474 0.381970 0.080090 -0.006636 -0.008491
3.666071 1.006473 0.771841 0.000003 -0.614404 0.000316
3.163517 0.674737 0.550753 0.000000 -0.901654 -0.000002
1.957663 0.243110 0.972312 0.064060 -0.010447 -0.013239
2.074072 0.749469 0.503758 -0.000001 0.030762 -0.000300
2.298923 0.748769 0.665560 0.000000 0.030613 0.000010
0.163783 0.774842 0.660186 -0.075760 0.000213 0.000549
1.895410 0.228090 1.003277 0.080091 0.008356 0.010671
0.200000 0.796994 0.649230 0.029594 0.000469 0.000602
3.333490 0.661986 0.503538 0.000000 -0.614466 0.001653
3.163517 0.713416 0.657698 0.000000 -0.431841 0.000039
2.926435 0.718123 0.659760 0.000000 -0.375741 0.000023
1.841457 0.573479 0.463745 0.064061 -0.011598 0.014654
3.658090 1.031325 0.378100 0.000000 -0.614464 -0.000316
3.620803 1.027598 0.802237 0.235793 0.001084 -0.003317
3.674053 0.528346 0.399454 0.000000 -0.614464 0.000631
3.595969 0.933015 0.426781 -0.000000 0.614465 0.002020
1.762911 1.111204 0.309710 -0.080031 0.008304 0.009795
3.400598 0.711805 0.512383 0.000001 -0.458696 -0.000018
0.259270 0.779982 0.659081 -0.000001 0.403704 0.000042
1.907860 0.568517 0.736869 0.080089 0.007128 0.009116
1.997090 0.195945 1.012255 0.064059 -0.004609 -0.005903
3.909884 0.830453 0.534548 0.013855 0.019616 -0.008816
2.037380 0.695601 0.646130 0.000001 -0.614897 0.000003
1.148325 0.672328 0.556582 -0.000000 -0.937931 -0.000014
1.609098 0.646527 0.673717 -0.099947 0.003012 0.004279
1.877771 0.550551 0.442933 0.064060 -0.008911 0.011332
1.798917 0.622616 0.463467 0.080090 0.004301 -0.005515
1.707318 0.650794 0.527788 -0.080030 -0.010048 0.011824
1.557349 0.835297 0.520772 -0.080030 0.008424 0.009936
1.596545 0.899242 0.470968 -0.080030 0.004212 0.004989
1.596545 0.597206 0.470968 -0.080028 -0.008424 0.009936
3.308521 0.820359 0.654773 0.000000 0.788946 0.000731
3.308521 0.833878 0.531880 0.000000 0.788945 -0.000731
0.614892 0.784816 0.512473 -0.000000 0.459490 -0.000071
4.026850 0.690366 0.519340 -0.184880 -0.000568 -0.000725
3.538541 0.634363 0.659384 0.000000 0.614465 0.001653
3.508048 0.855033 0.515404 0.000001 -0.614464 -0.001240
3.512361 0.577950 0.703322 0.000000 0.614465 0.000827
3.539836 0.751493 0.665476 -0.000000 0.030996 0.000009
1.992940 0.259815 0.200661 0.080090 0.008356 -0.010671
1.922386 0.263298 0.196189 0.080090 0.004178 -0.005358
1.992940 1.236633 0.968635 0.080092 -0.008356 0.010671
1.992940 1.212273 0.219634 0.080091 -0.004178 -0.005357
3.426941 0.752661 0.503857 0.000001 0.031138 -0.000296
1.523704 0.746511 0.503773 0.000000 -0.030614 -0.000151
1.847682 0.559308 0.750170 0.080089 0.003564 0.004571
1.596033 0.659241 0.523224 -0.080030 -0.008424 0.009936
3.341328 0.674593 0.551073 0.000000 -0.914818 -0.000002
1.998128 0.555298 0.732459 0.064060 -0.008911 -0.011332
0.614892 0.828404 0.573739 0.000000 0.990152 -0.000001
3.693496 0.634806 0.482370 -0.000002 -0.614457 0.000540
3.756220 0.780624 0.510498 0.000000 0.403853 -0.000042
2.215191 0.668595 0.570238 0.000001 -0.984894 -0.000003
3.936864 1.099808 0.324762 0.000000 -0.614465 -0.000603
3.913450 0.554658 0.721462 -0.000002 0.614464 0.001366
3.874764 0.607465 0.708221 -0.000000 -0.614464 -0.001366
3.982638 0.527801 0.426917 -0.000000 0.614464 -0.001366
3.902292 0.522583 0.422853 0.000001 0.614465 -0.001366
3.913450 0.554658 0.447834 -0.000000 0.614465 -0.001366
3.841288 0.497721 0.403489 -0.000000 0.614465 -0.001366
3.871790 0.523671 0.395813 -0.000000 -0.614464 0.001366
3.968828 0.587499 0.723771 -0.000002 -0.614460 -0.000506
3.924609 0.909714 0.696481 -0.000002 -0.614464 0.001366
3.879974 0.458433 0.796407 -0.000000 0.614465 0.001366
3.852447 0.543315 0.758184 -0.000000 -0.614465 -0.001366
3.874764 0.902501 0.690863 0.000000 -0.614464 0.001366
3.855421 0.869338 0.476375 0.000001 0.614465 0.001366
3.799627 0.453215 0.368825 0.000000 0.614466 -0.001366
3.810786 0.498809 0.792847 0.000001 -0.614464 -0.001366
3.863605 0.934577 0.715844 0.000001 -0.614465 0.001366
3.458336 0.591469 0.720680 0.000001 -0.614464 -0.001240
3.458336 0.918498 0.465974 -0.000000 -0.614465 -0.001240
3.502204 0.751805 0.503830 0.000000 0.030996 -0.000038
1.811368 0.585461 0.733499 0.080088 0.002151 0.002760
3.708028 1.059532 0.813165 -0.000006 -0.614337 0.000361
3.708028 0.450435 0.830523 -0.000001 -0.614461 -0.000361
3.949349 0.389588 0.319270 -0.000000 0.614464 -0.000603
3.705114 1.010498 0.366434 -0.000000 0.614463 0.000688
1.787658 1.075515 0.826894 -0.080029 0.004513 -0.005344
3.760231 0.973885 0.746459 0.000001 -0.614465 0.000723
3.784591 0.664625 0.533481 0.013856 -0.019614 -0.008816
3.416570 0.662570 0.637416 0.000000 -0.788947 0.000309
3.538541 0.862085 0.659384 0.000000 -0.614465 0.000827
3.552463 0.876772 0.470585 -0.000000 0.614465 0.001653
1.889184 0.848006 0.518246 0.064059 0.011598 0.014655
0.939468 0.829006 0.589397 -0.000001 0.998047 0.000000
1.776975 0.443607 0.360400 -0.080031 -0.005055 0.005983
3.721944 0.677459 0.515590 0.013856 -0.039191 -0.010187
3.690017 0.578050 0.438166 -0.000000 -0.614464 0.001262
3.633875 0.616578 0.701124 0.000003 -0.614461 -0.001010
1.660334 0.819711 0.544729 0.000000 -0.788944 0.000843
3.925564 0.745887 0.665540 0.000000 -0.015300 0.000019
1.207596 0.711183 0.512705 0.000000 -0.459425 -0.000036
3.963196 0.829001 0.589552 0.000000 0.999531 0.000000
3.507849 0.829042 0.581067 0.000000 0.999520 -0.000000
1.870508 0.302400 0.221359 0.080090 0.004670 -0.005986
1.878809 1.218818 0.202913 0.080090 -0.009339 -0.011911
2.000689 0.829114 0.583403 0.000000 0.999531 -0.000000
3.969764 0.653412 0.524748 -0.000000 0.614464 -0.000675
3.815914 0.817962 0.652907 0.013855 0.039194 0.010186
3.829836 0.650279 0.494421 0.000000 -0.614464 0.000723
2.630084 0.820668 0.620721 -0.000000 0.901930 0.000018
3.044976 0.715539 0.658672 0.000000 -0.403957 0.000084
3.430704 0.829051 0.587918 0.000000 0.999519 0.000000
0.437081 0.674703 0.618473 0.000000 -0.901642 0.000001
1.878809 0.264360 0.219950 0.064061 -0.011675 0.014748
0.756953 0.744721 0.503828 0.000000 -0.030614 -0.000010
2.807895 0.713978 0.511330 -0.000000 -0.431715 -0.000039
1.953513 0.048066 0.045412 0.064060 -0.011061 0.013995
1.953513 1.448382 1.123884 -0.080030 0.012995 -0.015214
0.348646 0.667435 0.589163 0.000000 -0.999531 0.000000
1.681758 0.673302 0.554078 0.000000 -0.926782 -0.000007
2.867165 0.674499 0.618010 0.000000 -0.913808 0.000002
3.875151 0.401838 0.328811 -0.000001 0.614465 -0.000904
1.889184 0.660790 0.666905 0.080092 0.009277 0.011833
1.889184 0.660790 0.502391 0.080090 0.009277 -0.011833
4.029644 0.855618 0.654348 0.000001 -0.614465 0.001350
