1.402897 0.040525 -0.082171 -0.000059 0.416619 -0.908152
1.561015 0.101259 -0.117279 0.000000 -0.702404 -0.711779
1.337157 0.203792 0.201107 -0.060475 0.787195 -0.613732
1.644787 -0.306266 -0.302232 -0.060475 -0.787195 0.613732
1.441092 -0.042166 -0.081341 -0.000015 -0.486623 -0.872483
0.321762 -0.144717 0.118756 0.095811 -0.699172 -0.708504
0.377218 -0.411294 0.415672 0.026691 0.696100 0.717107
-1.616097 0.000000 -0.091084 -0.042600 -0.030711 -0.997317
-0.157947 -0.081081 0.042664 -0.000069 -0.857898 0.511918
0.400650 -0.062844 0.066670 -0.000809 -0.707243 0.705753
-0.021636 -0.085277 0.033499 -0.000061 -0.928241 0.369472
0.290439 0.056258 0.072314 0.000501 0.616679 0.785997
0.156979 -0.044260 -0.080221 -0.000254 -0.529733 -0.847040
-0.313597 0.088650 0.023140 -0.000009 0.966780 0.251490
1.335652 -0.087472 0.103673 -0.000000 0.702404 0.711779
-1.502168 -0.066844 -0.062660 0.000298 -0.751253 -0.658531
-1.325669 -0.005718 -0.091442 0.000272 -0.113284 -0.992768
-1.034597 -0.071012 0.057893 0.000035 -0.757967 0.650790
0.390492 0.418638 -0.421858 0.056856 -0.701267 -0.710627
0.309811 -0.189954 0.161780 0.095811 -0.699172 -0.708504
1.357727 -0.098717 -0.080063 -0.000000 -0.702404 0.711779
-1.579902 0.042252 -0.081297 -0.000095 0.468789 -0.882203
0.739430 -0.042914 0.080949 0.000168 -0.522002 0.851885
0.130167 0.241890 -0.245140 -0.033663 -0.684239 -0.728481
0.489735 0.441150 0.436133 0.056856 -0.701267 0.710627
0.337724 0.323910 -0.297747 -0.005893 0.721409 0.691478
-0.394383 0.020750 -0.089240 0.000137 0.286632 -0.957013
0.451939 -0.121879 -0.113822 0.095811 -0.699172 0.708504
0.035470 0.228614 -0.228295 -0.033663 -0.684239 -0.728481
-1.310929 0.091399 0.006361 0.003362 0.992706 0.115257
0.409738 0.603932 0.592120 -0.056806 0.730281 -0.680781
1.565417 0.088857 -0.022331 0.000254 0.960596 -0.274530
1.103200 -0.075963 -0.051224 0.000164 -0.814331 -0.578712
0.687863 0.089308 -0.020453 0.000001 0.965119 -0.257976
0.705809 -0.085813 0.032102 0.000037 -0.927821 0.370463
0.460271 -0.530029 -0.526198 0.056856 0.701267 -0.710627
-0.589219 0.079886 0.044862 -0.000048 0.859561 0.509113
1.418887 -0.140590 -0.156092 -0.000000 0.702404 -0.711779
1.301271 -0.125539 -0.106532 -0.000000 -0.702404 0.711779
0.191080 -0.076764 0.050016 -0.000595 -0.805033 0.591580
1.680650 -0.199251 -0.198553 0.141153 0.710000 -0.689910
0.603630 0.089684 -0.018739 -0.000702 0.984811 -0.167153
0.215404 -0.179067 0.190072 -0.033663 0.684239 0.728481
0.035184 -0.091560 0.099551 -0.033663 0.684239 0.728481
1.147844 -0.082817 -0.039188 -0.000044 -0.890970 -0.451887
0.449658 0.137956 0.140138 0.056856 -0.701267 0.710627
0.082168 0.178215 0.162782 -0.056806 0.730281 -0.680781
1.222957 -0.081686 -0.041495 0.000098 -0.879263 -0.474255
0.300782 0.183244 -0.196741 0.056856 -0.701267 -0.710627
0.356387 0.229365 0.206971 0.095811 0.699172 -0.708504
0.165692 0.192404 0.200301 -0.033663 -0.684239 0.728481
0.269682 -0.082024 -0.099343 0.056856 0.701267 -0.710627
1.654640 0.211532 0.216513 0.141153 -0.710000 0.689910
-0.941044 0.058457 0.070549 0.000217 0.665959 0.744667
1.203618 -0.016141 0.090188 -0.000327 -0.198107 0.979204
-1.454676 -0.088822 -0.022471 -0.000087 -0.953226 -0.298683
1.315410 -0.071539 0.057241 -0.000601 -0.770660 0.635810
0.344126 -0.051645 -0.075678 0.000020 -0.563996 -0.824596
1.334386 0.041646 -0.081608 -0.000013 0.488902 -0.871212
-0.635020 -0.006972 0.091355 0.004328 -0.075736 0.995270
1.583152 -0.137495 0.153037 -0.000000 0.702404 0.711779
1.020480 -0.098303 -0.097009 -0.060475 -0.787195 0.613732
-1.347164 0.069999 -0.059114 -0.000157 0.736660 -0.674874
1.348900 -0.140556 -0.154033 -0.060475 0.603241 -0.795263
-1.143436 0.031305 0.086106 -0.000027 0.365520 0.929676
-1.560164 -0.062299 0.067180 0.000003 -0.724192 0.688203
-0.143666 0.058311 -0.070670 0.000229 0.612652 -0.789202
1.382423 0.078185 0.047765 0.000637 0.841523 0.538422
1.660023 0.028698 0.056792 1.000000 -0.000000 -0.000000
0.101962 0.148224 -0.128959 -0.056806 0.730281 0.680781
0.070884 -0.082880 0.039054 0.000014 -0.904343 0.424827
1.671931 0.315308 0.311155 -0.060475 0.787195 -0.613732
-1.447078 -0.030213 -0.086496 -0.000005 -0.382940 -0.922713
0.262783 -0.130079 -0.146248 -0.033663 0.684239 -0.728481
0.523626 0.090975 0.010853 0.000014 0.987123 0.151649
1.165247 -0.146527 0.144597 -0.060475 -0.787195 -0.613732
0.069701 0.193479 -0.196875 -0.033663 -0.684239 -0.728481
1.065719 -0.113373 -0.111880 -0.060475 -0.787195 0.613732
0.042003 0.221226 0.221657 -0.033663 -0.684239 0.728481
-0.105137 -0.103399 -0.104186 -0.033663 0.684239 -0.728481
0.584531 -0.078607 -0.047066 -0.000167 -0.829410 -0.556937
0.122159 0.050902 0.076180 0.000150 0.600584 0.798334
1.660124 0.105696 0.106473 0.141153 -0.710000 0.689910
1.129422 0.087640 -0.026712 -0.000188 0.944688 -0.324946
-1.399325 0.084752 -0.034805 -0.000540 0.906783 -0.419217
-0.085072 -0.091621 -0.000000 0.002431 -0.997588 -0.044934
0.114289 0.308174 -0.306665 -0.033663 -0.684239 -0.728481
0.415039 0.289535 0.292491 0.056856 -0.701267 0.710627
1.435526 -0.111919 -0.093092 -0.000000 -0.702404 0.711779
0.240324 0.229685 0.238766 -0.033663 -0.684239 0.728481
-1.226305 0.080806 -0.043183 -0.000100 0.860222 -0.507993
0.345304 0.124672 0.102158 0.095811 0.699172 -0.708504
0.499648 -0.265615 0.262117 0.095811 -0.699172 -0.708504
0.873164 0.037044 -0.083798 0.000232 0.388002 -0.920511
0.074612 0.070203 -0.059299 -0.000000 -0.711779 0.702404
1.593356 0.101166 -0.084830 0.141153 0.680436 0.719085
0.783847 0.043741 0.080505 0.000240 0.511068 0.858501
0.206028 -0.411127 -0.407605 -0.033663 0.684239 -0.728481
-1.565459 0.007931 0.091277 -0.001093 0.109554 0.993066
1.029316 0.008915 -0.091186 0.000422 0.158651 -0.986322
1.656108 -0.224860 0.229929 0.141153 0.710000 0.689910
-0.838740 -0.071269 -0.057577 0.000518 -0.813952 -0.579143
0.402421 -0.418565 -0.420831 0.056856 0.701267 -0.710627
-1.513013 0.053688 0.074242 -0.000775 0.633362 0.772606
0.404988 -0.594843 0.589357 -0.033663 0.684239 0.728481
0.395334 -0.000000 0.091621 -0.000570 0.063025 0.997013
0.462251 -0.182168 -0.174711 0.095811 -0.699172 0.708504
1.330570 0.062502 0.079032 -0.000000 -0.702404 0.711779
1.577388 0.087412 0.027450 0.000855 0.944107 0.326593
-0.079280 0.173714 -0.171426 -0.033663 -0.684239 -0.728481
1.374235 0.186810 -0.175673 -0.060475 0.787195 0.613732
0.360328 -0.311322 0.318368 0.056856 0.701267 0.710627
1.319062 -0.197764 0.195159 -0.060475 -0.787195 -0.613732
-0.831284 0.062127 0.067339 0.000118 0.657914 0.751802
1.637042 0.156578 -0.145839 0.141153 0.680436 0.719085
0.212376 -0.142672 0.155746 -0.033663 0.684239 0.728481
0.142463 0.171136 -0.150158 -0.056806 0.730281 0.680781
0.335389 -0.081260 -0.042321 -0.000046 -0.886177 -0.461217
1.592989 0.157305 -0.137880 0.047172 0.696265 0.715439
0.288068 -0.261839 0.271174 -0.033663 0.684239 0.728481
-1.283817 0.021356 -0.089097 0.000979 0.280056 -0.958824
0.111628 0.010834 -0.090978 -0.000534 0.151714 -0.987116
0.305258 0.091621 -0.000000 -0.001114 0.996022 0.073047
1.503352 -0.103691 0.084971 0.000000 -0.702404 -0.711779
0.405929 -0.216584 0.221230 0.056856 0.701267 0.710627
1.065719 0.113373 -0.111880 -0.060475 0.787195 0.613732
1.654169 0.065486 -0.066311 0.141153 -0.710000 -0.689910
1.087886 0.034806 0.084752 -0.000181 0.416721 0.907949
0.391040 0.163535 0.146694 0.095811 0.699172 -0.708504
-0.467607 0.077078 0.049531 0.000228 0.863954 0.502191
0.676861 -0.069285 -0.059949 0.000782 -0.741761 -0.669257
0.568021 0.075695 0.051620 0.000184 0.812879 0.580778
1.585952 -0.259688 -0.248287 -0.060475 -0.787195 0.613732
0.393368 -0.171897 -0.155261 0.095811 -0.699172 0.708504
0.350298 0.008629 0.091213 -0.000146 0.061897 0.997120
1.411851 -0.079360 -0.045785 0.000319 -0.881016 -0.470885
-1.691759 0.043649 -0.060324 -0.360172 0.599246 -0.713066
0.053264 0.170411 -0.156823 -0.056806 0.730281 0.680781
1.535382 0.146857 0.127569 -0.000000 0.702404 -0.711779
-0.030690 0.028885 0.086948 0.000760 0.298174 0.953112
-1.178760 0.090061 0.016834 -0.000530 0.968771 0.244014
1.282870 -0.185708 -0.183262 -0.060475 -0.787195 0.613732
0.731751 0.075653 0.051682 0.000304 0.846904 0.529956
-0.361439 0.074966 -0.052673 0.000302 0.834318 -0.549664
-0.030247 0.007004 -0.091352 0.000851 0.108799 -0.993236
0.104797 -0.043012 0.080897 0.000111 -0.516609 0.855113
0.490411 -0.234393 -0.230057 0.095811 -0.699172 0.708504
-1.563711 -0.087831 -0.026078 0.000213 -0.948878 -0.312845
0.183407 -0.366553 0.364692 -0.033663 0.684239 0.728481
0.099186 0.125114 0.104400 -0.056806 0.730281 -0.680781
0.075761 0.278349 0.276871 -0.033663 -0.684239 0.728481
-1.085916 0.091621 -0.000000 -0.001048 0.999015 0.024509
1.503161 0.161604 -0.142122 -0.000000 0.702404 0.711779
-0.270367 0.043485 0.080644 -0.000081 0.473815 0.879529
-0.217962 -0.041853 -0.081502 -0.000114 -0.422776 -0.905100
0.937889 -0.079053 -0.046314 -0.000505 -0.829098 -0.557354
0.481134 0.317055 0.310375 0.095811 0.699172 -0.708504
-1.261441 -0.069320 0.059909 0.000005 -0.775586 0.629675
-0.422725 -0.089164 -0.021075 -0.000842 -0.965910 -0.254593
1.405496 0.199514 -0.203060 -0.060475 -0.603241 -0.795263
-0.646455 0.067528 -0.061922 -0.000422 0.759904 -0.648593
-0.705162 0.038857 -0.082973 -0.000104 0.454952 -0.889414
0.655085 0.078735 -0.046853 0.000005 0.843648 -0.535064
0.228799 -0.299135 -0.303466 -0.033663 0.684239 -0.728481
-0.883754 -0.071942 0.056734 -0.000057 -0.769871 0.636678
1.357206 0.151805 0.132452 -0.040368 0.760206 -0.647548
0.398642 0.372886 -0.376056 0.056856 -0.701267 -0.710627
-0.953074 -0.091094 0.009812 0.000618 -0.990450 0.130258
-1.308063 0.080694 -0.043392 -0.000062 0.888894 -0.455940
1.602410 -0.261946 0.265391 -0.060475 0.603241 0.795263
0.471637 0.498445 0.488092 0.095811 0.699172 -0.708504
-1.226349 0.034834 0.084740 -0.000079 0.409260 0.911350
-1.307329 -0.058876 -0.070199 0.000129 -0.642252 -0.765216
-0.252926 -0.083473 0.037770 -0.000039 -0.886412 0.460758
0.089645 -0.082936 -0.059952 -0.056806 -0.730281 0.680781
-0.238958 0.042454 -0.081191 -0.000203 0.487743 -0.871859
0.158713 -0.199411 0.206560 -0.033663 0.684239 0.728481
-0.689606 -0.084115 -0.036317 0.001616 -0.914766 -0.400988
1.193291 0.042564 0.081133 -0.000006 0.499588 0.865128
1.602537 0.261974 -0.265422 -0.060475 -0.603241 -0.795263
-1.351236 -0.041633 0.081615 -0.000005 -0.425759 0.903744
0.921692 -0.083876 0.036867 0.000004 -0.887764 0.458185
0.435154 0.512979 -0.497501 0.095811 0.699172 0.708504
0.540633 0.008389 -0.091236 0.001029 0.126153 -0.991043
1.418887 0.140590 0.156092 0.000000 -0.702404 0.711779
-1.300440 -0.008972 0.091180 0.000083 -0.129132 0.990608
1.045883 -0.000000 0.091621 -0.000110 0.026488 0.998958
0.213445 0.055806 -0.072664 0.000471 0.632793 -0.773028
0.466078 0.559770 0.547857 0.095811 0.699172 -0.708504
-1.266357 0.063328 0.066211 -0.000002 0.713324 0.699423
-0.156100 -0.071227 -0.067897 -0.056806 -0.730281 0.680781
-0.811198 -0.020822 -0.089223 -0.000425 -0.207538 -0.976883
0.444888 -0.090631 0.013431 0.000165 -0.978156 0.203810
-0.035244 0.084252 0.071784 -0.056806 0.730281 -0.680781
-0.113084 -0.083682 0.085300 -0.033663 0.684239 0.728481
-0.520051 0.090237 -0.015861 -0.000256 0.978450 -0.201885
-0.319542 0.069164 -0.060089 -0.000019 0.773989 -0.631635
-1.125950 -0.091621 0.000000 0.001189 -0.999095 -0.023420
-0.022456 -0.032438 0.085686 -0.000183 -0.346368 0.937076
-1.436938 0.061735 -0.067699 -0.000160 0.681037 -0.731034
1.132174 -0.096594 0.104206 -0.060475 0.603241 0.795263
0.373600 0.162131 -0.170080 0.056856 -0.701267 -0.710627
0.275232 -0.091621 -0.000000 0.001216 -0.999110 -0.020868
-1.641271 -0.073062 -0.049381 -0.183532 -0.817712 -0.543495
0.309811 -0.189954 -0.161780 0.095811 -0.699172 0.708504
0.878734 -0.091114 0.009621 0.000113 -0.989576 0.136431
-0.593473 0.019651 0.089488 -0.000015 0.250816 0.967035
0.053447 0.059924 0.069307 -0.000095 0.694813 0.717848
0.362401 -0.133284 -0.142509 0.056856 0.701267 -0.710627
-0.472236 0.054502 -0.073647 0.000112 0.542734 -0.838727
-0.389557 -0.060547 -0.068763 -0.000124 -0.689639 -0.722821
0.464509 -0.548210 0.543801 0.056856 0.701267 0.710627
0.976923 0.083771 -0.037103 0.000490 0.903852 -0.425618
-0.745323 -0.089559 0.019325 0.000250 -0.968625 0.244719
-1.475391 0.091155 0.009226 -0.000622 0.990532 0.130964
0.286388 -0.426909 -0.412519 -0.056806 -0.730281 0.680781
0.424336 -0.253975 0.256656 0.056856 0.701267 0.710627
0.170779 0.284387 0.269280 -0.056806 0.730281 -0.680781
0.167899 0.362257 -0.353053 -0.056806 0.730281 0.680781
0.366183 0.070635 -0.058352 0.000931 0.739868 -0.671749
-0.019554 -0.092900 -0.079752 -0.056806 -0.730281 0.680781
0.147930 0.086197 -0.031054 -0.000540 0.927223 -0.371948
1.458279 0.118453 -0.099539 0.000000 0.702404 0.711779
1.506070 0.062723 -0.066785 0.000033 0.660916 -0.749146
0.344681 -0.154762 0.165122 0.056856 0.701267 0.710627
0.114119 -0.312481 0.304145 -0.056806 -0.730281 -0.680781
0.974921 -0.016740 0.090078 -0.001006 -0.223097 0.973690
1.159177 0.129838 -0.123790 -0.060475 0.787195 0.613732
1.011432 0.095289 -0.094034 -0.060475 0.787195 0.613732
0.349089 -0.255207 0.263891 0.056856 0.701267 0.710627
0.785663 0.091621 -0.000000 -0.001291 0.997197 0.043688
0.454472 -0.099822 0.092398 0.095811 -0.699172 -0.708504
1.267738 0.040053 0.082402 -0.000602 0.487796 0.871985
0.146173 -0.133799 0.144354 -0.033663 0.684239 0.728481
0.316250 0.348664 0.354029 -0.033663 -0.684239 0.728481
1.004804 0.077506 0.048858 0.000315 0.864040 0.501494
1.527726 -0.195327 0.175400 0.000000 -0.702404 -0.711779
0.249160 0.409623 0.397082 -0.056806 0.730281 -0.680781
0.274214 -0.251983 0.225890 -0.056806 -0.730281 -0.680781
0.193052 -0.079320 0.095349 -0.033663 0.684239 0.728481
0.351809 0.569660 -0.563246 -0.033663 -0.684239 -0.728481
0.030324 -0.182887 0.185106 -0.033663 0.684239 0.728481
0.430298 -0.526088 0.524707 0.056856 0.701267 0.710627
-1.177663 -0.073323 0.054937 0.000399 -0.819601 0.571344
0.209954 -0.142807 -0.114137 -0.056806 -0.730281 0.680781
0.204128 -0.239011 0.245853 -0.033663 0.684239 0.728481
0.092801 -0.225828 0.212970 -0.056806 -0.730281 -0.680781
-0.407391 0.073138 0.055184 0.000099 0.765634 0.641845
0.296955 0.174134 0.144431 0.095811 0.699172 -0.708504
-0.425119 -0.043855 0.080443 0.000167 -0.524120 0.850540
1.643764 -0.069006 -0.040078 0.241795 -0.866897 -0.433259
1.502822 -0.090402 -0.014896 0.000045 -0.990100 -0.134671
0.499648 -0.229829 0.226802 0.095811 -0.699172 -0.708504
1.207768 0.122899 -0.110101 -0.060475 0.787195 0.613732
0.302544 -0.190738 -0.203996 0.056856 0.701267 -0.710627
-0.662649 0.062799 0.066713 -0.000610 0.669926 0.741146
-1.596347 -0.064759 -0.064812 -0.010187 -0.753351 -0.655702
0.238689 0.100991 0.066883 -0.056806 0.730281 -0.680781
1.216652 -0.116140 -0.125456 -0.060475 0.603241 -0.795263
0.357902 0.214258 -0.222777 0.056856 -0.701267 -0.710627
0.070571 -0.297337 0.291534 -0.056806 -0.730281 -0.680781
-1.237610 -0.032798 -0.085549 -0.000189 -0.398573 -0.916060
0.360703 0.532208 -0.519272 -0.056806 0.730281 0.680781
-0.562371 -0.067438 0.062020 0.000071 -0.762961 0.645054
0.287214 0.483213 -0.472847 -0.056806 0.730281 0.680781
0.288225 -0.081864 0.041141 -0.000189 -0.864721 0.500390
-0.734363 -0.051444 0.075814 -0.000268 -0.530281 0.846796
-1.628576 -0.027791 0.085560 -0.124269 -0.258265 0.956907
1.066091 0.083151 0.073080 -0.060475 0.787195 -0.613732
-0.088788 0.021785 0.088993 -0.000115 0.289441 0.956219
1.471218 0.078196 -0.047746 0.000580 0.819317 -0.571658
1.060140 0.038045 -0.083348 -0.000054 0.391981 -0.918929
-0.091035 -0.162293 0.160155 -0.033663 0.684239 0.728481
1.471389 -0.076506 0.050410 0.000182 -0.856263 0.514774
0.280997 -0.110586 0.126623 0.056856 0.701267 0.710627
1.421845 -0.085609 0.032642 -0.000134 -0.925515 0.376111
0.448772 0.260946 -0.250629 0.095811 0.699172 0.708504
1.169376 -0.026870 -0.087592 0.000022 -0.326678 -0.944091
1.505911 -0.155703 0.136298 -0.000000 -0.702404 -0.711779
-0.782192 -0.081895 -0.041079 0.000015 -0.875745 -0.480770
0.333872 0.173486 0.184465 0.056856 -0.701267 0.710627
0.776824 -0.058766 0.070291 0.000441 -0.670675 0.740489
0.499648 -0.480331 -0.474004 0.095811 -0.699172 0.708504
0.172608 0.114974 0.127893 -0.033663 -0.684239 0.728481
-0.971755 0.066820 -0.062685 -0.000147 0.767390 -0.639720
0.265254 0.088918 -0.056050 0.095811 0.699172 0.708504
0.147759 -0.090399 -0.014913 -0.000088 -0.985821 -0.162441
1.472884 0.161834 0.142349 0.000000 0.702404 -0.711779
0.053727 -0.089237 -0.098226 -0.033663 0.684239 -0.728481
0.363495 -0.349418 0.355709 0.056856 0.701267 0.710627
-0.422924 -0.009454 -0.091131 0.000508 -0.165729 -0.985106
0.431294 0.201512 -0.189615 0.095811 0.699172 0.708504
1.579149 -0.195006 0.175084 0.000000 -0.702404 -0.711779
0.458509 0.292827 0.283407 0.095811 0.699172 -0.708504
0.052434 0.089414 -0.019985 -0.000304 0.977092 -0.210049
1.595508 -0.205555 -0.185494 0.000000 -0.702404 0.711779
1.564205 0.220758 0.200497 -0.040368 0.760206 -0.647548
1.187684 0.133598 0.125804 -0.060475 0.787195 -0.613732
1.506551 -0.134739 -0.115610 -0.000000 -0.702404 0.711779
0.225986 -0.099358 -0.066191 -0.056806 -0.730281 0.680781
-0.290173 -0.083455 -0.037809 0.000145 -0.922121 -0.384188
0.866284 -0.047801 -0.078163 -0.000264 -0.554992 -0.830723
0.489379 -0.601593 0.594490 0.000000 -0.711779 0.702404
0.241614 0.109769 0.126193 -0.033663 -0.684239 0.728481
1.644992 -0.168307 0.158498 0.141153 -0.680436 -0.719085
0.457064 0.458363 -0.446567 0.095811 0.699172 0.708504
-0.965962 0.032117 -0.085807 -0.000265 0.319383 -0.946727
0.499648 -0.516117 -0.509319 0.095811 -0.699172 0.708504
-1.559654 0.088160 -0.024941 -0.000067 0.964447 -0.260572
0.031084 -0.169135 -0.172225 -0.033663 0.684239 -0.728481
0.383512 -0.121976 0.104664 0.095811 -0.699172 -0.708504
1.446014 0.057809 0.071081 0.001643 0.618666 0.784556
1.604415 0.253979 0.259500 -0.060475 -0.603241 0.795263
0.175596 0.193935 -0.202197 -0.033663 -0.684239 -0.728481
-0.140808 0.070130 0.058958 -0.000007 0.764110 0.643603
0.910173 -0.022726 -0.088757 0.000683 -0.308569 -0.950254
0.247153 0.264355 0.271646 -0.033663 -0.684239 0.728481
1.369683 -0.086176 -0.031114 -0.000050 -0.916330 -0.397965
-0.104436 0.108532 -0.103604 -0.056806 0.730281 0.680781
-0.619557 0.035083 -0.084638 0.001750 0.415727 -0.908732
0.353059 0.437282 -0.418082 -0.056806 0.730281 0.680781
1.292788 -0.045098 -0.079752 -0.000319 -0.544432 -0.837674
0.411142 0.444781 -0.446003 0.056856 -0.701267 -0.710627
0.299465 0.135677 -0.149906 0.056856 -0.701267 -0.710627
1.624111 0.075125 0.082380 0.141153 -0.710000 0.689910
0.299939 -0.520977 0.512295 -0.056806 -0.730281 -0.680781
-0.737187 0.084263 0.035973 0.001280 0.907989 0.416453
1.237264 -0.126518 0.111836 -0.060475 -0.787195 -0.613732
-1.587680 0.076046 0.051101 -0.000300 0.818531 0.572985
0.065167 0.257634 -0.249394 -0.056806 0.730281 0.680781
0.808781 -0.086318 -0.030716 -0.000307 -0.937042 -0.347112
0.653665 0.082766 0.039295 0.000648 0.875520 0.481275
0.389987 0.376098 0.356314 0.095811 0.699172 -0.708504
0.174313 0.154891 -0.130074 -0.056806 0.730281 0.680781
-1.682033 0.076387 0.015670 -0.327498 0.911458 0.244840
0.337420 0.261834 -0.236447 0.095811 0.699172 0.708504
0.388103 -0.471973 -0.473169 -0.033663 0.684239 -0.728481
-0.863015 -0.089182 0.020998 -0.000643 -0.957233 0.286039
-1.388762 0.091340 0.007163 -0.000097 0.989766 0.136845
0.459419 0.347853 0.346490 0.056856 -0.701267 0.710627
0.499648 -0.401602 0.396312 0.095811 -0.699172 -0.708504
1.332974 0.090412 -0.071868 0.000000 0.702404 0.711779
0.142739 -0.378185 -0.372238 -0.056806 -0.730281 0.680781
1.636459 -0.273736 -0.276923 -0.060475 0.603241 -0.795263
-1.151015 -0.008658 0.091211 -0.001899 -0.118120 0.992115
0.965647 0.034830 -0.084742 0.000024 0.404288 -0.913888
0.229956 0.398168 -0.386396 -0.056806 0.730281 0.680781
0.318605 0.381685 0.385152 -0.033663 -0.684239 0.728481
0.456283 -0.212370 -0.203709 0.095811 -0.699172 0.708504
-0.971739 0.008408 0.091234 -0.000377 0.120461 0.991845
-0.046238 -0.075982 -0.051196 0.000563 -0.830596 -0.555229
0.445344 -0.172946 0.175012 0.056856 0.701267 0.710627
0.189702 0.386933 0.377703 -0.056806 0.730281 -0.680781
0.177209 0.033619 -0.085229 -0.000085 0.340943 -0.939092
-1.763927 -0.031501 0.006556 -0.652282 -0.746736 0.105533
0.235932 0.140485 -0.109479 -0.056806 0.730281 0.680781
0.310645 0.092987 0.066203 0.095811 0.699172 -0.708504
-1.504926 0.085072 -0.034016 -0.000274 0.908521 -0.415542
1.265193 0.069497 -0.085935 0.000000 -0.702404 -0.711779
0.162424 0.247128 0.251550 -0.033663 -0.684239 0.728481
-0.465393 0.091621 -0.000000 -0.001018 0.997494 0.060428
-1.726581 0.042515 -0.039434 -0.512801 0.620994 -0.588693
0.253912 0.362942 -0.364559 -0.033663 -0.684239 -0.728481
-0.658059 -0.048987 -0.077425 0.000647 -0.482665 -0.874801
-0.066014 -0.150850 -0.145793 -0.056806 -0.730281 0.680781
1.660023 0.009859 -0.032467 1.000000 -0.000000 -0.000000
0.928986 0.055676 -0.072764 0.000167 0.584484 -0.810371
1.660023 0.062431 0.022011 1.000000 0.000000 -0.000000
0.432513 0.133569 -0.137181 0.056856 -0.701267 -0.710627
1.276077 -0.000000 0.091621 0.002659 0.053795 0.997773
1.656108 -0.224860 -0.229929 0.141153 0.710000 -0.689910
1.396801 -0.194327 -0.183091 -0.060475 -0.787195 0.613732
-1.604792 -0.062268 0.067149 -0.034539 -0.716457 0.694987
1.306562 0.155592 0.162219 -0.060475 -0.603241 0.795263
0.156104 -0.342182 -0.340540 -0.033663 0.684239 -0.728481
1.140738 -0.109030 -0.098917 -0.060475 -0.787195 0.613732
0.454229 -0.324371 -0.313957 0.095811 -0.699172 0.708504
1.204206 0.100840 0.082158 -0.040368 0.760206 -0.647548
1.624288 -0.095621 -0.085655 0.141153 -0.680436 0.719085
-0.521928 0.022397 0.088841 -0.000118 0.236449 0.970921
0.435096 0.512948 0.497462 0.095811 0.699172 -0.708504
1.376603 -0.141874 -0.122652 -0.000000 -0.702404 0.711779
0.145996 -0.287899 0.275116 -0.056806 -0.730281 -0.680781
-0.149484 -0.043206 0.080793 -0.000039 -0.518408 0.853981
0.065008 0.106255 0.114731 -0.033663 -0.684239 0.728481
1.150597 0.056283 0.072295 -0.000038 0.596251 0.801549
1.589486 0.175212 0.155551 0.000000 0.702404 -0.711779
0.444949 -0.454500 0.441117 0.095811 -0.699172 -0.708504
-0.225190 0.091621 -0.000000 -0.000584 0.999176 0.022196
0.295881 0.101733 -0.116696 0.056856 -0.701267 -0.710627
-0.035298 -0.089779 0.094621 -0.033663 0.684239 0.728481
0.473544 -0.047142 -0.078562 -0.000260 -0.468864 -0.882093
0.273289 -0.166236 0.180694 -0.033663 0.684239 0.728481
0.255007 -0.136274 0.151707 -0.033663 0.684239 0.728481
0.187239 -0.291221 0.294112 -0.033663 0.684239 0.728481
1.702517 -0.259490 -0.256072 0.141153 -0.680436 0.719085
1.703982 0.266578 0.263067 0.141153 -0.710000 0.689910
1.711309 -0.302022 -0.298044 0.141153 -0.680436 0.719085
1.673211 -0.117714 0.116163 0.141153 -0.680436 -0.719085
1.692260 0.209868 -0.207104 0.141153 -0.710000 -0.689910
0.429014 0.093376 -0.097797 0.056856 -0.701267 -0.710627
0.499648 -0.344344 -0.339809 0.095811 -0.699172 0.708504
0.499648 0.487488 -0.481067 0.056856 -0.701267 -0.710627
0.499648 0.537589 -0.530508 0.056856 -0.701267 -0.710627
0.499648 -0.494645 0.488130 0.095811 -0.699172 -0.708504
-1.640882 -0.087808 0.008819 -0.161675 -0.985116 0.032429
-0.895756 -0.000000 0.091621 -0.000163 0.026698 0.998929
0.355619 -0.445283 0.426452 -0.056806 -0.730281 -0.680781
0.207560 0.049872 0.076858 0.000152 0.541342 0.839701
-0.015030 0.182831 -0.175845 -0.056806 0.730281 0.680781
1.576298 0.034192 -0.085001 -0.000070 0.430673 -0.901407
1.576332 0.133555 0.114443 -0.000000 0.702404 -0.711779
0.184070 0.099489 0.069829 -0.056806 0.730281 -0.680781
0.214216 0.125379 -0.139589 -0.033663 -0.684239 -0.728481
1.343351 0.107695 0.123630 -0.000000 -0.702404 0.711779
0.305375 0.249680 0.260553 -0.033663 -0.684239 0.728481
0.389333 -0.165760 0.172402 0.056856 0.701267 0.710627
0.627273 0.017068 -0.090017 -0.001166 0.150028 -0.987767
-0.225190 -0.000000 0.091621 -0.001058 0.056752 0.997520
0.679867 0.036811 0.083900 -0.000409 0.343934 0.937864
0.225236 0.174224 0.185977 -0.033663 -0.684239 0.728481
1.546317 -0.017200 -0.089992 -0.000059 -0.217881 -0.974972
-0.834550 0.085764 -0.032230 0.000374 0.926553 -0.373573
0.442859 -0.428241 -0.427144 0.056856 0.701267 -0.710627
-0.823172 -0.090574 0.013808 -0.001038 -0.984480 0.169577
0.320034 -0.245133 -0.217615 0.095811 -0.699172 0.708504
1.617643 0.297224 0.293309 -0.060475 0.787195 -0.613732
1.472876 0.249001 -0.245721 -0.060475 0.787195 0.613732
1.400493 -0.224889 0.221927 -0.060475 -0.787195 -0.613732
1.472876 -0.249001 0.245721 -0.060475 -0.787195 -0.613732
1.219534 0.164610 -0.162442 -0.060475 0.787195 0.613732
0.306650 -0.322291 0.328814 -0.033663 0.684239 0.728481
0.266447 -0.168850 -0.137359 -0.056806 -0.730281 0.680781
-1.356144 -0.091621 0.000000 0.000269 -0.997434 -0.059233
0.272870 0.088874 0.105847 0.056856 -0.701267 0.710627
1.301144 -0.089866 -0.017844 0.001643 -0.983701 -0.174352
0.538606 -0.024173 0.088374 -0.000018 -0.300582 0.952718
0.473599 -0.076360 -0.050631 0.000012 -0.801417 -0.596464
0.151240 0.277896 -0.263948 -0.056806 0.730281 0.680781
0.168194 -0.245615 0.227905 -0.056806 -0.730281 -0.680781
1.276206 0.107471 -0.123409 -0.020210 -0.670467 -0.740897
-0.072527 0.043772 -0.080488 0.000153 0.509624 -0.859124
-0.040967 -0.127095 0.118221 -0.056806 -0.730281 -0.680781
0.097043 0.345030 -0.340485 -0.033663 -0.684239 -0.728481
0.332141 -0.573451 0.565898 -0.033663 0.684239 0.728481
-0.032261 -0.219398 0.216508 -0.033663 0.684239 0.728481
-0.049893 -0.202266 -0.199602 -0.033663 0.684239 -0.728481
-0.833652 0.046427 -0.078986 -0.000539 0.472303 -0.880515
-1.357449 -0.078748 -0.046831 0.000014 -0.858937 -0.510190
-1.484138 -0.028954 0.086925 -0.000076 -0.373465 0.926599
0.215725 -0.090510 -0.014220 0.001964 -0.986790 -0.155356
-0.862423 0.079724 0.045149 -0.000105 0.838869 0.542622
1.486449 -0.049202 -0.077288 -0.000011 -0.482532 -0.874750
0.083439 -0.163070 0.168948 -0.033663 0.684239 0.728481
1.276206 -0.107471 0.123409 -0.040368 0.637413 0.768725
0.311376 -0.331223 -0.307790 -0.056806 -0.730281 0.680781
1.584714 0.054327 0.069037 0.094209 -0.708542 0.698265
-0.035701 0.135430 0.126722 -0.056806 0.730281 -0.680781
0.460154 0.577117 -0.572675 0.056856 -0.701267 -0.710627
0.253283 0.151707 -0.166123 -0.033663 -0.684239 -0.728481
0.488052 0.054374 0.073741 0.000119 0.573221 0.818215
0.526467 -0.069300 0.059932 0.000068 -0.713426 0.699318
1.513064 -0.104352 -0.085624 0.000000 -0.702404 0.711779
-0.722262 0.087844 -0.026033 -0.000138 0.937951 -0.343900
0.335586 -0.010194 -0.091052 0.000373 -0.116342 -0.992464
-0.227025 0.081235 0.042370 0.000027 0.909664 0.412965
-0.296268 -0.085455 0.033042 -0.000161 -0.911133 0.409621
0.249703 -0.205963 -0.216919 -0.033663 0.684239 -0.728481
-0.088430 -0.036498 -0.084037 -0.000139 -0.403640 -0.913953
0.250072 0.154891 0.123752 -0.056806 0.730281 -0.680781
0.791279 0.019176 -0.089591 0.000278 0.265791 -0.963001
-0.185074 -0.070924 0.069990 -0.033663 0.684239 0.728481
0.033441 0.029782 -0.086645 0.000221 0.306622 -0.950813
-1.571050 -0.039563 -0.082638 0.000352 -0.407798 -0.912053
0.006826 -0.208830 -0.208389 -0.033663 0.684239 -0.728481
1.175992 0.091621 -0.000000 0.001692 0.998626 0.030121
-1.092496 0.082895 0.039021 0.000246 0.875043 0.481993
1.607730 0.228617 0.208252 0.097591 0.688405 -0.718036
0.156104 -0.342182 0.340540 -0.033663 0.684239 0.728481
0.100980 -0.102228 0.079701 -0.056806 -0.730281 -0.680781
1.616696 0.024733 -0.082938 0.242265 0.216685 -0.944660
0.274272 0.212381 0.183403 -0.056806 0.730281 -0.680781
0.313082 -0.224222 0.236195 0.056856 0.701267 0.710627
0.025941 -0.133017 0.118990 -0.056806 -0.730281 -0.680781
1.452980 -0.178613 0.158907 0.000000 -0.702404 -0.711779
0.284442 -0.373763 -0.355671 -0.056806 -0.730281 0.680781
-0.693497 0.038320 0.083222 -0.000103 0.398755 0.916044
-0.365283 -0.091465 0.005339 0.000071 -0.993451 0.107640
0.225236 -0.174224 -0.185977 -0.033663 0.684239 -0.728481
1.622241 -0.016548 0.083542 0.242446 -0.162178 0.955430
0.217729 -0.381138 -0.379977 -0.033663 0.684239 -0.728481
0.019760 0.142670 0.146844 -0.033663 -0.684239 0.728481
0.212121 0.284944 0.289366 -0.033663 -0.684239 0.728481
0.350927 -0.531244 0.519055 -0.056806 -0.730281 -0.680781
1.591515 -0.132822 -0.148426 0.094223 0.708677 -0.698399
0.107467 -0.265207 -0.265992 -0.033663 0.684239 -0.728481
0.455547 -0.272760 -0.263204 0.095811 -0.699172 0.708504
0.267911 -0.268134 -0.243741 -0.056806 -0.730281 0.680781
0.020168 0.035356 0.084524 0.000419 0.387163 0.921019
1.641198 0.242023 -0.227507 0.141153 0.680436 0.719085
1.343315 -0.048654 0.077635 -0.000398 -0.562244 0.825946
0.367572 0.267586 0.274628 0.056856 -0.701267 0.710627
1.657730 0.168100 0.171185 0.141153 -0.710000 0.689910
0.431294 0.201512 0.189615 0.095811 0.699172 -0.708504
0.411019 0.256814 -0.241447 0.095811 0.699172 0.708504
0.292657 -0.430772 0.430060 -0.033663 0.684239 0.728481
0.121158 -0.102277 -0.078069 -0.056806 -0.730281 0.680781
1.539052 -0.177141 -0.157455 -0.000000 -0.702404 0.711779
0.026269 -0.255409 0.250253 -0.056806 -0.730281 -0.680781
0.431215 -0.125509 0.114601 0.095811 -0.699172 -0.708504
-0.064320 -0.083155 0.038465 0.000418 -0.907067 0.418776
0.327224 -0.111780 -0.086991 0.095811 -0.699172 0.708504
0.402237 0.230121 -0.213917 0.095811 0.699172 0.708504
-0.855722 0.091621 -0.000000 -0.001441 0.999045 0.028314
0.025236 0.066661 -0.062854 -0.000074 0.768810 -0.637979
-0.475278 0.028235 0.087161 -0.000638 0.294668 0.954633
-0.470549 -0.065289 -0.064278 0.000148 -0.735885 -0.675667
0.499648 -0.537589 0.530508 0.095811 -0.699172 -0.708504
1.433102 -0.090781 -0.012372 0.002466 -0.984882 -0.165521
0.837302 -0.077597 0.048714 0.002010 -0.846510 0.531092
0.164730 0.027703 0.087332 0.000011 0.353322 0.934464
1.580078 -0.126735 -0.107713 -0.000000 -0.702404 0.711779
0.352179 0.448685 0.449636 -0.033663 -0.684239 0.728481
1.590618 -0.203687 0.218358 -0.000000 0.702404 0.711779
1.410275 0.137007 -0.152556 0.000000 -0.702404 -0.711779
0.364289 -0.264624 -0.242834 0.095811 -0.699172 0.708504
1.278740 0.083889 -0.036837 -0.000249 0.904130 -0.425103
0.217546 -0.145849 0.116767 -0.056806 -0.730281 -0.680781
0.499648 -0.172572 -0.170299 0.095811 -0.699172 0.708504
1.580553 0.191205 -0.171333 0.000000 0.702404 0.711779
0.285848 0.447892 0.445825 -0.033663 -0.684239 0.728481
1.441719 0.041381 -0.081743 -0.000121 0.422074 -0.905480
0.179199 0.105655 -0.076851 -0.056806 0.730281 0.680781
0.153174 0.183008 0.161999 -0.056806 0.730281 -0.680781
0.301225 0.493438 0.489315 -0.033663 -0.684239 0.728481
1.397580 -0.064863 0.064708 -0.000499 -0.730905 0.680784
0.566351 -0.087202 0.028111 -0.000016 -0.930222 0.364279
1.226035 0.000000 -0.091621 -0.001058 0.052903 -0.997937
1.339206 -0.145809 0.126535 -0.020210 -0.731942 -0.680231
0.735621 -0.091621 -0.000000 0.000052 -0.997740 -0.054477
1.629599 0.106670 -0.097152 0.141153 0.680436 0.719085
-1.474007 0.027437 0.087416 0.000319 0.358696 0.932381
0.116374 0.258613 0.246172 -0.056806 0.730281 -0.680781
1.436306 -0.149621 0.130296 -0.000000 -0.702404 -0.711779
1.511786 0.095406 0.111503 -0.000000 -0.702404 0.711779
0.340197 -0.344191 -0.350934 -0.033663 0.684239 -0.728481
0.400096 0.603546 -0.592511 -0.000000 0.711779 -0.702404
0.154866 -0.161673 -0.138972 -0.056806 -0.730281 0.680781
1.108758 -0.083773 0.037101 0.000682 -0.912750 0.406929
1.267384 -0.110606 -0.091796 -0.000000 -0.702404 0.711779
1.140909 0.116420 0.108379 -0.060475 0.787195 -0.613732
1.266068 0.000000 -0.091621 0.000995 0.070472 -0.996314
0.277470 0.207179 -0.177556 -0.056806 0.730281 0.680781
0.279326 -0.477492 -0.467369 -0.056806 -0.730281 0.680781
0.453129 0.452386 0.440137 0.095811 0.699172 -0.708504
0.101689 -0.252351 0.240680 -0.056806 -0.730281 -0.680781
0.499648 -0.330030 0.325683 0.095811 -0.699172 -0.708504
0.256104 -0.116089 0.081626 0.044979 -0.711040 -0.700719
1.238876 0.141721 0.131177 -0.060475 0.787195 -0.613732
1.589051 -0.061009 0.075026 0.141153 0.710000 0.689910
1.547907 0.172734 0.153106 0.000000 0.702404 -0.711779
1.403688 0.090202 -0.016062 -0.001165 0.981844 -0.183848
0.354495 0.129761 0.139665 0.056856 -0.701267 0.710627
0.854865 0.067455 -0.062001 -0.000033 0.717635 -0.695135
0.363148 -0.198717 -0.207020 0.056856 0.701267 -0.710627
0.265841 -0.063800 -0.065787 -0.000000 0.711779 0.702404
1.035874 0.091621 -0.000000 -0.000907 0.996249 0.069432
-0.089593 -0.056273 0.072303 0.000114 -0.610560 0.790812
0.273283 -0.030945 0.086237 0.000087 -0.343603 0.938173
0.279164 0.292607 0.269054 -0.056806 0.730281 -0.680781
-0.806891 -0.007114 0.091344 -0.000734 -0.132434 0.990427
0.124203 0.226168 -0.210715 -0.056806 0.730281 0.680781
-0.149722 -0.006404 0.091396 0.000099 -0.110715 0.993061
0.116778 -0.323986 -0.316264 -0.056806 -0.730281 0.680781
1.201438 -0.158582 -0.156494 -0.060475 -0.787195 0.613732
0.039069 -0.079505 0.060492 -0.056806 -0.730281 -0.680781
1.495291 0.090185 0.016154 0.000613 0.972023 0.230798
0.439420 -0.319151 0.306803 0.095811 -0.699172 -0.708504
0.291153 -0.228804 0.199612 -0.056806 -0.730281 -0.680781
1.296402 -0.152207 0.158879 -0.060475 0.603241 0.795263
-1.682640 -0.042527 0.065114 -0.335249 -0.564456 0.752626
-0.158970 0.091405 0.006287 0.000330 0.993553 0.106534
1.640047 0.189665 -0.177737 0.141153 0.680436 0.719085
1.551585 0.079996 0.061589 0.000000 0.702404 -0.711779
1.619704 -0.170815 -0.181758 0.141153 0.710000 -0.689910
1.282324 0.128514 0.139836 -0.060475 -0.603241 0.795263
0.862458 -0.046343 0.079036 0.000583 -0.447358 0.893153
1.285673 0.037457 -0.083614 0.000373 0.462647 -0.885456
-1.548736 -0.027887 0.087273 0.000594 -0.339759 0.939318
0.336449 -0.291177 0.265272 0.095811 -0.699172 -0.708504
-1.665110 0.033284 0.076118 -0.273732 0.413762 0.866896
-1.210853 -0.010234 0.091047 0.000269 -0.140028 0.989059
1.212325 -0.091179 0.072625 0.000000 -0.702404 -0.711779
1.680979 -0.318322 -0.314129 -0.060475 -0.787195 0.613732
-1.445298 0.073900 0.054158 0.000343 0.839299 0.542056
0.461713 -0.378469 -0.376519 0.056856 0.701267 -0.710627
-1.744576 -0.020945 -0.041809 -0.580001 -0.345634 -0.734379
1.351681 -0.170621 -0.177051 -0.060475 0.603241 -0.795263
0.456241 0.402439 0.391269 0.095811 0.699172 -0.708504
0.326263 -0.567740 -0.560262 -0.033663 0.684239 -0.728481
0.308793 -0.480159 0.477193 -0.033663 0.684239 0.728481
0.499648 0.544746 0.537571 0.095811 0.699172 -0.708504
-0.180093 -0.040336 -0.082264 0.000288 -0.384179 -0.922257
-0.717526 -0.056483 -0.072139 0.000491 -0.640684 -0.766730
0.363892 0.122295 -0.102326 0.095811 0.699172 0.708504
0.117776 0.091310 0.007534 -0.000799 0.992363 0.116706
-0.431054 0.089669 -0.018812 -0.000300 0.963088 -0.265697
1.429138 0.098618 0.114673 0.000000 -0.702404 0.711779
0.267287 0.238458 0.211959 -0.056806 0.730281 -0.680781
-0.080853 -0.135400 0.130457 -0.056806 -0.730281 -0.680781
0.315532 0.099618 -0.073408 0.095811 0.699172 0.708504
1.483983 -0.185553 -0.198438 -0.060475 0.603241 -0.795263
0.322987 -0.092152 0.067049 0.095811 -0.699172 -0.708504
1.523970 0.113920 -0.129773 -0.000000 -0.702404 -0.711779
0.312701 0.059192 -0.069933 0.000330 0.666452 -0.744255
1.582683 0.017543 0.089925 0.000973 0.151105 0.987580
1.625739 0.073989 -0.040385 0.242270 0.881310 -0.402696
-0.305091 -0.005962 0.091426 -0.000111 -0.116172 0.992413
0.421290 -0.335199 0.337053 0.056856 0.701267 0.710627
0.725951 -0.073267 -0.055012 0.000042 -0.822378 -0.567290
-1.366659 0.031775 -0.085934 0.000286 0.399596 -0.915717
-1.060888 0.014289 0.090499 0.000594 0.215855 0.975429
0.185623 -0.079859 -0.095513 -0.033663 0.684239 -0.728481
-0.473373 0.007341 -0.091326 -0.000072 0.140053 -0.989278
1.156156 0.071178 -0.070240 0.000000 -0.711779 0.702404
0.386994 0.582524 0.571054 -0.056806 0.730281 -0.680781
0.348191 0.577298 0.568686 -0.056806 0.730281 -0.680781
-0.587262 -0.027137 -0.087510 -0.000354 -0.356090 -0.933428
-0.443204 -0.089186 0.020982 0.001497 -0.961997 0.270195
-0.605511 0.091621 -0.000000 0.000017 0.998551 0.031379
1.341195 0.092354 -0.108491 0.000000 -0.702404 -0.711779
0.293385 0.143418 -0.113636 0.095811 0.699172 0.708504
1.270037 -0.154389 -0.158529 -0.060475 0.603241 -0.795263
0.615519 -0.000000 0.091621 -0.000685 0.058156 0.997457
-0.357156 -0.007392 0.091322 -0.001326 -0.126074 0.991261
0.164468 -0.109485 0.122362 -0.033663 0.684239 0.728481
0.252806 0.361796 0.345473 -0.056806 0.730281 -0.680781
0.097266 0.301080 0.299215 -0.033663 -0.684239 0.728481
1.534683 -0.225591 0.209604 -0.060475 -0.787195 -0.613732
0.478221 -0.295295 -0.288508 0.095811 -0.699172 0.708504
0.085260 -0.007093 0.091346 -0.000824 -0.130413 0.990500
1.660885 -0.289172 0.278720 -0.060475 -0.787195 -0.613732
1.660886 0.289172 -0.278720 -0.060475 0.787195 0.613732
1.311912 -0.128868 -0.142355 -0.060475 0.603241 -0.795263
-0.658335 -0.074213 0.053729 -0.000955 -0.780397 0.623735
0.040489 0.171420 0.158971 -0.056806 0.730281 -0.680781
1.493342 -0.039518 0.082660 0.001311 -0.490767 0.869991
0.069114 -0.271906 -0.270512 -0.033663 0.684239 -0.728481
0.440956 -0.367123 0.354351 0.095811 -0.699172 -0.708504
0.196144 -0.179702 0.154867 -0.056806 -0.730281 -0.680781
1.428697 -0.183938 -0.166622 -0.060475 -0.787195 0.613732
1.395435 0.093354 -0.074771 -0.000000 0.702404 0.711779
0.286388 0.426909 -0.412519 -0.056806 0.730281 0.680781
0.345952 -0.268603 -0.277362 0.056856 0.701267 -0.710627
0.836647 -0.019530 0.089515 0.000971 -0.251265 0.966906
0.232058 -0.240965 0.217588 -0.056806 -0.730281 -0.680781
1.467576 0.117132 0.132942 0.000000 -0.702404 0.711779
0.236225 -0.281646 -0.260879 -0.056806 -0.730281 0.680781
0.379211 -0.384873 0.389439 0.056856 0.701267 0.710627
0.311732 0.141210 0.154385 0.056856 -0.701267 0.710627
-0.893343 -0.031241 -0.086130 0.000262 -0.276083 -0.959981
1.273902 0.081271 0.042301 0.000059 0.875960 0.480411
0.279800 -0.176424 0.144370 0.044979 -0.711040 -0.700719
1.557291 0.255121 0.245253 -0.060475 0.787195 -0.613732
0.302911 0.532959 0.524901 -0.056806 0.730281 -0.680781
0.096270 0.154807 0.136496 -0.056806 0.730281 -0.680781
0.425360 -0.378444 -0.363413 0.095811 -0.699172 0.708504
-0.253124 -0.034455 0.084895 -0.000023 -0.375195 0.925893
0.137343 -0.178153 0.158112 -0.056806 -0.730281 -0.680781
1.616717 -0.234335 -0.215427 0.141153 -0.680436 0.719085
1.254266 -0.070330 -0.086757 -0.000000 0.702404 -0.711779
0.402421 0.418565 0.420831 0.056856 -0.701267 0.710627
1.248311 0.089109 0.105289 0.000000 -0.702404 0.711779
0.993336 -0.089262 0.088086 -0.060475 -0.787195 -0.613732
-0.080853 0.135400 -0.130457 -0.056806 0.730281 0.680781
1.564205 -0.220758 -0.200497 -0.040368 -0.760206 0.647548
0.134496 0.095350 -0.069526 -0.056806 0.730281 0.680781
-1.416195 -0.091621 0.000000 0.001033 -0.997943 -0.042867
0.362983 0.317529 0.324281 0.056856 -0.701267 0.710627
1.391195 -0.026938 -0.087571 0.000187 -0.322030 -0.945694
0.290516 0.113373 0.128612 0.056856 -0.701267 0.710627
0.431604 -0.482540 -0.466983 0.095811 -0.699172 0.708504
0.322768 0.158423 -0.132417 0.095811 0.699172 0.708504
0.299465 -0.135677 -0.149906 0.056856 0.701267 -0.710627
0.341262 0.286761 -0.295656 0.056856 -0.701267 -0.710627
0.360770 0.528016 0.524545 -0.033663 -0.684239 0.728481
0.436860 -0.070655 0.074748 0.056856 0.701267 0.710627
-0.555929 0.051084 -0.076058 -0.000110 0.525421 -0.849793
0.149385 -0.087835 0.026062 -0.000012 -0.940967 0.335543
0.326012 -0.032454 0.085680 0.000145 -0.326876 0.944131
0.293385 -0.143418 -0.113636 0.095811 -0.699172 0.708504
0.479446 0.090497 0.014302 -0.000010 0.979691 0.195621
1.410302 0.062502 0.079032 -0.000000 -0.702404 0.711779
0.076398 0.107812 -0.116720 -0.033663 -0.684239 -0.728481
-0.684584 -0.037332 0.083670 0.000067 -0.376049 0.925614
0.401572 0.324325 0.306790 0.095811 0.699172 -0.708504
0.253617 0.057500 -0.071331 -0.001822 0.662593 -0.746893
0.488797 0.119641 0.116598 0.095811 0.699172 -0.708504
0.649370 -0.064721 0.064850 0.000265 -0.691092 0.721252
-0.275198 0.017208 -0.089990 0.000282 0.156882 -0.986599
0.126430 0.373582 0.368662 -0.056806 0.730281 -0.680781
0.217333 -0.279386 0.260031 -0.056806 -0.730281 -0.680781
0.263214 -0.110678 -0.077247 0.095811 -0.699172 0.708504
-1.146673 0.088304 -0.024427 -0.000183 0.945736 -0.322094
1.436525 -0.059504 0.069668 0.000745 -0.691226 0.721479
0.309811 0.189954 -0.161780 0.095811 0.699172 0.708504
0.140233 -0.072554 0.086554 -0.033663 0.684239 0.728481
0.197470 -0.197508 -0.173857 -0.056806 -0.730281 0.680781
1.297169 0.101129 0.117150 0.000000 -0.702404 0.711779
-0.239377 -0.078407 -0.047399 -0.000477 -0.874744 -0.482562
1.397495 -0.119577 0.100648 -0.000000 -0.702404 -0.711779
0.905764 0.091621 -0.000000 0.000643 0.996058 0.069252
0.325050 -0.472018 -0.457682 -0.056806 -0.730281 0.680781
0.285241 0.317533 0.295285 -0.056806 0.730281 -0.680781
-0.096912 0.156582 0.154520 -0.056806 0.730281 -0.680781
0.406180 -0.488154 0.489202 0.026691 0.696100 0.717107
0.166140 0.080131 0.044423 0.000105 0.873553 0.484729
0.405521 0.406624 -0.388539 0.095811 0.699172 0.708504
1.168206 -0.088848 -0.070324 -0.040944 -0.760977 0.646578
0.411613 -0.282756 -0.267127 0.095811 -0.699172 0.708504
-1.319035 -0.091369 0.006789 0.001690 -0.994219 0.100041
0.410196 0.123673 -0.109948 0.095811 0.699172 0.708504
1.393205 0.163797 0.144286 -0.040368 0.760206 -0.647548
-1.542460 0.030324 -0.086457 0.000001 0.372966 -0.926769
1.564976 -0.153610 -0.168940 0.000000 0.702404 -0.711779
1.522294 0.195084 -0.175161 0.000000 0.702404 0.711779
1.396178 -0.000000 0.091621 -0.000135 0.045587 0.998585
0.415605 0.234892 0.238522 0.056856 -0.701267 0.710627
0.254067 -0.392226 0.392072 -0.033663 0.684239 0.728481
1.539035 -0.041667 0.081598 0.000458 -0.504485 0.862316
-1.108115 -0.035527 0.084452 -0.000125 -0.417578 0.907593
0.259734 -0.373208 0.357137 -0.056806 -0.730281 -0.680781
0.242940 0.190199 -0.162222 -0.056806 0.730281 0.680781
1.008374 0.047122 0.078574 0.000258 0.462775 0.885461
0.147765 -0.255419 0.258660 -0.033663 0.684239 0.728481
1.111206 -0.039483 0.082677 0.000853 -0.467916 0.882651
1.291918 0.188722 -0.186236 -0.060475 0.787195 0.613732
0.227671 0.345124 -0.346611 -0.033663 -0.684239 -0.728481
1.646568 0.128538 -0.121176 0.141153 0.680436 0.719085
0.242892 -0.475294 0.469578 -0.033663 0.684239 0.728481
-0.715604 0.000000 -0.091621 -0.001604 0.070151 -0.996202
0.233613 -0.210071 0.184318 -0.056806 -0.730281 -0.680781
0.085288 0.333609 0.329214 -0.056806 0.730281 -0.680781
0.563590 0.050908 -0.076175 -0.000568 0.602057 -0.797487
-0.000010 -0.091068 0.076156 -0.056806 -0.730281 -0.680781
0.198469 -0.027519 0.087390 -0.000264 -0.354055 0.934246
0.275177 0.270220 -0.245372 -0.056806 0.730281 0.680781
-0.002349 0.096870 0.082575 -0.056806 0.730281 -0.680781
1.361826 -0.174001 0.180385 -0.060475 0.603241 0.795263
0.413173 0.333399 -0.317314 0.095811 0.699172 0.708504
-0.664129 -0.008819 -0.091195 -0.000406 -0.133447 -0.990040
1.484334 -0.164633 -0.145111 0.000000 -0.702404 0.711779
1.480813 0.188104 0.168273 -0.000000 0.702404 -0.711779
-0.149616 -0.091219 0.008568 -0.000112 -0.986473 0.156714
1.159332 -0.122777 0.114717 -0.060475 -0.787195 -0.613732
1.124171 0.028413 0.087104 0.000273 0.279823 0.958699
-1.310669 0.025680 0.087948 -0.000047 0.311370 0.949253
-1.716195 0.062956 0.008870 -0.455411 0.887210 0.041578
-1.051425 -0.087756 0.026328 -0.000104 -0.949552 0.310433
1.331560 -0.076603 -0.092948 -0.000000 0.702404 -0.711779
1.470572 -0.008851 -0.091192 -0.000109 -0.127762 -0.990795
-0.119665 -0.077471 -0.079161 -0.033663 0.684239 -0.728481
-0.661754 -0.091066 -0.010064 -0.001199 -0.990231 -0.131605
-0.955807 0.091621 -0.000000 0.001008 0.996735 0.065933
0.751518 0.015791 -0.090249 0.000176 0.232736 -0.971555
0.315591 0.251098 0.222900 0.095811 0.699172 -0.708504
0.460916 -0.009510 0.091126 -0.001115 -0.128136 0.990743
-0.578836 0.085453 -0.033048 -0.001484 0.923139 -0.382090
0.167267 -0.008513 0.091224 -0.000036 -0.142475 0.988883
-0.543208 -0.061942 -0.067509 -0.000379 -0.720208 -0.692423
0.403007 0.110320 0.095799 0.095811 0.699172 -0.708504
0.525306 0.087834 -0.026066 0.000265 0.938537 -0.342371
1.581022 -0.041751 -0.081555 -0.000396 -0.482715 -0.874705
0.866799 0.081393 0.042066 -0.000245 0.856661 0.513964
0.405342 0.000000 -0.091621 0.000503 0.061301 -0.996972
0.660260 -0.007170 0.091340 -0.000909 -0.054338 0.997778
-0.071265 0.090157 0.081124 -0.056806 0.730281 -0.680781
-0.345078 -0.036951 -0.083839 -0.000067 -0.439161 -0.897312
1.394928 0.113432 -0.129292 0.000000 -0.702404 -0.711779
1.547783 -0.131812 0.147430 0.000000 0.702404 0.711779
0.102115 -0.182134 -0.187717 -0.033663 0.684239 -0.728481
-0.776804 0.084514 -0.035381 -0.000035 0.909184 -0.414015
-1.024691 0.070549 0.058457 0.000012 0.751961 0.657725
-0.797404 -0.080342 0.044039 -0.000248 -0.844344 0.534030
-0.787308 0.088733 0.022822 -0.001044 0.964125 0.261860
1.279192 -0.076097 0.092448 -0.000000 0.702404 0.711779
1.009944 0.007971 0.091273 -0.000382 0.113555 0.992679
0.683055 0.089488 0.019651 0.000653 0.971197 0.234002
0.244717 0.089172 0.021039 -0.000103 0.973679 0.223722
1.611076 -0.081626 0.032744 0.242671 -0.920570 0.302824
-0.770352 0.045189 -0.079701 0.000027 0.520545 -0.852675
1.222206 0.089484 -0.105658 -0.020786 -0.669486 -0.741654
1.028715 0.083209 0.086185 -0.060475 -0.603241 0.795263
0.260067 -0.069663 0.059846 -0.000000 0.711779 -0.702404
0.188401 -0.310953 -0.296308 -0.056806 -0.730281 0.680781
0.075218 -0.226861 -0.215546 -0.056806 -0.730281 0.680781
0.441982 0.081287 -0.042271 -0.000015 0.874375 -0.483235
1.393028 -0.110314 -0.091507 -0.000000 -0.702404 0.711779
-0.754499 -0.089586 -0.019199 -0.000491 -0.967821 -0.247662
-0.360046 0.010361 -0.091033 -0.000120 0.180272 -0.982387
0.433515 -0.424792 0.424488 0.056856 0.701267 0.710627
0.316622 -0.109129 0.122335 0.056856 0.701267 0.710627
-1.331483 -0.068819 0.060483 -0.000006 -0.729427 0.682613
0.064110 -0.266801 0.265485 -0.033663 0.684239 0.728481
-0.166075 0.029964 -0.086582 0.000184 0.350948 -0.935351
-1.187825 -0.083496 -0.037719 0.000159 -0.883824 -0.465659
-0.938993 -0.035044 0.084654 0.000098 -0.362474 0.930943
0.226627 -0.116298 -0.131633 -0.033663 0.684239 -0.728481
-0.201130 0.066855 0.062648 0.000087 0.729250 0.682806
0.397859 -0.544887 0.529774 -0.056806 -0.730281 -0.680781
0.376055 -0.580256 0.569533 -0.056806 -0.730281 -0.680781
0.251513 -0.281110 0.287586 -0.033663 0.684239 0.728481
0.890387 0.065593 0.063968 -0.000103 0.757922 0.650838
0.112992 -0.230012 -0.233190 -0.033663 0.684239 -0.728481
1.230887 -0.091282 -0.007869 -0.000577 -0.992610 -0.113915
-1.000634 -0.063206 0.066328 0.000064 -0.715029 0.697685
1.095780 0.034069 -0.085051 -0.000096 0.405950 -0.912823
1.328110 0.200778 -0.198133 -0.060475 0.787195 0.613732
0.333140 -0.217389 0.192009 0.095811 -0.699172 -0.708504
-0.979242 0.073526 0.054665 0.000054 0.785115 0.617763
-1.612989 0.087289 -0.026657 -0.049773 0.971195 -0.227892
-0.315049 0.034999 -0.084672 -0.000321 0.409200 -0.911376
0.173043 -0.214379 -0.221281 -0.033663 0.684239 -0.728481
0.350889 0.341422 0.348827 -0.020730 -0.686920 0.726190
0.088381 0.080123 -0.091267 -0.033663 -0.684239 -0.728481
0.373762 -0.096469 0.078175 0.095811 -0.699172 -0.708504
0.420076 0.064498 -0.065072 0.000033 0.746029 -0.664432
-1.418917 0.035098 -0.084631 -0.000274 0.344483 -0.937672
1.232839 -0.142606 -0.146763 -0.060475 0.603241 -0.795263
-0.617183 0.066728 0.062782 -0.000336 0.744147 0.666517
0.469164 -0.580427 -0.575221 0.056856 0.701267 -0.710627
-1.406126 -0.017188 0.089994 -0.000048 -0.217590 0.975022
-1.017013 0.073859 -0.054213 -0.000015 0.820970 -0.569277
-1.013556 -0.035339 0.084531 -0.000045 -0.441977 0.895928
0.094834 -0.123823 0.132611 -0.033663 0.684239 0.728481
-0.261606 0.070296 0.058760 0.000055 0.766013 0.641296
-0.387778 0.058621 -0.070412 0.000001 0.590220 -0.806024
0.343895 0.293749 0.302341 0.056856 -0.701267 0.710627
0.723880 -0.016348 -0.090150 -0.000009 -0.214328 -0.975759
0.732928 0.053941 -0.074059 -0.000038 0.615323 -0.787042
-0.289844 -0.036600 -0.083993 0.001038 -0.454820 -0.889407
0.723466 0.087835 -0.026063 -0.000104 0.949122 -0.311709
0.004177 -0.159625 -0.149348 -0.056806 -0.730281 0.680781
1.231859 -0.058567 0.070457 0.000185 -0.670022 0.741034
1.346775 0.078012 0.048046 -0.000217 0.815684 0.576881
