-1.738638 0.082296 0.020573 -0.340396 0.898026 0.273745
0.571025 -0.045312 -0.087505 -0.000154 -0.481794 -0.875361
0.617698 -0.060912 -0.077460 0.000489 -0.574305 -0.817727
-0.219523 -0.084886 -0.104697 -0.048531 0.742502 -0.668083
0.181962 0.316332 -0.391089 -0.048531 -0.742502 -0.668083
1.335107 0.092279 0.101403 -0.033582 0.791942 -0.609672
1.454268 -0.154392 -0.175521 -0.033582 -0.791942 0.609672
0.210326 -0.218542 0.241094 0.095169 -0.762207 -0.640299
0.338539 -0.082745 -0.098499 0.095169 -0.762207 0.640299
0.146182 -0.451008 0.538167 -0.048531 0.742502 0.668083
-1.759241 -0.027155 -0.071862 -0.422615 -0.361651 -0.828961
-0.078880 -0.064765 0.074291 0.000000 0.643219 -0.765682
0.251098 0.087320 0.113213 0.068018 -0.763909 0.641729
0.135696 -0.224090 -0.238206 -0.067941 -0.793615 0.604614
1.455857 0.082268 0.054243 -0.000939 0.863765 0.501706
1.672372 -0.087178 0.033578 0.344870 -0.855455 0.384344
-1.298790 0.097031 0.017188 0.000124 0.988363 0.146238
0.025575 -0.162980 0.209295 -0.048531 0.742502 0.668083
0.214580 0.260390 0.291542 0.095169 0.762207 -0.640299
0.338539 0.515153 -0.613233 0.095169 0.762207 0.640299
1.072802 -0.054531 0.082078 0.000122 -0.598820 0.799906
0.260793 -0.254772 -0.311519 0.068018 0.763909 -0.641729
-0.037247 -0.249724 0.301138 -0.048531 0.742502 0.668083
-0.349681 0.017205 -0.097028 -0.000047 0.145638 -0.988473
0.024280 -0.141123 -0.141822 -0.067941 -0.793615 0.604614
0.161728 0.199958 0.256769 0.068018 -0.763909 0.641729
-0.949057 0.017196 0.097029 0.000022 0.117276 0.992197
1.573416 0.224811 0.272716 0.052203 -0.755115 0.653511
-1.708595 -0.064948 -0.066644 -0.202946 -0.627404 -0.749979
-0.740626 -0.083914 0.051661 -0.000607 -0.836799 0.545712
1.509414 0.234732 -0.281755 -0.033582 -0.737169 -0.674873
-0.039225 0.177299 -0.196444 -0.067941 0.793615 0.604614
0.186838 0.074488 0.066123 0.095169 0.762207 -0.640299
1.468758 -0.079974 0.057572 0.000514 -0.775395 0.630085
1.587887 0.238578 -0.280411 0.052203 0.773997 0.631034
-0.199643 -0.018177 -0.096850 0.000031 -0.121105 -0.991575
-1.378684 0.097031 0.017188 -0.000338 0.992235 0.117206
-0.062326 0.138751 0.175981 -0.048531 -0.742502 0.668083
0.105288 -0.091757 0.074558 0.095169 -0.762207 -0.640299
0.195286 -0.500829 0.594756 -0.067941 -0.793615 -0.604614
1.027732 -0.028383 0.094365 -0.001070 -0.344606 0.937662
0.100648 0.377652 -0.443708 -0.067941 0.793615 0.604614
0.293971 -0.494520 -0.593396 0.068018 0.763909 -0.641729
0.087576 -0.149158 -0.198437 -0.048531 0.742502 -0.668083
0.338539 0.424799 -0.505677 0.095169 0.762207 0.640299
0.300850 -0.316874 -0.371603 0.095169 -0.762207 0.640299
1.599427 -0.213424 -0.250513 0.052203 -0.773997 0.631034
0.112837 0.415641 -0.492203 -0.067941 0.793615 0.604614
0.182479 -0.287526 -0.319073 0.095169 -0.762207 0.640299
0.984402 -0.065124 0.073954 -0.001386 -0.696740 0.716118
0.103620 0.232936 0.292712 -0.048531 -0.742502 0.668083
-0.229161 0.109194 0.131013 -0.048531 -0.742502 0.668083
0.929113 -0.063960 -0.074963 -0.000891 -0.668730 -0.742200
0.289121 -0.262821 0.305514 0.095169 -0.762207 -0.640299
-0.116524 -0.101857 -0.106104 -0.067941 -0.793615 0.604614
0.290307 -0.115209 -0.142256 0.068018 0.763909 -0.641729
0.275195 0.160512 -0.197786 0.068018 -0.763909 -0.641729
-0.831022 -0.082479 0.053923 0.000065 -0.834175 0.549963
1.500730 0.254094 0.302471 -0.033582 0.791942 -0.609672
0.385002 0.070378 -0.068973 0.000144 0.692352 -0.720406
0.069111 -0.334834 -0.403454 -0.048531 0.742502 -0.668083
0.259691 0.085216 -0.049484 0.000006 0.878326 -0.476272
0.043348 0.225064 -0.279585 -0.048531 -0.742502 -0.668083
-0.911504 -0.095440 0.024529 -0.000289 -0.966716 0.252433
-0.986143 0.091086 -0.037600 -0.000109 0.902457 -0.428810
1.410771 -0.120962 -0.152574 -0.033582 0.737169 -0.674873
-0.899123 0.098541 -0.000000 0.000000 0.998720 -0.029183
1.553079 -0.056568 0.066971 -0.226378 0.626521 -0.745805
0.929094 0.000000 -0.098541 -0.000011 0.029191 -0.998719
0.148571 0.126476 -0.122321 0.095169 0.762207 0.640299
0.034945 0.089223 0.041830 0.000004 0.916669 0.397504
0.629335 0.085214 -0.049487 0.000033 0.878280 -0.476351
0.629334 0.097030 0.017194 0.000012 0.988497 0.145488
-0.900806 0.043127 -0.088603 -0.000003 0.481632 -0.875397
-0.514474 0.008633 0.098162 -0.000013 0.058996 0.997436
0.120317 -0.109361 0.153312 0.068018 0.763909 0.641729
0.064451 0.256206 -0.315729 -0.048531 -0.742502 -0.668083
0.211991 0.147247 -0.156473 0.095169 0.762207 0.640299
-0.050648 -0.141430 -0.150645 -0.067941 -0.793615 0.604614
0.119822 0.092543 -0.033854 -0.000003 0.947959 -0.315698
-0.079624 0.145252 -0.158918 -0.067941 0.793615 0.604614
1.454369 0.092902 -0.032858 -0.000046 0.942520 -0.331705
-1.758093 -0.076036 0.014045 -0.420745 -0.888037 0.177042
0.719299 0.000000 -0.098541 -0.000001 0.029222 -0.998717
0.029577 0.108710 -0.098682 -0.067941 0.793615 0.604614
0.771504 -0.036458 -0.091549 0.001125 -0.400065 -0.915546
0.529391 0.075223 -0.063655 0.000031 0.743476 -0.667483
0.600120 -0.088506 0.043325 0.000021 -0.898326 0.437423
-0.136087 0.161600 0.196017 -0.048531 -0.742502 0.668083
0.843611 -0.076383 -0.062258 -0.000043 -0.736606 -0.675061
-0.274539 -0.087402 -0.045512 -0.000104 -0.883144 -0.467283
0.166906 0.194471 -0.249689 0.068018 -0.763909 -0.641729
0.246625 -0.510781 -0.602050 -0.067941 -0.793615 0.604614
1.470000 0.055481 -0.083995 0.000000 -0.643219 0.765682
-1.539799 -0.046389 0.086940 0.000582 -0.426726 0.903400
-0.239795 0.097031 -0.017188 -0.000077 0.992299 -0.116691
1.632830 -0.127719 0.148154 0.052203 -0.773997 -0.631034
1.632830 -0.127719 -0.148154 0.052203 -0.773997 0.631034
0.288818 -0.400421 -0.481927 0.068018 0.763909 -0.641729
-0.584443 0.089217 -0.041841 0.000521 0.914011 -0.403203
-0.522993 -0.096448 0.020204 -0.000558 -0.966697 0.252417
-0.386885 0.071123 0.068205 0.000230 0.755673 0.653820
-0.029591 0.251506 -0.303674 -0.048531 -0.742502 -0.668083
0.085484 0.208570 0.223476 -0.067941 0.793615 -0.604614
1.284487 0.060039 0.078139 0.000225 0.647512 0.760978
-1.547004 -0.079745 -0.057890 -0.000056 -0.836593 -0.546222
1.605060 -0.203072 0.245070 0.052203 0.755115 0.653511
-0.063615 -0.202836 0.232703 -0.067941 -0.793615 -0.604614
1.207309 -0.067334 0.071948 0.000167 -0.651251 0.757538
-0.435743 -0.049467 0.085226 -0.000004 -0.457834 0.888105
1.265006 -0.096836 0.018252 -0.000140 -0.971933 0.231721
0.224407 0.300368 0.340592 0.095169 0.762207 -0.640299
-0.123675 -0.171991 0.198965 -0.067941 -0.793615 -0.604614
-1.591829 0.010773 0.097951 0.000477 0.171715 0.983975
1.077688 0.068771 -0.070576 0.000087 0.736185 -0.675543
0.161889 -0.355371 0.407581 -0.067941 -0.793615 -0.604614
-1.314338 -0.028485 -0.094334 0.000070 -0.273337 -0.960872
-0.185020 0.079991 0.057548 -0.000570 0.797686 0.601712
1.341051 0.089860 -0.115132 -0.033582 -0.737169 -0.674873
0.194278 -0.406486 -0.471035 -0.067941 -0.793615 0.604614
-1.471942 0.011221 0.097900 0.002324 0.129623 0.990673
0.345498 -0.009288 0.098103 0.000194 -0.103134 0.994029
-0.163325 -0.093403 0.031404 0.000062 -0.927007 0.372770
-1.153612 0.024239 0.095514 0.000737 0.284412 0.957979
-0.012985 -0.261479 -0.303989 -0.067941 -0.793615 0.604614
0.240396 -0.439587 -0.532318 -0.048531 0.742502 -0.668083
0.087961 0.205101 -0.260640 -0.048531 -0.742502 -0.668083
0.154156 0.343383 0.392714 -0.067941 0.793615 -0.604614
0.244973 -0.458435 0.533526 -0.067941 -0.793615 -0.604614
0.930875 -0.022054 0.096042 0.000365 -0.217944 0.975129
-0.134423 -0.095025 0.099148 -0.067941 -0.793615 -0.604614
-1.718631 0.065092 -0.063221 -0.253846 0.656537 -0.709161
0.677758 0.049014 0.085487 0.000399 0.472013 0.880684
1.154043 -0.072570 0.066663 0.000348 -0.746144 0.664559
1.588451 -0.098541 -0.000000 0.000439 -0.999388 -0.016136
1.680957 0.089865 -0.008625 0.344551 0.937390 -0.029327
-0.156308 0.090557 -0.038857 -0.000410 0.909349 -0.413769
1.533777 0.059092 -0.070709 -0.226378 -0.626521 0.745805
0.676812 -0.060195 -0.078019 -0.001145 -0.651797 -0.757500
0.362142 -0.098284 0.007119 -0.000654 -0.993350 0.109111
-1.248782 0.000000 -0.098541 -0.001949 0.034013 -0.998617
0.093834 -0.065891 -0.073345 -0.000000 0.643219 0.765682
0.067568 -0.283041 0.323240 -0.067941 -0.793615 -0.604614
-0.620644 -0.039136 -0.090437 -0.000792 -0.431065 -0.901534
0.328056 0.076962 -0.092726 0.068018 -0.763909 -0.641729
0.685970 -0.088707 0.042911 -0.000114 -0.876877 0.479010
-1.406971 0.068636 -0.070707 -0.000285 0.656132 -0.753607
1.109601 0.016583 0.097136 -0.000623 0.137223 0.989816
0.242429 0.288550 -0.329202 0.095169 0.762207 0.640299
0.123522 0.096521 0.137688 0.068018 -0.763909 0.641729
-1.249376 0.090857 -0.038150 0.000859 0.912699 -0.406591
0.245320 0.504400 0.604709 -0.048531 -0.742502 0.668083
0.328500 0.365732 -0.433872 0.095169 0.762207 0.640299
0.129828 -0.097054 0.017054 -0.000139 -0.992572 0.114763
1.642114 0.139008 0.162769 0.052203 0.773997 -0.631034
1.642114 0.139008 -0.162769 0.052203 0.773997 0.631034
-0.104639 -0.013242 -0.097648 0.001460 -0.129417 -0.990788
1.673708 -0.045074 -0.081269 0.345602 -0.404899 -0.845308
0.253855 0.522263 -0.616308 -0.067941 0.793615 0.604614
-0.852910 -0.093959 -0.029700 -0.000018 -0.951979 -0.303066
0.189343 -0.190612 0.204728 0.095169 -0.762207 -0.640299
1.496677 -0.243659 -0.290872 -0.033582 0.737169 -0.674873
0.527830 -0.097136 -0.016585 0.000055 -0.979793 -0.196034
-0.259464 0.033524 -0.092663 -0.000007 0.393890 -0.918240
1.338725 -0.069783 -0.071981 0.000000 0.643219 0.765682
-1.421014 0.045718 0.087294 0.000099 0.507331 0.860851
-0.214505 -0.090317 0.101967 -0.067941 -0.793615 -0.604614
0.194974 -0.461496 0.553368 -0.048531 0.742502 0.668083
0.266998 0.455929 -0.550317 0.068018 -0.763909 -0.641729
0.739260 0.092524 0.033907 -0.000014 0.947852 0.316013
1.683362 0.035467 -0.045152 -0.226378 -0.626521 0.745805
-0.831196 -0.036701 -0.091452 0.000124 -0.364420 -0.930415
0.594400 0.025678 -0.095137 -0.000000 0.231749 -0.971897
0.145322 -0.159489 -0.210334 0.068018 0.763909 -0.641729
-0.599419 0.017200 -0.097029 0.000445 0.203608 -0.978192
0.231366 -0.076730 -0.102699 0.068018 0.763909 -0.641729
0.044928 0.098163 -0.008627 -0.000000 0.997440 -0.058365
1.242003 0.093945 -0.108695 -0.033582 0.791942 0.609672
-0.010101 0.092544 -0.033852 0.000002 0.947965 -0.315681
-0.719277 0.017195 0.097029 -0.000000 0.145553 0.988487
0.259767 0.033885 0.092532 -0.000009 0.288182 0.956684
0.661454 -0.036984 0.091338 0.000493 -0.417783 0.907782
-1.175780 0.051614 -0.083943 -0.000084 0.570246 -0.820438
1.173302 0.098252 -0.007541 -0.000603 0.998101 -0.049074
0.119671 0.229524 -0.290086 -0.048531 -0.742502 -0.668083
-1.225846 0.062113 0.076501 0.000020 0.625045 0.779499
-1.669143 -0.050207 -0.084397 -0.079513 -0.510917 -0.854948
-0.035870 -0.097434 -0.014733 0.001819 -0.979352 -0.198539
0.439571 -0.098541 -0.000000 -0.000294 -0.998859 -0.027638
-0.970083 0.035276 -0.092011 -0.000313 0.402204 -0.914554
-1.092725 0.070318 -0.069035 0.000227 0.673762 -0.737740
0.079823 -0.218891 -0.237660 -0.067941 -0.793615 0.604614
0.163968 -0.084687 -0.050384 -0.000155 -0.831529 -0.554068
-0.654108 -0.081518 0.055364 -0.000877 -0.799710 0.599199
-0.884957 -0.073516 -0.065618 0.000082 -0.742395 -0.668697
-0.874424 -0.083997 0.051525 -0.000041 -0.823227 0.566204
0.159655 0.457459 -0.546316 -0.048531 -0.742502 -0.668083
-1.096235 0.066576 0.072650 -0.000011 0.635138 0.771294
-1.173187 0.087175 -0.045945 0.000069 0.874900 -0.482556
0.267915 -0.086900 0.110930 0.068018 0.763909 0.641729
1.058923 0.034564 0.092281 0.000360 0.371995 0.927346
-1.826502 0.031286 0.012806 -0.673526 0.708289 0.201495
0.459578 0.033863 -0.092540 -0.000031 0.315958 -0.947872
0.539417 0.097031 0.017188 0.000000 0.988501 0.145465
1.618372 -0.065476 -0.085018 0.052203 0.755115 -0.653511
0.198973 -0.330118 -0.372225 0.095169 -0.762207 0.640299
0.179928 -0.095336 0.130298 0.068018 0.763909 0.641729
-1.291346 0.062201 -0.076430 0.001206 0.604841 -0.795191
0.669969 0.075038 -0.063873 0.000156 0.738819 -0.672637
-0.182301 -0.086747 -0.046747 0.000110 -0.877038 -0.479074
0.141779 -0.371192 -0.430607 -0.067941 -0.793615 0.604614
1.563074 -0.285722 0.340121 -0.033582 0.737169 0.674873
-1.458403 0.095781 0.023161 -0.000323 0.968587 0.244794
0.473197 -0.091520 0.036530 -0.000238 -0.929858 0.365704
-0.091323 0.082829 0.053383 -0.000946 0.828801 0.557700
0.322102 -0.471481 0.558804 0.095169 -0.762207 -0.640299
0.100335 -0.188738 0.195775 -0.067941 -0.793615 -0.604614
-0.179827 0.110962 0.136561 -0.048531 -0.742502 0.668083
0.252497 0.214107 -0.263991 0.068018 -0.763909 -0.641729
-0.374434 -0.091945 0.035447 0.000039 -0.913680 0.404372
1.562593 -0.153319 -0.173744 0.052203 -0.773997 0.631034
0.248536 -0.511526 0.612861 -0.048531 0.742502 0.668083
-1.824292 -0.031954 -0.016005 -0.648943 -0.617391 -0.433968
0.279073 -0.032286 0.093102 0.000319 -0.273659 0.960999
0.007815 0.086937 0.123491 -0.048531 -0.742502 0.668083
0.130028 -0.301723 -0.340743 -0.067941 -0.793615 0.604614
0.133800 -0.144973 -0.142144 0.095169 -0.762207 0.640299
0.509503 0.000000 -0.098541 0.000005 0.029180 -0.998720
1.488727 0.208149 -0.251688 -0.033582 -0.737169 -0.674873
-1.124429 0.092905 -0.032850 0.000118 0.922279 -0.384337
-0.003189 -0.107508 -0.100786 -0.067941 -0.793615 0.604614
1.454259 -0.086571 -0.047072 0.000233 -0.852114 -0.521779
0.276834 0.346206 0.402949 0.095169 0.762207 -0.640299
0.025001 0.129277 0.171796 -0.048531 -0.742502 0.668083
0.198084 -0.139469 -0.145147 0.095169 -0.762207 0.640299
0.129889 0.152143 0.203224 0.068018 -0.763909 0.641729
-0.112391 -0.132805 -0.146262 -0.067941 -0.793615 0.604614
0.292129 0.385375 0.451849 0.095169 0.762207 -0.640299
1.328705 0.097031 0.017189 -0.000000 0.988499 0.145473
-1.598003 -0.014211 -0.097511 -0.001748 -0.143004 -0.989015
1.148880 -0.000000 0.098541 0.001017 -0.027305 0.999073
0.050645 -0.105837 -0.092543 -0.067941 -0.793615 0.604614
1.405342 0.077371 -0.104689 -0.033582 -0.737169 -0.674873
1.092545 -0.039559 -0.090252 0.000070 -0.403693 -0.913940
0.704148 -0.022379 0.095967 -0.001132 -0.230267 0.972224
-0.072605 -0.229733 0.269019 -0.067941 -0.793615 -0.604614
-0.655494 -0.091546 -0.036465 -0.000129 -0.908879 -0.415104
-0.106505 0.137162 0.171006 -0.048531 -0.742502 0.668083
0.151140 -0.024262 -0.095508 0.000043 -0.240741 -0.969716
1.410840 0.087751 0.044836 -0.000166 0.866456 0.497549
0.088189 0.371576 0.437133 -0.067941 0.793615 -0.604614
1.476065 0.096856 0.018146 -0.000738 0.972832 0.228172
0.234887 0.356894 -0.435830 0.068018 -0.763909 -0.641729
0.974164 0.056668 0.080617 0.000086 0.597142 0.801114
1.721965 -0.009748 -0.074633 1.000000 0.000000 -0.000000
-0.732836 0.069554 -0.069804 0.000181 0.726567 -0.685906
1.509990 0.110580 0.116970 0.052203 0.773997 -0.631034
0.023476 -0.158245 -0.203879 -0.048531 0.742502 -0.668083
-0.731903 -0.071014 -0.068318 -0.000066 -0.722564 -0.690141
0.014496 -0.216159 0.267592 -0.048531 0.742502 0.668083
1.288743 -0.000000 0.098541 0.001330 -0.037849 0.998013
0.069946 0.033885 -0.092532 -0.000087 0.288388 -0.956608
-0.287420 -0.070555 0.068792 -0.000181 -0.720484 0.692271
-0.367966 -0.067725 0.071580 -0.000467 -0.648193 0.760424
1.493671 -0.137778 0.151770 -0.033582 -0.791942 -0.609672
0.248502 -0.203083 -0.251291 0.068018 0.763909 -0.641729
-1.418617 0.098541 -0.000000 0.000994 0.998959 -0.026317
-1.726597 -0.048537 0.074119 -0.289850 -0.498636 0.815499
0.338539 -0.082745 0.098499 0.068018 0.763909 0.641729
0.190435 -0.069704 0.069655 -0.000701 -0.684365 0.727904
1.607846 0.091396 0.036839 0.000017 0.906076 0.421147
1.594999 0.016087 0.097219 -0.000127 0.212936 0.976200
1.235768 -0.119672 0.142457 -0.033582 0.737169 0.674873
1.203397 0.072837 -0.083403 -0.033582 0.791942 0.609672
0.478936 -0.050789 -0.084444 -0.000166 -0.541046 -0.839984
1.258849 0.091590 -0.036354 -0.000249 0.927002 -0.372674
0.176191 0.268784 -0.295828 0.095169 0.762207 0.640299
1.276736 0.047165 -0.086521 0.000706 0.521307 -0.852521
0.230441 0.183194 0.202006 0.095169 0.762207 -0.640299
1.398087 -0.076019 -0.062702 -0.000326 -0.807155 -0.588399
-0.729341 0.092537 0.033872 0.000394 0.947391 0.317257
-0.274847 0.080418 0.056950 -0.000072 0.780274 0.624061
1.525465 -0.240140 0.282984 -0.033582 -0.791942 -0.609672
1.270455 -0.077348 -0.061055 -0.000023 -0.781634 -0.622370
-0.470481 -0.098047 -0.009853 -0.000753 -0.983851 -0.171311
0.155825 0.115277 0.110067 0.095169 0.762207 -0.640299
0.247765 0.478666 0.559768 -0.067941 0.793615 -0.604614
-0.477574 -0.078479 -0.059594 -0.000113 -0.786061 -0.616922
1.211255 -0.090115 -0.105413 -0.033582 -0.791942 0.609672
0.271288 0.304194 0.369238 0.068018 -0.763909 0.641729
0.101918 0.304410 0.347428 -0.067941 0.793615 -0.604614
0.034454 -0.065820 0.101957 -0.048531 0.742502 0.668083
-0.072382 0.194218 0.222377 -0.067941 0.793615 -0.604614
0.034160 -0.322389 0.378641 -0.067941 -0.793615 -0.604614
-0.194255 -0.110530 -0.126223 -0.067941 -0.793615 0.604614
0.338556 0.074495 0.064505 0.000510 0.775204 0.630262
1.118146 -0.097213 0.016123 -0.000317 -0.989200 0.141281
0.156712 0.384580 0.465105 -0.048531 -0.742502 0.668083
0.156309 0.170328 -0.175672 0.095169 0.762207 0.640299
0.159852 -0.417209 -0.501597 -0.048531 0.742502 -0.668083
0.117662 -0.144789 0.195767 0.029180 0.757701 0.651321
0.990105 0.064946 -0.074111 0.000833 0.631137 -0.774724
0.215830 -0.382151 0.436670 0.040832 -0.774558 -0.629910
0.228121 -0.041279 0.089479 0.000393 -0.366023 0.929763
-1.678198 0.000000 -0.097566 -0.068507 0.038233 -0.995312
0.111840 0.345669 0.400470 -0.067941 0.793615 -0.604614
0.037004 -0.129651 0.125335 -0.067941 -0.793615 -0.604614
-0.449545 0.017196 0.097029 0.000002 0.145519 0.988492
0.310333 -0.057205 -0.080237 0.000636 -0.617157 -0.786076
0.004212 0.092832 -0.129781 -0.048531 -0.742502 -0.668083
0.229737 0.358071 0.410073 0.095169 0.762207 -0.640299
0.241716 -0.358646 0.412538 0.095169 -0.762207 -0.640299
-1.678817 -0.069951 0.067936 -0.086521 -0.676632 0.729967
0.302765 -0.430947 0.507678 0.095169 -0.762207 -0.640299
0.178940 0.460545 0.551146 -0.048531 -0.742502 0.668083
0.905766 -0.090428 0.039155 -0.000008 -0.917853 0.394786
0.111074 0.108081 -0.152768 0.068018 -0.763909 -0.641729
1.394591 -0.077312 0.078684 -0.033582 -0.791942 -0.609672
1.322961 -0.076620 0.081731 -0.033582 -0.791942 -0.609672
-1.428607 0.000000 -0.098541 0.000258 0.027972 -0.998740
0.201806 -0.335052 -0.413336 -0.009670 0.750565 -0.660105
-0.478288 -0.014894 -0.097409 0.000307 -0.101476 -0.994189
-1.224857 -0.055746 0.081257 -0.000048 -0.520810 0.852721
1.393412 -0.032707 0.092955 -0.000110 -0.346190 0.937362
-0.577089 -0.056929 0.080433 0.000054 -0.616657 0.786285
0.092250 -0.156040 -0.153764 -0.067941 -0.793615 0.604614
0.102477 0.174010 -0.227140 -0.048531 -0.742502 -0.668083
-1.302925 -0.019311 0.096631 0.000628 -0.198836 0.979217
0.131605 -0.099655 -0.140562 0.068018 0.763909 -0.641729
1.721965 -0.040754 -0.006656 1.000000 0.000000 -0.000000
1.120315 0.081449 0.055466 -0.000416 0.831435 0.554019
1.237615 0.035207 -0.092037 -0.000159 0.394432 -0.917945
0.041804 0.203220 0.255196 -0.048531 -0.742502 0.668083
1.570783 -0.261240 -0.307895 -0.033582 -0.791942 0.609672
1.603714 0.278619 0.332470 0.052203 -0.755115 0.653511
1.603714 0.278619 -0.332470 0.052203 -0.755115 -0.653511
0.997537 -0.088721 0.042883 -0.000185 -0.902754 0.428039
-1.782306 -0.063107 -0.016750 -0.510137 -0.832842 -0.205799
1.721965 0.035647 -0.020474 1.000000 0.000000 0.000000
0.094835 0.315587 -0.362896 -0.067941 0.793615 0.604614
-0.998442 -0.097849 -0.011661 -0.000181 -0.985304 -0.165409
0.252818 0.391770 -0.453619 0.095169 0.762207 0.640299
-0.154828 0.123232 -0.138465 -0.067941 0.793615 0.604614
-0.814206 0.008627 -0.098163 -0.000579 0.029247 -0.998717
0.108188 -0.288449 0.325773 -0.067941 -0.793615 -0.604614
1.556928 0.205573 0.237368 0.052203 0.773997 -0.631034
0.119990 0.206846 0.264906 -0.048531 -0.742502 0.668083
-0.539768 -0.054316 -0.082220 0.001314 -0.534718 -0.844011
-0.701018 -0.095277 0.025153 0.000208 -0.964821 0.259579
0.053853 0.160288 -0.208357 -0.048531 -0.742502 -0.668083
1.623975 -0.091090 0.037590 -0.000400 -0.923854 0.380662
0.075856 -0.192226 -0.203104 -0.067941 -0.793615 0.604614
-1.649723 0.042148 -0.089073 -0.009310 0.426781 -0.903409
0.161220 0.136031 0.180725 0.068018 -0.763909 0.641729
0.306956 0.467777 -0.552144 0.095169 0.762207 0.640299
0.909082 0.097028 -0.017206 -0.000005 0.988493 -0.145514
-1.063330 -0.098236 -0.007756 -0.000301 -0.998936 -0.027657
-0.558690 0.019766 -0.096539 -0.000205 0.259449 -0.964680
0.830486 -0.074686 0.064284 -0.000077 -0.724317 0.688306
1.153609 0.033977 -0.092498 -0.001966 0.337250 -0.940311
-1.016170 -0.050329 0.084720 -0.000669 -0.499659 0.865392
1.644760 0.039793 0.053234 -0.226378 -0.626521 -0.745805
0.040048 -0.094951 0.026357 0.000097 -0.950861 0.307072
1.417399 -0.126623 0.141480 -0.033582 -0.791942 -0.609672
0.066306 0.133952 0.127688 -0.067941 0.793615 -0.604614
1.509784 0.047840 0.086149 0.000238 0.438791 0.897626
0.269406 0.142497 0.159352 0.095169 0.762207 -0.640299
0.164786 0.075160 -0.107886 0.068018 -0.763909 -0.641729
-1.494264 0.098254 -0.007520 0.001930 0.999055 -0.026674
0.067734 0.038014 0.090914 -0.000279 0.436718 0.898759
1.320317 -0.089816 -0.040540 -0.000007 -0.912494 -0.406996
1.630660 -0.171904 0.202170 0.052203 -0.773997 -0.631034
1.630660 -0.171904 -0.202170 0.052203 -0.773997 0.631034
-0.337685 -0.097130 0.016620 0.000076 -0.976959 0.210702
1.544105 0.093227 -0.098508 0.052203 0.773997 0.631034
1.582030 -0.052240 -0.061819 -0.226378 0.626521 0.745805
-1.687095 0.082845 0.049738 -0.143595 0.863662 0.480439
-0.017702 0.270599 0.325758 -0.048531 -0.742502 0.668083
0.006046 -0.269821 0.312801 -0.067941 -0.793615 -0.604614
-0.454766 -0.076588 0.062006 -0.000216 -0.749810 0.660554
0.053377 0.146929 -0.146174 -0.067941 0.793615 0.604614
-0.941922 0.085897 0.048292 0.001338 0.874569 0.483095
-0.101666 -0.143361 0.178247 -0.048531 0.742502 0.668083
1.399032 0.027292 0.094686 0.000608 0.326710 0.944236
-0.000236 -0.165196 0.176175 -0.067941 -0.793615 -0.604614
-0.764276 0.008636 -0.098162 -0.000099 0.059093 -0.997433
-1.519169 -0.096488 0.020010 0.000195 -0.977138 0.208350
0.839182 -0.000000 0.098541 0.000485 -0.022771 0.999187
0.091245 0.069799 -0.109299 0.068018 -0.763909 -0.641729
1.184414 -0.073140 -0.066037 -0.000056 -0.744344 -0.666566
0.255272 0.399432 0.463104 0.095169 0.762207 -0.640299
-0.059773 -0.103395 0.136872 -0.048531 0.742502 0.668083
-0.254144 -0.098143 -0.008855 0.000982 -0.992466 -0.116099
-0.010687 -0.090460 0.079252 -0.067941 -0.793615 -0.604614
0.298951 -0.214811 0.259905 0.068018 0.763909 0.641729
0.117911 0.054307 0.082226 -0.000129 0.528013 0.848317
1.648374 0.199491 0.237473 0.052203 0.773997 -0.631034
1.648374 0.199491 -0.237473 0.052203 0.773997 0.631034
0.154180 -0.162702 0.166277 0.095169 -0.762207 -0.640299
-0.952108 -0.090461 0.039080 -0.000354 -0.893510 0.447150
0.039572 0.327571 0.384835 -0.067941 0.793615 -0.604614
-1.672163 0.057239 0.079578 -0.047751 0.567937 0.820504
0.079920 -0.373865 0.441067 -0.067941 -0.793615 -0.604614
1.230719 -0.031581 -0.093344 -0.000758 -0.359369 -0.932455
-0.348806 0.080676 0.056584 0.000310 0.798281 0.601023
0.108206 0.113262 -0.100591 0.095169 0.762207 0.640299
1.689546 0.039595 0.077618 0.342275 0.407949 0.845199
0.338539 0.095653 0.113864 0.095169 0.762207 -0.640299
-0.079830 -0.076837 -0.105899 -0.048531 0.742502 -0.668083
0.016954 -0.348526 0.414883 -0.048531 0.742502 0.668083
-0.097898 0.242918 -0.289167 -0.067941 0.793615 0.604614
-0.000273 -0.332685 -0.396025 -0.067941 -0.793615 0.604614
0.134044 -0.249068 -0.271177 -0.067941 -0.793615 0.604614
1.661008 -0.077391 0.088756 0.052203 -0.773997 -0.631034
-1.100369 0.008797 -0.098148 0.000286 0.130765 -0.990538
0.219786 -0.098541 -0.000000 -0.000567 -0.997864 -0.048802
0.240283 0.191461 -0.213309 0.095169 0.762207 0.640299
0.178086 0.372587 -0.453329 -0.048531 -0.742502 -0.668083
1.339819 0.148437 -0.174090 -0.033582 0.791942 0.609672
-1.381289 0.081012 0.056102 -0.000051 0.819581 0.571498
0.015626 0.203691 0.224922 -0.067941 0.793615 -0.604614
-0.008645 0.085180 0.049545 0.000108 0.878488 0.475986
0.114578 0.438293 0.521741 -0.067941 0.793615 -0.604614
0.035458 0.244865 0.276738 -0.067941 0.793615 -0.604614
0.165578 -0.228033 0.289781 0.068018 0.763909 0.641729
0.196006 -0.172951 -0.220987 0.068018 0.763909 -0.641729
-1.829637 -0.016765 0.026057 -0.676321 -0.479428 0.553536
-0.345848 -0.090985 -0.037845 -0.000055 -0.917437 -0.396135
1.198831 0.092542 0.033857 -0.000212 0.948191 0.315064
-1.128958 0.092538 0.033868 -0.000002 0.947930 0.315787
-1.058967 0.098541 -0.000000 0.000408 0.998660 -0.029860
0.969055 -0.098541 -0.000000 0.000093 -0.998713 -0.027843
-1.727674 0.024758 0.084743 -0.257410 0.292533 0.919481
1.619446 0.175234 0.205326 0.052203 0.773997 -0.631034
1.619446 0.175234 -0.205326 0.052203 0.773997 0.631034
0.216399 -0.336775 0.382740 0.095169 -0.762207 -0.640299
1.469345 0.113112 0.121070 -0.033582 0.791942 -0.609672
0.164864 -0.096110 -0.088595 0.095169 -0.762207 0.640299
-1.399602 -0.028809 0.094236 -0.000133 -0.344549 0.937960
1.458306 0.044844 0.087747 -0.000021 0.500842 0.864551
1.413574 -0.029828 -0.093919 -0.000137 -0.352453 -0.934926
1.368458 -0.161224 0.194447 -0.033582 0.737169 0.674873
1.152328 -0.047905 -0.086114 -0.000055 -0.489641 -0.870942
0.624402 0.008646 0.098161 0.000212 0.058535 0.997432
1.721965 -0.010177 0.041938 1.000000 0.000000 0.000000
1.552012 -0.202816 -0.249011 0.023614 0.749640 -0.661083
-0.028986 -0.306283 0.364596 -0.048531 0.742502 0.668083
1.539772 -0.098475 -0.129427 0.052203 0.755115 -0.653511
0.234743 0.098163 -0.008627 -0.000000 0.997440 -0.058365
-0.274760 0.098163 0.008627 0.000001 0.997439 0.058376
-0.684361 0.095152 -0.025622 0.000002 0.971955 -0.231505
0.314665 0.098163 -0.008627 -0.000000 0.997440 -0.058365
0.194782 0.098163 -0.008627 -0.000000 0.997440 -0.058365
-0.086891 -0.172977 -0.212235 -0.048531 0.742502 -0.668083
-1.780674 0.060534 -0.026806 -0.478407 0.758534 -0.436737
-0.916846 0.090557 -0.038856 0.000060 0.918150 -0.394165
1.259147 -0.131533 -0.156575 -0.033582 -0.791942 0.609672
1.298112 -0.151301 -0.180107 -0.033582 -0.791942 0.609672
1.376042 0.190836 -0.227170 -0.033582 0.791942 0.609672
1.577205 0.047364 -0.067379 -0.226378 -0.626521 0.745805
1.014028 0.008641 0.098162 -0.000004 0.058453 0.997432
-0.005291 -0.193894 0.241410 -0.048531 0.742502 0.668083
-1.034074 0.050453 0.084645 0.000095 0.507217 0.860766
0.270438 0.429228 0.518168 0.068018 -0.763909 0.641729
0.768041 0.033552 0.092653 0.000961 0.388259 0.920807
1.634746 0.230667 0.274585 0.052203 0.773997 -0.631034
1.634746 0.230667 -0.274585 0.052203 0.773997 0.631034
0.441822 0.053395 0.082821 -0.000027 0.559768 0.827642
0.267745 0.059688 -0.078556 0.000000 -0.643219 0.765682
1.289746 0.124889 -0.150841 -0.033582 -0.737169 -0.674873
1.376042 0.190836 0.227170 -0.033582 0.791942 -0.609672
0.233798 0.264331 0.325760 0.068018 -0.763909 0.641729
1.188841 -0.098541 -0.000000 -0.000270 -0.998712 -0.026491
0.302502 -0.263203 -0.307958 0.095169 -0.762207 0.640299
-0.742007 -0.093423 -0.031345 -0.000658 -0.931806 -0.360781
0.786622 -0.040895 0.089655 0.000161 -0.460791 0.886563
0.296649 0.114175 -0.129687 0.095169 0.762207 0.640299
0.091608 0.417172 0.496597 -0.067941 0.793615 -0.604614
-0.051230 0.163568 0.204369 -0.048531 -0.742502 0.668083
0.338539 0.340899 0.405803 0.095169 0.762207 -0.640299
1.683362 -0.038355 -0.042725 -0.226378 0.626521 0.745805
0.028353 -0.217105 -0.241099 -0.067941 -0.793615 0.604614
0.338539 0.450614 -0.536407 0.095169 0.762207 0.640299
0.057777 -0.191170 0.203750 -0.067941 -0.793615 -0.604614
0.178834 0.251939 0.276169 0.095169 0.762207 -0.640299
-0.509958 -0.034552 0.092285 0.000120 -0.391230 0.919486
0.739545 0.050011 -0.084908 0.000990 0.557621 -0.829139
0.145601 0.278991 -0.346947 -0.048531 -0.742502 -0.668083
0.073274 -0.150579 0.148729 -0.067941 -0.793615 -0.604614
0.309834 0.428060 0.512602 0.068018 -0.763909 0.641729
0.174631 -0.254811 0.320697 0.068018 0.763909 0.641729
0.014062 -0.294376 -0.344131 -0.067941 -0.793615 0.604614
0.304576 0.513061 0.605695 0.095169 0.762207 -0.640299
0.069323 0.151091 0.199259 -0.048531 -0.742502 0.668083
-0.079561 -0.081427 -0.055499 0.000297 -0.853377 -0.519685
0.101594 -0.220815 0.279095 -0.048531 0.742502 0.668083
1.571700 0.058975 0.078945 -0.000117 0.586517 0.808867
0.101486 -0.395926 -0.467601 -0.067941 -0.793615 0.604614
1.367632 -0.160586 -0.193709 -0.033582 0.737169 -0.674873
1.616326 0.074786 -0.081863 0.052203 0.773997 0.631034
0.523179 -0.045536 0.087389 -0.000079 -0.466695 0.883466
0.118772 0.391957 0.460448 -0.067941 0.793615 -0.604614
0.087086 0.318827 0.386969 -0.048531 -0.742502 0.668083
0.230416 0.145500 0.184662 0.068018 -0.763909 0.641729
0.024754 0.056298 -0.080876 -0.000030 0.617779 -0.785270
0.291033 0.227026 0.275285 0.068018 -0.763909 0.641729
0.307836 0.502209 -0.593262 0.095169 0.762207 0.640299
1.037626 0.074892 0.064044 -0.000227 0.721179 0.691551
-0.113916 0.183503 0.221971 -0.048531 -0.742502 0.668083
0.134810 -0.314781 0.357346 -0.067941 -0.793615 -0.604614
-1.166196 -0.094921 -0.026466 0.000576 -0.958479 -0.282188
0.358344 -0.093483 -0.031167 0.000797 -0.928274 -0.369360
-0.284610 -0.053133 -0.082989 -0.000224 -0.575346 -0.816838
0.137295 0.214420 0.225333 -0.013538 0.785027 -0.618015
-1.785181 -0.015559 0.061714 -0.481732 -0.226794 0.844126
0.389191 -0.006309 0.098339 0.000134 -0.114719 0.992654
-1.724839 0.017013 -0.087454 -0.284362 0.222999 -0.931144
0.820946 0.070113 0.069243 -0.000023 0.686869 0.725603
-1.674310 -0.091051 0.035914 -0.077572 -0.902649 0.420687
1.641169 -0.028833 -0.094229 0.000112 -0.243448 -0.969060
1.486091 -0.131810 -0.168172 -0.033582 0.737169 -0.674873
-0.114321 -0.090706 -0.038508 0.000110 -0.899348 -0.435528
0.258155 -0.135368 -0.149193 0.095169 -0.762207 0.640299
-0.147034 -0.078480 -0.102843 -0.048531 0.742502 -0.668083
0.300697 0.318910 -0.383639 0.068018 -0.763909 -0.641729
0.248677 -0.042067 -0.089111 0.000610 -0.421918 -0.905944
0.463806 -0.089492 -0.041251 0.000220 -0.920448 -0.388746
1.441261 0.168143 -0.194099 -0.033582 0.791942 0.609672
0.298547 -0.073206 0.065964 -0.000271 -0.779129 0.625559
-0.019981 0.000000 -0.098541 -0.000068 0.030645 -0.998717
-1.032074 0.041810 -0.089232 -0.000087 0.467804 -0.882869
0.306111 0.295524 0.355227 0.068018 -0.763909 0.641729
0.285412 -0.090045 -0.040028 0.000169 -0.910243 -0.412276
0.059527 -0.086565 0.126833 -0.048531 0.742502 0.668083
0.656659 -0.098160 -0.008657 0.000688 -0.992850 -0.112240
-0.272007 -0.011317 -0.097889 0.001891 -0.174966 -0.983356
0.413293 -0.083829 -0.051798 -0.000322 -0.846905 -0.529857
-0.228731 -0.082147 0.054426 0.000029 -0.804875 0.592027
0.172615 0.374634 0.431660 -0.067941 0.793615 -0.604614
0.374606 0.095153 0.025617 -0.000000 0.971969 0.231451
-1.504559 -0.088183 -0.043979 -0.000242 -0.892791 -0.448706
-1.334247 0.083660 -0.052070 -0.002094 0.832001 -0.553321
1.593897 -0.102541 0.114051 0.052203 -0.773997 -0.631034
0.062230 -0.365188 -0.436690 -0.048531 0.742502 -0.668083
-0.784260 -0.095164 0.025578 -0.000135 -0.972543 0.229238
0.065651 0.260685 0.294110 -0.067941 0.793615 -0.604614
0.126076 0.190459 -0.195142 -0.013538 0.785027 0.618015
0.565359 -0.095648 -0.023702 -0.000570 -0.974518 -0.220553
0.265264 -0.178400 0.201475 0.095169 -0.762207 -0.640299
-0.526105 -0.015171 -0.097366 -0.000057 -0.186132 -0.981706
-1.224104 -0.067176 -0.072096 -0.000279 -0.653747 -0.755686
-0.786302 0.061121 0.077295 0.000115 0.615687 0.786978
0.859147 -0.017188 -0.097031 0.000203 -0.118735 -0.991972
0.320056 -0.421780 -0.504042 0.068018 0.763909 -0.641729
0.302681 0.180698 0.209772 0.095169 0.762207 -0.640299
0.188335 0.236657 -0.259389 0.095169 0.762207 0.640299
1.417739 -0.177189 -0.214338 -0.033582 0.737169 -0.674873
-0.126145 0.193599 -0.232303 -0.048531 -0.742502 -0.668083
-1.789465 0.019689 -0.057841 -0.501869 0.216606 -0.834899
0.032057 -0.119750 0.161720 -0.048531 0.742502 0.668083
-0.034729 0.301002 0.358311 -0.067941 0.793615 -0.604614
1.526374 -0.229646 -0.269302 -0.033582 -0.791942 0.609672
1.441377 0.184783 0.215708 -0.033582 0.791942 -0.609672
0.073156 0.099751 -0.142479 -0.048531 -0.742502 -0.668083
-0.039133 -0.117978 -0.118568 -0.067941 -0.793615 0.604614
-1.235500 -0.095063 0.025952 -0.000052 -0.948802 0.313235
-0.769137 -0.044219 0.088063 0.000193 -0.444872 0.894716
0.139280 -0.198262 -0.206393 0.095169 -0.762207 0.640299
0.060386 0.284276 0.325668 -0.067941 0.793615 -0.604614
-0.063442 -0.274600 0.326882 -0.048531 0.742502 0.668083
1.536955 -0.086476 0.047247 0.000210 -0.852044 0.522051
-1.106534 -0.065892 -0.073271 -0.000307 -0.695594 -0.717163
1.562510 0.160588 0.182653 0.052203 0.773997 -0.631034
1.594113 -0.102296 -0.129500 0.052203 0.755115 -0.653511
-0.139788 0.166366 -0.193393 -0.067941 0.793615 0.604614
0.128881 -0.170157 0.224776 0.026400 0.757181 0.651941
-0.008490 0.155297 -0.198281 -0.048531 -0.742502 -0.668083
-0.127198 0.067461 0.071829 0.000278 0.707223 0.705802
0.105215 0.253386 -0.315557 -0.048531 -0.742502 -0.668083
1.333793 -0.014445 0.097477 0.000167 -0.186946 0.981609
0.213495 0.421193 -0.488180 -0.067941 0.793615 0.604614
0.948150 -0.056937 0.080428 0.000112 -0.615369 0.787178
-0.124807 -0.166881 -0.202706 -0.048531 0.742502 -0.668083
-0.399377 -0.093000 -0.032578 -0.000066 -0.938622 -0.342569
0.264167 -0.309770 -0.357693 0.095169 -0.762207 0.640299
0.230321 -0.389033 -0.447017 0.095169 -0.762207 0.640299
-0.219437 -0.068613 -0.070729 0.000122 -0.733048 -0.679076
0.308563 -0.384979 -0.453820 0.095169 -0.762207 0.640299
0.932705 -0.089006 -0.042288 0.000719 -0.916983 -0.396854
1.270769 -0.111763 0.130255 -0.033582 -0.791942 -0.609672
1.721965 0.000000 -0.037633 1.000000 0.000000 -0.000000
1.401826 0.087989 0.092154 -0.033582 0.791942 -0.609672
0.349338 -0.048933 -0.085534 -0.000166 -0.535920 -0.843335
-0.170287 -0.031169 0.093482 -0.001166 -0.339295 0.939734
-0.043933 -0.148626 0.188292 -0.048531 0.742502 0.668083
0.644372 0.008627 -0.098163 -0.000001 0.029221 -0.998717
-0.114887 0.025625 0.095151 -0.000000 0.203056 0.978295
0.050741 0.280069 -0.341255 -0.048531 -0.742502 -0.668083
0.301050 -0.163668 0.198803 0.068018 0.763909 0.641729
-0.200839 -0.118009 0.136779 -0.067941 -0.793615 -0.604614
0.199519 0.131989 0.136455 0.095169 0.762207 -0.640299
1.495171 -0.178436 -0.219553 -0.033582 0.737169 -0.674873
-1.272601 0.098061 -0.009718 0.000512 0.985838 -0.161526
0.085484 0.208570 -0.223476 -0.067941 0.793615 0.604614
0.304882 0.347671 -0.408862 0.095169 0.762207 0.640299
1.602067 -0.243412 -0.287513 0.052203 -0.773997 0.631034
0.310597 -0.165643 -0.193027 0.095169 -0.762207 0.640299
0.845533 0.042130 -0.089081 0.000227 0.439004 -0.897710
0.171465 0.400419 -0.483779 -0.048531 -0.742502 -0.668083
1.378656 -0.098541 -0.000000 0.000469 -0.998667 -0.032212
1.608511 0.076291 0.083064 0.052203 0.773997 -0.631034
1.501809 -0.091970 0.035383 0.000040 -0.916924 0.397233
0.173013 -0.263275 -0.288798 0.095169 -0.762207 0.640299
0.050924 0.069015 0.106704 -0.048531 -0.742502 0.668083
0.435244 -0.039531 -0.090265 -0.001011 -0.418807 -0.907177
-0.964694 -0.058111 0.079583 0.000050 -0.581050 0.812663
1.409327 0.147298 0.181269 -0.033582 -0.737169 0.674873
0.003416 0.245695 0.299614 -0.048531 -0.742502 0.668083
1.028927 0.097105 -0.016763 0.000208 0.992834 -0.112374
1.084026 0.037128 -0.091279 -0.000061 0.414504 -0.909136
0.191229 0.216937 0.236345 0.095169 0.762207 -0.640299
0.295922 -0.407904 0.479231 0.095169 -0.762207 -0.640299
0.338539 0.211822 0.252151 0.095169 0.762207 -0.640299
1.688107 -0.060833 0.063116 0.344968 -0.692656 0.631609
0.152762 -0.271525 -0.339170 -0.048531 0.742502 -0.668083
0.176782 0.415583 0.484941 -0.067941 0.793615 -0.604614
0.292102 0.215072 -0.260942 0.068018 -0.763909 -0.641729
-0.014139 -0.163726 -0.207239 -0.048531 0.742502 -0.668083
0.062096 -0.190125 0.242116 -0.048531 0.742502 0.668083
1.649723 -0.084511 -0.050679 0.116454 -0.848262 -0.508405
-0.048674 -0.077551 0.108956 -0.048531 0.742502 0.668083
-1.468470 -0.029733 -0.093949 -0.000016 -0.354963 -0.933884
1.527274 -0.126399 0.162690 0.052203 0.755115 0.653511
-0.115054 0.107059 0.136929 -0.048531 -0.742502 0.668083
-0.039659 0.080177 0.112529 -0.048531 -0.742502 0.668083
-0.031496 -0.282887 -0.338412 -0.048531 0.742502 -0.668083
0.039195 0.136597 -0.180962 -0.048531 -0.742502 -0.668083
1.404289 0.040144 -0.089994 -0.000125 0.407016 -0.912501
1.696107 0.080655 0.025966 0.346204 0.871135 0.345014
1.586860 0.256754 0.302619 0.052203 0.773997 -0.631034
0.338539 0.308630 0.367390 0.095169 0.762207 -0.640299
0.735786 0.056126 0.080996 -0.000121 0.544416 0.837812
-0.021395 0.275348 -0.330767 -0.048531 -0.742502 -0.668083
0.003152 -0.092183 0.034823 0.000190 -0.927742 0.371247
-0.087523 -0.209389 -0.243992 -0.067941 -0.793615 0.604614
-0.143838 -0.200674 0.238881 -0.048531 0.742502 0.668083
-1.459077 -0.096372 0.020562 0.000008 -0.976516 0.211470
-1.386130 -0.007319 -0.098269 0.002471 -0.100442 -0.994221
-0.383059 0.089262 -0.041746 0.000562 0.918494 -0.393151
-0.815532 0.069870 -0.069488 0.000643 0.674951 -0.737025
-1.344099 0.067275 0.072004 0.000330 0.646799 0.761448
-0.019610 -0.075561 -0.108855 -0.048531 0.742502 -0.668083
0.241498 0.319114 -0.390157 0.068018 -0.763909 -0.641729
1.463603 0.142546 0.159620 -0.033582 0.791942 -0.609672
-0.551301 -0.095916 -0.022594 -0.000558 -0.963695 -0.264019
-0.204727 0.057969 -0.079687 -0.000092 0.562474 -0.825810
-1.108919 0.098541 -0.000000 -0.000406 0.998700 -0.030077
0.236290 -0.251608 -0.284315 0.095169 -0.762207 0.640299
-0.148769 -0.045078 -0.087626 -0.000076 -0.502078 -0.863823
1.317015 -0.097995 -0.122821 -0.033582 0.737169 -0.674873
0.252764 -0.196553 0.243067 0.068018 0.763909 0.641729
0.019997 0.017196 0.097029 0.000003 0.145522 0.988491
0.215830 0.366763 0.449597 -0.009670 -0.750565 0.660105
-0.693633 0.041669 -0.089298 0.000006 0.448583 -0.892862
-0.106352 -0.098136 0.008923 0.000975 -0.991679 0.121522
0.072477 0.342314 -0.400490 -0.067941 0.793615 0.604614
-0.774242 0.008645 0.098161 -0.000521 0.061144 0.997396
0.162926 -0.364312 0.443031 -0.048531 0.742502 0.668083
0.145937 0.330898 -0.404660 -0.048531 -0.742502 -0.668083
-1.536675 0.093897 0.029895 -0.001258 0.936752 0.347407
-1.632816 -0.089397 -0.041455 0.000056 -0.905588 -0.422209
0.143946 -0.325237 -0.370043 -0.067941 -0.793615 0.604614
0.903126 0.077133 0.061326 -0.001440 0.743189 0.667659
0.103638 0.142536 0.134759 -0.013538 0.785027 -0.618015
0.499508 0.017216 0.097026 -0.000002 0.145676 0.988468
1.214101 -0.010326 0.097999 -0.000589 -0.136138 0.989706
-0.022984 0.203505 0.250806 -0.048531 -0.742502 0.668083
1.623844 -0.255608 0.304274 0.052203 -0.773997 -0.631034
1.382788 -0.105856 0.134681 -0.033582 0.737169 0.674873
1.382788 -0.105856 -0.134681 -0.033582 0.737169 -0.674873
-0.064932 0.025671 0.095139 -0.000095 0.233957 0.971299
0.002348 -0.051850 0.083797 -0.000013 -0.509275 0.859774
1.697580 0.063423 -0.076319 0.052203 -0.755115 -0.653511
-0.661644 -0.051047 0.084289 0.000171 -0.513947 0.856862
-0.593207 -0.063279 -0.075539 0.000878 -0.679536 -0.732566
0.314406 0.041685 0.089290 0.000087 0.395443 0.917589
1.670885 -0.093993 -0.113774 0.052203 0.755115 -0.653511
0.289718 -0.209352 -0.254386 0.068018 0.763909 -0.641729
1.599833 -0.235902 0.283422 0.052203 0.755115 0.653511
-1.544570 -0.009185 0.098112 0.001640 -0.129875 0.990634
-1.119160 0.035400 0.091963 -0.000316 0.346451 0.936788
0.091245 -0.100810 -0.083248 0.095169 -0.762207 0.640299
1.563674 -0.250054 0.293756 -0.033582 -0.791942 -0.609672
1.715236 -0.073492 -0.025315 0.346567 -0.886564 -0.302376
1.589363 0.008658 -0.098160 0.000937 0.101691 -0.994190
0.064501 -0.131167 -0.176766 -0.048531 0.742502 -0.668083
-1.083940 -0.034935 0.092141 -0.000076 -0.402234 0.914627
1.492605 -0.080889 0.112874 -0.002936 0.744080 0.667690
-0.081552 -0.247966 -0.293956 -0.067941 -0.793615 0.604614
0.388183 0.052227 0.083563 0.001574 0.489362 0.870947
-1.489940 0.074796 0.064156 -0.000558 0.760337 0.648166
-1.506142 -0.065139 0.073942 -0.000469 -0.619762 0.783700
-0.236250 0.105127 -0.123850 -0.067941 0.793615 0.604614
0.208674 -0.266308 0.297709 0.095169 -0.762207 -0.640299
0.592125 -0.050857 0.084404 0.000065 -0.472995 0.880033
-0.007033 -0.127942 0.128040 -0.067941 -0.793615 -0.604614
-0.299915 -0.095831 0.022953 -0.002069 -0.955558 0.291547
-1.229474 0.091881 0.035613 0.000815 0.925952 0.375226
1.561611 0.136754 -0.171912 0.052203 -0.755115 -0.653511
0.271838 -0.470818 0.567527 0.068018 0.763909 0.641729
-0.329688 0.085215 -0.049485 0.000007 0.891850 -0.450441
0.202069 -0.288856 -0.358317 0.068018 0.763909 -0.641729
-1.743403 0.064164 0.052896 -0.338351 0.684882 0.643594
0.171583 -0.230686 -0.249792 0.095169 -0.762207 0.640299
0.349594 0.075254 -0.063618 -0.000262 0.782001 -0.621926
-0.088383 0.062471 -0.076209 -0.000033 0.586494 -0.808874
0.065964 -0.082630 0.053691 -0.000012 -0.823794 0.565395
1.137780 0.074267 -0.064767 0.000092 0.760584 -0.647950
0.197268 0.347555 -0.426902 -0.048531 -0.742502 -0.668083
0.172918 -0.100715 0.095274 0.095169 -0.762207 -0.640299
1.072874 0.089575 0.041069 0.000468 0.922321 0.384848
-0.034637 0.084807 -0.118040 -0.048531 -0.742502 -0.668083
-0.938910 -0.092073 -0.035113 0.000162 -0.935101 -0.352070
1.164319 0.074423 0.064588 -0.000513 0.721721 0.690975
-1.165837 -0.010582 -0.097972 0.001489 -0.156507 -0.986592
0.772224 -0.093183 0.032052 0.000027 -0.926681 0.373601
0.959564 0.092839 -0.033034 -0.000487 0.949328 -0.311826
0.064870 0.089223 -0.041829 -0.000006 0.927883 -0.370573
-0.051332 -0.019692 0.096554 0.000070 -0.165882 0.985077
1.590454 -0.050888 0.060397 -0.226378 0.626521 -0.745805
1.511090 0.116390 -0.124188 0.052203 0.773997 0.631034
0.145983 -0.078301 -0.113618 0.068018 0.763909 -0.641729
0.018233 -0.134580 -0.177197 -0.048531 0.742502 -0.668083
0.399554 0.092545 -0.033850 0.000000 0.947971 -0.315665
-0.030027 0.097031 0.017188 0.000000 0.988501 0.145464
-0.569445 0.098541 -0.000000 -0.000000 0.998720 -0.029183
-0.894145 0.008641 -0.098162 0.000889 0.071768 -0.996598
0.134852 0.008641 -0.098162 0.000595 0.060166 -0.997428
-0.039522 0.062939 -0.075823 0.000076 0.616599 -0.786257
1.004406 0.027299 -0.094684 0.000730 0.331645 -0.942316
0.559406 -0.030470 0.093712 -0.000154 -0.314224 0.948477
1.168860 0.000000 -0.098541 0.000226 0.028768 -0.998756
0.789273 -0.092544 -0.033852 0.000108 -0.956427 -0.288935
-0.759288 0.097031 -0.017188 0.000003 0.992322 -0.116564
0.664326 0.095145 0.025647 0.000002 0.971917 0.231664
-0.179849 0.017193 -0.097030 0.000207 0.147926 -0.988061
-0.299709 0.017195 0.097030 0.000001 0.145531 0.988490
0.357015 -0.067937 0.071379 -0.001511 -0.720725 0.691801
0.979047 0.017222 0.097025 0.000018 0.145653 0.988471
-1.187609 -0.064611 0.074403 0.000300 -0.625619 0.779181
-0.519494 0.098541 -0.000000 0.000000 0.998720 -0.029183
-1.193864 0.098163 0.008627 0.000355 0.997440 0.057976
0.789185 0.049528 -0.085190 0.000009 0.450920 -0.891608
-0.669064 0.087421 0.045474 -0.000606 0.867485 0.495717
-0.148273 -0.076104 -0.062598 -0.000031 -0.770687 -0.635913
-1.712518 -0.086919 -0.030761 -0.248244 -0.914636 -0.314845
0.189340 -0.209188 -0.226839 0.095169 -0.762207 0.640299
0.139416 0.098295 -0.087414 0.095169 0.762207 0.640299
1.380191 -0.087827 -0.093135 -0.033582 -0.791942 0.609672
-1.173311 0.057682 0.079895 0.000040 0.580441 0.813250
-0.089967 0.092546 -0.033848 0.000000 0.947969 -0.315670
0.509437 0.092548 -0.033841 -0.000008 0.927870 -0.370604
1.133866 0.098163 0.008627 -0.000038 0.997440 0.058598
0.169777 0.092545 -0.033849 -0.000000 0.947974 -0.315656
-0.639377 0.097031 -0.017188 -0.000000 0.988500 -0.145468
-0.459552 0.097031 -0.017188 0.000041 0.988513 -0.145396
0.179798 0.092537 0.033872 0.000007 0.947931 0.315779
-0.812030 -0.054966 0.081787 0.000036 -0.556742 0.829663
0.984016 -0.008633 -0.098162 0.000003 -0.058412 -0.997436
0.109859 0.092545 0.033850 0.000004 0.956778 0.287865
-0.011616 -0.079046 0.113309 -0.048531 0.742502 0.668083
-1.424567 0.088039 -0.044267 0.000595 0.865381 -0.499516
0.264716 0.008631 -0.098163 0.000891 0.057636 -0.997436
0.299649 0.092538 0.033868 -0.000002 0.947930 0.315787
-1.658383 0.096646 0.019232 -0.024724 0.971694 0.230649
-0.610682 0.062654 -0.076059 0.000008 0.677705 -0.734195
0.869096 0.097031 0.017188 0.000000 0.988500 0.145466
-0.549849 0.072530 -0.066707 -0.000046 0.753099 -0.656611
1.713884 0.070146 -0.034621 0.348396 0.839011 -0.414999
0.066920 -0.008980 -0.098131 -0.000784 -0.100518 -0.994281
-1.120372 0.047439 -0.086371 0.000001 0.467190 -0.883191
-1.336773 -0.030895 0.093573 0.000861 -0.264786 0.963529
1.265278 -0.042183 -0.089056 -0.000530 -0.432330 -0.900779
-0.703646 -0.046205 0.087037 0.000712 -0.463039 0.885478
0.249696 0.092532 0.033885 0.000021 0.947898 0.315877
0.539284 0.048670 -0.085683 0.000241 0.520971 -0.852597
-1.268763 -0.000000 0.098541 0.000199 -0.032642 0.998537
0.364648 0.008645 -0.098161 0.000117 0.058370 -0.997433
0.866468 0.073243 0.065923 -0.000014 0.720098 0.692645
-0.473093 0.025062 -0.095301 -0.000297 0.310438 -0.949749
1.003931 -0.089799 -0.040578 -0.000844 -0.916826 -0.397011
-0.666196 0.065451 0.073665 -0.000003 0.692127 0.720596
1.416379 0.110608 -0.141543 -0.033582 -0.737169 -0.674873
0.919102 -0.033884 -0.092533 0.000001 -0.315914 -0.947887
0.719242 0.097031 -0.017188 0.000000 0.988501 -0.145465
0.720853 -0.097029 0.017196 -0.000138 -0.988246 0.146966
0.430756 -0.014677 0.097442 -0.000951 -0.196164 0.979736
0.834158 0.098163 0.008627 0.000000 0.997440 0.058365
-0.864182 0.089223 0.041829 -0.000467 0.916654 0.397532
-1.829185 0.000000 -0.031397 -0.683190 0.068315 -0.720423
0.674304 0.080546 0.056770 -0.000003 0.833145 0.551507
-0.824002 -0.096144 0.021602 -0.000245 -0.974456 0.220540
0.599267 0.075341 0.063514 -0.000022 0.782546 0.621224
1.293159 -0.010059 -0.098027 -0.000260 -0.030848 -0.998290
-1.398795 -0.096302 0.020888 0.000128 -0.964225 0.261650
-1.287076 -0.098121 0.009091 0.000005 -0.988610 0.145318
-0.346651 -0.059403 -0.078624 -0.000100 -0.644748 -0.763343
0.028271 0.346245 0.413169 -0.048531 -0.742502 0.668083
0.126453 0.128566 0.175524 0.068018 -0.763909 0.641729
0.168190 0.101941 -0.139405 0.068018 -0.763909 -0.641729
0.231567 -0.106413 0.110773 0.095169 -0.762207 -0.640299
0.144494 0.248615 -0.269408 -0.067941 0.793615 0.604614
0.170145 0.159285 0.207459 0.068018 -0.763909 0.641729
0.077384 -0.317904 -0.367898 -0.067941 -0.793615 0.604614
-0.764255 -0.047676 -0.086240 0.000402 -0.523741 -0.850949
-0.163185 -0.073502 0.096138 -0.048531 0.742502 0.668083
-0.889601 -0.056539 0.080708 0.000451 -0.571276 0.819781
0.169963 -0.123141 -0.121531 0.095169 -0.762207 0.640299
1.522554 -0.094272 -0.028690 -0.000096 -0.939694 -0.339548
1.121227 -0.093226 -0.031927 -0.000903 -0.929496 -0.366427
0.192660 -0.163179 0.172564 0.095169 -0.762207 -0.640299
0.129343 -0.258351 0.322827 -0.048531 0.742502 0.668083
0.998998 0.097031 0.017188 -0.000000 0.992326 0.116538
0.172768 0.289912 0.361058 -0.048531 -0.742502 0.668083
-0.460182 0.075805 0.062960 -0.000216 0.729843 0.682361
-0.807134 -0.065596 -0.073536 0.000049 -0.627126 -0.777881
1.537502 -0.129434 -0.165380 0.052203 0.755115 -0.653511
-0.181393 -0.158202 0.188950 -0.048531 0.742502 0.668083
-1.632754 -0.005529 0.098386 -0.001893 -0.099976 0.994374
-0.808757 -0.089103 -0.042085 0.000096 -0.879937 -0.473301
1.520661 0.015680 0.097286 -0.000376 0.150643 0.987526
0.200297 -0.094169 -0.091551 0.095169 -0.762207 0.640299
-1.131526 -0.090959 0.037907 -0.000274 -0.939362 0.340430
1.538603 0.065411 0.063936 0.052203 0.773997 -0.631034
0.261176 0.196183 0.222036 0.095169 0.762207 -0.640299
1.088345 -0.083663 -0.052067 -0.000048 -0.850344 -0.524770
1.213048 0.090315 0.105574 -0.033582 0.791942 -0.609672
0.128732 -0.064426 0.074563 -0.000106 -0.607951 0.792895
-1.464692 -0.061766 -0.076782 0.000056 -0.658850 -0.751183
-1.402893 -0.058527 -0.079278 0.000047 -0.584956 -0.810022
1.538516 0.094404 -0.028253 -0.000254 0.941668 -0.334127
1.465969 -0.208637 -0.245339 -0.033582 -0.791942 0.609672
0.021028 0.222742 -0.249321 -0.067941 0.793615 0.604614
