1.588556 0.268416 -0.345226 -0.042040 -0.738132 -0.673346
-0.904481 -0.024598 0.082276 0.000255 -0.252470 0.966510
1.366628 -0.144110 0.171399 -0.042040 -0.831789 -0.553497
0.479823 0.085874 -0.000000 -0.000955 0.995768 0.075773
-0.195621 -0.312148 0.401455 -0.028739 0.776901 0.628966
1.548743 0.091236 -0.019402 1.000000 -0.000000 -0.000000
-0.270657 0.081966 0.025610 -0.000019 0.951505 0.303854
-0.260540 -0.022104 -0.082981 -0.000126 -0.316313 -0.947484
-0.393665 -0.038396 0.076812 0.000024 -0.505482 0.861447
-0.169261 -0.098216 0.138409 -0.028739 0.776901 0.628966
0.365176 0.080539 0.029797 -0.000280 0.938933 0.340723
-1.279380 -0.009991 -0.085291 -0.000087 -0.173947 -0.983656
-0.494504 -0.008073 -0.085494 0.001239 -0.061212 -0.997122
-0.203640 0.349289 0.446965 -0.028739 -0.776901 0.628966
-0.666984 -0.036306 -0.077822 -0.000859 -0.470290 -0.881316
-1.137030 -0.026997 0.081520 -0.000135 -0.340791 0.939040
1.432393 -0.224800 -0.287664 -0.042040 0.738132 -0.673346
1.589333 -0.278219 0.356021 -0.042040 -0.831789 -0.553497
1.589333 -0.278219 -0.356021 -0.042040 0.738132 -0.673346
0.119392 0.206183 -0.263840 0.092585 0.784557 0.613106
-0.941279 -0.083470 0.020176 0.000169 -0.979864 0.192246
-1.489088 -0.000000 0.085064 -0.102339 -0.039212 0.992301
1.551532 -0.197840 0.262877 0.083852 0.799002 0.595453
0.769717 -0.085874 0.000000 0.000066 -0.998745 0.026743
0.036753 0.416217 -0.539548 0.051639 -0.786890 -0.614929
-0.011915 0.439224 0.566814 -0.028739 -0.776901 0.628966
0.119392 0.169389 0.216758 0.051639 -0.786890 0.614929
1.550883 -0.198261 -0.263534 0.083852 0.799002 -0.595453
-0.056497 0.412512 -0.520379 -0.051615 0.805547 0.590280
-0.354146 -0.055280 -0.076927 -0.028739 0.776901 -0.628966
0.504937 -0.023954 -0.082466 0.000104 -0.335514 -0.940845
-0.169863 0.016769 0.084221 -0.001217 0.130297 0.990379
1.513754 -0.119448 -0.163007 0.083852 0.799002 -0.595453
-0.087933 0.367666 0.461926 -0.051615 0.805547 -0.590280
-0.129748 0.117938 0.124783 -0.051615 0.805547 -0.590280
-0.896464 -0.066320 -0.054553 -0.000235 -0.805110 -0.591422
1.266735 -0.168413 -0.215509 -0.042040 0.738132 -0.673346
-0.164559 -0.190986 0.253215 -0.028739 0.776901 0.628966
-1.425394 0.067054 -0.053648 -0.000147 0.815464 -0.576923
1.440444 0.209016 -0.263333 -0.042040 0.831789 0.553497
0.036675 0.086604 0.098331 0.092585 0.784557 -0.613106
1.432393 -0.224800 0.287664 -0.042040 -0.831789 -0.553497
1.200962 0.070075 -0.103603 -0.042040 -0.738132 -0.673346
-1.541065 -0.049683 -0.056447 -0.287176 -0.695114 -0.655369
0.618375 0.078063 -0.035785 -0.001004 0.928411 -0.368539
1.317391 0.153736 -0.189605 -0.042040 0.831789 0.553497
-0.158222 -0.292808 -0.379274 -0.028739 0.776901 -0.628966
-0.304243 -0.155785 -0.191689 -0.051615 -0.805547 0.590280
-0.658685 0.009690 0.085326 0.000984 0.171664 0.984167
-0.173081 -0.083684 0.019270 -0.000278 -0.975291 0.216779
-0.771959 -0.067839 0.052652 0.000280 -0.745717 0.664568
0.109925 -0.264884 0.337528 0.092585 -0.784557 -0.613106
-0.973147 0.016969 -0.084181 0.000437 0.249044 -0.967329
-0.297556 0.099591 0.114417 -0.051615 0.805547 -0.590280
0.040467 0.337706 0.438771 0.051639 -0.786890 0.614929
0.712482 0.022976 -0.082743 -0.000838 0.259677 -0.964621
-0.095534 -0.460444 -0.589204 -0.051615 -0.805547 0.590280
-0.613234 0.027995 -0.081183 -0.000076 0.361081 -0.931791
0.843001 -0.073345 -0.044663 0.000223 -0.822489 -0.566856
-0.139628 -0.176589 -0.236570 -0.028739 0.776901 -0.628966
-0.349871 0.085874 -0.000000 -0.000682 0.998703 0.029370
-0.301337 -0.145949 0.191335 -0.028739 0.776901 0.628966
1.498545 0.214925 0.267799 -0.042040 0.831789 -0.553497
1.188265 -0.141704 -0.181330 -0.042040 0.738132 -0.673346
-0.221510 0.261247 -0.337399 -0.028739 -0.776901 -0.628966
1.266680 -0.015286 0.084503 0.000114 -0.212119 0.976151
-1.036499 -0.084124 0.017250 0.000295 -0.971168 0.233671
1.324735 0.101464 0.145739 -0.042040 -0.738132 0.673346
0.090327 -0.068777 -0.083621 0.092585 -0.784557 0.613106
0.305008 -0.085397 -0.009035 -0.001052 -0.992178 -0.117543
0.789709 0.085874 -0.000000 -0.001727 0.998672 0.033931
0.040286 -0.512760 -0.648722 -0.051615 -0.805547 0.590280
-0.099732 -0.350731 0.453495 -0.028739 0.776901 0.628966
-1.384534 -0.079352 0.032827 0.000558 -0.899994 0.433444
1.450681 0.161577 0.219500 -0.042040 -0.738132 0.673346
-0.040090 -0.040988 0.075461 0.000021 -0.470554 0.881063
-0.379480 0.158304 0.203025 -0.028739 -0.776901 0.628966
-0.610644 0.084282 -0.016460 -0.000160 0.968027 -0.244826
-0.824510 -0.006183 0.085651 0.001711 -0.122903 0.991712
0.119392 0.101935 0.130440 0.051639 -0.786890 0.614929
-0.030193 -0.417375 -0.538990 -0.028739 0.776901 -0.628966
-0.256674 0.023452 0.082610 -0.000089 0.293012 0.954878
-0.087194 0.425139 0.540294 -0.051615 0.805547 -0.590280
1.397036 -0.006495 -0.085628 -0.000054 -0.116267 -0.992369
0.229033 -0.057818 -0.063494 -0.000438 -0.667329 -0.743372
0.603870 -0.082415 0.024128 -0.000207 -0.939486 0.339459
-0.030960 0.209039 -0.280121 0.051639 -0.786890 -0.614929
-0.039590 -0.507787 0.650239 -0.028739 0.776901 0.628966
1.177459 0.086058 0.098527 -0.042040 0.831789 -0.553497
0.859684 0.000000 0.085874 -0.000432 -0.036477 0.998069
-0.797471 -0.079781 -0.031770 -0.000067 -0.902713 -0.427730
0.050298 -0.076879 0.038261 -0.000096 -0.865610 0.498480
-0.253690 -0.228073 -0.285920 -0.051615 -0.805547 0.590280
0.059748 0.338660 -0.424357 0.092585 0.784557 0.613106
0.993168 0.009222 -0.085378 0.001722 0.171808 -0.983860
1.336486 0.192155 0.245890 -0.042040 0.831789 -0.553497
-0.110978 0.444565 -0.568884 -0.028739 -0.776901 -0.628966
-1.512239 0.071584 -0.040068 -0.195713 0.872325 -0.443333
1.591075 0.131210 0.167902 0.083852 0.770919 -0.631390
0.119392 -0.242976 -0.310922 0.051639 0.786890 -0.614929
0.000179 -0.082171 -0.115161 0.051639 0.786890 -0.614929
-0.284735 0.196105 -0.254046 -0.028739 -0.776901 -0.628966
0.508739 0.010132 0.085274 -0.000860 0.188904 0.980621
0.040600 0.224319 0.293665 0.051639 -0.786890 0.614929
-0.304121 -0.057656 0.063641 -0.000030 -0.693276 0.719151
-0.692631 -0.064507 0.056685 0.000081 -0.704419 0.708198
-0.248124 -0.101991 0.139469 -0.028739 0.776901 0.628966
1.266372 0.076693 -0.038634 0.000084 0.889118 -0.455267
-0.377307 -0.109456 -0.134854 -0.051615 -0.805547 0.590280
1.550883 0.198261 -0.263534 0.083852 -0.799002 -0.595453
-0.154620 0.352383 -0.453026 -0.028739 -0.776901 -0.628966
1.619267 0.264765 0.343141 -0.000031 -0.760071 0.648742
-0.108995 0.213722 -0.253682 -0.051615 0.805547 0.590280
-0.067138 0.112478 -0.159596 0.051639 -0.786890 -0.614929
1.500000 0.065576 0.075668 0.083852 0.770919 -0.631390
-0.044055 0.513375 -0.656936 -0.028739 -0.776901 -0.628966
1.104726 -0.066625 -0.074848 -0.042040 -0.831789 0.553497
-0.089115 0.272619 0.357495 -0.028739 -0.776901 0.628966
1.013888 0.082349 0.105377 -0.042040 0.831789 -0.553497
-0.514602 0.083466 0.020195 0.000479 0.953952 0.296380
0.373859 -0.009677 0.085327 -0.001227 -0.172676 0.983567
-0.405634 0.068473 0.090870 -0.028739 -0.776901 0.628966
-0.634461 -0.083474 -0.020161 0.000230 -0.969352 -0.241114
0.376818 -0.006133 -0.085655 0.000352 -0.112196 -0.992948
1.039618 -0.085874 0.000000 -0.002973 -0.998028 0.041228
-0.551987 -0.007656 0.085532 -0.000619 -0.132142 0.990136
0.043637 -0.442672 -0.555022 0.092585 -0.784557 0.613106
-1.190026 0.056575 0.064604 0.000099 0.698351 0.714224
0.780309 -0.022639 0.082836 -0.000258 -0.295895 0.954193
1.459463 -0.072736 0.045649 -0.027601 -0.873924 0.482722
-0.058331 -0.255899 0.338249 -0.028739 0.776901 0.628966
-0.467967 0.063362 -0.081709 -0.028739 -0.776901 -0.628966
-1.600793 -0.048708 0.000000 -0.535386 -0.840390 0.050028
-0.428182 -0.083031 0.021913 -0.000665 -0.947694 0.315591
-0.041745 -0.117323 0.163663 0.051639 0.786890 0.614929
1.105614 0.066495 0.054340 -0.000081 0.772308 0.633501
0.004513 0.148124 -0.172198 0.092585 0.784557 0.613106
-0.188237 0.260833 0.324904 -0.051615 0.805547 -0.590280
-0.044055 -0.513375 -0.656936 -0.051615 -0.805547 0.590280
0.076489 0.071227 -0.047969 0.000628 0.826382 -0.561721
-0.237794 -0.137448 -0.160856 -0.051615 -0.805547 0.590280
-0.141251 -0.052667 0.083427 -0.028739 0.776901 0.628966
1.548743 0.009688 0.092772 -0.083775 0.032058 0.994940
-1.059610 0.000000 0.085874 -0.000883 -0.072806 0.996144
0.110402 0.251548 -0.322647 0.051639 -0.786890 -0.614929
-0.147541 0.281485 -0.349529 -0.051615 0.805547 0.590280
-1.258172 0.062066 -0.059348 0.000965 0.713407 -0.699208
-0.797928 0.061651 0.059779 0.000757 0.675550 0.735631
1.548743 -0.077010 0.026721 1.000000 0.000000 -0.000000
-1.188476 -0.072247 0.046420 0.000644 -0.855686 0.515378
1.245533 0.079477 0.032523 0.000555 0.943734 0.327038
0.215145 0.050354 0.069562 -0.000072 0.624127 0.780064
1.270299 -0.075384 -0.079118 0.000000 -0.787941 0.615751
0.606057 -0.069258 -0.050770 -0.000072 -0.771514 -0.634545
0.059931 0.424551 0.534295 0.092585 0.784557 -0.613106
-1.152486 -0.062163 -0.059247 0.000287 -0.761299 -0.646682
1.548743 0.025367 -0.076516 1.000000 -0.000000 0.000000
0.007235 -0.140040 -0.188620 0.051639 0.786890 -0.614929
-0.562873 -0.085520 0.007793 -0.000016 -0.987014 0.154165
-0.794266 0.043993 -0.073750 0.000051 0.505058 -0.861785
-0.048299 -0.187295 0.214347 0.092585 -0.784557 -0.613106
0.104493 -0.016055 0.084360 -0.000271 -0.244707 0.968471
-0.019630 0.063063 -0.059704 -0.000000 -0.615751 0.787941
-0.019260 0.064291 0.056930 0.000378 0.784880 0.617874
-1.450803 -0.064057 0.057194 0.001591 -0.746284 0.663940
0.910153 -0.053420 0.067236 -0.000025 -0.642729 0.764632
0.840873 -0.013562 -0.084796 -0.000599 -0.160869 -0.985799
-0.861415 0.075689 -0.040566 -0.000046 0.876213 -0.479593
-0.296562 0.242395 0.310683 -0.028739 -0.776901 0.628966
-0.135427 -0.362190 -0.466018 -0.028739 0.776901 -0.628966
1.351968 -0.091971 0.100343 -0.000000 -0.787941 -0.615751
0.026538 0.197155 -0.238266 0.092585 0.784557 0.613106
0.102124 0.481118 -0.617109 0.051639 -0.786890 -0.614929
1.189562 0.000000 -0.085874 0.001561 -0.031193 -0.998225
-0.083554 0.372509 -0.468153 -0.051615 0.805547 0.590280
1.094392 0.076323 -0.090207 -0.042040 0.831789 0.553497
1.250484 0.126233 0.153355 -0.042040 0.831789 -0.553497
1.334527 0.053159 0.085371 -0.000000 -0.787941 0.615751
1.439412 -0.124875 -0.177142 -0.000000 0.787941 -0.615751
1.537821 0.123943 -0.165650 0.083852 -0.799002 -0.595453
1.222996 -0.121863 0.148875 -0.042040 -0.831789 -0.553497
0.119392 -0.144860 -0.185370 0.051639 0.786890 -0.614929
1.609596 0.173142 0.221560 0.083852 0.770919 -0.631390
-0.138136 0.072515 0.045999 -0.000110 0.869851 0.491049
-0.356174 0.120143 0.147591 -0.051615 0.805547 -0.590280
-0.076051 0.207389 0.242160 -0.051615 0.805547 -0.590280
-0.018042 -0.231258 -0.307469 0.051639 0.786890 -0.614929
-0.044055 0.513375 0.656936 -0.028739 -0.776901 0.628966
0.459831 -0.085874 0.000000 0.000369 -0.998365 0.036552
0.119392 0.273637 0.350158 0.051639 -0.786890 0.614929
1.199559 -0.085874 0.000000 -0.001539 -0.994611 0.087560
-0.106564 -0.056331 -0.064817 -0.000059 -0.700525 -0.712068
0.068691 -0.177468 0.231353 0.051639 0.786890 0.614929
0.037766 -0.395294 0.512689 0.051639 0.786890 0.614929
-0.217872 -0.226502 0.280643 -0.051615 -0.805547 -0.590280
1.007551 0.074938 -0.041937 0.000015 0.867413 -0.495338
-0.226093 -0.083872 -0.118096 -0.028739 0.776901 -0.628966
-1.048593 0.084127 0.017235 -0.000330 0.964986 0.257934
0.928962 0.076390 0.039230 -0.000262 0.894023 0.446267
0.085677 0.080674 0.029429 -0.000002 0.915236 0.400129
1.435940 -0.126704 0.179483 -0.000000 0.787941 0.615751
-1.595521 0.050798 0.010220 -0.495020 0.819324 0.277413
0.699843 -0.046729 -0.072047 0.000163 -0.589451 -0.806474
1.492995 -0.063766 -0.091215 0.083852 0.799002 -0.595453
1.433945 0.057877 -0.063440 -0.000005 0.671028 -0.739973
0.065878 0.558520 -0.708933 -0.000000 0.615751 -0.787941
0.065878 -0.558520 -0.708933 0.004518 -0.798748 0.600194
0.766855 0.061417 -0.060019 0.000044 0.710461 -0.702181
1.398008 -0.172860 -0.212220 -0.042040 -0.831789 0.553497
1.401056 0.075618 0.040698 0.000031 0.878966 0.474664
0.066360 -0.122410 0.148633 0.092585 -0.784557 -0.613106
-0.266875 0.180670 0.235797 -0.028739 -0.776901 0.628966
1.498008 -0.086882 0.101419 0.083852 -0.770919 -0.631390
-0.224384 -0.303780 -0.389804 -0.028739 0.776901 -0.628966
-0.361631 0.082150 -0.096219 -0.051615 0.805547 0.590280
0.064947 0.114908 -0.151613 0.051639 -0.786890 -0.614929
-0.028908 0.156394 0.177734 0.092585 0.784557 -0.613106
-0.041189 -0.340691 0.421027 -0.051615 -0.805547 -0.590280
-0.234938 0.131424 0.152385 -0.051615 0.805547 -0.590280
1.408628 0.008868 0.085415 0.001267 0.157448 0.986381
-0.219949 0.063958 -0.059004 0.000000 -0.615751 0.787941
-1.089435 0.035859 -0.078029 0.000044 0.422658 -0.905032
1.331746 -0.077038 0.037941 0.000664 -0.922874 0.382395
-0.324877 0.008644 -0.085438 0.000569 0.057404 -0.997363
-0.959673 0.017927 0.083982 0.000335 0.209590 0.976490
1.344133 0.100186 -0.145549 -0.028040 -0.755217 -0.654554
0.073046 -0.344375 -0.444569 0.051639 0.786890 -0.614929
0.073487 -0.354309 0.446456 0.092585 -0.784557 -0.613106
0.065878 0.558520 0.708933 0.000000 0.615751 0.787941
1.022607 -0.085317 0.109175 -0.042040 -0.831789 -0.553497
0.042409 0.465580 -0.584151 0.044556 0.793001 0.606593
1.433722 -0.070396 -0.049181 0.000057 -0.816474 -0.575575
0.163856 -0.070173 0.049498 0.000269 -0.774235 0.630851
-0.047141 -0.428306 0.541114 -0.051615 -0.805547 -0.590280
0.095769 -0.485326 -0.617476 0.092585 -0.784557 0.613106
0.360561 -0.072305 -0.046328 -0.000174 -0.836626 -0.545713
0.097124 0.491490 0.625569 0.092585 0.784557 -0.613106
1.194991 -0.096928 -0.132666 -0.042040 0.738132 -0.673346
-0.009040 -0.291261 -0.353316 0.092585 -0.784557 0.613106
1.500222 0.066697 -0.059310 -0.082420 0.704033 -0.704050
1.140424 -0.059258 0.062152 0.000067 -0.735761 0.675588
1.324065 -0.077832 -0.036285 -0.000038 -0.880759 -0.471142
0.716610 -0.075725 0.040499 -0.000169 -0.864256 0.500761
-1.284580 0.085258 0.010265 -0.000657 0.980566 0.188208
-1.433483 -0.032814 -0.079358 0.000132 -0.380908 -0.923471
0.978260 -0.079923 -0.031412 0.000124 -0.906830 -0.418977
-0.110747 0.054024 -0.066751 0.000124 0.635296 -0.771084
1.528002 -0.169841 0.206693 0.083852 -0.770919 -0.631390
-0.020242 0.269011 -0.323152 0.092585 0.784557 0.613106
0.530955 -0.075276 0.041327 -0.000093 -0.862577 0.503870
1.335733 0.016186 -0.084335 -0.000743 0.236997 -0.970438
1.564664 0.228523 0.283212 -0.000031 0.813218 -0.580733
-0.395491 0.143659 -0.183121 -0.051615 0.805547 0.590280
0.109383 -0.498367 0.636220 0.092585 -0.784557 -0.613106
-1.289526 -0.000000 0.085874 0.001260 -0.085560 0.995042
-1.254439 -0.079488 0.032497 0.000065 -0.909357 0.413630
0.119418 0.031941 -0.079713 -0.000213 0.367607 -0.928818
0.604280 0.027722 0.081276 -0.000480 0.298932 0.952964
0.319320 0.053660 0.067045 0.000001 0.616258 0.786135
0.063692 -0.173099 -0.213094 0.092585 -0.784557 0.613106
1.435401 0.173086 -0.209721 -0.042040 0.831789 0.553497
0.059805 -0.226787 0.295210 0.051639 0.786890 0.614929
0.171475 -0.075758 -0.040436 -0.000776 -0.878004 -0.476277
1.191196 0.114710 -0.151922 -0.042040 -0.738132 -0.673346
-0.007089 -0.027807 -0.081247 -0.000207 -0.373118 -0.926577
-0.024843 -0.291107 0.383268 -0.028739 0.776901 0.628966
1.056018 0.024287 -0.082368 -0.000695 0.308964 -0.950382
0.567612 -0.007573 -0.085540 -0.001175 -0.141454 -0.989085
0.298155 -0.065817 0.055159 -0.000159 -0.731637 0.680095
-0.724969 0.084543 -0.015064 -0.000584 0.970909 -0.234833
-0.054665 -0.377387 -0.488479 -0.028739 0.776901 -0.628966
-1.082835 -0.060148 0.061291 0.000298 -0.745348 0.665128
-0.312238 0.161354 -0.199988 -0.051615 0.805547 0.590280
-1.076903 -0.077567 -0.036848 0.000333 -0.901392 -0.430562
-0.255119 0.296358 -0.379233 -0.028739 -0.776901 -0.628966
1.399841 -0.178494 0.220548 -0.042040 -0.831789 -0.553497
0.055010 -0.540035 0.684657 -0.051615 -0.805547 -0.590280
-0.017623 -0.082297 0.024528 0.000060 -0.938220 0.342872
0.640009 -0.046734 0.072044 -0.000074 -0.524006 0.850368
1.541780 -0.039681 -0.049600 0.083852 -0.770919 0.631390
-1.146983 0.083703 0.019190 -0.001293 0.963226 0.264843
-0.406244 -0.077178 -0.037656 -0.000326 -0.911010 -0.409644
1.151853 -0.086564 0.118612 -0.042040 0.738132 0.673346
0.066803 -0.221895 -0.276005 0.092585 -0.784557 0.613106
1.465610 0.126051 -0.178647 0.027977 -0.792129 -0.609367
0.413973 0.085216 -0.010613 -0.000036 0.978415 -0.198682
-0.137710 -0.079682 -0.116958 -0.028739 0.776901 -0.628966
1.399932 -0.056426 0.064733 -0.000168 -0.657755 0.751814
1.417179 0.082170 -0.122496 -0.000000 -0.787941 -0.615751
0.093515 -0.281441 -0.356236 0.092585 -0.784557 0.613106
0.059531 0.185790 0.228705 0.092585 0.784557 -0.613106
0.205495 0.085128 0.011298 0.001284 0.987585 0.148780
1.209563 0.035931 0.077996 -0.000095 0.419467 0.906542
-0.139248 0.336172 0.433705 -0.028739 -0.776901 0.628966
-0.059039 0.072450 -0.107694 0.051639 -0.786890 -0.614929
-0.839198 -0.043309 -0.074153 -0.000181 -0.558291 -0.828444
-0.181424 0.203623 0.246234 -0.051615 0.805547 -0.590280
0.075959 -0.427454 0.550636 0.051639 0.786890 0.614929
1.375807 0.084031 -0.017697 0.000414 0.978125 -0.200146
-0.217169 0.311264 0.396256 -0.051615 0.805547 -0.590280
-0.020009 0.274674 0.363190 0.024853 -0.784001 0.619959
1.548743 0.051487 0.035278 1.000000 0.000000 0.000000
-1.376217 -0.066824 -0.053934 -0.000184 -0.779196 -0.625184
1.306413 -0.150594 0.185716 -0.042040 -0.831789 -0.553497
-0.196788 0.184343 -0.221266 -0.051615 0.805547 0.590280
0.068634 -0.290589 0.376113 0.051639 0.786890 0.614929
0.445345 -0.006864 -0.085599 0.000329 -0.123399 -0.991427
-0.063757 0.281164 -0.369209 -0.028739 -0.776901 -0.628966
-0.021770 0.339418 -0.417592 -0.051615 0.805547 0.590280
-1.188261 0.061149 -0.060292 0.000061 0.704821 -0.707822
0.058949 0.277246 -0.345648 0.092585 0.784557 0.613106
-0.347782 -0.201083 0.257315 -0.028739 0.776901 0.628966
0.060660 0.382193 -0.494003 0.051639 -0.786890 -0.614929
-1.468025 0.057029 0.064359 -0.017408 0.683880 0.727630
0.506632 0.064634 0.056540 -0.000793 0.767772 0.639009
-0.025660 -0.467904 0.601611 -0.028739 0.776901 0.628966
-0.395870 0.074562 -0.042602 -0.000165 0.862632 -0.503696
1.649282 0.262996 -0.336542 0.083852 0.770919 0.631390
1.316447 -0.114073 -0.130071 -0.042040 -0.831789 0.553497
1.143366 0.066610 -0.054199 -0.000005 0.811962 -0.581783
-0.374297 -0.125555 0.162810 -0.028739 0.776901 0.628966
1.574967 -0.241918 0.302559 -0.042040 -0.831789 -0.553497
-0.026327 0.360267 0.446443 -0.051615 0.805547 -0.590280
-1.497439 -0.081679 -0.020519 -0.123658 -0.978445 -0.155516
1.575616 -0.118001 -0.149721 0.083852 -0.770919 0.631390
-0.300549 -0.069263 -0.050765 -0.000643 -0.796290 -0.603154
-0.249202 0.227502 -0.294452 -0.028739 -0.776901 -0.628966
0.882991 0.085297 -0.009936 -0.001618 0.984819 -0.168158
-0.174629 0.126232 -0.140026 -0.051615 0.805547 0.590280
-1.228929 -0.048752 -0.070693 0.000021 -0.564796 -0.823874
1.535098 -0.170537 -0.208486 0.083852 -0.770919 0.631390
-0.730480 0.063145 0.058199 -0.000819 0.778790 0.625616
-0.079172 0.092975 0.088989 0.092585 0.784557 -0.613106
-0.556426 0.006990 -0.085589 0.000954 0.127306 -0.990766
0.992308 -0.007871 0.085513 -0.000685 -0.121128 0.991638
-0.042799 -0.179500 -0.243316 0.051639 0.786890 -0.614929
0.077247 0.041345 0.075266 0.000009 0.489408 0.870767
-1.249487 0.065440 0.055606 0.000072 0.760505 0.647661
1.316204 0.148950 0.182502 -0.042040 0.831789 -0.553497
-0.988809 0.085412 -0.008897 0.000762 0.986981 -0.153547
-0.933898 0.080617 0.029586 -0.000175 0.913160 0.404882
-1.033038 -0.008144 -0.085487 0.000724 -0.138161 -0.989424
-0.097578 -0.118466 -0.166698 -0.028739 0.776901 -0.628966
-1.376062 0.045412 0.072885 0.000060 0.480609 0.875767
-0.141085 0.233585 -0.306905 -0.028739 -0.776901 -0.628966
1.617533 -0.191113 0.244556 0.083852 -0.770919 -0.631390
1.617533 -0.191113 -0.244556 0.083852 -0.770919 0.631390
1.649282 -0.262996 0.336542 0.083852 -0.770919 -0.631390
1.583138 -0.113239 0.144906 0.083852 -0.770919 -0.631390
1.649282 -0.262996 -0.336542 0.083852 -0.770919 0.631390
-1.469314 0.085983 -0.000000 0.002235 0.998313 0.031695
-0.384009 -0.085992 0.113499 -0.028739 0.776901 0.628966
-0.106254 -0.256129 -0.311315 -0.051615 -0.805547 0.590280
-0.923236 -0.016930 -0.084189 0.000467 -0.197226 -0.979132
1.271680 -0.078880 0.083591 -0.000000 -0.787941 -0.615751
-0.161971 0.129739 0.177680 -0.028739 -0.776901 0.628966
1.572866 -0.240377 -0.300403 -0.042040 -0.831789 0.553497
-0.301451 -0.248721 0.318274 -0.028739 0.776901 0.628966
-0.283385 -0.184690 -0.240008 -0.028739 0.776901 -0.628966
-0.119739 -0.276723 0.340600 -0.051615 -0.805547 -0.590280
1.377979 -0.107221 -0.119858 -0.000000 -0.787941 0.615751
0.119392 0.132596 -0.169675 0.092585 0.784557 0.613106
1.417727 0.123888 0.141185 0.000000 0.787941 -0.615751
0.894344 0.034790 -0.078511 -0.000077 0.455096 -0.889191
1.057483 -0.097188 -0.124366 -0.042040 0.738132 -0.673346
0.119392 0.334959 -0.428628 0.092585 0.784557 0.613106
0.119392 -0.101935 -0.130440 0.051639 0.786890 -0.614929
0.672589 0.061702 -0.059726 0.000157 0.675663 -0.735780
-0.051685 -0.071411 -0.047696 -0.000036 -0.794886 -0.604924
0.060866 0.455156 0.587352 0.051639 -0.786890 0.614929
-1.360464 0.083642 0.019452 0.000130 0.959354 0.278622
1.483346 -0.202760 -0.266684 -0.042040 0.738132 -0.673346
-0.548897 -0.061221 0.060219 0.000023 -0.694495 0.717932
-0.119703 -0.321260 -0.416179 -0.028739 0.776901 -0.628966
-0.413606 -0.031108 -0.080042 0.001335 -0.404861 -0.913363
-0.005862 -0.356170 -0.439062 -0.051615 -0.805547 0.590280
1.045615 -0.063254 0.058080 -0.000432 -0.710795 0.701877
-0.042500 -0.306471 -0.401439 -0.028739 0.776901 -0.628966
1.494877 -0.213677 0.266202 -0.042040 -0.831789 -0.553497
0.290127 0.033656 -0.079004 0.000320 0.437907 -0.897815
0.715411 0.075830 0.040301 0.000029 0.902541 0.428022
1.165456 0.074867 0.042062 -0.000187 0.871386 0.488378
-0.215330 0.073875 0.043781 -0.000254 0.883485 0.466150
-0.278296 0.095982 -0.107809 -0.051615 0.805547 0.590280
0.063215 0.517513 0.666949 0.024853 -0.784001 0.619959
0.540145 0.084687 -0.014232 0.000002 0.972716 -0.227728
-0.033879 -0.133322 -0.147459 0.092585 -0.784557 0.613106
1.311552 0.074546 -0.078045 0.000000 0.787941 0.615751
1.534610 0.110943 0.148659 0.083852 -0.799002 0.595453
-0.089141 -0.068156 0.055724 -0.000000 0.615751 -0.787941
0.055378 0.086768 -0.101366 0.092585 0.784557 0.613106
-0.140719 -0.328253 0.412756 -0.051615 -0.805547 -0.590280
-0.439838 0.000000 0.085874 0.001294 -0.019605 0.999270
-0.242605 -0.183534 0.240443 -0.028739 0.776901 0.628966
-0.461036 0.084635 0.108303 -0.028739 -0.776901 0.628966
1.101077 -0.112026 0.143354 -0.042040 -0.831789 -0.553497
0.277001 0.079500 -0.032467 -0.000344 0.922193 -0.383255
-0.844753 0.083839 0.018583 -0.000010 0.966324 0.252849
0.060807 -0.461201 0.595092 0.051639 0.786890 0.614929
-1.322831 0.027873 -0.081225 -0.000765 0.370372 -0.927745
0.652039 0.085217 0.010604 0.000973 0.988204 0.145070
0.071820 -0.404708 -0.521877 0.051639 0.786890 -0.614929
1.561447 0.240490 -0.301440 -0.042040 0.831789 0.553497
0.244977 -0.045520 0.072817 -0.001890 -0.575738 0.816431
-0.720989 -0.053435 -0.067224 0.000563 -0.658983 -0.750800
-0.345303 -0.182748 -0.232077 -0.051615 -0.805547 0.590280
-0.337486 0.211669 -0.270861 -0.028739 -0.776901 -0.628966
-0.182029 -0.205695 -0.270585 -0.028739 0.776901 -0.628966
0.066709 -0.082720 -0.023060 0.000448 -0.962236 -0.268462
0.435562 -0.014357 0.084666 0.000018 -0.217166 0.975017
-0.158604 0.070732 0.104948 -0.028739 -0.776901 0.628966
0.603889 0.039746 -0.076122 0.000385 0.475450 -0.878470
0.250303 -0.006818 -0.085603 -0.000339 -0.139457 -0.989161
-0.137854 0.316799 -0.409840 -0.028739 -0.776901 -0.628966
1.322992 -0.163174 -0.203362 -0.042040 -0.831789 0.553497
-0.117072 -0.134109 0.145742 -0.051615 -0.805547 -0.590280
-0.233357 -0.064774 -0.056380 -0.000007 -0.784075 -0.618812
-0.082814 0.141534 0.152879 -0.051615 0.805547 -0.590280
0.065606 -0.070130 0.094258 0.051639 0.786890 0.614929
-0.221720 -0.264425 -0.332733 -0.051615 -0.805547 0.590280
-0.517808 -0.055743 -0.065323 0.002910 -0.664701 -0.745758
1.099958 -0.016601 0.084254 -0.000445 -0.227199 0.972917
0.057366 0.378203 0.474598 0.092585 0.784557 -0.613106
-0.171596 0.084492 -0.082798 -0.051615 0.805547 0.590280
0.172696 0.052443 -0.068001 0.000364 0.563972 -0.824579
0.789008 0.012167 -0.085008 -0.000619 0.140540 -0.989147
-0.214120 -0.282314 0.356482 -0.051615 -0.805547 -0.590280
-0.098005 0.320470 0.398400 -0.051615 0.805547 -0.590280
-1.616096 -0.009456 -0.037510 -0.588707 -0.270742 -0.755301
1.520890 -0.048057 0.066207 0.083852 0.799002 0.595453
-0.158625 -0.168286 0.196017 -0.051615 -0.805547 -0.590280
-0.114498 -0.194644 0.228129 -0.051615 -0.805547 -0.590280
0.104741 0.406852 -0.518413 0.092585 0.784557 0.613106
1.457010 0.076688 0.113622 0.083852 -0.799002 0.595453
0.484318 -0.071110 -0.048142 0.000600 -0.791593 -0.608896
0.485280 0.031937 -0.079714 0.000061 0.350169 -0.935493
0.961575 -0.064543 -0.082592 -0.042040 0.738132 -0.673346
0.820356 0.038730 0.076644 -0.000016 0.490389 0.870230
1.147337 -0.088125 -0.103922 -0.042040 -0.831789 0.553497
1.604065 0.183341 -0.236024 0.083852 -0.799002 -0.595453
-0.266689 0.119425 -0.160155 -0.028739 -0.776901 -0.628966
1.495999 0.213889 -0.266435 -0.042040 0.831789 0.553497
1.054136 0.080691 0.029383 0.000181 0.939423 0.339518
-0.351361 0.083591 0.097287 -0.051615 0.805547 -0.590280
1.400928 0.184431 0.229388 -0.042040 0.831789 -0.553497
-0.036653 -0.243896 0.288536 0.044556 -0.793001 -0.606593
-0.056581 0.388858 0.502561 -0.028739 -0.776901 0.628966
-0.924496 0.042032 -0.074884 0.000019 0.433771 -0.899776
0.030076 0.314657 0.389161 0.092585 0.784557 -0.613106
-0.114763 0.140407 -0.154136 -0.051615 0.805547 0.590280
-0.437369 -0.075039 0.093137 -0.051615 -0.805547 -0.590280
-0.417123 0.080896 -0.099361 -0.051615 0.805547 0.590280
0.108448 0.134912 0.173558 0.051639 -0.786890 0.614929
-0.493101 0.079517 -0.032424 0.000277 0.899765 -0.433696
-0.719735 0.000000 -0.085874 0.000491 -0.035560 -0.998301
0.970294 0.067511 -0.086389 -0.042040 -0.738132 -0.673346
-0.430149 -0.116394 -0.148943 -0.051615 -0.805547 0.590280
-0.205469 -0.020071 -0.083496 0.000027 -0.285842 -0.957096
-0.651816 0.068507 -0.051780 0.000430 0.792741 -0.607946
-0.071253 0.077575 0.036830 0.000096 0.898217 0.436946
0.989314 0.045543 0.072802 0.000169 0.481525 0.875299
-0.037821 -0.083764 0.120391 0.051639 0.786890 0.614929
1.143546 0.109639 0.136540 -0.042040 0.831789 -0.553497
0.109404 -0.066155 0.054753 0.000010 -0.733453 0.678094
-1.486422 -0.045074 -0.072392 -0.088961 -0.593775 -0.796669
0.779002 -0.068096 0.052320 -0.000091 -0.810149 0.584489
-0.023219 0.473963 0.609207 -0.028739 -0.776901 0.628966
0.015382 -0.054295 0.078212 0.051639 0.786890 0.614929
-0.329698 0.172696 0.223077 -0.028739 -0.776901 0.628966
1.374804 -0.067258 -0.053392 0.000072 -0.782163 -0.621358
-0.603885 0.009168 0.085383 -0.000428 0.153096 0.986811
-1.323851 -0.040083 -0.075945 0.000607 -0.460697 -0.886316
1.066048 0.075268 0.090775 -0.042040 0.831789 -0.553497
-1.341647 -0.015807 0.084407 0.000770 -0.235481 0.970749
0.705437 0.032417 0.079520 0.000100 0.436160 0.898629
1.490544 0.153896 0.182251 0.083852 0.770919 -0.631390
-1.042903 0.057118 0.064124 0.000052 0.621209 0.782211
0.655453 0.007418 0.085553 0.000712 0.066396 0.996616
-1.375033 0.044531 -0.073426 0.000196 0.524806 -0.850025
1.275454 0.171381 -0.219306 -0.042040 -0.738132 -0.673346
-0.136893 -0.222338 0.293205 -0.028739 0.776901 0.628966
1.377131 0.167459 -0.205690 -0.042040 0.831789 0.553497
-0.371175 0.070978 0.048337 0.000197 0.820055 0.570401
1.261544 0.061976 -0.096655 -0.000000 -0.787941 -0.615751
0.380354 0.048571 0.070818 -0.000019 0.513309 0.856936
1.147337 0.079541 -0.110631 -0.042040 -0.738132 -0.673346
0.012853 0.119077 0.136287 0.092585 0.784557 -0.613106
0.319882 0.085874 -0.000000 0.000773 0.998361 0.031349
-0.183861 -0.087136 0.087479 -0.051615 -0.805547 -0.590280
1.458550 0.233703 0.299056 -0.042040 0.831789 -0.553497
-0.208788 0.343996 -0.440192 -0.028739 -0.776901 -0.628966
1.264824 0.129161 -0.172360 -0.042040 -0.738132 -0.673346
0.424118 -0.075746 0.040459 -0.000107 -0.874510 0.482706
1.151979 -0.037717 -0.077148 0.000002 -0.439660 -0.896916
1.285773 0.058472 0.062892 -0.000336 0.714943 0.697811
-0.188405 -0.163179 -0.191652 -0.051615 -0.805547 0.590280
-1.136137 0.010049 -0.085284 0.000053 0.185835 -0.981096
0.894265 -0.063137 -0.058207 -0.000326 -0.770180 -0.636274
-0.132193 0.253336 0.331708 -0.028739 -0.776901 0.628966
1.548743 -0.088707 -0.028837 -0.079442 -0.961929 -0.257991
-1.537284 0.022874 0.072786 -0.267937 0.365605 0.889058
1.442709 0.054095 0.066694 -0.000117 0.581617 0.812129
-0.074942 0.481616 -0.616297 -0.028739 -0.776901 -0.628966
0.038908 -0.473394 -0.611343 -0.028739 0.776901 -0.628966
-0.106069 0.166581 -0.225742 -0.028739 -0.776901 -0.628966
1.507605 0.086829 0.023162 -0.081973 0.947354 0.306808
-1.539276 0.000000 -0.075725 -0.299262 0.041620 -0.951093
1.074920 0.103123 -0.131961 -0.042040 -0.738132 -0.673346
0.040457 -0.052596 -0.067882 0.000100 -0.561334 -0.826242
-1.147915 0.028447 0.081026 0.000109 0.385679 0.921467
-0.162457 -0.391634 -0.501151 -0.051615 -0.805547 0.590280
0.407583 -0.085311 -0.009814 -0.000696 -0.989011 -0.139942
-0.341990 -0.019990 0.083515 -0.000532 -0.275139 0.960180
-0.123968 -0.161353 -0.183525 -0.051615 -0.805547 0.590280
-1.433390 0.023360 -0.082636 -0.000185 0.326639 -0.943995
-0.025690 0.009016 0.085400 -0.000017 0.122511 0.991536
-0.387262 0.015819 0.084404 0.000419 0.185405 0.981180
0.244690 0.009514 0.085346 -0.001503 0.063536 0.996384
0.080760 0.247029 0.319353 0.051639 -0.786890 0.614929
-0.634246 0.058937 0.062457 0.000119 0.673292 0.737907
1.199425 -0.015329 0.084495 -0.000277 -0.148762 0.987950
-1.080901 0.081585 -0.026800 -0.000110 0.947128 -0.317151
0.660384 -0.078322 0.035214 0.001867 -0.927507 0.369030
-0.086107 0.253785 0.306356 -0.051615 0.805547 -0.590280
-0.132918 0.193761 0.228535 -0.051615 0.805547 -0.590280
-1.265023 -0.074593 -0.042548 -0.000051 -0.894494 -0.444577
-0.295469 0.066692 0.069339 -0.051615 0.805547 -0.590280
-1.530577 -0.035644 0.069483 -0.255577 -0.504968 0.821927
0.552144 0.044570 0.073402 0.000059 0.499533 0.865032
0.030020 0.049236 -0.070509 -0.000000 -0.615751 0.787941
-0.143264 -0.082500 -0.023836 0.000062 -0.958196 -0.282252
-0.030960 0.209039 0.280121 0.051639 -0.786890 0.614929
-0.849759 -0.080509 -0.029877 -0.000044 -0.931456 -0.360602
0.101280 0.352159 0.452158 0.051639 -0.786890 0.614929
-0.017570 0.428625 -0.553463 -0.028739 -0.776901 -0.628966
-0.650934 -0.080616 0.029588 0.000050 -0.950778 0.305925
1.305960 -0.028493 -0.081009 -0.000012 -0.328601 -0.943302
-0.121274 -0.433978 0.555337 -0.028739 0.776901 0.628966
-0.984207 -0.085352 -0.009458 -0.000081 -0.991317 -0.124381
-0.242839 0.258908 0.327051 -0.051615 0.805547 -0.590280
1.554978 0.162787 -0.215357 0.083852 -0.799002 -0.595453
-0.098863 -0.022412 0.082898 0.000311 -0.260440 0.964372
1.124642 0.074251 0.103415 -0.042040 -0.738132 0.673346
-0.013685 0.165438 -0.222877 0.051639 -0.786890 -0.614929
-0.532295 0.040012 0.075983 -0.000053 0.449050 0.892276
0.381937 0.069991 -0.049755 -0.000144 0.809274 -0.585529
0.553210 -0.053831 -0.066907 0.000843 -0.575736 -0.816348
-0.133141 -0.222927 -0.268356 -0.051615 -0.805547 0.590280
-0.822186 -0.058360 0.062996 0.000399 -0.658357 0.751344
0.042381 -0.293499 -0.363944 0.092585 -0.784557 0.613106
-0.222082 -0.078639 0.034501 0.000203 -0.916252 0.397841
0.050661 -0.091833 -0.107135 0.092585 -0.784557 0.613106
-0.296562 -0.242395 -0.310683 -0.028739 0.776901 -0.628966
-0.893931 -0.066550 0.054272 0.000358 -0.730036 0.681829
-0.614443 -0.023408 -0.082622 0.000240 -0.264850 -0.963095
-0.121140 -0.011392 -0.085115 -0.000708 -0.140495 -0.988974
-0.002267 -0.173885 0.232727 0.051639 0.786890 0.614929
-0.230456 0.084918 -0.012778 0.000528 0.975806 -0.212254
-0.179656 -0.109218 -0.117246 -0.051615 -0.805547 0.590280
-0.243761 -0.251587 0.317141 -0.051615 -0.805547 -0.590280
-0.457365 -0.070195 -0.049468 -0.001338 -0.813988 -0.579148
-0.253259 0.031192 -0.080009 -0.000126 0.370248 -0.927769
0.155695 0.080713 0.029322 -0.000017 0.919464 0.390311
-0.128797 0.081353 -0.027498 -0.000706 0.946045 -0.320814
0.732940 -0.073749 -0.043994 -0.000081 -0.862099 -0.504606
0.015429 0.262553 0.320274 0.092585 0.784557 -0.613106
1.388276 -0.101905 0.147749 -0.000000 0.787941 0.615751
-1.010587 0.020828 0.083310 0.000612 0.243964 0.968635
-0.265124 -0.084115 0.090462 -0.051615 -0.805547 -0.590280
0.282239 -0.067797 -0.052705 -0.000141 -0.749328 -0.660517
0.012479 0.521271 0.669273 -0.028739 -0.776901 0.628966
-0.567580 0.085204 0.010709 0.002273 0.989609 0.135981
0.202853 0.014498 -0.084641 -0.000289 0.222716 -0.973768
-0.354869 -0.137352 -0.170961 -0.051615 -0.805547 0.590280
0.023530 -0.363046 0.450093 0.092585 -0.784557 -0.613106
-0.047056 -0.195751 0.264469 0.026768 0.784235 0.619621
-0.501180 -0.005722 0.085683 -0.003191 -0.114173 0.992938
1.065920 -0.025573 -0.081978 0.000022 -0.299094 -0.952975
-0.093207 -0.193218 -0.224321 -0.051615 -0.805547 0.590280
-0.155004 -0.298846 0.373873 -0.051615 -0.805547 -0.590280
0.890771 0.039062 0.076475 0.000012 0.433539 0.899938
0.085249 0.302149 0.381487 0.092585 0.784557 -0.613106
1.446787 -0.060396 0.093200 0.083852 0.799002 0.595453
-1.324355 -0.083858 0.018498 -0.001378 -0.976460 0.207116
-0.256190 0.071953 0.101998 -0.028739 -0.776901 0.628966
-0.951184 -0.057847 0.063467 0.001412 -0.698715 0.713939
-1.042204 -0.055003 -0.065947 -0.000141 -0.679327 -0.732438
1.139581 0.085874 -0.000000 0.002267 0.997449 0.050270
1.407511 -0.060311 -0.094523 0.000000 0.787941 -0.615751
-0.206266 -0.131929 0.150567 -0.051615 -0.805547 -0.590280
-0.302528 -0.084469 0.015470 -0.000470 -0.978154 0.202765
-1.433977 0.024306 0.082362 -0.000531 0.335321 0.941061
1.450803 -0.032814 -0.079358 -0.027626 -0.381602 -0.922575
1.357356 0.096407 0.106020 -0.000000 0.787941 -0.615751
1.449597 0.201148 0.250813 -0.042040 0.831789 -0.553497
-1.389935 0.083131 -0.021531 0.000906 0.970172 -0.238386
-0.001602 0.394668 -0.512249 -0.028739 -0.776901 -0.628966
1.403629 -0.197788 -0.256257 -0.042040 0.738132 -0.673346
0.792170 -0.072528 -0.045978 0.000252 -0.871552 -0.488154
1.215830 0.095919 0.132861 -0.042040 -0.738132 0.673346
-0.352052 -0.068957 0.077378 -0.051615 -0.805547 -0.590280
0.959876 0.085345 -0.009518 0.001323 0.991936 -0.119912
0.418414 0.075140 0.041573 0.000094 0.898441 0.436545
-1.163026 -0.085260 -0.010252 0.000409 -0.990189 -0.132586
-0.385155 0.109426 -0.142392 -0.028739 -0.776901 -0.628966
-0.444035 0.008374 -0.085465 -0.001213 0.146779 -0.987895
0.945077 0.023054 -0.082722 -0.000014 0.322064 -0.945505
1.447055 0.128337 0.181572 -0.000000 -0.787941 0.615751
-0.121274 -0.433978 -0.555337 -0.051615 -0.805547 0.590280
-0.157309 -0.396927 0.507925 -0.028739 0.776901 0.628966
-0.244824 -0.306945 0.392779 -0.028739 0.776901 0.628966
-0.069794 -0.486909 -0.623070 -0.051615 -0.805547 0.590280
-0.208788 -0.343996 0.440192 -0.028739 0.776901 0.628966
0.034384 0.068619 0.051632 0.000207 0.771716 0.634679
1.151481 -0.074327 -0.043011 -0.000026 -0.865473 -0.498401
1.093247 -0.075329 0.041229 -0.000439 -0.888590 0.456095
-1.257584 -0.046047 0.072484 -0.000728 -0.582217 0.811266
1.516699 0.076846 -0.105428 0.083852 -0.799002 -0.595453
1.333556 -0.119896 0.137523 -0.042040 -0.831789 -0.553497
-0.217670 0.124470 -0.168627 -0.028739 -0.776901 -0.628966
-0.029989 0.085874 -0.000000 0.000685 0.995794 0.075990
1.439470 -0.085874 0.000000 0.000122 -0.998971 0.029634
0.819698 -0.085874 0.000000 0.001539 -0.996602 0.068597
0.477624 0.070549 -0.048962 -0.000223 0.816963 -0.574792
1.295460 -0.131260 -0.176574 -0.042040 0.738132 -0.673346
1.585784 0.119230 -0.152571 0.083852 0.770919 0.631390
1.063840 -0.072036 -0.046746 -0.000083 -0.806447 -0.589450
-0.992245 -0.076519 0.038978 -0.001078 -0.917430 0.395315
-0.232533 0.194562 -0.254525 -0.028739 -0.776901 -0.628966
1.523804 -0.095455 -0.115312 0.083852 -0.770919 0.631390
-0.894103 -0.085534 -0.007640 0.000165 -0.990982 -0.127254
1.221117 0.065094 -0.056010 -0.000027 0.795213 -0.604475
-0.011523 0.073658 0.105250 0.051639 -0.786890 0.614929
-0.745456 0.064134 -0.057106 -0.000028 0.741126 -0.669700
1.292892 -0.177316 0.226902 -0.042040 -0.831789 -0.553497
1.205703 -0.147639 0.188925 -0.042040 -0.831789 -0.553497
1.388799 -0.209961 0.268675 -0.042040 -0.831789 -0.553497
1.223141 0.153575 0.196521 -0.042040 0.831789 -0.553497
-0.342899 0.068145 -0.052256 0.000066 0.785403 -0.617299
-0.972113 0.064307 -0.056912 0.000055 0.741302 -0.669493
0.119392 0.175521 -0.224605 0.092585 0.784557 0.613106
0.119392 -0.181654 0.232452 0.051639 0.786890 0.614929
0.119392 -0.114199 0.146134 0.051639 0.786890 0.614929
0.119392 0.555719 -0.711122 0.092585 0.784557 0.613106
0.119392 -0.555719 -0.711122 -0.000000 -0.615751 -0.787941
0.119392 0.420810 0.538487 0.051639 -0.786890 0.614929
-0.067246 0.186179 -0.251724 -0.028739 -0.776901 -0.628966
1.237275 -0.038202 -0.076909 -0.000155 -0.444491 -0.894533
-0.839948 0.040386 0.075785 0.000078 0.473776 0.879519
1.057483 0.065860 -0.055108 -0.000063 0.726236 -0.685868
-0.759720 -0.085874 0.000000 0.000154 -0.998701 0.026537
-0.201890 -0.083227 -0.021156 0.000457 -0.950668 -0.306713
-0.466983 0.074806 0.042171 0.000558 0.838795 0.542563
-0.188540 0.104026 0.144705 -0.028739 -0.776901 0.628966
-1.234224 0.021258 -0.083201 0.000058 0.254038 -0.966005
0.062727 0.207917 -0.270817 0.051639 -0.786890 -0.614929
1.238461 -0.074055 0.043477 -0.000584 -0.881573 0.469744
0.871692 -0.085134 0.011254 0.001069 -0.985052 0.163413
1.327963 0.080615 -0.029589 -0.000488 0.914647 -0.401402
-0.669818 0.012508 -0.084958 0.001695 0.138818 -0.989436
0.119392 -0.414678 -0.530640 0.051639 0.786890 -0.614929
1.234030 -0.079180 0.115648 -0.042040 0.738132 0.673346
-0.184275 0.223695 0.292716 -0.028739 -0.776901 0.628966
-0.734724 -0.039671 0.076162 -0.000011 -0.494360 0.867996
-0.283944 0.212164 0.273918 -0.028739 -0.776901 0.628966
0.341141 0.027433 -0.081375 -0.000145 0.370259 -0.927742
1.624208 0.290090 -0.371211 -0.042040 -0.738132 -0.673346
0.098263 -0.019549 -0.083619 0.000226 -0.226371 -0.972954
-0.156431 0.187294 -0.249026 -0.028739 -0.776901 -0.628966
-0.293977 -0.010013 0.085288 -0.001591 -0.150479 0.987201
0.938856 -0.078280 0.035307 -0.000066 -0.893406 0.446755
0.656721 -0.064395 -0.056812 0.000132 -0.709505 -0.703166
0.065296 0.523584 -0.674543 -0.001939 -0.780672 -0.624638
0.336359 -0.042191 0.074795 -0.000306 -0.475305 0.878596
-1.623490 -0.015184 0.029586 -0.593958 -0.398723 0.695695
0.014903 -0.404357 -0.524971 -0.028739 0.776901 -0.628966
-0.908155 0.024230 0.082385 0.000024 0.285442 0.957356
1.565400 0.192003 0.238720 0.083852 0.770919 -0.631390
-0.331724 -0.173406 0.218140 -0.051615 -0.805547 -0.590280
-0.074576 -0.382472 0.480964 -0.051615 -0.805547 -0.590280
-0.819698 0.000000 -0.085874 -0.002396 -0.064544 -0.996749
1.482054 -0.154873 0.182316 0.083852 -0.770919 -0.631390
0.806605 0.073227 0.044857 0.000058 0.875140 0.481560
-0.104648 0.411336 -0.528129 -0.028739 -0.776901 -0.628966
0.010014 -0.524372 0.667217 -0.051615 -0.805547 -0.590280
0.069604 0.104655 0.138102 0.051639 -0.786890 0.614929
-0.152109 0.368541 0.468732 -0.051615 0.805547 -0.590280
0.070956 -0.315600 -0.396541 0.092585 -0.784557 0.613106
-0.889673 0.085874 -0.000000 0.000657 0.998649 0.033320
-0.941158 -0.076785 -0.038451 0.000327 -0.886472 -0.460497
-0.051414 0.161159 0.220569 0.051639 -0.786890 0.614929
-1.459463 -0.085341 0.009550 0.003898 -0.998331 0.033676
-0.479577 -0.079849 0.031600 0.000109 -0.902476 0.428170
1.264824 -0.129161 0.172360 -0.042040 0.738132 0.673346
0.008643 0.420797 0.525988 -0.051615 0.805547 -0.590280
1.311128 0.006979 0.085590 0.001324 0.116508 0.992287
1.305869 -0.046546 0.072166 -0.001711 -0.602776 0.796253
1.551165 -0.138273 0.171226 0.083852 -0.770919 -0.631390
1.548743 -0.008744 0.047592 1.000000 -0.000000 -0.000000
-1.572488 -0.049986 0.039215 -0.394063 -0.768964 0.498091
0.020832 0.168854 0.201190 0.092585 0.784557 -0.613106
-0.216610 -0.005849 0.085675 0.001188 -0.122886 0.991649
0.058494 0.309036 -0.386260 0.092585 0.784557 0.613106
-0.135251 -0.102687 0.104450 -0.051615 -0.805547 -0.590280
-1.470689 0.055493 -0.065659 -0.038497 0.617659 -0.782659
0.149945 0.000000 0.085874 -0.001276 -0.027061 0.998586
1.475338 -0.115104 -0.132867 0.083852 -0.770919 0.631390
-0.289476 0.083783 -0.018836 -0.000640 0.979173 -0.195895
-0.104076 0.395614 0.501479 -0.051615 0.805547 -0.590280
-0.338476 -0.090461 -0.105537 -0.051615 -0.805547 0.590280
-0.044431 -0.062993 -0.094366 0.051639 0.786890 -0.614929
0.003735 0.525726 -0.674376 -0.028739 -0.776901 -0.628966
-1.099228 0.082825 0.022681 -0.000127 0.960782 0.273254
1.234030 -0.093081 -0.104785 -0.042040 -0.831789 0.553497
-0.265124 -0.084115 -0.090462 -0.051615 -0.805547 0.590280
0.119392 -0.353356 -0.452169 0.051639 0.786890 -0.614929
1.370039 0.125836 0.143678 -0.028040 0.817684 -0.574618
1.237979 -0.073773 -0.043954 0.000126 -0.859226 -0.509418
-1.546052 -0.072190 -0.014602 -0.318572 -0.916760 -0.236434
-0.393896 -0.075904 -0.100586 -0.028739 0.776901 -0.628966
0.019146 -0.121786 -0.140704 0.092585 -0.784557 0.613106
-0.064646 0.436415 -0.560934 -0.028739 -0.776901 -0.628966
1.492437 0.184448 0.222463 -0.042040 0.831789 -0.553497
-0.067862 -0.156390 0.171846 0.044556 -0.793001 -0.606593
0.522243 -0.035090 0.078378 0.000635 -0.451598 0.891043
-0.290363 -0.123077 0.145841 -0.051615 -0.805547 -0.590280
-0.058522 0.446383 0.573526 -0.028739 -0.776901 0.628966
1.234888 0.093527 -0.131429 -0.042040 -0.738132 -0.673346
1.548743 0.043823 -0.032690 1.000000 0.000000 0.000000
0.201147 0.078183 -0.035521 -0.000026 0.910723 -0.410518
-0.073736 -0.436414 -0.554504 -0.051615 -0.805547 0.590280
-0.687310 0.045469 0.072849 0.000573 0.573129 0.818220
1.235573 -0.144850 -0.182465 -0.042040 -0.831789 0.553497
1.343750 -0.163226 0.214631 -0.042040 0.738132 0.673346
1.298385 0.094961 0.104169 0.000000 0.787941 -0.615751
1.401935 0.184928 -0.242054 -0.042040 -0.738132 -0.673346
-0.005647 -0.413409 0.517156 -0.051615 -0.805547 -0.590280
-1.136949 -0.066542 0.054282 0.000354 -0.791766 0.609040
1.534704 -0.097159 0.130150 0.083852 0.799002 0.595453
0.066117 -0.154832 0.190085 0.092585 -0.784557 -0.613106
-1.035716 -0.060524 0.060920 -0.000461 -0.730488 0.681157
-0.081698 0.219108 -0.291737 -0.028739 -0.776901 -0.628966
0.020370 -0.230720 -0.280286 0.092585 -0.784557 0.613106
1.458550 0.233703 -0.299056 -0.042040 -0.738132 -0.673346
-0.257072 0.151372 0.200056 -0.028739 -0.776901 0.628966
-0.027560 -0.147319 0.200856 0.051639 0.786890 0.614929
-0.105830 0.449858 0.575657 -0.028739 -0.776901 0.628966
1.428286 0.124382 -0.141817 0.000000 0.787941 0.615751
1.523056 -0.011390 -0.090432 -0.083571 -0.192682 -0.976209
1.480430 -0.150253 -0.176459 0.083852 -0.770919 0.631390
0.268168 0.047611 0.071467 -0.000235 0.597111 0.800784
-0.020982 0.022400 -0.082901 0.000441 0.273029 -0.960929
-0.016795 0.487469 -0.626182 -0.028739 -0.776901 -0.628966
-0.184566 0.250262 -0.310156 -0.051615 0.805547 0.590280
-0.039448 -0.270278 -0.324783 -0.051615 -0.805547 0.590280
-1.183200 -0.033335 0.079140 -0.000028 -0.440775 0.896671
0.100703 0.194943 0.251027 0.051639 -0.786890 0.614929
-1.547120 0.073306 -0.000000 -0.290598 0.953488 0.042060
0.739728 0.000000 0.085874 0.003085 -0.060267 0.997032
-0.165828 -0.326315 -0.412306 -0.051615 -0.805547 0.590280
-0.003464 -0.501628 -0.637357 -0.051615 -0.805547 0.590280
-0.020246 -0.175029 -0.202888 0.092585 -0.784557 0.613106
0.119392 -0.347224 0.444322 0.051639 0.786890 0.614929
-0.125276 -0.282012 -0.348301 -0.051615 -0.805547 0.590280
-0.763460 0.082597 0.023496 0.000548 0.951236 0.304635
0.166145 -0.085679 0.005790 0.001995 -0.992441 0.116502
-1.105665 0.009772 0.085316 -0.000532 0.130283 0.990458
-0.285520 -0.173447 0.226023 -0.028739 0.776901 0.628966
0.119392 -0.414678 0.530640 0.051639 0.786890 0.614929
0.082767 0.081179 0.098349 0.092585 0.784557 -0.613106
-0.284673 -0.123195 -0.163990 -0.028739 0.776901 -0.628966
0.613992 0.068312 0.052037 -0.000087 0.753404 0.655831
-0.089740 0.097339 0.140960 -0.028739 -0.776901 0.628966
-0.268339 0.268318 -0.343993 -0.028739 -0.776901 -0.628966
0.838179 0.083205 -0.021243 0.000005 0.951307 -0.304610
-0.349460 0.143343 -0.178664 -0.051615 0.805547 0.590280
1.466652 -0.120085 0.137794 0.083852 -0.770919 -0.631390
-0.214120 0.282314 0.356482 -0.051615 0.805547 -0.590280
-0.000045 -0.131422 0.150137 0.092585 -0.784557 -0.613106
-0.673255 -0.071037 -0.048251 0.000163 -0.854569 -0.517205
-0.038050 0.387789 -0.485027 -0.051615 0.805547 0.590280
1.503685 0.084445 0.117457 0.083852 -0.799002 0.595453
-0.108560 0.288471 -0.376187 -0.028739 -0.776901 -0.628966
-0.096232 -0.238966 0.315601 -0.028739 0.776901 0.628966
-0.258147 -0.132762 0.177019 -0.028739 0.776901 0.628966
-0.003364 0.337237 0.413005 -0.003511 0.799997 -0.598984
-0.257072 -0.151372 -0.200056 -0.028739 0.776901 -0.628966
-0.358802 -0.077457 -0.037079 -0.000018 -0.871549 -0.488049
0.130113 -0.064511 -0.056681 -0.000011 -0.707567 -0.705065
-0.382476 -0.074052 0.043481 -0.000383 -0.850869 0.523406
-0.448019 0.076068 -0.039850 0.000005 0.888099 -0.457368
-0.043020 0.113465 -0.120669 0.092585 0.784557 0.613106
0.349871 -0.085874 0.000000 -0.001735 -0.997517 0.039291
1.613592 0.239995 -0.310703 0.083852 -0.799002 -0.595453
-0.207559 0.041089 0.075406 0.000390 0.484433 0.873742
1.097169 0.029955 0.080480 0.000145 0.351178 0.935112
0.954204 -0.042997 0.074335 -0.000116 -0.526026 0.849160
-0.665096 -0.035368 0.078253 0.000016 -0.384721 0.921817
1.575336 -0.182587 -0.228542 0.083852 -0.770919 0.631390
-1.372066 -0.047336 0.071649 -0.000261 -0.600676 0.798095
-0.536500 -0.079814 -0.031686 0.000329 -0.947958 -0.314617
0.407261 -0.047389 0.071615 -0.000044 -0.592953 0.803841
-0.277939 0.118050 0.157943 -0.028739 -0.776901 0.628966
1.153836 -0.122892 -0.158558 -0.042040 0.738132 -0.673346
-0.391014 0.101561 0.125279 -0.051615 0.805547 -0.590280
-0.084970 -0.312864 -0.386879 -0.051615 -0.805547 0.590280
1.174782 0.041527 -0.075165 -0.000038 0.529750 -0.846845
1.167905 -0.079540 0.032368 -0.000179 -0.939023 0.340622
-1.019267 0.034781 -0.078515 -0.000026 0.461004 -0.886128
1.283089 0.085507 0.007937 0.000202 0.988882 0.141437
0.074305 -0.526740 -0.677825 0.051639 0.786890 -0.614929
-0.113754 0.066154 0.101343 -0.028739 -0.776901 0.628966
1.499145 -0.084770 0.027645 -0.082184 -0.947173 0.307321
-0.602236 0.064395 -0.056813 0.000708 0.748709 -0.661516
-0.129274 -0.080560 0.029739 0.000040 -0.956094 0.289246
-1.450803 -0.023785 0.082514 0.004172 -0.274728 0.960417
-0.033358 0.313169 -0.382783 -0.051615 0.805547 0.590280
0.074316 -0.377095 -0.486332 0.051639 0.786890 -0.614929
-0.113081 0.340494 -0.440240 -0.028739 -0.776901 -0.628966
0.250935 -0.082498 -0.023843 0.000218 -0.943409 -0.328136
-0.223873 0.188664 0.247636 -0.028739 -0.776901 0.628966
-0.365506 -0.010752 -0.085198 -0.000064 -0.195262 -0.979177
0.823315 -0.038317 0.076852 0.000094 -0.469784 0.881529
1.569281 -0.180445 0.225123 0.083852 -0.770919 -0.631390
-0.966277 -0.029597 -0.080613 -0.000056 -0.334237 -0.941330
-0.035857 0.422667 0.532432 -0.051615 0.805547 -0.590280
1.377014 0.045251 0.072984 -0.000279 0.585363 0.808917
-0.017974 -0.267655 0.321759 0.092585 -0.784557 -0.613106
-0.037209 0.352013 -0.457935 -0.028739 -0.776901 -0.628966
-0.063489 0.053163 -0.067440 -0.000000 -0.615751 0.787941
-0.781385 -0.018134 0.083938 0.000677 -0.251779 0.966641
1.472082 0.066026 -0.097192 0.083852 -0.799002 -0.595453
0.003735 -0.525726 -0.674376 -0.028739 0.776901 -0.628966
-0.118093 -0.120302 -0.126990 -0.051615 -0.805547 0.590280
-0.393510 0.133059 0.168482 -0.051615 0.805547 -0.590280
1.599351 0.237832 0.309806 0.083852 -0.799002 0.595453
1.392865 0.038481 -0.076769 0.000041 0.494560 -0.868011
-0.947882 0.056627 0.064558 -0.000086 0.617335 0.785334
0.003707 -0.229097 0.302878 0.051639 0.786890 0.614929
-1.177701 0.084494 -0.015333 -0.001055 0.982399 -0.178955
