0.087738 -0.305010 0.343284 -0.076922 0.690714 0.719025
-0.094019 0.230051 -0.251832 -0.076922 -0.690714 -0.719025
0.878413 0.068211 0.073125 -0.009258 0.745617 -0.666310
0.115470 0.424300 -0.460844 -0.076922 -0.690714 -0.719025
0.213452 0.431574 -0.455387 0.057096 0.730053 0.681001
0.678960 0.058370 -0.102073 -0.000456 0.443692 -0.893023
0.005513 0.105311 0.088190 0.057096 0.730053 -0.681001
1.468345 -0.043059 0.106098 0.178646 -0.360259 0.912743
1.536918 0.102051 0.000000 0.179184 0.978792 0.057176
0.122842 0.178350 -0.208481 0.066328 -0.729636 -0.680611
1.468828 0.021131 0.112446 0.177554 0.275003 0.941455
1.429967 -0.122248 -0.127130 0.023208 -0.729810 0.683255
1.245801 -0.123341 0.129712 -0.009258 -0.745617 -0.666310
1.364299 -0.108874 0.111876 -0.009258 -0.745617 -0.666310
-0.140478 0.071262 -0.094325 -0.076922 -0.690714 -0.719025
-0.012732 -0.204665 -0.236141 -0.076922 0.690714 -0.719025
0.244819 -0.328501 -0.357561 0.066328 0.729636 -0.680611
0.263427 0.296828 0.321793 0.066328 -0.729636 0.680611
-0.824231 0.021550 -0.115592 -0.002912 0.285642 -0.955172
1.536918 -0.102051 -0.000000 0.179086 -0.978818 -0.057130
-0.846131 -0.114837 0.025268 -0.001634 -0.955547 0.288389
1.200927 -0.011767 -0.116994 -0.001820 -0.183462 -0.980807
0.151828 -0.353905 -0.366957 0.057096 -0.730053 0.681001
-0.905790 -0.039783 -0.110649 -0.000242 -0.364611 -0.928539
-0.238583 0.057743 -0.102429 0.000448 0.570449 -0.818378
0.075227 -0.295005 -0.332334 -0.076922 0.690714 -0.719025
-0.835278 -0.075909 0.089798 -0.000265 -0.581375 0.810068
-1.191194 0.112866 -0.032973 -0.000128 0.979529 -0.189028
1.421406 0.196038 -0.208620 -0.009258 0.745617 0.666310
0.081033 0.031150 0.113383 0.002149 0.271880 0.958986
0.088055 0.204239 0.201164 0.057096 0.730053 -0.681001
-1.391402 -0.033950 0.112576 0.000010 -0.241339 0.967980
0.014010 0.130203 -0.167472 0.018568 -0.718060 -0.694793
0.203544 -0.339090 0.355411 0.057096 -0.730053 -0.681001
0.269461 -0.169272 -0.178888 0.057096 -0.730053 0.681001
0.205915 0.325094 -0.340605 0.057096 0.730053 0.681001
-0.175326 -0.057526 0.102551 0.000497 -0.470707 0.879307
1.449831 -0.220519 0.235621 -0.009258 -0.745617 -0.666310
1.441454 0.091475 0.101492 0.023208 -0.732286 0.680602
-0.061336 0.091747 0.075217 -0.066254 0.760929 -0.645443
0.026191 -0.104807 -0.089382 0.057096 -0.730053 0.681001
1.527205 0.237297 0.253321 0.001565 0.740446 -0.672048
-0.032193 0.287137 0.313284 -0.076922 -0.690714 0.719025
0.450666 0.111613 -0.036992 -0.000248 0.931671 -0.356555
0.127332 -0.208915 0.209470 0.057096 -0.730053 -0.681001
1.010712 0.107439 -0.047780 -0.001391 0.932309 -0.355312
0.300205 -0.107273 -0.115000 0.057096 -0.730053 0.681001
-0.245517 0.105876 -0.116338 -0.076922 -0.690714 -0.719025
0.113158 -0.435573 0.462651 -0.066254 -0.760929 -0.645443
-1.580560 0.066276 -0.030322 -0.564874 0.785738 -0.238129
1.170982 -0.090613 -0.074935 0.000326 -0.797087 -0.600058
-0.001583 -0.295207 0.324312 -0.076922 0.690714 0.719025
-0.087518 -0.154755 -0.180196 -0.076922 0.690714 -0.719025
0.705972 -0.102479 0.057655 0.000766 -0.836791 0.542897
-1.505919 0.091179 -0.058044 -0.264241 0.737934 -0.612885
-1.526173 0.036527 -0.094532 -0.404246 0.369666 -0.831516
0.070066 0.000000 -0.117584 0.007053 0.086645 -0.993880
0.031795 -0.291479 -0.301127 -0.066254 -0.760929 0.645443
1.369478 0.071094 0.070436 0.000000 -0.682113 -0.731246
-0.080386 0.115103 -0.104708 -0.066254 0.760929 0.645443
0.110940 -0.128243 0.155925 0.066328 0.729636 0.680611
0.065869 -0.259081 0.296824 -0.076922 0.690714 0.719025
-0.239406 0.083091 0.083291 -0.066254 0.760929 -0.645443
0.539252 -0.082067 0.084208 -0.001580 -0.663749 0.745469
-0.012892 -0.234832 -0.265103 -0.076922 0.690714 -0.719025
-1.577271 -0.059458 0.045884 -0.564281 -0.711820 0.408682
-0.018271 0.349559 -0.374738 -0.066254 0.760929 0.645443
1.436645 0.169948 -0.179214 -0.009258 0.745617 0.666310
0.122568 -0.123737 -0.117757 0.057096 -0.730053 0.681001
0.230752 -0.098523 0.099797 0.057096 -0.730053 -0.681001
1.388124 -0.070778 -0.070731 0.023208 -0.729810 0.683255
0.990939 0.000000 -0.117584 0.000080 0.129290 -0.987294
0.264360 0.255255 0.277135 0.066328 -0.729636 0.680611
1.170193 0.036558 0.111757 0.000391 0.259440 0.963111
0.301948 0.046630 0.107943 0.000035 0.482660 0.873073
0.701355 0.115970 -0.019414 -0.000206 0.973764 -0.215530
1.296458 0.103661 0.055501 -0.001126 0.900570 0.427840
0.013500 -0.092373 0.126967 0.066328 0.729636 0.680611
-0.125068 0.130589 -0.152965 -0.076922 -0.690714 -0.719025
-0.205089 0.123150 -0.126996 -0.066254 0.760929 0.645443
-1.188732 -0.085822 -0.080378 -0.000703 -0.778944 -0.623143
0.157650 -0.292080 0.301167 0.057096 -0.730053 -0.681001
-0.341178 -0.012192 0.116950 -0.000423 -0.164007 0.984596
1.147882 0.134124 -0.143138 -0.009258 0.745617 0.666310
-0.506584 0.087601 -0.078436 0.000037 0.697808 -0.712991
-0.509097 0.116626 -0.014977 -0.001088 0.984867 -0.161096
1.064744 -0.019469 -0.115961 -0.000759 -0.214707 -0.973916
1.536918 0.040820 -0.000000 1.000000 0.000000 -0.000000
1.391425 0.035790 -0.112005 -0.000028 0.350503 -0.934016
-0.139581 0.178268 0.197214 -0.076922 -0.690714 0.719025
-0.139581 -0.178268 0.197214 -0.076922 0.690714 0.719025
-0.144106 0.112566 0.108257 -0.066254 0.760929 -0.645443
0.179681 -0.523160 0.559080 -0.066254 -0.760929 -0.645443
0.179668 0.523149 -0.559069 -0.066254 0.760929 0.645443
0.269461 0.169272 0.178888 0.057096 0.730053 -0.681001
0.090085 0.117584 -0.000000 -0.000352 0.990230 -0.108199
0.260917 0.198371 -0.209365 0.057096 0.730053 0.681001
0.183940 0.048998 -0.106889 0.000502 0.504209 -0.860706
1.412347 0.153846 0.161533 -0.009258 0.745617 -0.666310
-1.170025 -0.112289 -0.034887 -0.000312 -0.977742 -0.194358
1.475360 -0.103882 0.045048 0.179129 -0.906503 0.375643
0.046905 -0.254110 -0.290020 -0.076922 0.690714 -0.719025
1.375297 -0.016866 0.116368 -0.000475 -0.194295 0.978496
0.269461 0.166492 -0.181481 0.066328 -0.729636 -0.680611
1.479553 0.215196 -0.232078 -0.009258 -0.716479 -0.697547
0.947080 0.108830 0.044519 -0.000198 0.891343 0.447725
0.866384 -0.110536 -0.040098 0.002067 -0.920617 -0.384580
1.544906 0.117167 -0.125607 0.023208 0.729810 0.683255
1.551296 0.172915 0.185370 0.023208 -0.732286 0.680602
0.171969 -0.033252 -0.112784 0.000051 -0.237151 -0.969105
1.337801 -0.114213 -0.027951 0.001051 -0.954206 -0.291415
0.650616 0.117584 -0.000000 0.000259 0.990961 -0.111111
-0.035421 -0.118351 -0.150798 -0.076922 0.690714 -0.719025
0.046534 -0.220188 0.257393 -0.076922 0.690714 0.719025
1.536918 -0.038874 -0.094356 0.185523 -0.281509 -0.938381
1.536918 0.038874 -0.094356 0.185523 0.281509 -0.938381
-1.451375 -0.020213 -0.115834 -0.066930 -0.223476 -0.968278
0.249866 0.387316 0.410994 0.057096 0.730053 -0.681001
-0.129673 -0.100924 0.093051 -0.066254 -0.760929 -0.645443
0.118334 0.242607 0.277806 0.066328 -0.729636 0.680611
0.211650 0.240832 0.266809 0.066328 -0.729636 0.680611
-0.471246 -0.101700 0.059018 -0.000432 -0.898276 0.433940
-0.084121 -0.080470 0.109200 -0.076922 0.690714 0.719025
0.105986 -0.422112 -0.457727 -0.076922 0.690714 -0.719025
0.256193 0.414125 -0.448243 0.066328 -0.729636 -0.680611
1.234472 0.149548 0.161395 -0.009258 -0.716479 0.697547
0.143012 -0.152514 0.178818 0.066328 0.729636 0.680611
1.187968 0.127679 -0.135370 -0.009258 0.745617 0.666310
-1.195617 0.053047 -0.104938 -0.001556 0.463448 -0.884191
0.663792 0.075194 0.090398 0.000833 0.685865 0.725373
1.252411 -0.070744 0.070762 -0.009258 -0.745617 -0.666310
0.162672 -0.327068 0.364030 0.066328 0.729636 0.680611
1.363037 -0.163183 -0.172667 -0.009258 -0.745617 0.666310
0.263722 -0.215529 -0.227995 0.057096 -0.730053 0.681001
0.005513 -0.078663 -0.113048 0.066328 0.729636 -0.680611
0.976834 -0.067545 0.073746 -0.009258 0.716479 0.697547
0.041054 0.133468 0.168337 0.066328 -0.729636 0.680611
0.041054 -0.133468 -0.168337 0.066328 0.729636 -0.680611
0.129383 0.099504 -0.062650 0.000528 0.818113 -0.571936
1.386106 0.099256 0.111750 0.001565 -0.721844 0.691990
0.205220 -0.271618 0.300439 0.066328 0.729636 0.680611
-0.644173 -0.046342 0.108066 0.000407 -0.415811 0.906726
0.168724 -0.529128 -0.567242 -0.076922 0.690714 -0.719025
-0.006584 -0.360782 0.386770 -0.076922 0.690714 0.719025
-0.170204 -0.203659 0.218329 -0.076922 0.690714 0.719025
-0.135143 -0.237329 0.254423 -0.076922 0.690714 0.719025
-0.135143 0.237329 -0.254423 -0.066254 0.760929 0.645443
0.098601 0.461790 0.495053 -0.076922 -0.690714 0.719025
-0.088394 -0.282221 0.302549 -0.076922 0.690714 0.719025
-0.088394 0.282221 -0.302549 -0.066254 0.760929 0.645443
-0.041645 0.327113 -0.350675 -0.066254 0.760929 0.645443
-0.205266 0.169990 0.182235 -0.076922 -0.690714 0.719025
-0.100081 -0.270998 -0.290518 -0.076922 0.690714 -0.719025
-0.018271 0.349559 0.374738 -0.076922 -0.690714 0.719025
0.121975 -0.484236 0.519116 -0.076922 0.690714 0.719025
0.121975 -0.484236 -0.519116 -0.076922 0.690714 -0.719025
-0.181891 0.192436 -0.206298 -0.066254 0.760929 0.645443
0.485620 -0.013310 -0.116828 0.002810 -0.152499 -0.986419
0.791097 -0.112938 0.032726 0.000109 -0.980378 0.185186
0.976834 -0.067545 -0.073746 -0.009258 0.716479 -0.697547
-0.442425 0.073466 0.091808 0.000135 0.604660 0.793530
0.152687 -0.107257 -0.048187 0.000565 -0.891288 -0.448622
1.525502 -0.259541 0.278236 -0.004929 0.718633 0.695332
1.359108 -0.210342 0.225493 -0.009258 0.716479 0.697547
1.285155 -0.188476 0.202052 -0.009258 0.716479 0.697547
1.451549 0.237675 0.254795 -0.009258 0.745617 -0.666310
1.285155 0.188476 0.202052 -0.009258 0.745617 -0.666310
1.174225 -0.155676 0.166890 -0.009258 0.716479 0.697547
1.007831 -0.106477 0.114147 -0.009258 0.716479 0.697547
1.063296 0.122877 -0.131728 -0.009258 0.745617 0.666310
1.211202 -0.166610 0.178611 -0.009258 0.716479 0.697547
1.266667 0.183009 -0.196192 -0.009258 0.745617 0.666310
1.026319 0.111944 0.120007 -0.009258 0.745617 -0.666310
0.989343 -0.101011 -0.108287 -0.009258 0.716479 -0.697547
0.989343 0.101011 -0.108287 -0.009258 0.745617 0.666310
1.525502 -0.259541 -0.278236 -0.004929 0.718633 -0.695332
1.359108 0.210342 0.225493 -0.009258 0.745617 -0.666310
0.257275 0.542147 -0.577598 0.000000 0.682113 -0.731246
0.185727 -0.445314 -0.488546 -0.029182 0.705086 -0.707598
1.460263 0.097214 -0.101419 0.023208 0.729810 0.683255
0.741614 -0.115936 -0.019617 0.000077 -0.973609 -0.215796
0.121975 0.484236 -0.519116 -0.066254 0.760929 0.645443
0.801011 0.115899 -0.019836 0.000205 0.959093 -0.272631
-1.451375 0.020444 -0.115793 -0.036454 0.053523 -0.994768
0.072497 -0.217609 -0.214192 0.057096 -0.730053 0.681001
0.200995 0.141253 0.143110 0.057096 0.730053 -0.681001
0.027881 -0.219910 -0.217155 -0.066254 -0.760929 0.645443
0.586466 -0.020087 0.115855 -0.001094 -0.223789 0.971759
0.325054 -0.074328 0.091112 0.000374 -0.599618 0.797221
0.602462 0.091029 0.074430 0.000490 0.741475 0.667819
-0.000300 0.103944 -0.140716 0.018568 -0.718060 -0.694793
-0.735469 -0.116582 0.015315 -0.001668 -0.979859 0.184661
1.418233 0.108212 -0.120291 0.023208 -0.732286 -0.680602
1.311464 0.065279 0.075860 -0.009258 -0.716479 0.697547
-0.262114 -0.097569 -0.065622 0.000036 -0.792206 -0.606585
0.168587 -0.096417 0.067304 0.000045 -0.867675 0.492315
-1.203315 0.114060 0.028570 -0.001611 0.942820 0.327189
0.820454 0.106582 0.049661 0.000077 0.924791 0.374176
1.252411 -0.065679 -0.075487 -0.009258 0.716479 -0.697547
0.149952 0.393253 -0.408982 -0.025144 0.751724 0.658262
0.370351 0.117584 -0.000000 -0.000171 0.991157 -0.110134
-0.930882 0.000000 -0.117584 0.004177 0.031062 -0.998525
-0.870825 -0.000000 0.117584 -0.000497 0.087545 0.994226
-0.810768 -0.000000 0.117584 0.003368 0.053414 0.995684
0.450427 -0.117584 -0.000000 -0.000042 -0.991285 -0.106807
-1.091034 -0.117584 0.000000 0.002049 -0.994672 -0.079529
0.230218 -0.117584 -0.000000 0.003647 -0.994413 -0.067980
-0.470446 0.000000 -0.117584 -0.000982 0.106304 -0.991469
0.590559 0.117584 -0.000000 0.000434 0.995751 -0.058732
0.152303 0.213228 0.243000 0.066328 -0.729636 0.680611
-1.300151 0.086569 -0.079573 -0.000084 0.702082 -0.708722
1.034833 0.116407 -0.016598 0.000106 0.979776 -0.187985
-1.201097 -0.019359 0.115979 0.000167 -0.209525 0.975212
0.101106 0.252870 -0.254391 0.057096 0.730053 0.681001
1.331011 0.034345 -0.112456 0.000000 0.244388 -0.967165
-0.281136 -0.058079 0.102239 0.000180 -0.555519 0.828534
-0.190265 0.102064 -0.058386 -0.000273 0.884141 -0.461880
0.216827 0.107007 0.048739 -0.000131 0.869970 0.489138
0.041138 0.042556 0.109613 0.000033 0.428086 0.901078
-0.598883 0.045806 -0.108295 0.000342 0.414585 -0.907186
-0.626357 0.097134 0.066264 -0.000010 0.809468 0.583092
0.388082 0.045487 0.108429 -0.000052 0.428662 0.900802
-1.322316 -0.100856 0.060448 0.000000 -0.828986 0.554986
-0.080031 -0.039166 -0.110869 -0.000750 -0.365736 -0.928008
1.358259 -0.100684 0.060734 -0.000571 -0.831423 0.551286
0.862671 0.115362 -0.022750 0.001647 0.953899 -0.291035
0.051976 -0.071161 0.093606 0.000042 -0.587429 0.806317
-0.079592 0.028931 0.113969 0.001697 0.253500 0.964168
0.140299 0.114453 0.026953 -0.001533 0.967578 0.240577
0.290415 -0.031357 0.113326 -0.000448 -0.357246 0.931569
-0.005425 -0.275057 0.285586 -0.066254 -0.760929 -0.645443
-1.321533 0.050498 0.106188 0.000084 0.471134 0.879340
-0.650667 0.083824 -0.082459 0.000172 0.731979 -0.677857
-0.016425 -0.127081 0.112263 -0.066254 -0.760929 -0.645443
0.989841 0.060620 0.100753 0.000738 0.501802 0.862107
0.390288 -0.112541 0.034068 0.000078 -0.967937 0.241433
0.589716 0.073527 -0.091760 0.000366 0.582304 -0.809967
-0.839334 0.097429 -0.065830 -0.000048 0.843526 -0.532603
-1.251579 -0.066624 0.096887 -0.000073 -0.603302 0.794527
-0.519803 -0.076942 -0.088915 -0.000250 -0.676529 -0.733195
-1.251097 -0.112547 -0.034046 -0.000699 -0.968062 -0.240970
-0.036061 0.065233 -0.097830 -0.000324 0.582735 -0.809760
-0.689353 -0.112294 0.034873 0.001193 -0.944603 0.321081
-0.709737 -0.050761 -0.106063 -0.000144 -0.371245 -0.925972
0.267536 0.057739 -0.102431 -0.001583 0.406392 -0.911166
0.390756 -0.111913 -0.036077 0.000019 -0.932465 -0.354570
1.168527 -0.091975 0.073257 -0.000220 -0.716379 0.694338
1.425033 -0.062056 0.099875 -0.000388 -0.488519 0.869879
-0.749997 -0.039814 0.110638 -0.001397 -0.356878 0.931465
0.257649 -0.419860 0.454250 0.066328 0.729636 0.680611
-1.047581 0.081764 -0.084502 -0.000069 0.714375 -0.696341
-0.968528 -0.102906 -0.056888 -0.000668 -0.887724 -0.454877
0.202663 -0.232991 -0.241595 0.057096 -0.730053 0.681001
0.422201 0.105499 0.051923 -0.000445 0.876440 0.476805
-1.231682 0.066703 0.096833 0.000041 0.604900 0.793331
1.394033 0.048606 0.107068 0.000081 0.498596 0.864110
-0.649712 -0.111040 -0.038679 0.000691 -0.907620 -0.413696
-0.941417 0.113740 -0.029818 -0.001019 0.937062 -0.342569
-0.902635 -0.111172 -0.038299 -0.000226 -0.908340 -0.412455
-0.866858 0.032049 -0.113132 0.001625 0.359624 -0.930577
-0.584882 0.097381 -0.065900 -0.000068 0.769313 -0.635144
-1.345154 0.014258 -0.116716 -0.000090 0.163005 -0.984741
0.529836 0.073502 -0.091779 0.000192 0.585798 -0.807519
0.524526 0.074167 0.091243 0.001853 0.576394 0.814036
1.370365 0.091565 -0.073768 0.000431 0.835218 -0.545353
-0.206858 -0.068460 -0.095599 -0.000242 -0.532447 -0.843592
-0.683056 -0.055630 0.103592 0.000043 -0.532175 0.843807
-1.053205 -0.044363 0.108894 -0.000514 -0.458471 0.886322
0.058260 0.104513 0.053880 -0.000189 0.851657 0.519443
-0.546533 -0.052440 -0.105243 -0.000380 -0.473429 -0.878159
1.371777 0.148684 0.156321 -0.009258 0.745617 -0.666310
-0.598251 -0.088370 -0.077567 -0.000103 -0.705118 -0.705699
-1.141439 -0.053776 0.104566 0.000360 -0.497376 0.864883
0.300205 -0.459149 0.492222 0.057096 -0.730053 -0.681001
0.300205 0.459149 -0.492222 0.066328 -0.729636 -0.680611
0.300205 -0.486217 -0.521239 0.057096 -0.730053 0.681001
0.300205 0.120807 -0.129508 0.066328 -0.729636 -0.680611
0.300205 -0.337346 0.361645 0.057096 -0.730053 -0.681001
0.300205 -0.364413 -0.390662 0.057096 -0.730053 0.681001
0.300205 0.215543 0.231068 0.057096 0.730053 -0.681001
0.300205 -0.174941 0.187543 0.057096 -0.730053 -0.681001
0.300205 -0.229076 0.245577 0.057096 -0.730053 -0.681001
0.300205 -0.229076 -0.245577 0.057096 -0.730053 0.681001
0.300205 -0.283211 0.303611 0.057096 -0.730053 -0.681001
0.300205 -0.391481 0.419679 0.057096 -0.730053 -0.681001
0.300205 -0.513284 0.550256 0.057096 -0.730053 -0.681001
0.300205 0.391481 -0.419679 0.066328 -0.729636 -0.680611
-0.800341 0.092626 -0.072432 -0.000110 0.804259 -0.590230
0.549621 -0.043727 -0.109151 -0.000085 -0.410322 -0.908934
-1.381432 0.050000 0.106424 0.000029 0.334490 0.939877
-0.977680 -0.038532 -0.111091 -0.000760 -0.351894 -0.933445
0.380083 0.106430 0.049986 -0.000105 0.939713 0.334903
0.358635 0.087379 0.078682 -0.000236 0.803344 0.591490
-1.132302 0.068870 0.095305 0.000557 0.540583 0.838467
1.119238 -0.114663 0.026045 -0.004162 -0.943917 0.321374
0.738294 0.057214 -0.102725 -0.000093 0.440099 -0.894941
-0.337621 0.074469 0.090996 0.000349 0.686943 0.723489
1.451375 -0.117584 -0.000000 0.114441 -0.987884 -0.055553
-0.929576 -0.098388 -0.064388 -0.000067 -0.779321 -0.622832
0.769441 0.095917 -0.068014 -0.000395 0.779408 -0.622792
0.048489 0.104822 -0.053276 0.000724 0.862802 -0.500710
-0.711501 -0.029742 0.113760 -0.000361 -0.342625 0.937020
-0.787846 0.064989 -0.097992 0.000016 0.576047 -0.814487
0.159796 -0.116154 0.112748 0.057096 -0.730053 -0.681001
-1.239477 -0.060986 -0.100532 0.000606 -0.556535 -0.827885
-0.722275 0.081666 -0.084597 -0.000078 0.644550 -0.761461
-1.341909 0.116015 -0.019147 -0.000156 0.963887 -0.256615
0.430702 -0.111681 -0.036787 -0.000156 -0.913163 -0.401603
1.075254 0.066878 -0.074368 -0.000000 -0.682113 0.731246
0.121333 0.343322 -0.353055 -0.025144 0.751724 0.658262
-0.075901 -0.186283 0.211725 -0.076922 0.690714 0.719025
-1.505243 0.031659 0.103548 -0.223738 0.297215 0.923166
-1.105392 0.091074 -0.074374 -0.000519 0.727761 -0.682367
-0.989635 -0.071682 -0.093208 -0.000013 -0.630771 -0.772877
0.130910 -0.401941 -0.421179 -0.066254 -0.760929 0.645443
0.920969 -0.116158 0.018259 0.001709 -0.973045 0.219140
-0.993531 0.112088 -0.035527 0.000582 0.918380 -0.389499
-1.232182 -0.091816 0.073456 0.000010 -0.747269 0.660914
-1.360000 0.085593 -0.080622 0.000158 0.693127 -0.717535
1.090279 0.066239 0.097151 -0.000047 0.602347 0.795231
0.039967 -0.107449 0.047757 -0.000689 -0.938682 0.337918
1.092967 0.108014 -0.046465 -0.000333 0.896903 -0.437517
0.856647 0.083692 -0.082593 -0.000122 0.635732 -0.768871
-1.231166 -0.117584 0.000000 -0.001675 -0.996424 -0.042625
1.412347 -0.150460 -0.164692 -0.009258 0.716479 -0.697547
-0.715351 -0.102166 -0.058207 0.000056 -0.833091 -0.548837
0.205969 -0.310237 -0.324683 0.057096 -0.730053 0.681001
-0.524279 0.050355 0.106256 0.000373 0.506186 0.859816
0.188550 -0.121983 0.141651 0.066328 0.729636 0.680611
0.770125 -0.098915 0.063576 -0.000407 -0.864607 0.497876
-1.134322 -0.109558 0.042697 -0.000696 -0.891542 0.447695
-1.470443 0.080458 0.083049 -0.190626 0.674590 0.706791
1.331148 -0.071277 -0.070265 -0.009258 -0.745617 0.666310
0.230131 -0.258916 0.271691 0.057096 -0.730053 -0.681001
1.551296 -0.172915 -0.185370 0.023208 -0.729810 0.683255
-1.298421 -0.028027 -0.114195 0.000225 -0.290133 -0.954653
0.029556 -0.249177 0.283425 -0.076922 0.690714 0.719025
0.120407 0.082415 0.083867 0.000037 0.715715 0.694988
-0.068274 -0.253484 0.277096 -0.076922 0.690714 0.719025
0.202546 0.436860 0.477844 0.066328 -0.729636 0.680611
-1.044934 -0.103858 0.055132 0.001117 -0.858796 0.507553
-0.488050 -0.116335 -0.017093 0.002155 -0.975419 -0.208308
-0.571583 -0.104889 -0.053144 -0.000120 -0.843157 -0.533267
-0.333977 -0.021031 -0.115688 -0.001740 -0.210081 -0.975217
-1.191725 0.067461 0.096307 -0.000018 0.610221 0.789197
-0.407303 0.031418 -0.113309 0.000119 0.357924 -0.931354
0.857049 -0.056237 -0.103264 -0.000217 -0.429368 -0.900267
0.245909 -0.468882 -0.498104 0.057096 -0.730053 0.681001
-0.163477 -0.019929 0.115883 -0.003146 -0.196823 0.978014
-0.358623 -0.103327 -0.056121 0.000272 -0.847966 -0.525896
0.708552 -0.115698 0.020978 -0.002448 -0.960915 0.264924
0.529836 -0.073502 -0.091779 0.000192 -0.585798 -0.807519
1.540113 0.075356 0.080784 0.023208 -0.732286 0.680602
-0.820428 -0.115900 -0.019829 0.002268 -0.976272 -0.204777
0.203453 0.078461 -0.087578 0.000065 0.628986 -0.774259
0.030048 0.115753 -0.020671 0.000522 0.974091 -0.212897
1.242249 -0.138933 -0.147208 -0.009258 -0.745617 0.666310
-0.446680 0.035037 -0.112243 -0.001115 0.383184 -0.921277
-1.488573 -0.046948 -0.102157 -0.224760 -0.298227 -0.922596
0.161671 -0.327709 -0.339700 0.057096 -0.730053 0.681001
0.542099 0.040381 0.110433 -0.000522 0.393416 0.916524
-0.007823 -0.023238 0.115265 0.002459 -0.186761 0.980694
0.509689 0.044673 -0.108767 0.001106 0.414646 -0.907004
0.264378 -0.477381 0.508763 0.057096 -0.730053 -0.681001
-0.857995 -0.099348 -0.062897 0.000150 -0.827168 -0.557769
0.154337 0.022831 0.115346 -0.001802 0.242699 0.967388
0.070248 -0.040151 -0.110516 0.000053 -0.376585 -0.923701
-0.637347 -0.093571 -0.071207 0.000151 -0.811612 -0.580081
0.148440 0.140266 -0.165159 0.066328 -0.729636 -0.680611
0.300205 0.350880 0.376154 0.057096 0.730053 -0.681001
0.115744 0.307165 -0.313825 0.057096 0.730053 0.681001
1.364250 -0.161034 0.174915 -0.009258 0.716479 0.697547
1.212959 -0.098631 -0.102516 -0.009258 -0.745617 0.666310
-0.086797 0.124244 0.150964 -0.076922 -0.690714 0.719025
-0.262114 0.097569 -0.065622 0.000036 0.792206 -0.606585
0.261396 -0.365921 0.389024 0.057096 -0.730053 -0.681001
-1.469178 -0.094848 0.066445 -0.179278 -0.807493 0.554876
0.061932 -0.036512 0.111771 0.000313 -0.331318 0.940999
0.035008 0.094319 0.126958 0.066328 -0.729636 0.680611
-0.944731 -0.116579 0.015338 0.000566 -0.973957 0.217843
-0.550522 -0.117584 0.000000 0.000012 -0.987705 -0.133105
-0.038683 0.229068 -0.256808 -0.076922 -0.690714 -0.719025
0.431533 -0.074149 -0.091257 -0.000152 -0.586292 -0.807238
1.328372 -0.140617 -0.153468 -0.009258 0.716479 -0.697547
-0.024841 -0.088545 0.123298 -0.076922 0.690714 0.719025
0.430408 -0.000000 0.117584 0.000069 0.039697 0.997628
-1.304696 -0.114220 0.027925 0.001087 -0.954229 0.291330
0.319655 0.013421 0.116816 -0.000423 0.205551 0.976680
0.126699 -0.232573 -0.234778 0.057096 -0.730053 0.681001
1.419755 -0.102718 -0.057228 -0.001774 -0.917003 -0.392017
-0.057598 -0.084772 0.081484 0.000013 -0.767736 0.637031
-1.059214 -0.104187 -0.054507 0.000707 -0.897855 -0.434803
-1.059449 0.027378 0.114352 0.000155 0.327396 0.942640
-1.192565 -0.092538 0.072544 -0.000004 -0.751928 0.655643
0.265903 -0.273010 -0.289799 0.057096 -0.730053 0.681001
0.193642 -0.389281 0.408386 0.057096 -0.730053 -0.681001
-0.250237 0.117584 -0.000000 0.000367 0.991254 -0.101787
0.006458 0.154507 0.190011 -0.076922 -0.690714 0.719025
0.006458 -0.154507 -0.190011 -0.076922 0.690714 -0.719025
-0.203342 -0.141784 -0.155345 -0.076922 0.690714 -0.719025
0.261772 0.365571 -0.388682 0.057096 0.730053 0.681001
1.153991 0.070078 -0.071384 -0.009258 0.745617 0.666310
-0.541179 0.103202 0.056349 0.000728 0.907989 0.412951
0.155812 0.193379 -0.221380 0.066328 -0.729636 -0.680611
1.361117 0.178279 -0.192587 -0.009258 -0.716479 -0.697547
-1.378464 0.059201 -0.101594 -0.000450 0.539312 -0.839325
-1.010958 0.000000 -0.117584 0.003097 0.132843 -0.986484
1.291780 -0.071011 0.070513 -0.009258 -0.745617 -0.666310
0.056240 -0.096072 -0.126767 0.066328 0.729636 -0.680611
1.292237 -0.101207 -0.112508 -0.009258 0.716479 -0.697547
0.227091 -0.266405 -0.292720 0.066328 0.729636 -0.680611
-0.126301 0.112446 -0.034379 0.000205 0.921534 -0.382075
-0.996821 -0.045218 0.108542 0.000966 -0.433648 0.898341
0.325500 0.059832 -0.101223 0.000452 0.423676 -0.903306
1.139067 0.113821 0.029508 -0.003556 0.956660 0.282251
0.006942 -0.218072 0.217137 -0.066254 -0.760929 -0.645443
-0.219169 -0.103882 0.117242 -0.076922 0.690714 0.719025
-1.476631 0.113684 0.015143 -0.186917 0.958344 0.200167
-0.991852 -0.089652 0.076082 0.001515 -0.714569 0.696154
0.026191 0.104807 -0.089382 0.057096 0.730053 0.681001
0.245538 -0.156684 0.163387 0.057096 -0.730053 -0.681001
0.260917 -0.198371 0.209365 0.057096 -0.730053 -0.681001
0.836276 0.044600 0.108797 -0.000835 0.323145 0.942916
0.962729 -0.039930 -0.110596 -0.000651 -0.284249 -0.955830
-0.298763 -0.080206 -0.085983 -0.000000 0.682113 0.731246
-0.049881 0.145776 -0.175597 -0.076922 -0.690714 -0.719025
0.009045 0.227298 0.227798 -0.066254 0.760929 -0.645443
1.510122 0.141793 0.153289 0.023208 -0.732286 0.680602
0.031882 0.237321 -0.272285 -0.076922 -0.690714 -0.719025
-0.043367 -0.167032 0.196713 -0.076922 0.690714 0.719025
1.379662 -0.115418 -0.022463 0.001494 -0.966347 -0.243055
0.214170 0.335489 0.368039 0.066328 -0.729636 0.680611
0.325054 0.074328 0.091112 0.000374 0.599618 0.797221
0.920038 0.056637 0.103045 0.001819 0.491295 0.868930
-0.300317 0.099185 -0.063153 -0.000578 0.824154 -0.562349
-1.384212 0.113644 0.030182 -0.000081 0.951212 0.301385
-0.250237 -0.000000 0.117584 0.002399 0.032779 0.998366
-0.971846 0.090596 0.074955 0.000151 0.798877 0.596000
0.679618 -0.021913 -0.115524 0.000335 -0.236915 -0.968152
1.415190 0.116502 0.015915 0.000428 0.981738 0.178852
-0.252015 -0.125098 0.134109 -0.076922 0.690714 0.719025
0.503338 -0.044225 0.108950 0.001110 -0.280555 0.957597
0.197326 0.160295 -0.181867 0.066328 -0.729636 -0.680611
-0.641977 -0.019407 -0.115971 -0.002144 -0.266167 -0.960932
0.163277 0.131180 0.129149 0.057096 0.730053 -0.681001
0.035474 -0.193531 -0.185276 0.015973 -0.741432 0.670115
1.094939 -0.066745 0.074492 -0.009258 0.716479 0.697547
-0.603341 0.116673 -0.014606 0.001888 0.981230 -0.181469
-1.401724 -0.078433 0.087603 -0.000035 -0.702026 0.708816
1.536918 -0.000000 0.102051 0.188196 0.106800 0.972963
0.796993 0.077773 0.088189 0.000705 0.612282 0.787117
0.208323 0.011495 0.117021 -0.000660 0.164939 0.984293
-1.034710 0.111550 0.037184 -0.000570 0.960801 0.267033
1.340620 0.204876 -0.219633 -0.009258 0.745617 0.666310
0.158444 0.464123 -0.503696 -0.076922 -0.690714 -0.719025
0.422711 0.059610 -0.101354 0.000436 0.543939 -0.836371
-0.929840 0.090063 0.075595 -0.000288 0.734064 0.675669
-0.524279 -0.050355 0.106256 0.000373 -0.506186 0.859816
0.624173 0.018638 0.116097 -0.000541 0.243485 0.967549
1.394139 -0.209637 -0.224218 -0.009258 -0.745617 0.666310
0.151599 0.438628 -0.462307 -0.066254 0.760929 0.645443
-0.018816 -0.151304 -0.141066 -0.066254 -0.760929 0.645443
-0.014907 0.127243 0.112299 -0.066254 0.760929 -0.645443
1.525502 0.259541 -0.278236 -0.004929 0.743557 0.668612
-1.411337 -0.117584 0.000000 0.000161 -0.990995 -0.111182
-1.134322 0.109558 0.042697 -0.000696 0.891542 0.447695
0.096403 -0.157936 -0.189173 0.066328 0.729636 -0.680611
1.213043 -0.065945 -0.075238 -0.009258 0.716479 -0.697547
0.184860 0.259806 0.289761 0.066328 -0.729636 0.680611
-0.994313 0.113884 0.029266 -0.000518 0.976525 0.206645
-0.113402 -0.022275 0.115455 -0.000274 -0.208299 0.975698
0.104813 0.283088 0.287097 0.057096 0.730053 -0.681001
-0.035421 0.118351 0.150798 -0.076922 -0.690714 0.719025
0.152303 -0.213228 0.243000 0.066328 0.729636 0.680611
0.094215 0.327384 0.337049 -0.066254 0.760929 -0.645443
0.024267 -0.344091 -0.363925 -0.066254 -0.760929 0.645443
-0.808305 -0.054204 0.104345 -0.000657 -0.428743 0.900023
1.241225 0.017262 -0.116310 0.000157 0.096577 -0.992967
-0.101397 0.113499 0.104974 -0.066254 0.760929 -0.645443
0.077874 0.210918 0.247778 0.066328 -0.729636 0.680611
0.127332 0.208915 0.209470 0.057096 0.730053 -0.681001
-0.585691 -0.059244 -0.101568 -0.000086 -0.443986 -0.893126
-1.535756 0.066732 -0.071064 -0.346593 0.602048 -0.714100
1.154002 0.116625 -0.014984 -0.000390 0.973027 -0.221684
-0.199013 0.052732 -0.105097 -0.000081 0.481595 -0.873660
-0.708675 0.113682 0.030040 -0.000445 0.936030 0.345481
-0.803708 0.036311 0.111837 -0.000508 0.365188 0.928097
0.126978 0.138765 0.134237 0.057096 0.730053 -0.681001
-0.810768 0.117584 -0.000000 -0.000379 0.990046 -0.117874
0.262269 0.471962 -0.502777 0.057096 0.730053 0.681001
-0.377208 0.104027 -0.054812 0.000973 0.837071 -0.543291
-0.019386 -0.116828 0.013309 -0.002129 -0.981120 0.183869
1.503688 0.213402 0.230555 0.001565 -0.721844 0.691990
0.110104 0.000000 -0.117584 -0.001570 0.109389 -0.990957
0.162806 -0.251352 -0.282847 0.066328 0.729636 -0.680611
0.300205 0.242610 -0.260085 0.066328 -0.729636 -0.680611
0.650363 -0.111676 -0.036804 0.000127 -0.912935 -0.402271
0.073987 -0.301665 0.308804 -0.066254 -0.760929 -0.645443
-0.257757 0.011014 -0.117067 0.004278 0.172338 -0.983404
-0.065721 -0.106690 0.049430 0.001199 -0.940312 0.333319
0.215442 -0.057273 0.102693 -0.001172 -0.477337 0.876143
-0.086324 -0.239794 -0.262014 -0.076922 0.690714 -0.719025
0.083164 -0.153894 -0.146782 0.057096 -0.730053 0.681001
1.131568 -0.036751 -0.111693 0.000214 -0.398391 -0.914702
0.039976 -0.171655 0.162201 0.057096 -0.730053 -0.681001
0.214346 0.505596 0.534816 -0.025144 0.751724 -0.658262
1.248178 -0.177543 -0.190331 -0.009258 0.716479 -0.697547
0.196993 -0.171650 0.194073 0.066328 0.729636 0.680611
-0.011677 0.088323 -0.077621 -0.000762 0.711034 -0.699852
0.008906 -0.105505 -0.051910 0.000048 -0.871566 -0.485588
1.131923 0.107668 -0.047260 -0.000465 0.933430 -0.352708
-0.631637 -0.106603 0.049617 0.000015 -0.860766 0.504334
-0.001775 0.198331 -0.194758 -0.066254 0.760929 0.645443
1.047062 0.083845 -0.091421 -0.009258 -0.716479 -0.697547
0.221236 -0.139409 -0.142830 0.057096 -0.730053 0.681001
-0.967662 0.036455 0.111790 -0.000890 0.256339 0.964293
-0.418145 -0.116176 -0.018139 -0.000835 -0.977920 -0.194616
0.402506 -0.028375 -0.114109 0.000731 -0.333847 -0.940431
0.051427 -0.395912 0.422231 -0.066254 -0.760929 -0.645443
1.444062 0.069828 0.071617 0.000000 -0.682113 -0.731246
-0.486467 -0.037346 -0.111496 -0.000272 -0.263644 -0.961718
0.917781 -0.067945 -0.073373 -0.009258 0.716479 -0.697547
-1.546293 0.029867 0.087769 -0.404116 0.366752 0.832934
-1.262497 0.115046 0.024300 0.000112 0.964052 0.252229
0.674567 -0.029622 0.113792 -0.000846 -0.214950 0.974573
0.570541 0.000000 -0.117584 -0.000368 0.063262 -0.993942
0.169032 0.100603 -0.096852 0.057096 0.730053 0.681001
-0.038461 0.232431 0.238725 -0.066254 0.760929 -0.645443
-0.162173 -0.116183 0.018098 0.000698 -0.972296 0.220828
-1.131072 -0.000000 0.117584 -0.001911 0.050750 0.996112
1.421406 -0.196038 0.208620 -0.009258 -0.745617 -0.666310
0.610578 -0.117584 -0.000000 0.000235 -0.991318 -0.109436
1.444062 0.069828 -0.071617 0.023208 0.729810 0.683255
-0.054252 0.018389 -0.116137 -0.001399 0.210491 -0.974835
0.111168 -0.278892 -0.317403 0.066328 0.729636 -0.680611
-1.201661 -0.018643 -0.116097 -0.002930 -0.196702 -0.977982
0.245605 0.049034 0.106872 0.001069 0.336639 0.939479
-0.210199 0.117584 -0.000000 0.001981 0.989504 -0.118535
0.977861 0.115467 0.022213 -0.001364 0.977677 0.199996
-0.190829 -0.154706 0.169097 -0.076922 0.690714 0.719025
0.049784 0.218496 0.213239 -0.021024 0.750671 -0.659431
0.890844 -0.000000 0.117584 -0.000009 0.119503 0.989173
0.858097 0.020659 -0.115755 -0.000099 0.229053 -0.970230
0.051116 0.364806 0.396808 -0.076922 -0.690714 0.719025
-0.170161 0.000000 -0.117584 -0.001699 0.095939 -0.993046
1.083875 -0.113291 -0.031481 -0.000419 -0.948327 -0.310508
-0.430408 -0.000000 0.117584 -0.004097 0.099306 0.992463
0.065058 -0.131627 0.121393 0.057096 -0.730053 -0.681001
0.065058 0.131627 -0.121393 0.057096 0.730053 0.681001
0.077874 0.210918 -0.247778 0.066328 -0.729636 -0.680611
0.313547 0.096906 -0.066598 0.000254 0.764027 -0.641558
1.322132 -0.199409 -0.213773 -0.009258 0.716479 -0.697547
0.209508 0.463275 -0.505484 0.066328 -0.729636 -0.680611
0.048743 0.157092 -0.192913 0.066328 -0.729636 -0.680611
-0.771619 -0.013535 -0.116802 0.000593 -0.148727 -0.987041
0.664528 0.105979 0.050935 0.000572 0.878496 0.472974
0.225261 0.211342 -0.220282 0.057096 0.730053 0.681001
-1.064959 -0.084226 0.082048 0.000346 -0.745880 0.662700
0.320439 0.116261 -0.017588 -0.000005 0.977056 -0.201210
-1.163004 -0.014473 -0.116690 -0.000796 -0.210163 -0.975679
0.300205 0.215543 -0.231068 0.066328 -0.729636 -0.680611
-0.020837 0.269679 -0.297729 -0.076922 -0.690714 -0.719025
0.746194 0.062083 0.099858 0.000827 0.476933 0.876115
-0.068710 0.170634 0.197462 -0.076922 -0.690714 0.719025
0.096403 0.157936 0.189173 0.066328 -0.729636 0.680611
1.254821 -0.149147 0.161253 -0.009258 0.716479 0.697547
1.468414 0.182002 0.192261 0.001565 0.740446 -0.672048
-0.620219 -0.020299 0.115819 0.002148 -0.254401 0.963989
1.443645 0.133718 0.139846 0.023208 0.729810 -0.683255
0.569683 -0.112010 -0.035774 0.000017 -0.934045 -0.350446
1.403633 0.137854 -0.143759 -0.009258 0.745617 0.666310
0.211556 -0.204181 0.211456 0.057096 -0.730053 -0.681001
0.104883 0.081727 -0.084538 -0.001228 0.717668 -0.692996
1.536918 0.038968 0.058174 1.000000 -0.000000 0.000000
1.240405 0.083008 0.084652 -0.009258 0.745617 -0.666310
0.190473 -0.501378 0.532293 -0.066254 -0.760929 -0.645443
0.080360 -0.190338 0.185616 0.057096 -0.730053 -0.681001
-0.394784 -0.103503 -0.055795 0.001186 -0.902481 -0.425052
-0.865793 0.115902 0.019814 -0.001124 0.970859 0.230132
0.041079 0.324235 -0.338790 -0.066254 0.760929 0.645443
-0.554785 -0.018943 -0.116048 -0.001876 -0.201806 -0.976922
-1.288862 0.044691 -0.108760 -0.000043 0.467108 -0.881504
-0.637939 0.053511 -0.104703 0.000007 0.510474 -0.857113
-1.119427 -0.081427 -0.084827 -0.000231 -0.708681 -0.702129
0.058856 -0.322439 -0.356937 -0.076922 0.690714 -0.719025
1.111053 -0.000000 0.117584 0.000747 0.104598 0.991741
1.459376 -0.115465 0.126692 0.023208 0.732286 0.680602
1.319887 -0.115535 0.021855 0.001035 -0.952518 0.293241
0.699253 0.104647 -0.053619 0.000247 0.866155 -0.494975
-0.174931 0.078964 -0.087125 -0.000030 0.697501 -0.713226
0.520039 0.116022 -0.019102 -0.000012 0.964189 -0.255587
-0.368172 0.110923 0.039014 0.000631 0.916155 0.394288
0.019405 -0.181283 0.217118 -0.076922 0.690714 0.719025
0.164585 -0.479892 -0.519502 -0.076922 0.690714 -0.719025
-0.435733 0.086574 -0.079568 -0.001459 0.681119 -0.730284
-0.078230 0.267112 0.289122 -0.076922 -0.690714 0.719025
1.342422 0.170727 0.184581 -0.009258 -0.716479 0.697547
0.027615 -0.371176 -0.395512 -0.066254 -0.760929 0.645443
-0.747061 -0.116097 -0.018639 0.002469 -0.974238 -0.213443
0.310294 -0.117584 -0.000000 0.000177 -0.996173 -0.052708
0.260389 0.321057 0.348063 0.066328 -0.729636 0.680611
0.053295 0.120705 -0.153462 0.066328 -0.729636 -0.680611
0.222097 -0.308487 0.338319 0.066328 0.729636 0.680611
-0.378474 0.019197 0.116006 0.001783 0.247010 0.965981
0.278701 -0.127297 0.138561 0.066328 0.729636 0.680611
1.022519 -0.112691 -0.033566 0.000519 -0.969598 -0.235181
1.346844 0.133173 -0.146067 -0.009258 -0.716479 -0.697547
0.167785 -0.395798 -0.413205 0.057096 -0.730053 0.681001
-1.526916 -0.035324 0.094686 -0.412049 -0.332403 0.842459
1.517131 0.071910 -0.076322 0.023208 0.729810 0.683255
-0.554455 -0.012650 0.116902 0.001945 -0.171898 0.983706
-1.476640 -0.113683 -0.015143 -0.186581 -0.958621 -0.199535
-0.033145 0.209360 -0.210980 -0.066254 0.760929 0.645443
0.171210 0.241665 -0.248257 0.057096 0.730053 0.681001
0.739265 -0.021364 -0.115627 0.000070 -0.235215 -0.968560
0.620435 0.115953 -0.019519 0.000021 0.974785 -0.211463
0.798614 0.020887 -0.115714 -0.000470 0.230788 -0.969759
-0.441490 -0.112328 0.034762 -0.000454 -0.947537 0.312603
1.321551 0.084304 -0.084975 -0.009258 0.745617 0.666310
1.465782 0.153297 -0.167178 0.023208 -0.732286 -0.680602
1.287906 0.087220 0.098084 -0.009258 -0.716479 0.697547
0.184455 0.375079 0.392391 0.057096 0.730053 -0.681001
0.077472 0.117966 0.107789 0.057096 0.730053 -0.681001
0.201631 0.409152 -0.430358 0.057096 0.730053 0.681001
0.365807 -0.044768 0.108728 -0.000523 -0.428633 0.900732
1.488518 -0.180147 0.190963 0.023208 -0.729810 -0.683255
0.230752 0.098523 -0.099797 0.057096 0.730053 0.681001
-1.063639 0.020602 -0.115765 0.001092 0.279206 -0.956755
0.164467 -0.151796 -0.151350 0.057096 -0.730053 0.681001
-0.792496 0.108565 0.045161 -0.002248 0.928429 0.364515
1.541710 -0.089293 -0.095725 0.023208 -0.729810 0.683255
-1.041695 -0.017695 -0.116245 -0.000405 -0.211540 -0.974448
1.224688 0.136773 -0.148144 -0.009258 -0.716479 -0.697547
0.109208 0.174298 -0.170839 0.057096 0.730053 0.681001
0.259817 0.019501 -0.115956 -0.003669 0.101085 -0.992135
0.265155 -0.261115 0.276985 0.057096 -0.730053 -0.681001
-0.050970 -0.092380 -0.072746 0.000390 -0.807579 -0.585099
1.503696 0.017735 0.106618 0.178720 0.190840 0.962897
-0.031780 0.106225 0.089252 -0.066254 0.760929 -0.645443
1.238372 -0.113595 -0.030366 -0.000064 -0.974705 -0.214455
0.150897 -0.113883 -0.136637 0.066328 0.729636 -0.680611
1.086314 -0.097118 0.102583 -0.009258 -0.745617 -0.666310
-0.035431 0.118350 -0.150797 -0.076922 -0.690714 -0.719025
0.629259 0.041191 -0.110133 -0.000268 0.398195 -0.914149
1.411732 -0.151387 0.158789 -0.009258 -0.745617 -0.666310
1.193178 0.099238 0.103471 -0.009258 0.745617 -0.666310
0.119097 -0.071402 -0.094195 0.000000 0.682113 0.731246
0.129806 0.035182 -0.112197 0.000139 0.389023 -0.918674
1.451549 -0.237675 -0.254795 -0.009258 0.716479 -0.697547
0.142797 -0.380770 0.395000 0.015973 -0.741432 -0.670115
0.276940 -0.089803 0.075905 -0.000190 -0.796037 0.601438
-1.107939 0.035862 0.111982 -0.002823 0.375859 0.923543
0.233311 0.149905 -0.155094 0.057096 0.730053 0.681001
-1.331483 -0.034200 0.112500 0.000125 -0.336492 0.939138
-0.479427 -0.115877 0.019960 0.001086 -0.976267 0.204627
-0.076248 -0.110874 0.139248 -0.076922 0.690714 0.719025
-0.669096 0.112322 -0.034782 0.000416 0.943618 -0.323712
0.284509 0.302985 -0.323493 0.057096 0.730053 0.681001
0.100479 -0.268366 0.270951 0.057096 -0.730053 -0.681001
0.197905 0.013891 -0.116761 0.000999 0.177365 -0.981848
0.463578 -0.103993 0.054877 0.000500 -0.837512 0.542581
-1.231166 -0.000000 0.117584 0.000203 0.106205 0.991486
0.040165 0.405675 -0.434895 -0.066254 0.760929 0.645443
-0.005974 -0.323342 -0.350869 -0.076922 0.690714 -0.719025
0.770730 -0.117584 -0.000000 0.000523 -0.995429 -0.060456
0.257692 0.115865 -0.020033 -0.001144 0.960153 -0.269148
0.278932 0.436553 -0.470071 0.066328 -0.729636 -0.680611
1.232188 -0.095547 0.098798 -0.009258 -0.745617 -0.666310
-1.301199 -0.116174 -0.018156 0.000036 -0.966203 -0.248097
1.388884 0.107978 0.046549 -0.000126 0.896940 0.436785
0.079118 -0.111436 -0.037524 0.000143 -0.960035 -0.269533
0.270155 0.104528 -0.114986 0.066328 -0.729636 -0.680611
1.156555 0.132227 0.142569 -0.009258 -0.716479 0.697547
1.358258 0.115456 -0.022269 0.003688 0.960651 -0.265733
0.758258 -0.057546 -0.102540 -0.000113 -0.437877 -0.895994
0.064094 0.243462 -0.241202 -0.022201 0.750976 0.659101
0.807338 -0.040462 -0.110403 -0.000118 -0.284718 -0.955310
-0.899149 0.077944 0.088038 0.000312 0.623323 0.778981
0.156296 0.179142 0.179980 0.057096 0.730053 -0.681001
0.569683 0.112010 -0.035774 0.000017 0.934045 -0.350446
0.518978 -0.101472 0.059408 0.000708 -0.805482 0.588613
1.222381 0.084322 -0.086373 -0.009258 0.745617 0.666310
0.129871 -0.101567 0.094602 0.057096 -0.730053 -0.681001
0.439250 0.086578 0.079562 -0.000073 0.700785 0.710097
0.048743 -0.157092 -0.192913 0.066328 0.729636 -0.680611
0.265792 -0.307797 0.327082 0.057096 -0.730053 -0.681001
0.041415 0.262921 -0.297896 -0.076922 -0.690714 -0.719025
0.750711 0.117584 -0.000000 0.000275 0.990868 -0.112756
0.909323 0.112525 0.034120 0.001824 0.964620 0.253617
1.471610 0.110745 -0.026662 0.175676 0.958673 -0.214608
1.429046 -0.097973 0.101169 0.023208 -0.729810 -0.683255
0.072098 0.414433 0.446726 -0.076922 -0.690714 0.719025
0.075226 -0.439344 0.470990 -0.076922 0.690714 0.719025
-0.378369 0.115744 -0.020719 0.000595 0.956306 -0.281684
0.075226 0.439344 -0.470990 -0.066254 0.760929 0.645443
0.629952 -0.096458 -0.067245 -0.000243 -0.845234 -0.529905
0.247066 -0.190889 -0.209817 0.066328 0.729636 -0.680611
0.264360 0.255255 -0.277135 0.066328 -0.729636 -0.680611
-1.035674 0.071937 0.093011 -0.000834 0.646095 0.760669
0.449939 -0.096649 -0.066970 0.000429 -0.761210 -0.644948
-1.350246 -0.096502 -0.067181 0.000004 -0.759535 -0.646807
0.089987 0.329121 -0.339531 -0.066254 0.760929 0.645443
0.279634 0.342737 -0.369429 0.066328 -0.729636 -0.680611
-0.091495 0.122465 -0.148752 -0.076922 -0.690714 -0.719025
-1.055251 -0.055056 -0.103898 -0.000026 -0.524395 -0.848716
0.767442 -0.031720 0.113225 0.000478 -0.223771 0.972623
-1.171862 -0.068093 0.095861 -0.000520 -0.613043 0.787068
1.331261 0.000000 -0.117584 0.000653 0.050593 -0.996138
1.208331 -0.109365 0.043190 0.000591 -0.908207 0.412639
0.017866 0.115762 0.020622 -0.000763 0.957308 0.277535
-0.512427 -0.099120 -0.063254 0.000027 -0.803375 -0.591424
-1.261988 0.079909 0.086258 0.000022 0.745943 0.662437
-0.118649 -0.105737 -0.051437 0.000031 -0.880215 -0.469519
1.323646 -0.036121 0.111898 -0.000143 -0.355774 0.931994
-0.982917 -0.116741 0.014056 0.000741 -0.994944 0.076849
-0.277491 -0.106363 0.050129 -0.000592 -0.931887 0.356162
-0.103743 -0.111282 0.037979 0.001083 -0.965342 0.251253
0.830787 0.117584 -0.000000 -0.003732 0.998444 -0.027807
-1.280815 -0.106110 -0.050663 -0.000004 -0.878862 -0.472061
-0.209388 -0.051911 0.105505 0.000042 -0.505815 0.859863
-0.205669 0.103559 0.055691 0.000163 0.868680 0.490388
-0.577847 0.062477 0.099612 -0.000300 0.588119 0.805912
-0.205765 0.033669 0.112660 0.000488 0.353178 0.932826
-0.522043 -0.100352 0.061281 -0.000558 -0.841299 0.536313
-0.826947 -0.071541 -0.093316 -0.000099 -0.630930 -0.772734
0.267372 -0.111633 -0.036934 -0.000524 -0.927792 -0.366334
1.067723 -0.091067 -0.096070 -0.009258 -0.745617 0.666310
0.193152 -0.114949 0.024753 0.000747 -0.970885 0.228665
-0.007768 -0.047138 -0.107722 0.000043 -0.485274 -0.871657
-0.362347 0.084876 -0.081376 -0.000286 0.673834 -0.736091
-0.082997 -0.083683 -0.082602 0.000221 -0.665864 -0.742838
1.271204 0.000000 -0.117584 0.000003 0.048674 -0.996427
-0.222284 0.094904 -0.069420 0.000477 0.825927 -0.559566
-0.190265 -0.102064 -0.058386 -0.000273 -0.884141 -0.461880
-0.122731 0.113136 0.032035 -0.002153 0.957387 0.277103
0.959180 0.113652 -0.030155 0.000164 0.949853 -0.305695
-1.261211 0.116319 -0.017203 -0.000511 0.992820 -0.092695
-0.905790 0.039783 -0.110649 -0.000242 0.364611 -0.928539
1.180782 -0.020112 0.115851 0.000582 -0.212657 0.974497
-0.270302 0.045335 -0.108493 0.000822 0.418692 -0.905356
1.508832 -0.100569 0.036974 0.178495 -0.882325 0.429362
-0.404699 -0.062861 0.099371 -0.000165 -0.518918 0.852050
0.077289 -0.165130 0.158335 0.057096 -0.730053 -0.681001
-0.748774 -0.057852 -0.102368 -0.000070 -0.517955 -0.852633
0.399310 -0.087218 0.078861 -0.000198 -0.801027 0.594711
1.140296 -0.051738 0.105590 0.000056 -0.482167 0.873353
1.080841 -0.017795 0.116230 0.000125 -0.198097 0.977701
1.281039 -0.050115 -0.106369 -0.000002 -0.380323 -0.922270
1.256608 0.102677 0.057300 0.001841 0.843363 0.532804
-0.147400 -0.062218 -0.099775 -0.000050 -0.559781 -0.825744
-0.929576 0.098388 -0.064388 -0.000067 0.779321 -0.622832
-1.322316 0.100856 0.060448 0.000000 0.828986 0.554986
1.019756 0.100637 0.060812 0.000311 0.898736 0.433067
0.084413 0.250157 0.250083 0.057096 0.730053 -0.681001
1.470038 0.243142 -0.260655 -0.009258 0.745617 0.666310
0.448888 -0.073694 0.091625 -0.000063 -0.588084 0.805859
-1.123108 -0.082361 0.083921 0.000192 -0.659483 0.748555
-0.668864 0.067612 0.096201 0.000064 0.552924 0.830352
1.394033 -0.048606 0.107068 0.000081 -0.498596 0.864110
1.431351 -0.036120 -0.111899 -0.000334 -0.352882 -0.933195
1.502312 -0.039524 -0.100867 0.178460 -0.266786 -0.943588
-0.910938 -0.034170 0.112509 0.000681 -0.332920 0.940419
0.510102 -0.096940 -0.066547 -0.000180 -0.849173 -0.523597
-0.341240 -0.088514 0.077403 0.000212 -0.737578 0.671893
0.219794 0.102317 -0.057941 0.000069 0.848542 -0.524607
0.890844 0.117584 -0.000000 -0.001646 0.997994 -0.036522
-1.252739 -0.109083 0.043897 -0.000202 -0.908539 0.411394
0.149459 0.099579 0.062531 0.000022 0.856426 0.511628
-1.361338 -0.017262 0.116310 0.000105 -0.097556 0.992824
0.081606 0.090483 0.075092 0.000044 0.754100 0.653110
-1.291055 0.112316 -0.034802 0.000125 0.919750 -0.386330
0.106591 -0.112401 0.034526 -0.000038 -0.923230 0.377678
-1.279403 -0.060309 -0.100940 0.000008 -0.554467 -0.829332
-0.133714 0.099923 0.061979 -0.000413 0.884700 0.460733
0.469888 0.097043 -0.066398 0.000327 0.792123 -0.606519
0.114833 -0.038553 0.111084 -0.000211 -0.390728 0.917788
-1.231116 -0.036043 0.111924 0.000039 -0.396652 0.915374
-1.088162 0.116551 -0.015551 0.001249 0.972567 -0.223475
1.399664 0.198448 0.211620 -0.009258 0.745617 -0.666310
1.502312 0.039524 -0.100867 0.178460 0.266786 -0.943588
0.147033 -0.458228 0.496813 -0.076922 0.690714 0.719025
1.388884 -0.107978 0.046549 -0.000126 -0.896940 0.436785
0.985372 -0.102417 0.057764 0.000556 -0.859463 0.506427
1.419833 0.102714 -0.057235 -0.001713 0.917047 -0.391880
-1.008666 0.075100 -0.090476 0.000019 0.561540 -0.824562
-1.401724 0.078433 0.087603 -0.000035 0.702026 0.708816
-0.110403 0.084108 0.082170 0.000010 0.728060 0.682042
-0.001775 0.179069 0.212725 -0.076922 -0.690714 0.719025
-1.362248 0.100638 0.060812 -0.000026 0.827789 0.556776
-0.258561 0.103492 0.055815 0.000080 0.868771 0.490367
-0.611001 -0.054710 0.104081 -0.000027 -0.545245 0.835437
-0.452952 0.044768 0.108728 -0.000046 0.362975 0.929262
-0.412121 -0.074917 -0.090628 -0.000060 -0.564539 -0.822890
-0.746029 -0.083464 0.082824 0.000014 -0.755432 0.651572
0.370351 -0.117584 -0.000000 -0.000171 -0.991157 -0.110134
0.949236 -0.099819 0.062147 0.000253 -0.802632 0.592429
-1.581248 0.000000 -0.072410 -0.591026 0.061696 -0.798595
-0.350332 -0.117584 0.000000 -0.005804 -0.991861 -0.101756
-0.599129 0.018430 0.116131 -0.001880 0.188554 0.979786
0.780554 0.107060 0.048623 0.000008 0.926448 0.370048
1.401695 -0.019143 -0.116015 0.000166 -0.206664 -0.975836
-0.734753 0.104218 -0.054447 -0.000109 0.852049 -0.518923
-0.167690 0.096165 0.067664 -0.000079 0.804960 0.589256
0.168724 0.529128 0.567242 -0.076922 -0.690714 0.719025
0.163044 0.058008 0.102279 -0.000013 0.570806 0.818177
-0.698305 0.097986 0.064998 0.000059 0.867581 0.492458
-0.793915 0.066098 0.097247 -0.000661 0.540284 0.838545
-0.770353 -0.098807 0.063743 0.000025 -0.783823 0.617128
-0.712455 -0.089558 0.076193 0.000042 -0.817290 0.572074
-0.531881 0.101504 -0.059355 0.000383 0.874251 -0.480572
0.829896 -0.110711 -0.039610 -0.000262 -0.921673 -0.381953
0.983123 0.066000 -0.097314 0.000635 0.531236 -0.845161
-0.036061 -0.065233 -0.097830 -0.000324 -0.582735 -0.809760
-0.663921 -0.072687 -0.092426 0.000062 -0.640679 -0.764718
0.860700 0.106419 0.050009 -0.000002 0.922178 0.380363
-0.746029 0.083464 0.082824 0.000014 0.755432 0.651572
-0.119736 0.043637 -0.109187 -0.000785 0.299171 -0.950683
0.725661 0.100802 0.060539 0.000731 0.795435 0.601273
1.371477 -0.035483 -0.112102 -0.000007 -0.348308 -0.934834
0.066264 0.109343 0.140018 0.066328 -0.729636 0.680611
-0.246457 -0.072887 -0.092269 0.000206 -0.647457 -0.758929
-0.780779 -0.090056 -0.075604 -0.000081 -0.720402 -0.690121
0.228238 0.157358 0.175706 0.066328 -0.729636 0.680611
-1.301880 -0.079317 0.086804 0.000009 -0.707281 0.703543
-1.451375 -0.090007 -0.075661 -0.079396 -0.811942 -0.572528
1.069131 0.108752 0.044710 -0.000008 0.902344 0.425442
0.293699 -0.062615 0.099526 -0.000700 -0.576624 0.814001
1.010804 0.033958 0.112574 -0.002008 0.197321 0.977885
1.010804 -0.033958 0.112574 -0.002008 -0.197321 0.977885
-1.360362 0.105228 -0.052470 -0.000017 0.845287 -0.529845
1.060515 0.050565 0.106156 0.000124 0.472060 0.878843
-0.654640 -0.078586 0.087466 -0.000032 -0.648023 0.758469
0.349316 -0.098115 0.064803 0.000050 -0.881965 0.466204
-1.391318 -0.000000 0.117584 0.000003 0.048674 0.996427
-0.321269 0.116054 0.018909 0.000421 0.980241 0.186583
-0.334640 -0.068813 -0.095345 -0.000792 -0.501969 -0.862217
-0.167690 -0.096165 0.067664 -0.000079 -0.804960 0.589256
1.417657 -0.099049 0.063367 -0.000126 -0.888048 0.454284
-0.748774 0.057852 -0.102368 -0.000070 0.517955 -0.852633
-0.397818 -0.099681 0.062367 0.000150 -0.792870 0.605478
0.619177 -0.058759 -0.101850 -0.000029 -0.447408 -0.891089
0.898097 0.068345 -0.073000 -0.009258 0.745617 0.666310
-1.561219 -0.028991 -0.079833 -0.522820 -0.306785 -0.789590
