1.157310 -0.073676 -0.053942 -0.000020 -0.724332 -0.683770
1.383567 -0.172353 -0.154941 -0.010909 -0.686445 0.727100
0.114251 0.302523 0.275701 0.119327 0.668769 -0.733832
1.528426 -0.122463 -0.105667 -0.010909 -0.686445 0.727100
-0.264952 -0.408581 -0.372356 -0.053153 -0.696809 0.715284
-0.956823 -0.088969 0.020551 0.000241 -0.952769 0.287174
0.590278 0.066566 -0.062505 -0.000702 0.699158 -0.709480
0.436554 0.046717 -0.078456 -0.000602 0.579842 -0.810129
-0.053474 -0.205030 0.198937 -0.000553 0.665819 0.745922
0.247837 0.060376 -0.068503 -0.001250 0.565494 -0.820478
0.114251 0.082180 0.074893 0.119327 0.668769 -0.733832
-0.200861 0.484380 0.441434 -0.053153 0.696809 -0.715284
-0.729908 0.082697 0.038718 0.000796 0.869123 0.487138
0.793542 0.058586 -0.070040 -0.001195 0.583322 -0.807773
-1.415705 0.073512 -0.054165 -0.000193 0.764307 -0.638870
1.353814 0.171282 0.154377 -0.010909 0.686445 -0.727100
-1.709523 0.064573 0.064562 -0.003355 0.618005 0.781002
1.255041 -0.105170 0.098172 -0.010909 0.660429 0.750809
-1.476765 0.053746 0.073819 0.002522 0.677652 0.729901
-0.117844 -0.088373 0.022979 0.001666 -0.944907 0.313192
-0.252633 -0.293354 -0.270803 -0.023591 0.662424 -0.748758
-1.635392 0.048757 0.077205 -0.000705 0.424434 0.901150
1.674815 0.319901 -0.290689 0.019770 0.677987 0.734808
-0.248171 0.112612 -0.082784 -0.053153 0.696809 0.715284
1.547957 0.051818 0.075185 0.000993 0.503274 0.859377
-0.138228 0.260956 0.219127 -0.053153 0.696809 -0.715284
1.412784 0.187937 -0.169216 -0.010909 0.686445 0.727100
-0.130308 -0.204894 0.196396 -0.023591 0.662424 0.748758
1.659683 0.279048 0.256007 0.019770 -0.668887 0.743101
1.057170 -0.089678 0.017196 0.000984 -0.987788 0.123851
0.343897 0.086992 0.027754 -0.001120 0.910936 0.405152
-0.382452 0.269618 0.245713 -0.053153 0.696809 -0.715284
1.743287 0.035938 -0.083827 0.004582 0.494645 -0.864336
-1.671642 -0.076779 0.049425 0.001504 -0.836916 0.539396
-0.368912 -0.082703 -0.038706 0.000395 -0.875168 -0.474920
-0.027384 0.323003 0.271334 0.061919 0.679883 -0.729525
-0.057202 0.210571 -0.164022 0.000303 0.689882 0.722880
1.491427 -0.087019 0.085640 -0.010909 0.660429 0.750809
1.327315 -0.082407 0.039333 -0.000299 -0.872925 0.479292
-0.260909 0.168118 -0.159745 -0.023591 -0.662424 -0.748758
1.638395 0.086483 -0.029301 -0.000597 0.936753 -0.333764
-0.201436 0.257114 -0.220081 -0.053153 0.696809 0.715284
-0.457224 0.181187 0.165123 -0.053153 0.696809 -0.715284
-1.862641 0.016045 0.051247 -0.485976 0.323862 0.804056
1.651870 -0.068483 -0.066679 -0.029420 0.738793 0.673290
-0.937488 0.089057 -0.020169 -0.000304 0.952983 -0.286318
1.306939 -0.082549 -0.039032 -0.000008 -0.874190 -0.476868
-0.137037 0.492957 -0.451033 -0.023591 -0.662424 -0.748758
1.136552 0.073744 -0.053850 -0.000495 0.766447 -0.636057
-0.009250 0.610139 0.558730 -0.023591 -0.662424 0.748758
-1.482706 -0.058944 -0.069739 0.000648 -0.609178 -0.788477
-0.466042 0.085947 0.072998 -0.053153 0.696809 -0.715284
-1.515410 0.048874 -0.077131 -0.000381 0.587809 -0.803992
-1.346396 -0.091312 0.000000 -0.004554 -0.981243 -0.160971
0.043477 -0.276497 -0.257082 0.053182 0.672628 -0.738067
-0.054680 0.422844 -0.391599 -0.023591 -0.662424 -0.748758
1.797348 0.089719 -0.014506 0.004915 0.965964 -0.244886
0.010073 0.082816 -0.038464 -0.000337 0.875458 -0.474629
-0.008747 0.077447 0.050580 -0.000000 -0.739113 -0.673582
-0.259306 -0.089713 -0.017017 -0.000070 -0.994096 -0.056166
-1.201626 -0.072670 -0.055290 0.000128 -0.742564 -0.664580
-0.588221 -0.064976 -0.064157 0.000049 -0.753491 -0.649974
1.545862 0.000000 -0.091312 0.000033 0.062655 -0.994059
0.560786 -0.089063 0.020140 0.002980 -0.957431 0.272615
-0.886758 0.082407 0.039333 -0.000299 0.872925 0.479292
-0.150269 0.032984 0.085147 -0.000272 0.420323 0.903098
1.037354 -0.017141 0.089689 -0.000123 -0.125312 0.988117
-1.356212 0.017108 0.089695 -0.000006 0.124864 0.988202
1.626094 0.177663 -0.165640 0.019770 -0.668887 -0.743101
0.661704 0.062633 -0.066445 -0.000381 0.647010 -0.757303
-0.040513 -0.645455 -0.588988 -0.023591 0.662424 -0.748758
0.648827 -0.072688 -0.055266 0.000717 -0.713980 -0.694851
-0.082972 -0.519235 0.466628 -0.053153 -0.696809 -0.715284
-0.478588 -0.155921 -0.142097 -0.053153 -0.696809 0.715284
-0.196920 -0.391528 -0.359412 -0.023591 0.662424 -0.748758
-0.328179 0.183757 0.158036 -0.053153 0.696809 -0.715284
-0.108915 -0.277056 -0.232632 -0.053153 -0.696809 0.715284
0.024798 -0.509308 -0.470597 0.003837 0.666406 -0.745315
-0.385087 0.077435 0.075606 -0.023591 -0.662424 0.748758
-0.062007 0.260992 -0.248178 -0.023591 -0.662424 -0.748758
-0.758265 0.016852 0.089744 -0.000338 0.244874 0.965586
-0.458659 -0.075267 -0.051699 -0.000836 -0.733857 -0.672035
-0.252813 0.332972 0.297797 -0.053153 0.696809 -0.715284
1.226736 0.033754 -0.084845 -0.000280 0.425756 -0.900434
-0.301208 -0.019087 0.089295 0.002066 -0.068771 0.992817
-0.038505 -0.361697 -0.309855 -0.053153 -0.696809 0.715284
-0.034778 -0.361980 0.338379 -0.023591 0.662424 0.748758
1.296759 0.048879 0.077128 -0.000042 0.479127 0.873253
-1.697299 -0.074808 -0.052361 -0.002063 -0.769944 -0.630944
-0.817777 0.048963 -0.077075 0.000035 0.479610 -0.872984
-1.406458 0.062563 0.066511 0.000009 0.635427 0.767033
-1.535811 -0.017065 0.089703 0.000022 -0.248059 0.964655
-0.757845 -0.048950 -0.077083 0.000743 -0.481132 -0.872040
-0.001421 -0.051383 0.075483 0.000469 -0.603361 0.792402
0.698799 0.079454 0.045000 -0.002611 0.909404 0.404025
-0.031111 -0.308949 -0.257920 0.004426 -0.689230 0.723342
-0.430369 -0.043359 0.080361 -0.000320 -0.528788 0.844554
-0.238629 -0.054187 -0.073496 0.000894 -0.531488 -0.841898
0.795542 0.090272 0.013744 -0.001308 0.978112 0.193779
1.660093 -0.263381 -0.241894 0.019770 0.668887 -0.743101
0.032407 -0.462916 0.408564 0.119327 -0.668769 -0.733832
0.996842 0.088907 -0.020820 0.000198 0.951481 -0.291197
0.570886 0.082093 0.039984 0.002154 0.877502 0.470706
1.605702 -0.091312 0.000000 -0.002041 -0.984010 -0.148072
0.208729 -0.033141 0.085086 0.000261 -0.420190 0.903169
-0.152361 0.407778 0.363207 -0.053153 0.696809 -0.715284
0.055232 0.224529 0.208874 0.053182 -0.672628 0.738067
1.464418 -0.274444 0.250111 -0.010909 0.660429 0.750809
-0.636358 0.090325 0.013390 0.000367 0.992672 0.094990
-0.177773 0.211258 -0.173651 -0.053153 0.696809 0.715284
0.039707 0.575974 0.512786 0.094744 0.673638 -0.732102
-0.021946 0.647338 -0.591239 -0.023591 -0.662424 -0.748758
-1.768832 -0.028765 0.083335 -0.203416 -0.343590 0.911472
1.206897 -0.033697 -0.084867 0.000229 -0.308561 -0.947042
-1.712320 0.048403 -0.077428 0.000925 0.470723 -0.877428
-1.156864 -0.017219 0.089674 -0.000083 -0.125503 0.988080
-1.236610 0.073821 0.053744 0.000008 0.726124 0.681857
0.829485 -0.062277 0.066779 -0.000143 -0.742351 0.664386
0.038275 0.270319 -0.233997 0.119327 0.668769 0.733832
0.360417 -0.030990 0.085893 0.004807 -0.253317 0.964645
-1.267462 0.060632 -0.068277 -0.000601 0.747250 -0.658372
1.426178 0.208647 0.188567 -0.010909 0.686445 -0.727100
-1.615905 -0.048879 -0.077128 0.000042 -0.479127 -0.873253
-1.175969 0.088942 0.020670 0.000228 0.930803 0.352135
0.034786 -0.224174 -0.210024 0.053182 0.672628 -0.738067
-0.188023 0.164504 0.128866 -0.053153 0.696809 -0.715284
-0.364347 -0.212012 -0.188249 -0.053153 -0.696809 0.715284
0.192552 -0.025898 -0.087562 -0.003717 -0.372351 -0.923329
0.049541 0.190139 -0.162759 0.119327 0.668769 0.733832
0.049876 0.686309 -0.619515 -0.053153 0.696809 0.715284
0.049876 -0.686309 -0.619515 -0.053153 -0.696809 0.715284
-0.252456 -0.171634 -0.140600 -0.053153 -0.696809 0.715284
0.055258 0.395431 0.350779 0.119327 0.668769 -0.733832
0.869293 -0.059929 -0.068894 -0.000490 -0.705999 -0.702659
-0.064697 0.341759 -0.319547 -0.023591 -0.662424 -0.748758
1.732365 -0.069919 0.061586 0.019770 -0.677987 -0.734808
-1.286575 -0.033752 0.084845 0.000211 -0.425594 0.900519
-0.190859 -0.252502 0.236607 -0.023591 0.662424 0.748758
1.565809 0.091312 -0.000000 -0.000012 0.984413 -0.148353
-1.416355 -0.074993 0.052095 0.000139 -0.846938 0.523971
-1.007304 0.000000 -0.091312 -0.000076 0.124710 -0.988232
-0.588892 0.044292 0.079850 0.001399 0.534719 0.840136
-0.837486 -0.073918 -0.053610 0.000067 -0.767418 -0.634989
-0.334870 -0.108778 0.104918 -0.023591 0.662424 0.748758
0.635896 0.065224 0.063904 -0.000440 0.768479 0.634198
0.318251 -0.079756 0.044461 0.000431 -0.802258 0.590785
-0.264647 -0.238636 0.222015 -0.023591 0.662424 0.748758
-0.345549 -0.130017 -0.106976 -0.053153 -0.696809 0.715284
1.645416 0.106288 0.100880 0.019770 -0.668887 0.743101
-0.807810 -0.082448 0.039246 -0.000515 -0.870361 0.484099
-1.156187 -0.073819 0.053746 0.000101 -0.726258 0.681692
-0.022215 -0.599423 -0.540231 -0.053153 -0.696809 0.715284
-0.005091 0.160571 0.126928 0.119327 0.668769 -0.733832
-0.169436 -0.062291 0.066766 0.000269 -0.724880 0.683192
-0.038686 -0.209716 -0.166253 0.119327 -0.668769 0.733832
1.621951 0.206024 0.191279 0.019770 -0.668887 0.743101
-0.478560 0.048915 -0.077105 -0.000850 0.480993 -0.872122
-0.105602 0.108043 -0.067738 -0.053153 0.696809 0.715284
-1.300520 0.090173 -0.014378 -0.001824 0.976963 -0.199422
0.428597 0.076069 0.050511 0.000746 0.870530 0.484124
-0.090164 0.209973 0.202155 -0.023591 -0.662424 0.748758
0.042979 -0.290203 0.252883 0.119327 -0.668769 -0.733832
1.145100 -0.101508 0.091635 -0.010909 -0.686445 -0.727100
-0.188023 -0.164504 0.128866 -0.053153 -0.696809 -0.715284
1.517971 0.127150 -0.110250 -0.010909 0.686445 0.727100
1.523294 -0.232751 -0.214292 -0.010909 0.660429 -0.750809
0.708105 -0.091312 0.000000 0.000363 -0.995034 -0.054648
0.039707 -0.575974 -0.512786 0.000303 -0.689882 0.722880
-0.331708 0.241700 -0.222613 -0.023591 -0.662424 -0.748758
1.303139 0.164001 -0.148263 -0.010909 0.686445 0.727100
1.086916 -0.033895 -0.084788 0.000368 -0.426626 -0.900004
0.557956 -0.034108 -0.084703 0.000522 -0.479837 -0.872896
1.409749 -0.119987 0.113453 -0.010909 0.660429 0.750809
-0.160621 -0.424221 0.389479 -0.023591 0.662424 0.748758
-1.077347 0.072714 -0.055232 0.001228 0.759936 -0.644097
-0.048540 -0.301458 0.284402 -0.023591 0.662424 0.748758
-0.288872 -0.324627 0.292348 -0.053153 -0.696809 -0.715284
0.129653 -0.091312 0.000000 -0.001178 -0.994028 -0.055898
-0.383165 -0.079096 0.045626 0.000069 -0.833421 0.546140
-1.535914 0.089724 0.016956 -0.001239 0.962979 0.253104
0.460226 -0.082088 0.039993 -0.000430 -0.859923 0.502843
1.504507 0.245627 0.222304 -0.010909 0.686445 -0.727100
-0.289146 0.066559 -0.062512 -0.000088 0.805317 -0.586203
0.055174 -0.406190 -0.374434 0.053182 0.672628 -0.738067
0.046246 -0.378233 0.349599 0.053182 0.672628 0.738067
-1.405186 -0.061619 -0.067387 0.000886 -0.575149 -0.813261
-0.039691 -0.114265 -0.079102 0.119327 -0.668769 0.733832
1.587903 0.290820 -0.263718 -0.010909 0.686445 0.727100
1.812861 -0.019952 -0.088572 0.017051 -0.121802 -0.988005
0.872045 0.085017 0.033316 0.001125 0.914939 0.393697
1.725381 0.039424 0.082363 -0.000555 0.434701 0.896802
-0.110198 -0.082509 -0.039118 0.000103 -0.873970 -0.477308
0.170315 0.082520 0.039095 0.000096 0.928460 0.357667
-0.265500 0.319509 -0.285625 -0.053153 0.696809 0.715284
-0.588087 -0.070180 0.058418 -0.000174 -0.838382 0.538073
1.698919 0.148517 0.133207 0.019770 0.677987 -0.734808
1.569154 0.176420 0.165409 -0.010909 -0.660429 0.750809
0.114251 0.640383 -0.583605 0.119327 0.668769 0.733832
0.114251 0.140938 0.128442 0.119327 0.668769 -0.733832
-0.094823 0.577584 -0.527232 -0.023591 -0.662424 -0.748758
0.065797 -0.674352 0.606684 0.004426 -0.689230 -0.723342
-0.088874 -0.556408 -0.503279 -0.053153 -0.696809 0.715284
0.114251 -0.493487 -0.449734 0.053182 0.672628 -0.738067
-0.050071 0.033883 -0.084793 0.000124 0.308363 -0.947132
-0.383578 -0.161027 -0.149607 -0.023591 0.662424 -0.748758
1.503866 -0.190857 0.170606 -0.010909 -0.686445 -0.727100
-1.878634 0.012153 -0.041376 -0.600153 0.277463 -0.742753
0.052752 0.377277 -0.333827 0.119327 0.668769 0.733832
-0.370443 0.104114 -0.099670 -0.023591 -0.662424 -0.748758
0.065797 0.668691 0.612895 0.027599 -0.669567 0.742010
1.599246 0.090500 -0.076994 0.019770 0.677987 0.734808
1.390381 0.087786 0.084847 -0.010909 -0.660429 0.750809
0.046091 0.187823 0.160086 0.119327 0.668769 -0.733832
-0.114059 0.142748 0.102176 -0.053153 0.696809 -0.715284
0.114251 -0.096869 0.088280 0.053182 0.672628 0.738067
1.376456 0.048939 -0.077090 0.001077 0.483430 -0.870567
0.051549 -0.149090 0.125675 0.119327 -0.668769 -0.733832
0.257725 -0.069415 -0.059325 0.000013 -0.804128 -0.589428
-0.519724 0.056619 0.071639 0.000450 0.668390 0.738436
0.100169 0.575023 0.521750 0.119327 0.668769 -0.733832
1.191215 0.109271 -0.098273 -0.010909 0.686445 0.727100
-0.085262 -0.508817 -0.456649 -0.053153 -0.696809 0.715284
0.114251 0.478798 0.436346 0.119327 0.668769 -0.733832
-0.088874 0.556408 0.503279 -0.053153 0.696809 -0.715284
-1.874552 -0.043249 0.015636 -0.543619 -0.771579 0.316654
1.745384 -0.085249 -0.076081 0.019770 -0.677987 0.734808
0.071246 0.129706 -0.121304 0.053182 -0.672628 -0.738067
1.106818 0.062541 0.066532 -0.000085 0.635224 0.767214
0.006161 -0.436861 -0.405916 0.000178 0.665919 -0.745824
1.618177 -0.123128 0.107608 0.019770 -0.677987 -0.734808
-0.182105 0.426860 -0.384006 -0.053153 0.696809 0.715284
1.576728 -0.275122 -0.252340 -0.010909 0.660429 -0.750809
-0.382452 -0.269618 0.245713 -0.023591 0.662424 0.748758
-0.104725 -0.598077 0.545050 -0.023591 0.662424 0.748758
-0.489270 0.143288 -0.130584 -0.053153 0.696809 0.715284
-0.190180 -0.497013 -0.452947 -0.053153 -0.696809 0.715284
-0.435861 0.206453 -0.188149 -0.053153 0.696809 0.715284
-0.168816 -0.522279 0.475972 -0.023591 0.662424 0.748758
1.540352 0.168637 -0.149081 -0.010909 0.686445 0.727100
0.209769 -0.090745 0.010158 0.001196 -0.974728 0.213333
1.680416 0.217423 -0.199985 0.019770 -0.668887 -0.743101
0.043434 0.581755 -0.535278 0.001276 -0.666058 -0.745663
0.019094 0.421773 0.391234 0.053182 -0.672628 0.738067
1.774659 0.109769 0.099492 0.019770 0.677987 -0.734808
0.031604 0.475149 -0.438977 0.053182 -0.672628 -0.738067
-0.738434 -0.087767 0.025198 0.000052 -0.936156 0.343474
-0.061185 -0.402578 -0.373465 -0.023591 0.662424 -0.748758
-0.171809 -0.312198 0.271540 -0.053153 -0.696809 -0.715284
-1.635622 -0.017017 0.089713 -0.000023 -0.062310 0.994124
-0.307679 -0.358049 -0.326304 -0.053153 -0.696809 0.715284
-0.538575 0.050848 -0.075845 0.000211 0.496932 -0.862176
-0.282159 0.280697 0.258675 -0.023591 -0.662424 0.748758
-1.595821 0.088896 0.020868 -0.000310 0.930306 0.353425
0.289226 0.091312 -0.000000 -0.003050 0.993555 -0.069340
-1.386289 0.000000 -0.091312 0.000307 0.061414 -0.994379
-0.508639 -0.091312 0.000000 -0.000069 -0.994061 -0.065441
1.267225 0.082547 -0.039036 0.000048 0.874488 -0.476347
1.336902 0.088836 0.021121 0.000084 0.928627 0.357526
-0.176627 0.295777 0.275341 -0.023591 -0.662424 0.748758
-0.243589 0.433848 -0.395382 -0.053153 0.696809 0.715284
0.028525 0.523797 0.483533 0.027599 -0.669567 0.742010
-0.421370 -0.170166 0.151722 -0.053153 -0.696809 -0.715284
1.227335 -0.082728 -0.038651 -0.000129 -0.843722 -0.528989
1.759408 0.082216 0.039261 0.006129 0.862586 0.496831
1.812861 -0.039199 0.081893 1.000000 0.000000 -0.000000
-1.803977 -0.080042 0.000000 -0.256438 -0.956279 -0.075285
1.196329 -0.088925 0.020742 -0.000145 -0.930383 0.353175
1.196329 0.088925 0.020742 -0.000145 0.930383 0.353175
0.114251 0.405350 0.369411 0.119327 0.668769 -0.733832
0.114251 0.258454 0.235539 0.119327 0.668769 -0.733832
0.114251 0.434729 -0.396185 0.119327 0.668769 0.733832
0.114251 -0.434729 -0.396185 0.053182 0.672628 -0.738067
0.114251 0.522866 -0.476508 0.119327 0.668769 0.733832
0.114251 0.214386 -0.195378 0.119327 0.668769 0.733832
0.114251 -0.655072 -0.596992 0.053182 0.672628 -0.738067
1.648690 -0.307038 0.278118 0.009544 -0.680867 -0.732304
1.753955 0.206926 0.188579 0.019770 0.677987 -0.734808
1.753955 -0.206926 -0.188579 0.019770 -0.677987 0.734808
1.683268 0.374710 0.341488 0.009544 0.680867 -0.732304
1.789298 -0.123033 -0.112125 0.019770 -0.677987 0.734808
0.114251 -0.067490 -0.061506 0.053182 0.672628 -0.738067
1.178230 -0.143326 -0.130619 -0.010909 0.660429 -0.750809
1.632764 -0.351572 -0.320401 -0.010909 0.660429 -0.750809
1.312907 -0.205029 0.186851 -0.010909 0.660429 0.750809
1.380245 -0.235880 -0.214966 -0.010909 0.660429 -0.750809
-0.957398 0.017219 0.089674 -0.000091 0.125517 0.988077
1.584890 0.103180 0.099693 0.019770 -0.668887 0.743101
1.587903 0.289509 0.265157 -0.010909 -0.660429 0.750809
1.166877 -0.000000 0.091312 0.000060 -0.062453 0.994097
-0.398759 -0.048874 -0.077131 0.000008 -0.479446 -0.873092
-1.615675 0.017196 -0.089678 -0.000128 0.124757 -0.988223
-0.183594 0.354039 -0.313176 -0.053153 0.696809 0.715284
-1.116781 0.048879 0.077128 -0.000042 0.479127 0.873253
-0.053031 -0.452632 0.399520 -0.053153 -0.696809 -0.715284
-0.168836 -0.439120 -0.402401 -0.023591 0.662424 -0.748758
0.068282 0.328250 0.302459 0.053182 -0.672628 0.738067
-0.897584 0.049307 -0.076855 -0.000131 0.588263 -0.803749
1.565426 -0.320721 -0.292285 -0.010909 0.660429 -0.750809
0.926286 0.081952 -0.040271 0.000948 0.834175 -0.544192
1.086916 0.033895 -0.084788 0.000368 0.426623 -0.900006
1.413914 -0.251306 0.229024 -0.010909 0.660429 0.750809
0.060071 0.048942 0.077088 0.000071 0.479592 0.872993
-0.927321 -0.033498 0.084946 -0.000024 -0.307331 0.947465
1.446131 0.033632 -0.084893 0.001087 0.312915 -0.945263
1.345773 -0.033566 0.084919 -0.000319 -0.478098 0.873886
0.585236 -0.085027 -0.033291 -0.001109 -0.908023 -0.410091
-0.289226 0.091312 -0.000000 0.000781 0.994039 -0.058162
1.579535 -0.171694 0.151379 0.009544 -0.680867 -0.732304
-0.154547 0.269847 -0.253096 -0.023591 -0.662424 -0.748758
0.528585 -0.000000 0.091312 0.006440 -0.125213 0.987186
1.421994 0.127849 -0.120546 -0.010909 -0.660429 -0.750809
-0.278465 -0.082935 0.083832 -0.023591 0.662424 0.748758
1.743004 0.079540 -0.044634 0.004962 0.878415 -0.469178
-1.206770 -0.091312 0.000000 -0.005523 -0.989482 -0.110941
-1.096575 -0.088907 0.020820 -0.000201 -0.951517 0.291042
1.660093 0.265238 -0.239857 0.019770 0.677987 0.734808
-0.191315 0.080478 0.047255 -0.000000 -0.739113 -0.673582
-0.118405 0.206670 -0.164770 -0.053153 0.696809 0.715284
-0.364984 -0.206246 0.190198 -0.023591 0.662424 0.748758
-0.304138 -0.279746 0.257140 -0.023591 0.662424 0.748758
-0.180452 -0.230900 -0.192985 -0.053153 -0.696809 0.715284
1.671993 0.072029 0.061908 0.019770 0.677987 -0.734808
-0.837758 0.017196 0.089678 0.000116 0.124949 0.988186
-0.440263 0.141978 0.125666 -0.053153 0.696809 -0.715284
-0.191505 0.242411 0.205019 -0.053153 0.696809 -0.715284
-0.318321 0.117310 0.092573 -0.053153 0.696809 -0.715284
0.677692 -0.020359 -0.089014 -0.000002 -0.286350 -0.953868
1.741561 -0.139364 0.128094 0.019770 0.668887 0.743101
1.621951 -0.209531 0.187431 0.019770 -0.677987 -0.734808
-0.233739 0.379471 0.341677 -0.053153 0.696809 -0.715284
1.182331 0.097874 0.090697 -0.010909 -0.660429 0.750809
1.578932 -0.084579 0.083108 0.019770 0.668887 0.743101
1.361960 -0.071447 -0.070062 -0.000000 0.739113 0.673582
0.022647 -0.578594 0.531826 -0.023591 0.662424 0.748758
0.258792 -0.071416 0.056901 0.000346 -0.742640 0.663777
1.315989 -0.171864 -0.155494 -0.010909 -0.686445 0.727100
1.265547 -0.127435 -0.114306 -0.010909 -0.686445 0.727100
0.081004 -0.350732 -0.322031 0.053182 0.672628 -0.738067
1.484707 0.246978 -0.223876 -0.010909 0.686445 0.727100
1.067143 0.091312 -0.000000 0.000719 0.983504 -0.149423
-0.150823 -0.132791 -0.131960 -0.023591 0.662424 -0.748758
-0.211429 0.062054 -0.067471 -0.000000 -0.739113 0.673582
-1.272496 -0.073524 -0.054149 -0.000175 -0.820192 -0.565251
1.386148 0.084855 -0.033727 -0.000618 0.946405 -0.310169
0.486578 -0.039257 -0.082443 0.000999 -0.532360 -0.841754
-1.797503 0.079462 0.019962 -0.308944 0.891464 0.304949
0.000524 -0.089304 0.019046 0.000633 -0.955621 0.278239
-0.026757 -0.610025 0.558077 -0.023591 0.662424 0.748758
0.997110 -0.048982 -0.077063 -0.000151 -0.479811 -0.872871
-0.249814 0.267494 -0.248013 -0.023591 -0.662424 -0.748758
1.626094 -0.177663 -0.165640 0.019770 0.668887 -0.743101
-0.847731 -0.091312 0.000000 0.000085 -0.983346 -0.147813
-0.014540 -0.657942 0.600854 -0.023591 0.662424 0.748758
-0.010734 0.174880 -0.168381 0.053182 -0.672628 -0.738067
-0.370624 0.146506 -0.137169 -0.023591 -0.662424 -0.748758
1.479744 -0.096254 -0.093594 -0.010909 0.660429 -0.750809
-1.144409 -0.058528 -0.070088 0.001811 -0.543221 -0.835396
-0.145819 -0.295222 -0.275820 -0.023591 0.662424 -0.748758
1.426737 -0.066624 -0.062443 -0.001091 -0.759222 -0.643845
1.727323 0.129563 -0.119651 0.019770 -0.668887 -0.743101
1.655529 -0.017219 -0.089674 -0.001381 -0.121556 -0.988805
0.052110 0.485595 0.432437 0.119327 0.668769 -0.733832
-0.299910 -0.218075 -0.189368 -0.053153 -0.696809 0.715284
-1.824453 0.000000 -0.072819 -0.341410 -0.088420 -0.927134
0.039672 -0.048982 -0.077063 -0.000151 -0.479811 -0.872871
0.926981 -0.082528 0.039078 0.000478 -0.840825 0.533625
0.500264 0.067966 -0.060980 0.000494 0.713735 -0.694843
-0.080011 0.468246 0.416737 -0.053153 0.696809 -0.715284
-1.745656 0.000000 -0.090761 -0.050227 -0.051296 -0.994442
1.475121 -0.085520 0.032004 0.000945 -0.910161 0.402523
-0.371770 0.282251 -0.257226 -0.053153 0.696809 0.715284
0.060071 -0.048942 0.077088 0.000071 -0.479592 0.872993
0.090655 -0.082488 0.039162 -0.000196 -0.840772 0.533571
1.370330 -0.092250 0.079516 -0.010909 -0.686445 -0.727100
-0.201561 -0.116579 0.083184 -0.053153 -0.696809 -0.715284
-0.000869 0.101009 0.100349 0.053182 -0.672628 0.738067
1.812861 -0.038622 -0.036205 1.000000 -0.000000 -0.000000
1.085912 -0.082802 -0.038493 0.000109 -0.844709 -0.527422
0.756593 -0.030990 -0.085893 -0.004807 -0.253317 -0.964645
-1.364024 0.083566 -0.036805 0.000633 0.932864 -0.346225
0.002960 0.352293 -0.302962 0.119327 0.668769 0.733832
1.573416 -0.259440 0.234311 -0.010909 -0.686445 -0.727100
-0.698131 -0.089713 -0.017017 -0.000443 -0.993873 -0.059443
0.349066 -0.091312 0.000000 0.005729 -0.989402 -0.117465
1.478424 0.148136 0.130656 -0.010909 0.686445 -0.727100
0.114251 0.302523 -0.275701 0.119327 0.668769 0.733832
0.019342 0.651805 0.588171 -0.053153 0.696809 -0.715284
-0.075838 -0.118094 0.121320 0.002008 0.666166 0.745573
1.136925 -0.048966 0.077073 -0.000035 -0.479633 0.872972
-1.687485 0.083436 -0.037098 0.000247 0.932557 -0.347423
-0.130240 0.124969 -0.125689 -0.023591 -0.662424 -0.748758
1.465879 0.084946 -0.033498 0.000024 0.947465 -0.307331
0.728051 -0.000000 0.091312 0.004253 -0.151584 0.982425
1.812861 -0.081763 0.039470 1.000000 0.000000 -0.000000
1.656830 0.133307 -0.124897 0.019770 -0.668887 -0.743101
1.435549 -0.185765 0.166823 -0.010909 -0.686445 -0.727100
-0.131055 -0.159987 0.156644 -0.023591 0.662424 0.748758
0.761941 -0.090348 -0.013233 0.000179 -0.963646 -0.256026
-0.319146 -0.089713 -0.017017 0.001214 -0.994085 -0.060830
-0.464330 -0.118620 -0.104700 -0.053153 -0.696809 0.715284
-0.271388 -0.124391 -0.120730 -0.023591 0.662424 -0.748758
-0.123489 0.338136 0.293217 -0.053153 0.696809 -0.715284
-0.289052 0.033895 0.084788 0.000277 0.427831 0.899553
1.812861 0.019952 0.088572 1.000000 0.000000 -0.000000
-1.585755 -0.091312 0.000000 -0.001330 -0.984467 -0.142538
-0.628318 -0.033605 -0.084903 -0.000000 -0.307796 -0.947309
-0.464428 -0.118749 0.104833 -0.053153 -0.696809 -0.715284
-0.400716 0.171741 0.158546 -0.023591 -0.662424 0.748758
-1.725381 -0.071498 0.056797 -0.023530 -0.713137 0.694613
-1.016550 0.074596 0.052663 -0.000644 0.846688 0.523919
-0.171427 -0.087775 -0.091486 -0.023591 0.662424 -0.748758
-0.147771 0.494704 0.452241 -0.023591 -0.662424 0.748758
0.291633 0.032847 -0.085200 -0.003981 0.270081 -0.959183
-0.080011 0.468246 -0.416737 -0.053153 0.696809 0.715284
-0.037046 0.594930 -0.544399 -0.023591 -0.662424 -0.748758
1.681138 0.030489 -0.086072 0.000395 0.423776 -0.902673
1.301582 0.147798 0.136345 -0.010909 -0.660429 0.750809
0.020658 0.102574 -0.100224 0.053182 -0.672628 -0.738067
0.114251 -0.155627 -0.141829 0.053182 0.672628 -0.738067
-0.827784 0.091312 -0.000000 -0.001658 0.983323 -0.143980
-0.628122 -0.084946 -0.033498 -0.000024 -0.947465 -0.307331
0.316755 0.014451 0.090161 0.000375 0.211399 0.974295
-0.328685 -0.035868 -0.083972 -0.000411 -0.460254 -0.882673
0.818288 0.050933 0.075788 0.000679 0.541117 0.836709
-1.545874 -0.083728 0.036435 0.000412 -0.934720 0.341533
1.504507 -0.245627 0.222304 -0.010909 -0.686445 -0.727100
-0.948018 -0.062443 -0.066624 0.000042 -0.635482 -0.766986
-0.737741 0.073946 -0.053572 0.001648 0.771253 -0.629700
-0.538400 -0.048915 -0.077105 -0.000032 -0.485035 -0.869528
1.251357 0.101200 0.089751 -0.010909 0.686445 -0.727100
-1.406236 0.091312 -0.000000 0.004380 0.987466 -0.125187
-0.087019 0.098139 0.056710 0.052299 0.681347 -0.728386
-0.106950 -0.363644 -0.316838 -0.053153 -0.696809 0.715284
-1.316744 0.073836 0.053723 0.000179 0.726844 0.680977
-0.688158 -0.000000 0.091312 -0.001374 -0.064517 0.993695
-1.222357 0.035886 -0.083965 -0.001492 0.433756 -0.896736
-0.080887 -0.252246 0.206381 -0.053153 -0.696809 -0.715284
1.515779 -0.050533 -0.076055 -0.000637 -0.593827 -0.799649
0.032451 -0.369398 -0.342541 0.053182 0.672628 -0.738067
0.053722 -0.135642 -0.113773 0.119327 -0.668769 0.733832
1.434974 -0.016450 0.089818 -0.000789 -0.295132 0.951703
0.010073 -0.082816 -0.038464 -0.000337 -0.875458 -0.474629
1.456955 0.208271 -0.191796 -0.010909 -0.660429 -0.750809
1.373495 0.132100 0.123581 -0.010909 -0.660429 0.750809
-0.248047 -0.351833 0.322683 -0.023591 0.662424 0.748758
-1.306147 -0.082950 0.038173 -0.000102 -0.932083 0.348572
0.114251 0.640383 0.583605 0.119327 0.668769 -0.733832
1.198645 -0.101801 0.091109 -0.010909 -0.686445 -0.727100
1.464418 -0.274444 -0.250111 -0.010909 0.660429 -0.750809
0.398830 -0.077275 -0.048646 0.000951 -0.826149 -0.556520
-0.072207 -0.064966 0.064166 0.002797 -0.732938 0.674824
-0.997818 -0.088907 -0.020820 0.000198 -0.951481 -0.291197
1.555891 -0.089237 -0.019354 0.000547 -0.954556 -0.281086
-1.746294 0.031613 0.085031 -0.116620 0.410869 0.897117
0.114251 -0.199696 -0.181991 0.053182 0.672628 -0.738067
0.034339 -0.243349 0.227531 0.053182 0.672628 0.738067
-0.243726 0.355253 -0.318827 -0.053153 0.696809 0.715284
-0.016693 -0.196797 0.158056 0.119327 -0.668769 -0.733832
-1.685488 -0.091312 0.000000 0.002337 -0.993380 -0.068352
-0.031050 0.389805 0.336683 -0.053153 0.696809 -0.715284
0.058343 -0.421205 0.387889 0.053182 0.672628 0.738067
-0.059979 -0.018747 0.089367 0.000329 -0.255579 0.962660
-0.252004 0.244493 0.211544 -0.053153 0.696809 -0.715284
-1.548621 -0.063871 -0.065256 -0.001662 -0.646690 -0.757775
-1.504928 0.083104 -0.037837 0.000176 0.932435 -0.347853
0.198315 0.073389 -0.054332 -0.001944 0.751699 -0.652160
0.114251 -0.449418 0.409572 0.053182 0.672628 0.738067
0.256967 0.015541 0.089980 -0.000469 0.283751 0.955351
-1.037263 -0.017219 0.089674 0.000202 -0.125483 0.988084
1.614728 0.037148 0.083414 0.000135 0.509455 0.855539
-1.216743 0.017196 0.089678 -0.000025 0.125226 0.988133
-0.363091 0.090143 0.014563 -0.000549 0.972043 0.220667
1.528148 -0.050135 0.076318 0.002069 -0.472617 0.877052
-0.548679 0.084889 -0.033643 -0.000128 0.947411 -0.307539
-0.029247 -0.062342 -0.067155 0.053182 0.672628 -0.738067
-0.278822 -0.019388 -0.089230 0.000144 -0.145854 -0.984312
1.176802 0.048844 -0.077151 -0.000090 0.479224 -0.873221
-1.585755 -0.000000 0.091312 -0.000043 -0.062293 0.994128
1.426182 -0.091312 0.000000 0.000314 -0.994007 -0.051767
1.236689 -0.017196 0.089678 0.000132 -0.125436 0.988093
1.595703 -0.016956 -0.089724 -0.000107 -0.247395 -0.964839
-1.486022 -0.000000 0.091312 -0.000327 -0.067139 0.993525
0.059840 0.017196 -0.089678 -0.000128 0.124757 -0.988223
0.129837 -0.033534 0.084932 0.000183 -0.424026 0.901265
-0.708103 -0.033604 -0.084904 -0.000004 -0.307808 -0.947303
-0.887605 -0.033754 -0.084844 -0.000280 -0.425815 -0.900410
1.580202 -0.119453 -0.114465 0.019770 0.668887 -0.743101
1.326449 0.000000 -0.091312 0.000003 0.062436 -0.994101
-0.787891 0.000000 -0.091312 0.000002 0.062432 -0.994101
0.927474 0.062426 0.066640 -0.000093 0.633649 0.768490
-1.465751 0.062495 -0.066576 -0.000273 0.633950 -0.768391
1.346506 0.062291 0.066766 0.000269 0.724880 0.683192
-0.608371 0.033605 -0.084903 -0.000003 0.311624 -0.945780
0.572100 0.018316 -0.089456 0.000759 0.322596 -0.942109
-0.179701 0.089000 -0.020416 0.000118 0.952594 -0.287667
-0.489623 -0.042981 0.080564 -0.003507 -0.395964 0.912889
-1.256556 -0.073928 0.053596 0.000001 -0.767876 0.634434
-0.101506 0.408645 -0.360272 -0.053153 0.696809 0.715284
0.927517 -0.000000 0.091312 0.000168 -0.062447 0.994098
0.119206 0.064523 -0.064612 -0.000040 0.755038 -0.649456
1.067139 0.033619 0.084898 0.000007 0.307980 0.947242
-0.359215 0.048727 -0.077224 0.001169 0.426180 -0.900175
-1.386301 -0.033597 0.084907 -0.000004 -0.307876 0.947276
1.477363 -0.203016 -0.182482 -0.010909 -0.686445 0.727100
-0.697978 0.048922 -0.077101 0.001037 0.484060 -0.870153
-1.566013 0.033883 -0.084793 0.000203 0.308611 -0.947034
0.473349 0.087526 0.026021 -0.001281 0.945913 0.310233
-0.648636 0.066625 -0.062442 0.000038 0.803922 -0.587385
0.077635 0.086669 -0.028748 -0.000331 0.897890 -0.430308
-0.996571 -0.074328 0.053041 -0.000136 -0.771226 0.630357
1.643480 0.244047 0.219858 0.019770 0.677987 -0.734808
0.005776 -0.183988 -0.175491 0.053182 0.672628 -0.738067
1.007185 0.062441 -0.066626 -0.000014 0.585061 -0.806174
0.683915 0.089385 -0.018662 -0.001751 0.963055 -0.254214
0.897310 -0.017389 -0.089641 0.000291 -0.303560 -0.948915
-1.008134 0.033761 0.084842 0.000843 0.425480 0.900579
0.838114 -0.016346 0.089837 0.002616 -0.114846 0.990005
0.095370 -0.282913 -0.254759 0.119327 -0.668769 0.733832
0.129837 0.033534 0.084932 0.000183 0.424026 0.901265
0.976867 0.075450 0.051431 -0.000924 0.851631 0.516685
-0.000290 0.048989 -0.077058 0.000125 0.480717 -0.872363
1.247221 -0.062577 0.066498 -0.000189 -0.587040 0.804661
-0.003282 0.514832 -0.456418 -0.053153 0.696809 0.715284
0.219074 0.073198 0.054589 0.000339 0.759010 0.645537
-0.179597 0.017065 -0.089703 -0.000022 0.248059 -0.964655
-1.036847 0.048530 -0.077348 -0.000159 0.630682 -0.770979
-0.062007 -0.260992 -0.248178 -0.023591 0.662424 -0.748758
-1.087090 -0.000000 0.091312 0.000076 -0.124710 0.988232
0.926286 -0.081952 -0.040271 0.000948 -0.834175 -0.544192
1.748064 -0.220908 0.201322 0.019770 -0.677987 -0.734808
1.286586 0.033576 -0.084915 0.000031 0.307754 -0.947326
0.533114 0.052637 0.074614 0.000961 0.540234 0.836852
-0.070944 0.341482 0.292573 -0.053153 0.696809 -0.715284
-0.187181 0.441766 0.404165 -0.023591 -0.662424 0.748758
1.266843 -0.062516 -0.066556 0.000132 -0.635396 -0.767072
-1.066411 0.082484 0.039170 0.000485 0.873156 0.478864
1.560833 0.246364 -0.226812 -0.010909 -0.660429 -0.750809
0.977453 -0.017154 0.089686 0.000077 -0.124985 0.988179
-1.115829 -0.016450 -0.089818 0.000789 -0.295132 -0.951703
1.156871 0.048813 0.077170 -0.000014 0.423759 0.901438
-0.275634 0.395948 -0.360843 -0.053153 0.696809 0.715284
-1.505969 0.000000 -0.091312 0.000082 0.062966 -0.994052
-0.085423 -0.557880 0.504457 -0.053153 -0.696809 -0.715284
-1.476049 -0.089713 0.017017 -0.000911 -0.993938 0.046585
-0.149219 -0.481248 0.440290 -0.023591 0.662424 0.748758
-0.867547 -0.033710 0.084862 -0.000084 -0.308294 0.947154
-0.119705 -0.016956 -0.089724 -0.000107 -0.247395 -0.964839
-1.046527 -0.032984 -0.085147 0.000220 -0.420578 -0.902999
0.385683 0.053931 -0.073684 0.000877 0.618821 -0.780832
0.575277 0.089372 -0.018721 -0.002269 0.964267 -0.250172
-1.310237 -0.021038 -0.088856 -0.001892 -0.358961 -0.927977
0.564409 -0.061737 0.067278 -0.000147 -0.733319 0.674182
1.358898 0.182036 -0.164453 -0.010909 0.686445 0.727100
-0.179558 -0.017219 0.089674 -0.000166 -0.124752 0.988224
1.513983 -0.148556 0.130518 -0.010909 -0.686445 -0.727100
1.508535 0.088462 0.073867 -0.010909 0.686445 -0.727100
-0.768574 -0.061450 0.067541 0.000307 -0.717988 0.690654
1.480840 0.094775 -0.092309 -0.010909 -0.660429 -0.750809
0.967410 0.000000 -0.091312 -0.000171 0.062428 -0.994102
0.114251 -0.522866 0.476508 0.053182 0.672628 0.738067
1.697964 -0.174772 0.161126 0.019770 0.668887 0.743101
1.748418 0.182316 -0.166575 0.019770 -0.668887 -0.743101
0.430611 0.036847 0.083548 0.000254 0.511415 0.854943
1.316545 -0.048984 -0.077061 0.000027 -0.479957 -0.872788
1.096549 0.089076 -0.081712 -0.010909 -0.660429 -0.750809
-0.256961 -0.255322 -0.237019 -0.023591 0.662424 -0.748758
-0.288872 -0.324627 -0.292348 -0.053153 -0.696809 0.715284
0.065678 -0.177735 0.165477 0.053182 0.672628 0.738067
-0.000869 -0.101009 0.100349 0.053182 0.672628 0.738067
-1.047104 -0.061887 0.067141 0.000320 -0.722323 0.685838
-0.006836 -0.521796 0.480649 -0.023591 0.662424 0.748758
-1.047966 -0.082520 -0.039095 -0.000096 -0.928460 -0.357667
0.457259 0.082901 -0.038279 -0.000046 0.846516 -0.524679
1.424285 0.033000 0.085140 -0.000627 0.417365 0.904519
-0.352430 0.227507 0.209404 -0.023591 -0.662424 0.748758
1.423483 -0.146292 -0.136791 -0.010909 0.660429 -0.750809
-0.029953 0.686508 0.625641 -0.053153 0.696809 -0.715284
1.648814 0.343186 0.313258 -0.010909 -0.660429 0.750809
1.332980 -0.163071 0.150235 -0.010909 0.660429 0.750809
0.114251 0.111559 -0.101668 0.119327 0.668769 0.733832
0.833764 -0.088215 0.023580 0.001084 -0.955880 0.279975
-0.210650 0.130494 0.097416 -0.053153 0.696809 -0.715284
-0.020508 -0.505522 -0.448628 -0.053153 -0.696809 0.715284
-1.798007 0.071371 -0.039949 -0.308014 0.777315 -0.535457
1.657269 -0.221785 -0.199688 0.019770 -0.677987 0.734808
-0.129185 -0.107516 0.068978 -0.053153 -0.696809 -0.715284
1.077222 0.097050 0.088445 -0.010909 0.686445 -0.727100
1.308472 -0.089908 0.085523 -0.010909 0.660429 0.750809
-0.059396 -0.414389 0.362738 -0.053153 -0.696809 -0.715284
1.708010 -0.032689 0.085260 -0.000345 -0.299270 0.950190
0.780715 0.014238 -0.090195 -0.000012 0.272041 -0.958890
-0.421577 0.029606 0.086379 0.000012 0.374071 0.923743
-0.351755 -0.277811 -0.253929 -0.023591 0.662424 -0.748758
-0.351592 -0.045613 0.079103 -0.000355 -0.544033 0.834517
1.260519 -0.143831 0.129861 -0.010909 -0.686445 -0.727100
0.073562 0.235238 -0.217314 0.053182 -0.672628 -0.738067
1.555201 0.213421 0.197753 -0.010909 -0.660429 0.750809
1.047104 -0.065297 0.063829 0.000809 -0.759081 0.643965
0.740804 0.089247 0.019312 0.002204 0.939994 0.328339
-0.093030 0.251431 0.238742 -0.023591 -0.662424 0.748758
0.749727 -0.051375 0.075488 -0.001070 -0.648583 0.756436
1.617862 -0.099783 -0.086060 0.019770 -0.677987 0.734808
0.503093 -0.090020 0.015310 -0.002810 -0.973353 0.215603
-0.299910 -0.218075 0.189368 -0.053153 -0.696809 -0.715284
-0.076717 0.242873 -0.196940 -0.053153 0.696809 0.715284
-0.050575 0.136731 -0.136485 0.053182 -0.672628 -0.738067
1.548591 0.313008 -0.285256 -0.010909 0.686445 0.727100
1.759030 -0.015809 -0.089730 0.005717 -0.112535 -0.990392
0.310973 -0.040321 -0.081928 0.000013 -0.518103 -0.851028
-0.278463 0.178133 0.168053 -0.023591 -0.662424 0.748758
-1.746621 0.077073 -0.047805 -0.089426 0.789675 -0.600261
-0.090747 0.060136 -0.069576 -0.000000 -0.739113 0.673582
-1.778613 -0.068058 0.053255 -0.154216 -0.786585 0.588641
-1.889786 0.033166 0.010106 -0.637572 0.725450 0.242875
1.370138 0.106792 -0.093247 -0.010909 0.686445 0.727100
-0.311170 0.179902 -0.153018 -0.053153 0.696809 0.715284
-0.159228 -0.374165 -0.330972 -0.053153 -0.696809 0.715284
-0.223517 0.197252 -0.186699 -0.023591 -0.662424 -0.748758
0.024295 0.323496 0.280187 0.119327 0.668769 -0.733832
-0.057202 0.210571 0.164022 0.057796 0.680535 -0.729062
-0.096186 0.422109 0.389641 -0.023591 -0.662424 0.748758
-1.754443 0.076482 0.047486 -0.134348 0.817875 0.550847
-0.006600 0.278900 0.262880 0.053182 -0.672628 0.738067
-1.681446 0.030086 0.086213 -0.000445 0.420354 0.904308
1.812861 0.019984 0.020424 1.000000 0.000000 0.000000
0.366196 0.083232 -0.037554 -0.001345 0.892037 -0.443596
1.682574 -0.272566 0.247223 0.019770 -0.677987 -0.734808
1.681731 -0.332929 -0.303920 0.019770 0.668887 -0.743101
1.314104 0.108043 -0.101557 -0.010909 -0.660429 -0.750809
-1.821936 -0.000000 0.073812 -0.318214 -0.088172 0.935059
1.252103 0.158340 0.144898 -0.010909 -0.660429 0.750809
-0.067571 0.298498 -0.281184 -0.023591 -0.662424 -0.748758
1.453285 0.176158 0.163495 -0.010909 -0.660429 0.750809
-0.717568 0.049559 0.076693 -0.000891 0.647056 0.757233
-0.239233 0.130899 -0.127501 -0.023591 -0.662424 -0.748758
0.089833 0.601956 -0.550345 0.053182 -0.672628 -0.738067
0.223602 0.016756 -0.089762 -0.002362 0.230172 -0.969556
1.377811 0.220345 -0.200336 -0.010909 0.686445 0.727100
0.003421 -0.663762 -0.601003 -0.053153 -0.696809 0.715284
0.051571 -0.494729 0.455382 0.053182 0.672628 0.738067
-0.146527 0.165627 -0.161146 -0.023591 -0.662424 -0.748758
1.588980 -0.292046 0.267404 -0.010909 0.660429 0.750809
-0.313024 -0.148793 0.122850 -0.053153 -0.696809 -0.715284
-1.123843 0.031691 -0.085636 0.000460 0.406781 -0.909541
-0.163538 0.461653 -0.422503 -0.023591 -0.662424 -0.748758
1.373495 -0.135280 -0.120092 -0.010909 -0.686445 0.727100
-0.075838 -0.118094 -0.121320 0.002008 0.666166 -0.745573
-0.145541 -0.239104 -0.226182 -0.023591 0.662424 -0.748758
0.379155 -0.037627 -0.083199 -0.000035 -0.481025 -0.872155
-0.159224 -0.390480 0.346866 -0.053153 -0.696809 -0.715284
1.647802 -0.341965 0.312169 -0.010909 0.660429 0.750809
1.178230 0.143326 -0.130619 -0.010909 0.686445 0.727100
0.068199 -0.595504 0.535217 0.119327 -0.668769 -0.733832
1.565704 0.144625 0.126031 0.014657 0.679427 -0.733556
-0.154236 0.393329 -0.362350 -0.023591 -0.662424 -0.748758
-0.625778 0.071397 0.056925 0.000569 0.818134 0.568775
-0.479806 -0.079200 0.045445 -0.000525 -0.833000 0.546209
0.403849 0.012433 -0.090462 -0.004191 0.225874 -0.971760
1.812861 -0.088506 -0.020245 0.005930 -0.992798 -0.070299
-0.008533 0.432595 -0.401680 -0.023591 -0.662424 -0.748758
-0.199609 -0.447552 0.408892 -0.023591 0.662424 0.748758
-0.539522 -0.078917 0.045934 0.003155 -0.893927 0.440071
1.435549 -0.183304 -0.169523 -0.010909 0.660429 -0.750809
-0.139856 -0.207204 -0.166884 -0.053153 -0.696809 0.715284
-0.489501 0.086327 0.029759 0.000003 0.893637 0.440733
-0.119999 0.088940 -0.020678 -0.000080 0.951996 -0.289596
-0.075858 -0.477357 0.439159 -0.023591 0.662424 0.748758
-0.145541 -0.239104 0.226182 -0.023591 0.662424 0.748758
-0.040190 0.522959 0.480627 -0.023591 -0.662424 0.748758
0.039369 0.301443 -0.280112 0.053182 -0.672628 -0.738067
-0.120588 0.182463 0.141350 -0.053153 0.696809 -0.715284
1.575522 0.049062 -0.077012 -0.000110 0.586170 -0.805281
-0.193445 -0.298347 -0.277084 -0.023591 0.662424 -0.748758
-0.422262 -0.143658 -0.125965 -0.053153 -0.696809 0.715284
-0.080909 -0.450857 -0.399863 -0.053153 -0.696809 0.715284
0.603518 -0.055473 -0.072530 -0.001240 -0.668452 -0.738538
-0.044276 0.083357 0.087389 0.053182 -0.672628 0.738067
0.072611 0.553566 -0.497715 0.119327 0.668769 0.733832
0.010166 0.615199 -0.563818 -0.023591 -0.662424 -0.748758
0.114251 0.346592 -0.315862 0.119327 0.668769 0.733832
1.704747 -0.218894 -0.200661 0.019770 0.668887 -0.743101
-0.179498 0.509646 -0.464459 -0.053153 0.696809 0.715284
-1.127232 0.080902 -0.042341 0.001500 0.843922 -0.529616
0.067264 -0.318832 -0.282923 0.119327 -0.668769 0.733832
-1.625739 -0.082527 0.039079 -0.000349 -0.874557 0.476035
-0.022238 0.270284 -0.224126 0.119327 0.668769 0.733832
-0.008626 0.458586 0.402021 -0.053153 0.696809 -0.715284
-1.836561 0.057729 0.035176 -0.425116 0.837278 0.324122
0.014082 0.247534 0.209299 0.119327 0.668769 -0.733832
-0.143369 0.322294 -0.299848 -0.023591 -0.662424 -0.748758
-0.618196 -0.090319 0.013429 -0.000055 -0.975887 0.204514
0.037532 0.089447 0.069042 0.119327 0.668769 -0.733832
1.472182 -0.044624 0.079666 -0.000945 -0.441426 0.893461
0.297757 -0.083711 -0.036474 -0.002068 -0.946351 -0.310781
0.094955 -0.580754 -0.526125 0.119327 -0.668769 0.733832
-0.633337 0.015067 0.090060 -0.000251 0.279471 0.956647
-0.339725 0.320150 -0.291765 -0.053153 0.696809 0.715284
-0.096378 0.099535 0.104254 -0.023591 -0.662424 0.748758
-0.062007 -0.260992 0.248178 -0.023591 0.662424 0.748758
1.795497 0.029427 -0.086000 0.010531 0.233632 -0.969297
-0.070861 -0.341534 0.292617 -0.053153 -0.696809 -0.715284
1.708146 -0.076822 -0.049359 0.000304 -0.773952 -0.626912
-0.448758 0.084100 -0.035568 0.001433 0.960956 -0.259290
1.717426 -0.154660 -0.139372 0.019770 -0.677987 0.734808
-0.081069 -0.172395 -0.169196 -0.023591 0.662424 -0.748758
1.547013 0.273365 0.247853 -0.010909 0.686445 -0.727100
-0.395948 0.187913 -0.173004 -0.023591 -0.662424 -0.748758
-0.681622 0.088175 0.023731 -0.003102 0.947728 0.308083
1.490949 0.044700 0.079623 -0.002480 0.533014 0.842797
-0.065450 -0.238050 -0.191404 -0.053153 -0.696809 0.715284
-0.351592 0.045613 0.079103 -0.000355 0.544033 0.834517
-0.217399 -0.097412 -0.065690 -0.053153 -0.696809 0.715284
-1.616176 0.088930 -0.020721 -0.000061 0.951691 -0.290430
1.316742 0.088975 -0.020529 -0.000087 0.952404 -0.288243
-0.143458 0.363049 0.335901 -0.023591 -0.662424 0.748758
1.096812 -0.073957 0.053556 -0.000132 -0.768246 0.633926
1.691457 0.070524 -0.058002 -0.000443 0.773048 -0.627992
1.406800 -0.217179 0.196913 -0.010909 -0.686445 -0.727100
1.505809 0.033672 -0.084877 -0.000790 0.310086 -0.946406
0.069827 -0.102469 -0.086160 0.119327 -0.668769 0.733832
0.628318 -0.000000 0.091312 -0.002556 -0.150272 0.982825
-0.236618 -0.181611 0.149142 -0.053153 -0.696809 -0.715284
-0.136771 -0.560178 -0.510511 -0.053153 -0.696809 0.715284
-0.051599 0.374535 -0.348957 -0.023591 -0.662424 -0.748758
-0.096186 -0.422109 0.389641 -0.023591 0.662424 0.748758
0.142574 -0.038454 -0.082820 0.001272 -0.358979 -0.928050
-0.114059 -0.142748 0.102176 -0.053153 -0.696809 -0.715284
1.457788 0.085622 0.031729 0.001082 0.914550 0.396871
-0.235923 0.170026 0.137805 -0.053153 0.696809 -0.715284
-0.141031 0.071348 -0.057273 -0.000000 -0.739113 0.673582
-0.336869 0.266384 0.244288 -0.023591 -0.662424 0.748758
-0.428733 0.106177 0.089933 -0.053153 0.696809 -0.715284
-0.219183 0.048879 0.077128 -0.000042 0.479127 0.873253
1.671932 -0.147497 -0.137268 0.019770 0.668887 -0.743101
-0.392451 0.073262 -0.055172 -0.053153 0.696809 0.715284
-0.209104 -0.163191 -0.129154 -0.053153 -0.696809 0.715284
1.700953 0.294367 0.267833 0.019770 0.677987 -0.734808
-0.169052 -0.181371 0.174365 -0.023591 0.662424 0.748758
-0.059322 0.601557 0.545066 -0.053153 0.696809 -0.715284
1.634422 0.303254 -0.277924 -0.010909 -0.660429 -0.750809
-1.097873 -0.087800 -0.025083 -0.003174 -0.918591 -0.384102
-1.831870 0.042359 -0.055364 -0.370948 0.577080 -0.722134
-0.049225 -0.165440 0.162552 0.053182 0.672628 0.738067
1.164141 -0.100205 -0.090120 -0.010909 -0.686445 0.727100
-0.042078 0.070717 -0.057966 0.000000 -0.739113 0.673582
0.072676 0.458636 -0.411212 0.119327 0.668769 0.733832
0.627965 0.030108 -0.086206 0.000709 0.368674 -0.925729
-0.081069 0.172395 -0.169196 -0.023591 -0.662424 -0.748758
1.643803 0.082780 -0.079763 0.019770 -0.668887 -0.743101
0.076979 -0.639394 -0.576643 0.119327 -0.668769 0.733832
0.005343 -0.369228 0.318782 0.119327 -0.668769 -0.733832
1.414186 0.239856 0.218957 -0.010909 -0.660429 0.750809
1.115555 -0.087636 -0.080721 -0.010909 0.660429 -0.750809
0.077074 -0.240899 0.213495 0.119327 -0.668769 -0.733832
-0.268107 0.082660 0.038796 -0.000219 0.876351 0.472853
-0.166703 0.137291 -0.100772 -0.053153 0.696809 0.715284
-0.129185 0.107516 0.068978 -0.053153 0.696809 -0.715284
1.672975 -0.101271 -0.088916 0.019770 -0.677987 0.734808
0.069525 -0.508742 -0.466859 0.053182 0.672628 -0.738067
1.007106 -0.084945 0.033499 -0.001368 -0.899955 0.426558
-0.414760 0.124122 -0.115976 -0.023591 -0.662424 -0.748758
0.001582 -0.287025 0.269695 0.053182 0.672628 0.738067
1.567113 0.192564 -0.179580 -0.010909 -0.660429 -0.750809
-1.367486 -0.082414 -0.039318 0.001428 -0.870506 -0.483517
-0.116272 0.525741 -0.475441 -0.053153 0.696809 0.715284
1.660533 0.088627 0.021981 -0.001613 0.923812 0.369181
1.725381 -0.089080 0.020066 0.004047 -0.983264 0.155772
0.017188 -0.166518 -0.135971 0.119327 -0.668769 0.733832
1.655122 -0.096870 0.092145 0.019770 0.668887 0.743101
-0.324538 0.144610 0.136944 -0.023591 -0.662424 0.748758
-0.308777 0.212689 -0.197670 -0.023591 -0.662424 -0.748758
-0.447931 -0.089318 0.074935 -0.053153 -0.696809 -0.715284
-0.083292 -0.112193 -0.070124 0.004426 -0.689230 0.723342
-1.788266 -0.073572 -0.041181 -0.219588 -0.902777 -0.350235
1.312117 -0.093764 -0.081819 -0.010909 -0.686445 0.727100
-0.518286 -0.077029 -0.049034 0.000269 -0.795687 -0.597547
-0.477176 0.100467 -0.093081 -0.023591 -0.662424 -0.748758
0.120168 0.088907 0.020820 -0.000198 0.951481 0.291197
-1.126088 0.082488 0.039162 -0.000196 0.840772 0.533571
-0.388959 -0.091312 0.000000 0.000243 -0.991540 -0.084194
-0.038505 0.347490 0.325443 -0.023591 -0.662424 0.748758
-0.220241 0.174712 -0.141205 -0.053153 0.696809 0.715284
-0.055967 -0.585477 0.529152 -0.053153 -0.696809 -0.715284
-0.737541 -0.076811 -0.049376 0.000420 -0.867912 -0.488057
-0.009973 0.091312 -0.000000 0.001111 0.991876 -0.077562
0.076955 0.276216 -0.254413 0.053182 -0.672628 -0.738067
-0.074009 -0.089518 0.018014 -0.003129 -0.957365 0.273057
-0.110996 0.264033 -0.249325 -0.023591 -0.662424 -0.748758
-1.889823 -0.026575 -0.022222 -0.628312 -0.690234 -0.332044
-0.056377 0.286021 0.270498 -0.023591 -0.662424 0.748758
-0.198978 -0.088907 0.020820 -0.000192 -0.951457 0.291301
1.387521 -0.081952 0.040271 -0.000948 -0.834175 0.544192
-0.008691 -0.449059 0.416240 -0.023591 0.662424 0.748758
1.695222 0.234225 0.212187 0.019770 0.677987 -0.734808
0.468745 0.000000 -0.091312 0.002390 0.141048 -0.984885
-0.064236 -0.588643 -0.532851 -0.053153 -0.696809 0.715284
-0.023656 -0.320945 -0.302427 0.002008 0.666166 -0.745573
-0.038656 0.132221 0.131516 0.053182 -0.672628 0.738067
0.032252 -0.074128 0.054222 0.000000 0.739113 -0.673582
1.741561 0.139364 0.128094 0.019770 -0.668887 0.743101
-0.273912 0.113003 0.085077 -0.053153 0.696809 -0.715284
1.475909 0.214920 0.193743 -0.010909 0.686445 -0.727100
0.049422 -0.342940 0.301993 0.119327 -0.668769 -0.733832
0.876597 -0.076156 0.050381 0.000944 -0.803782 0.585734
1.731794 0.178912 0.162136 0.019770 0.677987 -0.734808
-0.010300 -0.213423 -0.203475 0.053182 0.672628 -0.738067
0.793571 0.086353 -0.029683 0.000676 0.927436 -0.365275
1.178230 0.143326 0.130619 -0.010909 0.686445 -0.727100
-0.263660 -0.101994 -0.073592 -0.053153 -0.696809 0.715284
1.449677 -0.096707 0.093555 -0.010909 0.660429 0.750809
1.656830 -0.133307 0.124897 0.019770 0.668887 0.743101
-0.093597 0.497269 -0.446019 -0.053153 0.696809 0.715284
0.013616 -0.477597 -0.418888 0.008547 -0.688541 0.723766
1.738749 0.100281 -0.089772 0.019770 0.677987 0.734808
-0.029366 -0.435605 -0.381175 -0.053153 -0.696809 0.715284
-0.097482 -0.183228 0.178262 -0.023591 0.662424 0.748758
-1.476631 -0.084267 -0.035169 -0.000301 -0.921695 -0.376481
-0.029247 -0.079107 0.048759 0.000000 0.739113 -0.673582
-0.075657 -0.371601 -0.345604 -0.023591 0.662424 -0.748758
1.531934 -0.148288 -0.140122 -0.010909 0.660429 -0.750809
-0.219183 -0.048879 0.077128 -0.000042 -0.479127 0.873253
-0.205549 0.320895 0.296651 -0.023591 -0.662424 0.748758
0.718837 0.040956 0.081612 0.000748 0.548495 0.831437
1.464418 0.274444 -0.250111 -0.010909 0.686445 0.727100
-0.082892 -0.356113 0.331673 -0.023591 0.662424 0.748758
0.072431 0.403876 -0.361267 0.119327 0.668769 0.733832
0.278511 0.081840 -0.040499 -0.000400 0.877257 -0.472210
-0.205549 -0.320895 0.296651 -0.023591 0.662424 0.748758
-0.352427 -0.238895 -0.219478 -0.023591 0.662424 -0.748758
1.614728 -0.037148 0.083414 -0.000388 -0.496745 0.864119
0.762368 -0.072351 -0.055707 0.000385 -0.733716 -0.672897
-1.291077 0.017295 -0.089659 -0.004583 0.274621 -0.956914
0.093024 -0.307192 0.281485 0.053182 0.672628 0.738067
-0.094336 -0.302759 0.256588 -0.053153 -0.696809 -0.715284
1.701290 0.246365 -0.223552 0.019770 0.677987 0.734808
1.279238 0.189603 -0.172793 -0.010909 0.686445 0.727100
-0.136548 0.291575 0.248830 -0.053153 0.696809 -0.715284
-0.056572 -0.155426 -0.113869 0.119327 -0.668769 0.733832
-0.049747 0.219520 0.211874 0.027599 -0.669567 0.742010
-0.150823 0.132791 0.131960 -0.023591 -0.662424 0.748758
