1.611106 -0.384153 -0.348509 0.029716 -0.687215 0.725376
1.349138 0.000000 -0.080213 -0.001304 -0.159008 -0.981282
-0.226004 -0.313447 0.284363 -0.055034 -0.700023 -0.711997
0.356800 -0.071521 -0.036315 -0.001004 -0.855158 -0.509227
-0.202225 0.337641 0.306313 -0.035751 -0.651980 0.757393
-0.190336 -0.349738 -0.317287 -0.055034 -0.700023 0.711997
-1.353686 0.077752 -0.019714 -0.001042 0.938923 -0.324965
-0.530413 0.061628 0.051342 0.001709 0.806633 0.581758
-0.166558 0.373932 -0.339237 -0.035751 -0.651980 -0.757393
0.163369 0.208029 0.188727 0.084724 0.669496 -0.737968
0.163369 -0.267478 0.242660 0.084724 -0.669496 -0.737968
0.163369 0.252616 -0.229177 0.055079 -0.670892 -0.739507
1.318654 -0.224678 0.203831 -0.037838 0.632479 0.773653
1.318654 0.224678 0.203831 -0.037838 0.708605 -0.704590
1.650754 -0.103292 0.093708 0.063473 -0.675457 -0.734663
0.163369 -0.282340 -0.256143 0.084724 -0.669496 0.737968
-0.380564 -0.156185 -0.141693 -0.055034 -0.700023 0.711997
1.644494 0.147638 -0.133940 0.063473 0.675457 0.734663
1.058697 -0.082923 -0.075229 -0.037838 -0.708605 0.704590
-0.356786 0.180379 -0.163642 -0.035751 -0.651980 -0.757393
1.367396 -0.251257 -0.227944 -0.037838 -0.708605 0.704590
1.367396 0.251257 -0.227944 -0.037838 0.708605 0.704590
1.640320 0.177203 0.160761 0.063473 0.675457 -0.734663
-0.055461 -0.156263 0.116641 -0.008422 -0.691058 -0.721936
-0.277162 0.137600 0.130576 -0.035751 -0.651980 0.757393
-0.370181 -0.142427 0.130340 -0.035751 0.651980 0.757393
1.618689 -0.176796 -0.162244 0.063473 0.665627 -0.743581
-0.010729 -0.424281 0.389934 -0.035751 0.651980 0.757393
0.058528 0.396348 0.367382 0.055079 -0.670892 0.739507
1.107439 0.109502 0.099342 -0.037838 0.708605 -0.704590
0.599842 0.017266 -0.078333 0.000354 0.282902 -0.953771
-0.059143 -0.194278 -0.154301 -0.055034 -0.700023 0.711997
0.146394 0.073361 -0.032438 -0.001199 0.937573 -0.333684
-1.549010 -0.080213 0.000000 -0.000195 -0.995019 -0.041370
-0.729534 0.000000 -0.080213 0.002922 -0.074306 -0.991608
0.022182 -0.439349 -0.388964 -0.055034 -0.700023 0.711997
0.068452 0.419446 -0.369631 0.084724 0.669496 0.737968
-1.117410 0.078462 -0.016667 -0.001113 0.989343 -0.101797
1.172428 0.144941 -0.131492 -0.037838 0.708605 0.704590
-0.060128 0.232791 -0.192243 -0.055034 0.700023 0.711997
-0.059477 0.194320 0.154369 -0.055034 0.700023 -0.711997
0.163369 -0.103994 0.094345 0.084724 -0.669496 -0.737968
1.448320 0.085899 0.094280 0.000000 -0.671912 0.740631
1.210695 -0.083229 0.082913 -0.037838 0.632479 0.773653
1.545198 -0.241780 0.211916 0.063473 -0.675457 -0.734663
0.141413 -0.125455 -0.111294 0.084724 -0.669496 0.737968
1.443515 -0.112466 0.085679 0.000000 -0.671912 -0.740631
-1.233273 -0.077661 0.020071 -0.000034 -0.942110 0.317105
-0.247089 -0.077194 -0.021797 -0.000523 -0.907364 -0.405737
1.228600 -0.154818 -0.138409 -0.037838 -0.708605 0.704590
0.489687 0.000000 0.080213 -0.000138 -0.070960 0.992359
1.539017 -0.016930 -0.078406 0.000005 -0.070644 -0.992428
-0.033294 -0.296210 0.252521 -0.055034 -0.700023 -0.711997
-0.011998 0.531194 0.481907 -0.035751 -0.651980 0.757393
-0.394102 0.020992 -0.077417 -0.004502 0.330093 -0.937202
0.000000 0.016930 0.078406 0.000005 0.070644 0.992428
1.464880 0.304416 0.276170 -0.037838 0.708605 -0.704590
0.982801 0.075358 -0.027483 0.001838 0.950527 -0.297892
1.465247 0.147324 -0.118164 0.028859 0.685820 0.726724
-1.629226 0.079067 -0.000000 -0.144385 0.978501 -0.083146
-0.853934 0.077616 0.020245 -0.000723 0.913637 0.391483
-0.011998 0.531194 -0.481907 -0.035751 -0.651980 -0.757393
0.163369 -0.401237 0.364008 0.084724 -0.669496 -0.737968
1.557166 0.257887 -0.240085 0.063473 -0.665627 -0.743581
0.734000 -0.077616 -0.020247 0.000716 -0.913623 -0.391514
-0.013438 -0.304728 -0.286892 -0.035751 0.651980 -0.757393
-0.223919 -0.210554 -0.195889 -0.035751 0.651980 -0.757393
1.654927 0.075047 0.019978 1.000000 -0.000000 -0.000000
0.277360 0.031688 0.073688 -0.003245 0.396546 0.912311
1.281996 0.080166 0.060464 -0.000000 -0.740631 -0.671912
1.431977 -0.143382 -0.115986 -0.037838 -0.708605 0.704590
-0.673003 -0.022267 0.077060 0.003080 -0.365543 0.923729
0.909419 -0.080213 0.000000 0.000977 -0.979728 -0.167470
-0.227357 0.256836 -0.235567 -0.035751 -0.651980 -0.757393
-0.567581 -0.063266 -0.049311 -0.000776 -0.729099 -0.676226
-0.206341 -0.189694 0.178762 -0.035751 0.651980 0.757393
-0.037589 0.296854 0.278974 -0.035751 -0.651980 0.757393
-0.107112 0.434417 0.394110 -0.035751 -0.651980 0.757393
0.649266 0.034073 0.072616 -0.000039 0.479029 0.872030
-1.388557 -0.060525 0.052639 -0.000182 -0.700519 0.706518
-0.000767 -0.083012 -0.056466 0.084724 -0.669496 0.737968
-0.000108 -0.543291 0.492881 -0.055034 -0.700023 -0.711997
-0.379721 0.017188 0.078350 -0.000360 0.143879 0.984571
1.519827 -0.274182 -0.254141 -0.037838 0.632479 -0.773653
1.049004 -0.033649 0.072814 0.000387 -0.480841 0.870954
0.011781 -0.555388 -0.503856 -0.055034 -0.700023 0.711997
1.189240 0.000000 -0.080213 -0.009916 -0.159512 -0.981052
0.075549 0.152387 -0.144788 0.055079 -0.670892 -0.739507
-0.178797 0.018671 0.078009 -0.000735 0.291828 0.951070
0.418402 0.069713 -0.039675 -0.000533 0.832434 -0.544807
-0.212168 0.138604 -0.134508 -0.035751 -0.651980 -0.757393
-1.082127 -0.067978 -0.042581 -0.000752 -0.908199 -0.406741
-1.489542 0.060207 0.053002 0.000149 0.647286 0.755661
0.163369 -0.401237 -0.364008 0.084724 -0.669496 0.737968
-0.963992 0.033351 -0.072951 -0.003315 0.331405 -0.938714
-0.021503 0.321770 -0.301182 -0.035751 -0.651980 -0.757393
0.837123 0.018122 -0.078139 0.001932 0.144537 -0.984210
1.497660 0.199953 0.169352 0.027300 0.687998 -0.724651
0.163369 0.326926 0.296592 0.084724 0.669496 -0.737968
-0.800302 -0.073345 0.032474 -0.001510 -0.932188 0.348180
-0.999697 0.047861 0.064370 -0.000218 0.475789 0.873739
1.324088 0.132338 -0.128607 -0.037838 -0.632479 -0.773653
-0.285450 0.252961 0.229490 -0.035751 -0.651980 0.757393
1.625713 0.280678 0.254635 0.063473 0.675457 -0.734663
0.163369 0.475547 0.431423 0.084724 0.669496 -0.737968
0.103004 0.112498 0.095129 0.084724 0.669496 -0.737968
-0.265105 0.077475 -0.020777 0.000690 0.937710 -0.329474
-1.475464 0.016763 -0.078442 -0.002455 0.274195 -0.956341
0.064270 -0.188602 0.178483 0.055079 0.670892 0.739507
-0.142779 -0.398126 0.361186 -0.055034 -0.700023 -0.711997
0.269784 0.029627 -0.074541 -0.002130 0.378091 -0.920470
-1.239208 0.016930 -0.078406 0.000035 0.070666 -0.992423
0.504222 -0.071051 -0.037227 0.001212 -0.842735 -0.529280
1.654927 -0.082718 -0.055384 -0.275613 -0.746241 -0.600948
1.538956 -0.017397 0.078303 0.000215 -0.282568 0.953884
-1.119047 -0.017217 0.078343 0.000041 -0.143297 0.984992
-1.658255 -0.035054 -0.065479 -0.252897 -0.547235 -0.787633
-1.245844 0.055738 0.057683 -0.002190 0.630934 0.769815
0.719899 0.070446 -0.038360 -0.000703 0.840712 -0.531661
-0.132999 -0.083444 -0.090762 -0.035751 0.651980 -0.757393
-0.429725 -0.080213 0.000000 -0.002625 -0.984675 -0.138293
-0.061768 0.432125 -0.394277 -0.035751 -0.651980 -0.757393
-1.658255 -0.035054 0.065479 -0.252906 -0.547244 0.787624
-0.644119 0.077887 -0.019176 0.000689 0.943593 -0.312607
1.432386 -0.286696 0.260095 -0.037838 0.632479 0.773653
1.332766 -0.075166 0.028003 0.001439 -0.954204 0.286731
0.065847 -0.215729 -0.202976 0.055079 0.670892 -0.739507
-0.107112 -0.434417 -0.394110 -0.055034 -0.700023 0.711997
0.020400 0.048753 -0.063696 -0.000259 0.657310 -0.746795
0.226074 -0.077640 -0.020153 -0.000580 -0.941334 -0.318769
-0.172296 -0.112702 0.082843 -0.055034 -0.700023 -0.711997
0.096400 -0.485244 0.432532 0.084724 -0.669496 -0.737968
0.163369 0.475547 -0.431423 0.055079 -0.670892 -0.739507
-0.151840 0.257549 0.223673 -0.055034 0.700023 -0.711997
0.076363 -0.330264 0.306100 0.055079 0.670892 0.739507
1.107274 0.077126 -0.022039 -0.001113 0.933512 -0.339742
-0.404343 0.131991 0.119744 -0.035751 -0.651980 0.757393
1.224700 0.154584 0.141933 -0.037838 -0.632479 0.773653
1.529023 0.080213 -0.000000 0.000294 0.978905 -0.166777
0.614158 -0.077752 0.019714 0.001042 -0.938923 0.324965
0.131977 -0.491642 -0.442421 0.084724 -0.669496 0.737968
-0.849211 -0.033211 -0.073015 0.000413 -0.281150 -0.954278
-0.124422 -0.267329 -0.249459 -0.035751 0.651980 -0.757393
0.163369 0.356650 -0.323558 0.055079 -0.670892 -0.739507
0.048877 0.244721 0.208870 0.084724 0.669496 -0.737968
-1.358430 -0.048065 -0.064217 0.000971 -0.479242 -0.871912
-0.151138 0.133509 0.101665 -0.055034 0.700023 -0.711997
-0.038522 0.145909 -0.109192 0.084724 0.669496 0.737968
0.529662 0.080213 -0.000000 0.000483 0.990264 -0.079671
0.941161 0.015078 0.078783 -0.003330 0.061836 0.994186
1.427998 -0.195286 0.168400 -0.037838 -0.708605 -0.704590
1.654927 0.037920 -0.092041 -0.275664 0.280318 -0.916398
0.050044 -0.091071 0.069611 0.084724 -0.669496 -0.737968
1.412365 0.077407 -0.021030 0.000102 0.937922 -0.328331
-0.518705 0.048997 -0.063509 -0.000839 0.656357 -0.747456
1.221170 -0.171520 0.155605 -0.037838 0.632479 0.773653
-0.068740 -0.072669 0.039279 0.030380 -0.682515 -0.729076
-0.559876 -0.047866 0.064365 0.000099 -0.475511 0.873992
-0.309229 -0.228767 0.207541 -0.055034 -0.700023 -0.711997
-0.268402 -0.140861 -0.117958 -0.055034 -0.700023 0.711997
1.534754 -0.321001 0.293147 -0.037838 0.632479 0.773653
-0.740855 0.070574 0.038123 -0.000877 0.802681 0.587364
0.050019 0.232473 -0.219346 0.055079 -0.670892 -0.739507
1.560401 -0.152515 0.145484 0.063473 0.665627 0.743581
0.158603 0.016607 0.078475 -0.001498 0.340767 0.934918
-0.288640 -0.081663 0.081882 -0.035751 0.651980 0.757393
0.380038 -0.041649 0.068553 0.001495 -0.581520 0.806838
1.452913 -0.077727 -0.019815 0.000493 -0.939784 -0.322684
1.351538 0.150666 0.127631 -0.037838 0.708605 -0.704590
-0.138638 -0.267258 0.232198 -0.055034 -0.700023 -0.711997
1.562889 0.122267 0.103563 0.063473 0.675457 -0.734663
1.324058 -0.139278 0.117655 -0.037838 -0.708605 -0.704590
1.262033 -0.079657 -0.061025 -0.037838 -0.708605 0.704590
-0.687960 -0.078563 -0.016186 -0.000418 -0.950330 -0.290993
-0.127424 0.295099 -0.258704 -0.055034 0.700023 0.711997
1.464880 0.304416 -0.276170 -0.037838 0.708605 0.704590
1.627800 -0.265896 -0.241225 0.063473 -0.675457 0.734663
1.186374 0.029956 0.074409 -0.001982 0.444485 0.890724
0.959308 -0.017118 -0.078365 -0.000573 -0.145829 -0.984608
-0.046793 0.113801 0.079114 0.084724 0.669496 -0.737968
-0.881320 -0.015379 0.078725 -0.001852 -0.266696 0.958886
0.113492 -0.077557 -0.020470 0.000570 -0.939007 -0.325294
0.085166 -0.341904 -0.301202 0.084724 -0.669496 0.737968
0.809378 -0.059046 0.054293 0.000401 -0.773294 0.626870
1.262033 0.079657 -0.061025 -0.000000 -0.740631 0.671912
1.389112 0.000000 0.080213 0.002810 -0.091321 0.987221
-0.342336 -0.069961 -0.069274 -0.035751 0.651980 -0.757393
1.540865 -0.119709 -0.099308 0.063473 -0.675457 0.734663
1.143862 -0.078805 -0.014964 0.000865 -0.944074 -0.315998
1.487422 -0.209238 -0.179240 -0.037838 -0.708605 0.704590
1.332858 -0.153605 -0.146422 -0.037838 0.632479 -0.773653
-0.429725 0.080213 -0.000000 -0.002994 0.984671 -0.138431
-0.209866 0.000000 -0.080213 -0.000533 -0.146114 -0.983789
1.654927 -0.000000 0.099547 -0.273598 -0.106666 0.952543
1.463824 0.228089 -0.199466 -0.037838 0.708605 0.704590
1.568998 -0.080213 0.000000 -0.106332 -0.979396 -0.087760
1.552634 0.098410 -0.097714 0.063473 -0.665627 -0.743581
0.062790 0.307912 0.286833 0.055079 -0.670892 0.739507
0.040654 -0.148931 -0.121024 0.084724 -0.669496 0.737968
-1.558950 -0.017177 0.078352 0.000044 -0.140253 0.985079
-0.416232 0.119893 -0.108769 -0.035751 -0.651980 -0.757393
-0.249782 -0.289252 -0.262414 -0.055034 -0.700023 0.711997
-0.047665 -0.494903 -0.448983 -0.055034 -0.700023 0.711997
-0.085739 -0.364716 -0.323928 -0.055034 -0.700023 0.711997
-1.350018 0.035513 0.071923 0.000099 0.499755 0.860242
1.286160 0.206959 -0.187756 -0.037838 0.708605 0.704590
-0.037908 0.375430 0.346599 -0.035751 -0.651980 0.757393
-0.313032 0.108523 -0.103853 -0.035751 -0.651980 -0.757393
1.636147 -0.206767 0.187582 0.063473 -0.675457 -0.734663
0.163369 -0.178305 0.161761 0.084724 -0.669496 -0.737968
0.163369 0.401237 0.364008 0.084724 0.669496 -0.737968
-0.280231 0.038692 0.070264 -0.003425 0.395496 0.911893
-1.449888 -0.076446 -0.024291 0.003470 -0.928227 -0.354924
1.107439 -0.109502 0.099342 -0.037838 0.632479 0.773653
1.625713 -0.280678 0.254635 0.063473 -0.675457 -0.734663
0.163369 -0.208029 -0.188727 0.084724 -0.669496 0.737968
-0.028278 -0.225004 0.182124 -0.008422 -0.691058 -0.721936
0.371599 0.055901 0.057526 -0.000719 0.748306 0.655934
-0.206341 0.189694 0.178762 -0.035751 -0.651980 0.757393
0.057466 0.484777 0.430901 -0.055034 0.700023 -0.711997
0.499793 0.017656 -0.078246 0.000128 0.285051 -0.953016
0.075074 0.329236 -0.288551 0.084724 0.669496 0.737968
-0.344896 0.192476 0.174617 -0.035751 -0.651980 0.757393
0.889432 0.080213 -0.000000 -0.002486 0.992864 -0.066416
-0.321118 -0.216670 -0.196566 -0.055034 -0.700023 0.711997
-0.158344 -0.169271 -0.137382 -0.055034 -0.700023 0.711997
-1.571366 0.031206 -0.073894 -0.000056 0.321266 -0.942007
-0.151649 0.194599 -0.185566 -0.035751 -0.651980 -0.757393
0.091331 0.527463 -0.470252 -0.008422 0.691058 0.721936
0.057540 -0.270079 0.232870 0.084724 -0.669496 -0.737968
1.413536 0.232651 0.214990 -0.037838 -0.632479 0.773653
1.558382 0.182003 -0.158095 0.063473 0.675457 0.734663
0.179848 -0.017188 -0.078350 0.000402 -0.137641 -0.984483
1.356663 -0.095081 -0.071454 -0.037838 -0.708605 0.704590
1.139934 -0.127221 -0.115417 -0.037838 -0.708605 0.704590
0.038197 0.155720 0.150594 0.055079 -0.670892 0.739507
0.710355 -0.045268 0.066219 0.002298 -0.452415 0.886790
-0.107142 -0.328644 0.303056 -0.035751 0.651980 0.757393
-1.173405 -0.051833 -0.061216 -0.000980 -0.595562 -0.796419
-0.629598 0.000000 -0.080213 -0.001402 -0.072673 -0.991980
1.634060 0.221549 -0.200993 0.063473 0.675457 0.734663
0.054939 0.580300 0.525014 -0.055034 0.700023 -0.711997
-0.129391 0.076616 0.023750 -0.002262 0.934207 0.340261
1.063333 0.017010 -0.078388 -0.001741 0.132347 -0.986803
1.274942 -0.015679 0.078666 -0.002048 -0.282983 0.955091
1.028598 0.060686 0.052453 0.000140 0.653429 0.750299
0.163369 0.178305 -0.161761 0.055079 -0.670892 -0.739507
-1.060164 0.014810 -0.078834 0.000372 0.243811 -0.964680
-1.030087 -0.060686 0.052453 0.000140 -0.653429 0.750299
1.621540 0.310242 -0.281456 0.063473 0.675457 0.734663
-0.469899 -0.032210 -0.073461 0.000193 -0.337944 -0.935906
0.249840 0.080213 -0.000000 -0.001304 0.995109 -0.051888
-1.714752 0.050877 -0.019448 -0.409465 0.812539 -0.387347
0.045392 0.077768 0.019653 -0.000593 0.913064 0.392244
-0.469891 -0.033195 0.073022 -0.000194 -0.349853 0.931182
1.449074 0.000000 -0.080213 -0.000002 -0.070409 -0.992377
1.538177 0.258030 0.241834 0.029716 -0.655243 0.754382
0.291776 -0.068030 0.042497 0.000289 -0.868512 0.486552
0.699516 -0.017188 -0.078350 0.000131 -0.142714 -0.984551
-0.149904 -0.080213 0.000000 0.007415 -0.996294 -0.042189
-0.059555 -0.482806 0.438008 -0.055034 -0.700023 -0.711997
0.079912 -0.017188 -0.078350 0.000058 -0.142625 -0.984588
1.009355 -0.080213 0.000000 0.000370 -0.989396 -0.076709
1.561045 0.325570 0.298168 -0.037838 -0.632479 0.773653
-0.987368 -0.052566 -0.060588 0.000013 -0.681545 -0.724299
-0.017404 -0.252500 -0.208318 0.038164 -0.680882 0.730593
-0.788682 0.061126 -0.051939 -0.000286 0.707284 -0.699705
-0.619874 0.048475 0.063908 -0.000210 0.541690 0.834379
0.417147 -0.016235 -0.078553 0.000674 -0.133226 -0.986428
0.074319 -0.581019 0.524222 -0.055034 -0.700023 -0.711997
0.734343 0.063198 0.049398 0.000871 0.714529 0.691912
0.633183 0.077613 -0.020257 0.000529 0.941100 -0.319416
-1.289483 -0.033655 0.072811 0.000218 -0.348962 0.931694
-0.281489 -0.155781 0.146022 -0.035751 0.651980 0.757393
-0.108933 -0.188230 0.182100 -0.035751 0.651980 0.757393
0.820921 -0.071456 -0.036444 0.000007 -0.915182 -0.387797
1.397350 0.185262 -0.159964 -0.037838 0.708605 0.704590
-0.030926 -0.368282 0.323198 -0.055034 -0.700023 -0.711997
-0.789496 0.000000 0.080213 0.000562 -0.166131 0.980070
-0.125258 0.371000 0.333162 -0.055034 0.700023 -0.711997
-0.299306 0.019839 -0.077721 -0.001251 0.375443 -0.920886
-0.949393 0.080213 -0.000000 0.002589 0.972593 -0.197765
-0.128871 0.140835 -0.107146 -0.055034 0.700023 0.711997
-0.021362 0.451498 0.412860 -0.035751 -0.651980 0.757393
-1.469394 -0.033923 0.072686 0.000219 -0.353264 0.929949
-0.878669 0.048643 -0.063780 0.000385 0.540484 -0.835398
-0.342811 0.078034 0.018567 -0.003326 0.954232 0.280545
0.579518 -0.017656 0.078246 -0.000128 -0.285051 0.953016
-0.001277 -0.369413 -0.343148 -0.035751 0.651980 -0.757393
-0.184975 0.090295 -0.061794 -0.055034 0.700023 0.711997
-0.089943 0.000000 0.080213 -0.000344 -0.070853 0.992382
1.654927 -0.026615 0.017786 1.000000 0.000000 -0.000000
1.529870 -0.339855 -0.308321 -0.037838 -0.708605 0.704590
0.333677 0.078265 -0.017570 0.002628 0.949898 -0.295962
-1.213246 0.078155 -0.018051 -0.000527 0.940377 -0.322942
0.026382 0.478554 -0.427186 -0.055034 0.700023 0.711997
1.189240 0.080213 -0.000000 -0.000618 0.991635 -0.049726
-0.261519 0.192096 -0.178225 -0.035751 -0.651980 -0.757393
-0.060022 -0.017397 -0.078303 0.000215 -0.282568 -0.953884
1.402021 -0.190328 -0.179826 -0.037838 0.632479 -0.773653
-1.721551 -0.051029 0.000000 -0.486861 -0.855983 -0.098800
-1.449888 0.076446 -0.024291 0.003470 0.928227 -0.354924
0.054939 0.579116 -0.526319 -0.035751 -0.651980 -0.757393
0.456812 -0.073319 0.032534 0.001513 -0.874682 0.471640
0.063468 -0.393718 0.364627 0.055079 0.670892 0.739507
-1.149552 -0.076477 0.024194 0.000547 -0.927161 0.363438
0.118062 0.530036 0.475655 0.084724 0.669496 -0.737968
-0.342811 -0.078034 0.018567 -0.001949 -0.956557 0.274448
0.048930 -0.498593 -0.445145 -0.055034 -0.700023 0.711997
-0.032344 0.232069 0.223453 -0.035751 -0.651980 0.757393
0.121834 0.271309 0.241367 0.084724 0.669496 -0.737968
-0.049968 0.080213 -0.000000 0.002577 0.989654 -0.085181
1.546051 0.335916 -0.303492 -0.037838 0.708605 0.704590
-1.542682 0.079156 -0.012977 0.000951 0.989831 -0.115991
-0.219426 0.097771 0.071807 -0.055034 0.700023 -0.711997
-1.268445 -0.060686 -0.052453 -0.000140 -0.653429 -0.750299
-1.035909 0.075358 -0.027483 0.001838 0.950527 -0.297892
-0.048532 -0.111458 -0.116899 0.055079 0.670892 -0.739507
1.286160 -0.206959 -0.187756 -0.037838 -0.708605 0.704590
0.224464 -0.033351 0.072951 0.003315 -0.331405 0.938714
0.456729 0.071927 0.035505 -0.000252 0.865463 0.489464
-1.150162 0.055017 0.058371 0.000392 0.729090 0.678069
1.533470 -0.105325 0.085444 0.063473 -0.675457 -0.734663
1.361727 0.066970 0.044149 -0.000651 0.874665 0.473041
-0.428121 -0.107796 -0.097794 -0.055034 -0.700023 0.711997
-0.214115 0.325544 -0.295338 -0.035751 -0.651980 -0.757393
1.432386 -0.286696 -0.260095 -0.037838 -0.708605 0.704590
1.107439 0.109502 -0.099342 -0.037838 0.708605 0.704590
0.812634 0.076456 -0.024260 -0.004174 0.901053 -0.423283
-0.085739 0.364716 -0.323928 -0.055034 0.700023 0.711997
1.569407 -0.227452 -0.200833 0.063473 -0.675457 0.734663
1.648667 0.118074 0.107118 0.063473 0.675457 -0.734663
1.619453 -0.325024 -0.294867 0.063473 -0.675457 0.734663
0.163369 -0.341788 0.310075 0.084724 -0.669496 -0.737968
0.163369 0.118857 -0.107828 0.055079 -0.670892 -0.739507
0.163369 -0.520134 0.471873 0.084724 -0.669496 -0.737968
0.163369 0.148581 0.134795 0.084724 0.669496 -0.737968
0.163369 0.416099 -0.377491 0.055079 -0.670892 -0.739507
-0.416774 -0.092675 0.082050 -0.055034 -0.700023 -0.711997
-1.629226 -0.079067 0.000000 -0.143125 -0.978920 -0.081565
-1.145689 0.021624 -0.077243 0.001787 0.343632 -0.931938
1.409494 0.091910 -0.099733 -0.012619 -0.658989 -0.751896
1.128971 -0.033655 0.072811 -0.000260 -0.350065 0.931188
1.269189 0.000000 -0.080213 -0.004244 -0.049138 -0.996170
-1.531735 -0.042302 -0.068152 -0.003476 -0.499941 -0.861838
1.341882 0.081691 -0.058783 -0.000000 -0.740631 0.671912
0.079837 -0.017656 0.078246 -0.000128 -0.285051 0.953016
-1.198707 -0.018464 0.078059 0.000721 -0.288535 0.952196
0.097482 -0.140571 0.119964 0.084724 -0.669496 -0.737968
-0.001773 0.385030 -0.356568 -0.035751 -0.651980 -0.757393
-0.451900 0.083602 0.075845 -0.035751 -0.651980 0.757393
0.163369 -0.341788 -0.310075 0.084724 -0.669496 0.737968
-1.626702 0.036887 0.070226 -0.067713 0.587035 0.796726
0.058535 -0.282242 -0.244018 0.084724 -0.669496 0.737968
-0.612694 -0.078755 0.015225 0.002302 -0.957577 0.269112
-0.215664 -0.050892 0.062001 -0.000121 -0.570247 0.815322
0.538671 -0.070558 0.038153 -0.000085 -0.840681 0.531339
-0.509674 -0.080213 0.000000 0.001413 -0.979971 -0.162232
-1.319045 0.017656 -0.078246 0.000128 0.285051 -0.953016
0.005112 0.200990 -0.164173 0.084724 0.669496 0.737968
1.588985 0.056591 0.056847 -0.244227 0.702757 0.660712
1.418925 0.182450 0.155978 -0.037838 0.708605 -0.704590
-0.114682 0.307591 0.270001 -0.055034 0.700023 -0.711997
-0.959387 -0.016930 0.078406 -0.000121 -0.070944 0.992392
-1.329151 -0.080213 0.000000 -0.001027 -0.991818 -0.058356
-0.768764 -0.060686 -0.052453 -0.000140 -0.653429 -0.750299
-1.397811 0.016607 -0.078475 0.001498 0.340767 -0.934918
0.086482 -0.396722 -0.365638 0.055079 0.670892 -0.739507
1.591642 0.223259 0.198899 0.063473 0.675457 -0.734663
0.017017 -0.488024 0.437220 -0.055034 -0.700023 -0.711997
-0.869444 -0.080213 0.000000 -0.001129 -0.988883 -0.083147
0.590375 -0.061628 -0.051342 -0.000654 -0.804946 -0.584098
-0.145199 -0.211122 -0.200094 -0.035751 0.651980 -0.757393
1.616930 -0.122758 -0.108683 0.063473 -0.675457 0.734663
-0.919706 0.048464 0.063916 -0.000264 0.541530 0.834470
-1.725404 0.015045 0.046598 -0.502833 0.334365 0.789902
0.022305 -0.150055 0.119937 0.084724 -0.669496 -0.737968
0.090090 0.084104 -0.081759 0.055079 -0.670892 -0.739507
1.190655 0.086516 -0.084620 -0.037838 -0.632479 -0.773653
-0.006530 0.279996 -0.234511 -0.008422 0.691058 0.721936
-0.228440 -0.256402 0.235143 -0.035751 0.651980 0.757393
1.482240 0.081441 -0.059059 -0.000975 -0.740631 0.671911
0.279538 -0.048085 -0.064202 -0.000413 -0.479098 -0.871870
1.373212 -0.087574 0.094414 -0.037838 0.632479 0.773653
-0.339579 0.095565 0.091445 -0.035751 -0.651980 0.757393
0.029764 0.096499 0.097496 0.055079 -0.670892 0.739507
1.216874 0.097129 0.094579 -0.037838 -0.632479 0.773653
0.343374 0.016763 -0.078442 -0.002455 0.274195 -0.956341
1.489437 0.145642 0.118708 0.063473 0.675457 -0.734663
-0.201535 -0.106989 -0.107795 -0.035751 0.651980 -0.757393
1.245314 -0.078265 0.017570 -0.002628 -0.949898 0.295962
1.252755 0.151445 -0.133720 -0.037838 0.708605 0.704590
0.879719 -0.041649 0.068553 0.001495 -0.581520 0.806838
0.084420 -0.567192 -0.509846 -0.055034 -0.700023 0.711997
1.467876 -0.235736 0.220170 -0.037838 0.632479 0.773653
0.918967 0.043317 -0.067511 -0.001187 0.647964 -0.754797
1.477130 -0.081495 -0.089017 0.063473 0.665627 -0.743581
1.546713 -0.164692 -0.157553 0.063473 0.665627 -0.743581
0.121787 0.070281 0.038661 -0.000416 0.798003 0.593783
-0.213933 0.283380 0.259051 -0.035751 -0.651980 0.757393
0.163369 -0.460685 0.417940 0.084724 -0.669496 -0.737968
1.588985 0.069587 -0.039897 -0.249982 0.832338 -0.484672
1.188457 -0.084137 -0.082567 -0.037838 0.632479 -0.773653
-0.297339 0.240864 -0.218515 -0.035751 -0.651980 -0.757393
-1.643586 0.036681 -0.067839 -0.168297 0.336121 -0.920238
1.388286 -0.244857 0.220385 -0.037838 -0.708605 -0.704590
0.660983 -0.071025 -0.037277 0.000243 -0.844747 -0.524929
1.519366 0.068230 0.073537 -0.002925 -0.740628 -0.671909
-1.070326 0.059187 0.054139 -0.000231 0.687946 0.718710
1.606133 -0.045504 0.072079 -0.284864 -0.486216 0.821673
1.469061 0.000000 0.080213 0.001301 -0.070014 0.992562
0.769472 -0.033337 -0.072957 0.000353 -0.282020 -0.954033
0.889395 -0.033330 -0.072960 0.000361 -0.281967 -0.954048
-0.718678 0.070309 -0.038610 -0.000862 0.905758 -0.412674
0.979197 -0.048041 0.064235 -0.000731 -0.538042 0.836751
-0.135276 0.180847 0.174501 -0.035751 -0.651980 0.757393
-0.019560 -0.095306 0.100088 0.055079 0.670892 0.739507
-0.081869 -0.433583 0.391338 -0.055034 -0.700023 -0.711997
-1.418892 0.018083 0.078148 0.000367 0.288164 0.952150
0.539254 0.048434 0.063940 0.000202 0.540515 0.835293
1.654927 -0.097628 0.019452 -0.274318 -0.918890 0.273502
0.069776 -0.093542 -0.074118 0.084724 -0.669496 0.737968
1.118583 0.048065 0.064217 -0.000971 0.479242 0.871912
0.026090 0.362485 0.313091 -0.008422 0.691058 -0.721936
1.290472 -0.084715 0.088030 -0.037838 0.632479 0.773653
0.093825 0.194842 0.168779 0.084724 0.669496 -0.737968
1.473350 -0.145920 0.147011 -0.004055 0.644193 0.764406
-0.172102 -0.351420 0.317532 -0.055034 -0.700023 -0.711997
-0.089235 0.186030 -0.148518 -0.055034 0.700023 0.711997
1.282286 0.122013 0.118122 -0.037838 -0.632479 0.773653
0.141936 0.306294 -0.279471 0.055079 -0.670892 -0.739507
0.769508 0.000000 0.080213 0.000449 -0.158164 0.980166
-0.738843 -0.046011 0.065705 -0.000269 -0.678406 0.727457
-0.088082 -0.073774 -0.038061 0.030380 -0.682515 0.729076
-0.563335 0.078091 -0.018326 0.000408 0.948570 -0.298770
0.021969 0.111406 -0.111601 0.055079 -0.670892 -0.739507
0.111040 0.433038 0.396756 0.055079 -0.670892 0.739507
-0.108061 -0.098927 0.105267 -0.035751 0.651980 0.757393
0.102980 0.208046 -0.181809 0.084724 0.669496 0.737968
0.122388 -0.221923 0.196627 0.084724 -0.669496 -0.737968
-0.137789 -0.047442 0.064678 -0.000392 -0.651854 0.751828
-0.916950 -0.045191 -0.066271 -0.000513 -0.629484 -0.770317
-1.284600 0.077768 -0.019653 0.000601 0.913054 -0.392258
1.488423 -0.060365 0.052822 -0.000398 -0.702942 0.703917
-1.400461 0.070844 0.037620 0.000093 0.842198 0.529445
0.094390 0.471103 -0.419472 0.084724 0.669496 0.737968
0.208031 0.055901 -0.057526 0.000719 0.748306 -0.655934
1.129597 0.034073 -0.072616 0.000039 0.479029 -0.872030
0.171908 -0.077126 0.022039 0.001113 -0.933512 0.339742
1.283317 -0.126754 -0.107246 -0.037838 -0.708605 0.704590
0.956410 0.071927 0.035505 -0.000252 0.865463 0.489464
-0.139787 -0.016615 -0.078473 0.000103 -0.278277 -0.955267
0.073869 -0.532463 0.476518 -0.055034 -0.700023 -0.711997
-1.049330 0.000000 0.080213 0.000218 -0.073289 0.992423
1.294954 0.173292 0.160663 -0.037838 -0.632479 0.773653
-0.181398 -0.299201 -0.266909 -0.055034 -0.700023 0.711997
-0.443389 0.071015 -0.065411 -0.035751 -0.651980 -0.757393
-0.189229 -0.060913 -0.052189 -0.000193 -0.704891 -0.702122
1.638177 -0.027285 -0.090617 -0.275664 -0.280318 -0.916398
0.006219 -0.077589 0.020350 0.000272 -0.909608 0.399892
1.402156 -0.140514 0.139109 -0.037838 0.632479 0.773653
-0.333099 -0.031878 0.073606 0.001140 -0.323375 0.941285
1.119307 -0.044042 -0.067040 -0.000301 -0.657398 -0.746880
-0.344343 0.061935 -0.050972 -0.000812 0.816773 -0.568099
0.425841 0.020599 0.077523 -0.002372 0.325441 0.938700
-0.053357 0.079660 -0.088411 0.055079 -0.670892 -0.739507
-0.406814 -0.055375 -0.058032 0.002060 -0.744255 -0.658265
1.626742 0.098570 -0.087292 0.063473 0.675457 0.734663
0.113475 0.358148 0.328634 0.055079 -0.670892 0.739507
-0.059555 0.482806 -0.438008 -0.035751 -0.651980 -0.757393
0.215518 0.059636 0.053644 0.001248 0.642749 0.759070
0.097426 0.367716 -0.338509 0.055079 -0.670892 -0.739507
0.097123 -0.163876 -0.153604 0.055079 0.670892 -0.739507
0.769439 0.033539 -0.072865 -0.000395 0.478580 -0.872167
-1.558713 0.048068 0.064215 -0.000426 0.536557 0.837827
-0.167862 -0.144236 0.141447 -0.035751 0.651980 0.757393
1.362559 -0.183429 0.172256 -0.037838 0.632479 0.773653
-0.076446 -0.237613 0.226143 -0.035751 0.651980 0.757393
1.577464 -0.070586 -0.070687 -0.002925 0.740628 0.671909
-0.272408 0.195830 0.180926 -0.035751 -0.651980 0.757393
1.309163 0.080213 -0.000000 0.000297 0.991490 -0.078814
1.564764 0.163769 0.155185 0.063473 -0.665627 0.743581
0.601596 0.071026 0.037275 -0.000143 0.843084 0.527555
0.111719 -0.429247 0.393266 0.055079 0.670892 0.739507
1.179028 -0.129771 0.115882 -0.037838 -0.708605 -0.704590
1.599139 -0.330328 0.297988 0.063473 -0.675457 -0.734663
1.412653 -0.073866 0.031272 0.001242 -0.886057 0.453118
1.468209 0.076959 0.022614 0.001477 0.936839 0.333851
1.520066 -0.189928 0.182417 0.063473 0.665627 0.743581
-0.082285 -0.220801 -0.211396 -0.035751 0.651980 -0.757393
-0.318051 -0.170830 -0.151260 -0.055034 -0.700023 0.711997
-1.023455 -0.078964 -0.014102 0.001764 -0.964745 -0.247458
1.257612 -0.128423 0.122155 -0.037838 0.632479 0.773653
-0.024080 0.141511 0.142342 0.055079 -0.670892 0.739507
1.400322 -0.048359 -0.063996 -0.000309 -0.658461 -0.745938
1.387992 0.114273 0.089073 -0.037838 0.708605 -0.704590
1.434887 -0.236755 -0.209735 -0.037838 -0.708605 0.704590
0.015217 -0.334989 0.286898 -0.008422 -0.691058 -0.721936
-0.046621 -0.421493 -0.376727 -0.055034 -0.700023 0.711997
-0.094212 0.141601 0.142655 -0.035751 -0.651980 0.757393
1.519112 -0.070093 -0.039000 0.001009 -0.793465 -0.599982
-0.064034 0.279585 -0.262860 -0.035751 -0.651980 -0.757393
0.102556 0.270606 -0.238516 0.084724 0.669496 0.737968
0.891184 0.054701 0.058668 0.000740 0.630786 0.768709
0.114160 -0.442708 -0.405296 0.055079 0.670892 -0.739507
-0.106082 -0.145143 -0.109621 -0.055034 -0.700023 0.711997
0.430832 -0.067614 -0.043156 -0.004040 -0.910398 -0.397989
1.088964 -0.078252 0.017628 0.000450 -0.945247 0.305555
-0.120110 -0.321038 -0.283642 -0.055034 -0.700023 0.711997
1.489557 0.173948 -0.170717 0.027300 -0.654445 -0.755091
0.320637 -0.014810 0.078834 -0.000372 -0.243811 0.964680
-0.001310 -0.171044 -0.167439 0.055079 0.670892 -0.739507
1.654927 0.013590 -0.031566 1.000000 -0.000000 -0.000000
-0.065622 -0.293421 -0.252278 -0.055034 -0.700023 0.711997
1.001823 0.031688 -0.073688 0.003245 0.396546 -0.912311
-0.097093 0.075785 0.085864 -0.035751 -0.651980 0.757393
-0.206583 0.135567 0.132157 -0.035751 -0.651980 0.757393
1.471384 0.255412 0.226538 -0.037838 0.708605 -0.704590
-0.236338 -0.115982 0.091018 -0.055034 -0.700023 -0.711997
-0.120463 0.235533 -0.222275 -0.035751 -0.651980 -0.757393
-0.187263 -0.254239 -0.223157 -0.055034 -0.700023 0.711997
-0.267870 -0.034473 -0.072427 -0.001006 -0.355770 -0.929091
0.114028 -0.078062 0.065154 0.084724 -0.669496 -0.737968
-0.189879 0.080213 -0.000000 0.000543 0.996436 -0.024976
-0.089573 0.264051 0.225253 -0.055034 0.700023 -0.711997
-0.072751 0.343245 0.301815 -0.055034 0.700023 -0.711997
0.649266 -0.034073 0.072616 -0.000039 -0.479029 0.872030
-0.355042 -0.094961 0.090195 -0.035751 0.651980 0.757393
0.163369 0.089132 0.080862 0.084724 0.669496 -0.737968
-0.257109 0.086745 -0.087745 -0.035751 -0.651980 -0.757393
0.143935 -0.534139 -0.486026 0.055079 0.670892 -0.739507
0.016746 0.269776 0.255665 0.055079 -0.670892 0.739507
0.121050 -0.303246 0.270250 0.084724 -0.669496 -0.737968
-0.538849 -0.017028 -0.078385 -0.000825 -0.282560 -0.953625
1.588985 0.020819 -0.077464 -0.172222 0.175777 -0.957366
0.961232 -0.071051 -0.037228 0.000120 -0.844325 -0.525677
1.292972 -0.175571 0.155823 -0.037838 -0.708605 -0.704590
1.489437 -0.132285 -0.133432 0.063473 0.665627 -0.743581
0.057569 0.532905 0.486664 -0.035751 -0.651980 0.757393
-0.719504 0.017188 0.078350 0.000028 0.145260 0.984490
0.120281 -0.238341 -0.219436 0.055079 0.670892 -0.739507
-0.280137 0.100516 0.079198 -0.055034 0.700023 -0.711997
-0.292494 0.156476 -0.135172 -0.055034 0.700023 0.711997
-1.718860 -0.000000 -0.052420 -0.478823 -0.085433 -0.864346
-0.628157 -0.061388 -0.051630 -0.000189 -0.710355 -0.696457
-0.285450 -0.252961 -0.229490 -0.055034 -0.700023 0.711997
-0.130890 0.410223 -0.372160 -0.035751 -0.651980 -0.757393
-0.154669 -0.386029 -0.350211 -0.055034 -0.700023 0.711997
-0.047665 0.494903 0.448983 -0.035751 -0.651980 0.757393
-0.344896 -0.192476 0.174617 -0.055034 -0.700023 -0.711997
1.416138 0.277837 -0.252057 -0.037838 0.708605 0.704590
1.481128 -0.313275 -0.284208 -0.037838 -0.708605 0.704590
1.058697 0.082923 -0.075229 -0.037838 0.708605 0.704590
1.156181 0.136081 0.123455 -0.037838 0.708605 -0.704590
0.151314 0.525865 -0.477970 0.055079 -0.670892 -0.739507
-0.167412 -0.300781 0.276226 -0.035751 0.651980 0.757393
0.163369 -0.074270 -0.067379 0.084724 -0.669496 0.737968
1.508311 -0.270173 0.250301 -0.037838 0.632479 0.773653
-0.080715 -0.390634 0.349022 -0.055034 -0.700023 -0.711997
-0.273920 -0.021122 0.077382 -0.002627 -0.316344 0.942964
1.634060 -0.221549 -0.200993 0.063473 -0.675457 0.734663
1.644494 -0.147638 0.133940 0.063473 -0.675457 -0.734663
1.627800 0.265896 -0.241225 0.063473 0.675457 0.734663
-1.588985 -0.056591 -0.056847 -0.002897 -0.599531 -0.793171
-0.217426 -0.174180 -0.146776 -0.055034 -0.700023 0.711997
-0.000037 -0.017188 -0.078350 -0.000171 -0.142517 -0.984505
-0.789496 0.000000 -0.080213 -0.000111 -0.144107 -0.984238
-0.489687 0.080213 -0.000000 -0.000067 0.989314 -0.085300
1.249202 0.080213 -0.000000 -0.000290 0.979444 -0.167643
-0.680894 0.070574 0.038123 -0.000877 0.802680 0.587365
0.011331 0.200826 0.193516 0.055079 -0.670892 0.739507
-0.410057 -0.034073 0.072616 -0.000039 -0.479029 0.872030
-1.672613 0.060412 0.036560 -0.229457 0.793787 0.548342
1.049330 0.080213 -0.000000 0.002893 0.982174 -0.151678
0.550393 0.060686 -0.052453 -0.000140 0.653429 -0.750299
-0.559606 0.017188 0.078350 0.000048 0.142922 0.984523
0.307204 0.070025 0.039122 0.000016 0.916606 0.392301
-0.090044 -0.282845 0.264439 -0.035751 0.651980 0.757393
-1.108205 -0.024563 -0.076359 -0.004382 -0.404285 -0.908447
0.110427 -0.371944 0.331355 0.084724 -0.669496 -0.737968
1.384882 0.143971 -0.119108 -0.037838 0.708605 0.704590
0.477714 0.071026 -0.037275 0.000143 0.843084 -0.527555
0.005803 -0.241196 0.230552 0.055079 0.670892 0.739507
-0.598915 0.048065 -0.064217 0.001458 0.480895 -0.870746
-0.749521 -0.080213 0.000000 0.000780 -0.978432 -0.175263
-0.010713 0.069354 0.042933 -0.000000 -0.740631 -0.671912
0.669688 0.033593 -0.072840 -0.000139 0.349902 -0.931314
-0.020164 -0.048041 0.064235 0.000144 -0.536115 0.838187
-1.432929 -0.041462 -0.068666 -0.000633 -0.490141 -0.866836
0.355998 -0.075623 0.026743 -0.000137 -0.954629 0.284826
-0.819687 0.048084 0.064203 -0.000648 0.479695 0.871529
-0.439682 0.017188 0.078350 -0.000002 0.143331 0.984441
1.617367 0.339807 0.308278 0.063473 0.675457 -0.734663
-1.500026 -0.070558 0.038153 -0.000085 -0.840681 0.531339
0.532006 -0.031478 -0.073778 -0.001312 -0.331784 -0.938080
-1.302709 0.071665 0.036030 -0.001221 0.856832 0.505412
-0.282755 -0.099609 -0.078508 -0.055034 -0.700023 0.711997
-0.348266 0.144098 0.132813 -0.035751 -0.651980 0.757393
-0.499644 0.017188 0.078350 0.000234 0.142710 0.984493
-0.348738 -0.118036 -0.110356 -0.035751 0.651980 -0.757393
-1.391378 -0.077244 -0.021619 -0.000051 -0.935690 -0.333952
1.416138 0.277837 0.252057 -0.037838 0.708605 -0.704590
1.350572 0.211343 -0.188706 -0.037838 0.708605 0.704590
1.590792 -0.098313 0.094369 0.063473 0.665627 0.743581
-0.179571 -0.228355 0.213306 -0.035751 0.651980 0.757393
0.053988 -0.077614 -0.020253 -0.000367 -0.940645 -0.320914
-1.088867 -0.060194 0.053017 -0.000174 -0.698756 0.708311
0.999361 0.016930 0.078406 -0.000035 0.070666 0.992423
1.577919 -0.285891 -0.263382 0.063473 0.665627 -0.743581
0.690934 -0.077216 0.021719 -0.000921 -0.898026 0.423923
1.539250 0.047866 -0.064365 -0.000064 0.475273 -0.874100
1.328323 0.030286 0.074275 -0.000508 0.434106 0.895500
0.135529 0.033279 -0.072984 0.001443 0.376288 -0.920337
1.029243 -0.032963 -0.073127 -0.000415 -0.338857 -0.935584
0.000211 0.434811 -0.386201 -0.055034 0.700023 0.711997
-0.208157 0.207915 -0.194362 -0.035751 -0.651980 -0.757393
-0.615223 -0.033278 0.072984 -0.001516 -0.376136 0.920408
1.160589 -0.069713 0.039675 0.000533 -0.832434 0.544807
1.322058 -0.049644 -0.063004 0.000028 -0.675749 -0.730436
1.654927 0.055174 0.082858 -0.276603 0.453518 0.843574
0.048820 -0.455028 0.402321 -0.055034 -0.700023 -0.711997
1.186374 -0.029956 0.074409 -0.001982 -0.444485 0.890724
-1.588985 -0.069587 0.039897 0.001926 -0.793359 0.600169
1.243708 0.032792 0.073204 0.000568 0.345122 0.932934
1.374454 -0.077759 -0.019690 0.000087 -0.940680 -0.321083
-0.204017 0.238588 0.209064 -0.055034 0.700023 -0.711997
0.163369 -0.163443 -0.148278 0.084724 -0.669496 0.737968
0.671589 0.077126 0.022039 0.001113 0.933512 0.339742
1.409494 -0.091910 -0.099733 -0.012619 0.658989 -0.751896
-0.001310 -0.171044 0.167439 0.055079 0.670892 0.739507
1.654927 0.091945 -0.038153 -0.274318 0.918890 -0.273502
0.758702 -0.073345 0.032474 -0.001510 -0.932188 0.348180
0.444101 -0.033279 0.072984 -0.001443 -0.376288 0.920337
-0.184738 0.284359 -0.261272 -0.035751 -0.651980 -0.757393
-0.394955 0.091541 0.079249 -0.055034 0.700023 -0.711997
-0.140465 0.335091 -0.307033 -0.035751 -0.651980 -0.757393
0.024901 0.296120 -0.278958 0.055079 -0.670892 -0.739507
0.715530 0.017010 0.078388 0.002376 0.131888 0.986801
0.090788 0.076951 -0.022643 -0.001054 0.935386 -0.337144
1.159920 0.083049 0.080283 -0.037838 -0.632479 0.773653
-0.793963 0.077616 0.020246 -0.000717 0.913625 0.391510
0.401774 0.078682 0.015596 0.000732 0.939832 0.327912
1.208854 -0.073989 -0.030979 -0.000006 -0.940057 -0.327576
0.855678 -0.075623 0.026743 -0.000137 -0.954629 0.284826
0.026090 0.362485 -0.313091 -0.008422 0.691058 0.721936
0.107642 0.568707 -0.509542 -0.005086 0.690317 0.722543
-0.362839 0.140386 -0.124790 -0.055034 0.700023 0.711997
-0.267046 -0.183835 -0.170854 -0.035751 0.651980 -0.757393
1.366977 0.187738 0.175995 -0.037838 -0.632479 0.773653
-1.196314 0.049604 -0.063036 0.002573 0.665003 -0.738943
1.350592 -0.208338 -0.192035 -0.037838 0.632479 -0.773653
1.534072 0.146138 -0.123020 0.063473 0.675457 0.734663
0.094757 0.147766 0.139165 0.055079 -0.670892 0.739507
1.328323 -0.030286 0.074275 -0.000508 -0.434106 0.895500
-0.657154 -0.065839 0.045819 0.001710 -0.854870 0.509878
0.091331 -0.527463 -0.470252 0.030156 -0.682595 0.729067
1.276343 0.107935 -0.106321 -0.037838 -0.632479 -0.773653
0.304561 -0.077829 -0.019412 0.000003 -0.942064 -0.316074
1.535300 0.228418 -0.198775 0.063473 0.675457 0.734663
1.519500 0.301162 -0.269965 -0.037838 0.708605 0.704590
-0.689047 -0.036272 -0.071543 -0.000340 -0.509914 -0.854224
-0.689047 0.036272 -0.071543 -0.000340 0.509914 -0.854224
-0.303288 -0.077774 -0.019630 0.000452 -0.942948 -0.314952
1.481128 -0.313275 0.284208 -0.037838 0.632479 0.773653
1.573558 -0.201015 0.176886 0.063473 -0.675457 -0.734663
1.519353 0.301271 0.270083 -0.037838 0.708605 -0.704590
0.041209 0.442829 0.390915 -0.055034 0.700023 -0.711997
-0.250675 -0.218581 0.193000 -0.055034 -0.700023 -0.711997
-0.008492 0.416075 0.368453 -0.055034 0.700023 -0.711997
-0.315988 -0.123050 0.116218 -0.035751 0.651980 0.757393
0.189879 0.080213 -0.000000 -0.003254 0.992490 -0.047836
1.433321 0.136937 0.109432 -0.037838 0.708605 -0.704590
0.059549 0.048753 0.063696 0.000252 0.657204 0.746876
1.333542 0.112597 0.090312 -0.037838 0.708605 -0.704590
0.114318 0.230972 0.203909 0.084724 0.669496 -0.737968
-1.588985 0.069587 -0.039897 0.001180 0.926433 -0.358261
1.295818 -0.078010 -0.018670 0.001372 -0.924439 -0.367080
1.399340 0.047866 -0.064365 -0.000079 0.475479 -0.874007
-0.051718 -0.331930 0.289065 -0.055034 -0.700023 -0.711997
-1.439298 -0.070924 0.037468 -0.003464 -0.912799 0.392374
0.032680 -0.325757 -0.305265 0.055079 0.670892 -0.739507
0.796063 0.075358 0.027483 -0.001442 0.951529 0.294868
-1.186156 -0.078755 -0.015225 -0.002302 -0.957577 -0.269112
1.421524 0.065253 0.046649 0.001688 0.880121 0.463757
-1.297819 0.019198 0.077881 -0.001509 0.308568 0.945020
0.111180 -0.256253 0.236364 0.055079 0.670892 0.739507
0.158949 -0.047363 0.064737 0.000775 -0.646881 0.756135
-0.030314 0.033923 -0.072686 0.000212 0.353713 -0.929740
0.009780 0.321241 0.273801 -0.008422 0.691058 -0.721936
1.487053 -0.238944 -0.223731 -0.037838 0.632479 -0.773653
1.569207 -0.270315 0.250182 0.063473 0.665627 0.743581
-0.002883 -0.516806 -0.469951 -0.035751 0.651980 -0.757393
1.370328 -0.136592 -0.112469 -0.037838 -0.708605 0.704590
-0.114606 -0.144163 0.143899 -0.035751 0.651980 0.757393
-0.157025 0.082175 0.088536 -0.035751 -0.651980 0.757393
-1.359008 -0.016615 0.078473 0.000103 -0.278277 0.955267
0.479064 -0.037004 -0.071168 0.000853 -0.555920 -0.827220
0.330582 -0.035062 -0.072144 0.000564 -0.557349 -0.823627
0.287854 0.068030 -0.042497 -0.000289 0.868512 -0.486552
-1.505395 0.055547 -0.057868 0.000858 0.777561 -0.621767
1.498587 0.101740 -0.105308 0.063473 -0.665627 -0.743581
1.490402 0.254766 -0.236829 -0.037838 -0.632479 -0.773653
-0.818367 -0.071141 -0.037055 -0.000182 -0.915199 -0.387694
0.031527 -0.376233 0.326188 -0.008422 -0.691058 -0.721936
-1.009355 0.000000 -0.080213 -0.000449 -0.158164 -0.980166
0.107642 0.563458 0.515328 -0.003303 -0.659223 0.751556
0.018391 -0.281804 0.266455 0.055079 0.670892 0.739507
0.107927 -0.285012 -0.262696 0.055079 0.670892 -0.739507
1.562364 -0.357574 0.324396 -0.037838 0.632479 0.773653
0.629615 -0.033567 -0.072852 0.000062 -0.349975 -0.931242
-0.581063 0.071453 0.036449 -0.000006 0.915169 0.387828
0.849457 0.000000 0.080213 0.000205 -0.062949 0.994002
-0.175041 0.244858 -0.227726 -0.035751 -0.651980 -0.757393
-1.509036 -0.000000 0.080213 0.000197 -0.071651 0.992299
-0.083895 0.118643 -0.123380 -0.035751 -0.651980 -0.757393
-0.001928 0.224469 -0.215953 0.055079 -0.670892 -0.739507
-0.510487 -0.061126 0.051939 0.000286 -0.707284 0.699705
-1.278781 0.048434 -0.063940 -0.000202 0.540515 -0.835293
-0.891698 0.077244 -0.021619 -0.000051 0.935690 -0.333952
0.029674 -0.033655 0.072811 0.000218 -0.348962 0.931694
0.130004 -0.033044 -0.073090 0.000103 -0.476503 -0.873451
0.450020 0.033655 -0.072811 0.000260 0.350065 -0.931188
-0.167412 0.300781 0.276226 -0.035751 -0.651980 0.757393
-0.169852 0.033289 -0.072979 -0.000339 0.346034 -0.932874
1.089304 0.000000 0.080213 -0.000544 -0.072050 0.992120
0.229699 -0.033801 -0.072743 0.000202 -0.481994 -0.870245
1.309240 0.033395 -0.072931 0.000243 0.350393 -0.931019
1.229540 0.033649 -0.072814 -0.000387 0.480841 -0.870954
-0.920181 -0.048643 0.063780 -0.000385 -0.540484 0.835398
-1.239671 -0.048945 0.063549 0.000060 -0.660562 0.743862
-0.889432 0.000000 -0.080213 0.001164 -0.141200 -0.984869
0.040048 -0.048172 -0.064137 0.000144 -0.540179 -0.835448
1.316250 0.172995 -0.161462 -0.037838 -0.632479 -0.773653
-1.014516 0.077592 0.020335 -0.000813 0.938653 0.326243
-0.256104 0.071199 0.036944 -0.001597 0.842200 0.529937
1.535300 0.228418 0.198775 0.063473 0.675457 -0.734663
-1.249202 0.000000 0.080213 0.000826 -0.073185 0.991967
-1.329776 -0.060365 0.052822 0.000066 -0.701838 0.705189
-0.829279 0.033195 -0.073022 0.000194 0.349853 -0.931182
1.499103 0.017397 -0.078303 -0.000215 0.282568 -0.953884
0.829433 -0.033336 -0.072957 0.000354 -0.282015 -0.954035
-0.507788 -0.061114 -0.051954 -0.000078 -0.705444 -0.701244
-1.308831 -0.033923 -0.072686 -0.000223 -0.353221 -0.929969
-0.128660 0.034238 0.072538 0.001066 0.483077 0.869887
-0.353384 -0.019638 -0.077772 -0.003444 -0.345286 -0.933344
-0.044588 0.164170 -0.164426 -0.005467 -0.658777 -0.751988
-0.396629 0.068060 -0.042449 -0.000958 0.804639 -0.580442
-0.338631 0.046548 0.065325 -0.001912 0.455566 0.884664
-0.037561 -0.341906 -0.317757 -0.035751 0.651980 -0.757393
0.121687 -0.542087 0.494894 0.055079 0.670892 0.739507
-0.050144 0.032896 0.073157 0.000202 0.344813 0.933296
0.115907 0.434771 -0.388981 0.084724 0.669496 0.737968
0.589432 0.033195 0.073022 -0.000194 0.349853 0.931182
0.109683 0.033211 0.073015 -0.000413 0.281150 0.954278
0.049451 -0.186320 -0.155953 0.084724 -0.669496 0.737968
1.548197 -0.061126 0.051939 0.000308 -0.707487 0.699467
-1.091525 0.057177 -0.056258 -0.000915 0.760530 -0.641707
0.222001 -0.070971 0.037379 -0.000981 -0.805399 0.583848
-0.669596 0.033772 0.072757 0.000444 0.480701 0.870971
-1.190551 0.073624 0.031837 0.000387 0.958723 0.267700
0.118048 -0.364550 -0.334101 0.055079 0.670892 -0.739507
-0.256104 -0.071199 0.036944 -0.002081 -0.841445 0.530885
-0.115978 -0.171071 -0.166997 -0.035751 0.651980 -0.757393
-0.053357 -0.100075 -0.065908 0.084724 -0.669496 0.737968
-1.358430 0.048065 -0.064217 0.000971 0.479242 -0.871912
-0.059150 -0.194276 0.154299 -0.055034 -0.700023 -0.711997
-0.186185 0.062025 0.050863 0.000081 0.715104 0.691878
-0.203352 -0.077774 0.019630 0.000452 -0.942948 0.314952
0.070202 0.033211 -0.073015 -0.000153 0.280175 -0.954691
1.488873 -0.032896 -0.073157 0.000202 -0.344813 -0.933296
-0.171937 0.106682 -0.108928 -0.035751 -0.651980 -0.757393
0.529355 -0.033655 0.072811 0.000218 -0.348962 0.931694
-1.400436 0.069713 -0.039675 -0.000533 0.832434 -0.544807
1.453644 0.206125 0.195266 -0.037838 -0.632479 0.773653
-1.229024 -0.033195 -0.073022 -0.000035 -0.347038 -0.932439
1.367396 0.251257 0.227944 -0.037838 0.708605 -0.704590
1.413536 0.232651 -0.214990 -0.037838 -0.632479 -0.773653
1.082374 -0.073046 0.068312 -0.037838 0.632479 0.773653
1.598645 -0.231278 0.212724 0.063473 0.665627 0.743581
-0.230237 -0.152477 0.145598 -0.035751 0.651980 0.757393
-0.228670 0.060481 -0.052689 0.000602 0.797477 -0.594940
-0.020567 -0.154366 -0.118926 0.084724 -0.669496 0.737968
1.109682 -0.095982 -0.088398 -0.037838 0.632479 -0.773653
0.392617 0.029956 -0.074409 0.001982 0.444485 -0.890724
-0.119209 0.105411 -0.071571 -0.055034 0.700023 0.711997
1.157395 0.070281 -0.038661 0.000416 0.798003 -0.593783
0.027800 -0.243598 -0.231092 0.055079 0.670892 -0.739507
-0.064558 -0.459933 -0.415907 -0.055034 -0.700023 0.711997
1.217923 0.119230 -0.112699 -0.037838 -0.632479 -0.773653
0.857020 0.065253 -0.046649 -0.000846 0.881842 -0.460406
-0.361580 0.104111 -0.089027 -0.055034 0.700023 0.711997
-1.131451 -0.073819 -0.031383 -0.000667 -0.886624 -0.453717
1.224020 -0.111445 -0.106632 -0.037838 0.632479 -0.773653
-0.841443 0.071026 -0.037275 0.000143 0.843084 -0.527555
-0.106594 0.219044 0.208736 -0.035751 -0.651980 0.757393
0.053853 -0.366654 -0.340790 0.055079 0.670892 -0.739507
-0.010164 0.097775 -0.068780 0.084724 0.669496 0.737968
-1.280166 -0.070558 0.038153 -0.000085 -0.840681 0.531339
-0.869461 0.033564 0.072853 -0.000067 0.349932 0.931258
0.125115 0.152973 -0.134387 0.084724 0.669496 0.737968
0.052009 0.195070 -0.185265 0.055079 -0.670892 -0.739507
0.958122 -0.079016 0.013805 -0.000577 -0.988006 0.120313
1.453275 -0.173424 -0.168514 -0.037838 0.632479 -0.773653
-0.479168 0.017248 -0.078337 -0.000894 0.137885 -0.985582
0.921844 -0.065253 0.046649 0.001047 -0.880885 0.462209
1.134075 0.077467 0.020806 0.000129 0.907575 0.404399
0.064148 -0.449376 -0.415070 0.024809 0.665081 -0.746027
0.163369 -0.460685 -0.417940 0.084724 -0.669496 0.737968
-0.086184 0.321066 -0.281047 -0.055034 0.700023 0.711997
0.554115 -0.077616 -0.020247 -0.000304 -0.913172 -0.392298
1.220054 -0.042078 -0.068290 -0.001852 -0.636014 -0.765613
-0.843805 -0.059636 0.053644 0.001248 -0.642749 0.759070
-0.225412 0.037705 0.070798 0.001269 0.522519 0.847177
-1.188057 -0.060481 0.052689 -0.000812 -0.797837 0.594374
-0.122970 -0.233846 0.198137 -0.055034 -0.700023 -0.711997
0.013857 0.077824 -0.019429 0.000437 0.942355 -0.315522
-0.078536 0.406111 0.364070 -0.055034 0.700023 -0.711997
0.038142 0.531169 -0.484253 -0.035751 -0.651980 -0.757393
-1.603856 -0.014217 -0.079258 -0.030717 -0.254850 -0.961593
-0.310944 0.199627 -0.182375 -0.035751 -0.651980 -0.757393
1.605060 0.189875 -0.175114 0.063473 -0.665627 -0.743581
1.419225 -0.038738 0.070238 -0.000078 -0.546017 0.830913
-0.155350 -0.201282 0.168624 -0.055034 -0.700023 -0.711997
-1.042664 -0.046974 -0.065020 -0.000284 -0.630140 -0.769190
1.654927 -0.050999 0.061417 1.000000 0.000000 -0.000000
-0.398415 -0.069713 0.039675 0.000688 -0.832502 0.544684
0.117095 0.316245 0.281590 0.084724 0.669496 -0.737968
-0.034182 -0.077687 -0.019971 -0.000609 -0.941752 -0.317580
0.038743 -0.230518 0.194822 0.084724 -0.669496 -0.737968
0.113750 -0.175655 0.163053 0.055079 0.670892 0.739507
0.409738 -0.080213 0.000000 0.001450 -0.988168 -0.099136
1.595392 0.144966 -0.127240 0.063473 0.675457 0.734663
-1.492479 -0.064983 -0.047025 0.001177 -0.831807 -0.546272
1.247202 -0.052566 0.060588 -0.000013 -0.681545 0.724299
-1.200327 0.040077 0.069484 0.001918 0.572662 0.813851
-0.049501 0.398052 -0.353903 -0.055034 0.700023 0.711997
1.654927 0.019690 0.048359 1.000000 -0.000000 0.000000
1.151489 -0.091069 0.086427 -0.037838 0.632479 0.773653
0.749521 0.080213 -0.000000 -0.000942 0.989719 -0.091363
1.576341 -0.352668 -0.318712 -0.037838 -0.708605 0.704590
