0.759587 0.085166 0.056192 0.000004 0.766072 0.637933
-1.028107 0.032066 0.096863 0.000463 0.413792 0.906995
1.278277 0.085080 0.074853 -0.114189 0.821590 -0.558525
0.498479 0.091857 -0.044419 0.001299 0.844097 -0.530012
0.312276 -0.081855 -0.060913 -0.000284 -0.783212 -0.616481
1.364080 0.144589 -0.144849 -0.114189 0.821590 0.558525
-0.342596 -0.387739 -0.388435 -0.096857 0.669797 -0.736200
-0.430881 -0.261477 -0.261946 -0.096857 0.669797 -0.736200
1.654248 -0.199388 0.180582 -0.000000 -0.707740 -0.706473
-0.742839 0.092182 -0.043741 0.000487 0.917605 -0.390695
0.763265 -0.100447 -0.017922 0.001085 -0.968710 -0.234907
1.144641 0.076011 0.068067 0.000113 0.723424 0.685667
1.459313 -0.090114 0.109439 0.000000 0.707740 0.706473
-1.431959 0.000000 -0.102033 0.001745 -0.049283 -0.996334
1.705740 -0.122516 -0.103573 0.000000 -0.707740 0.706473
1.595635 0.156319 0.175763 -0.000000 -0.707740 0.706473
-0.527994 -0.122588 -0.122808 -0.096857 0.669797 -0.736200
-1.091493 -0.102033 0.000000 -0.001142 -0.993923 -0.066926
0.096571 0.031905 -0.096917 -0.001152 0.278961 -0.956943
-0.919071 0.084248 -0.057558 0.001795 0.847584 -0.525834
0.042435 -0.021857 0.099665 -0.004287 -0.307467 0.947047
0.625064 -0.039272 -0.094173 -0.000257 -0.432270 -0.897963
-1.603454 0.089738 -0.048557 0.001383 0.826830 -0.557811
-0.179903 0.500930 -0.512820 0.028649 -0.696252 -0.716022
1.385906 -0.100725 0.016287 -0.000226 -0.960528 0.267152
0.659441 -0.070219 0.074027 -0.001039 -0.640164 0.764574
-0.173741 0.116618 0.107863 0.074329 0.705783 -0.704518
-0.307282 0.438244 0.439030 -0.084834 0.734170 -0.673644
0.978089 -0.019865 0.100081 0.002035 -0.263024 0.960519
0.455091 0.027509 -0.098255 0.000025 0.228186 -0.971383
-1.632233 -0.102033 0.000000 -0.004487 -0.997439 -0.032005
-0.310623 0.289085 -0.302885 -0.096857 -0.669797 -0.736200
1.300710 -0.023911 -0.099192 0.003852 -0.342878 -0.935638
1.618386 -0.087553 -0.106873 0.000000 0.707740 -0.706473
-0.319940 -0.268667 0.255811 -0.084834 -0.734170 -0.673644
0.480205 0.019509 0.100151 0.000130 0.297433 0.951200
1.593909 0.087173 -0.053024 -0.000036 0.788001 -0.609386
1.472014 0.000000 -0.102033 0.001120 -0.105506 -0.991593
1.579238 -0.097658 0.029559 0.000156 -0.935697 0.344617
1.710950 -0.072864 0.053832 -0.000000 -0.707740 -0.706473
-0.110570 0.548934 -0.552547 0.084908 -0.705184 -0.703921
1.759826 0.074794 -0.088414 0.209963 -0.650631 -0.729791
1.503121 0.108594 -0.127952 0.000000 -0.707740 -0.706473
-0.314494 -0.039421 -0.094110 0.000521 -0.406870 -0.910137
1.608177 0.059239 0.059345 -0.147638 -0.698731 -0.699984
-0.448538 0.236224 0.236648 -0.084834 0.734170 -0.673644
-0.858994 0.058662 0.083484 0.000022 0.548700 0.832189
-0.088777 -0.129234 0.129466 0.074329 -0.705783 -0.704518
-1.358201 0.020380 0.099977 0.000378 0.254716 0.963103
0.300411 -0.017076 0.100594 0.000005 -0.055935 0.995273
-0.247389 0.096940 -0.031834 -0.000033 0.907937 -0.411617
-0.328494 0.153997 -0.177631 -0.096857 -0.669797 -0.736200
0.831137 -0.000000 0.102033 -0.003084 0.129249 0.987313
-0.388938 -0.170260 -0.184475 -0.096857 0.669797 -0.736200
1.750696 0.084432 0.046076 0.305328 0.875594 0.368236
1.472014 -0.000000 0.102033 0.002507 0.113631 0.988887
-1.356364 -0.096724 0.032484 0.000238 -0.925006 0.371595
-1.866441 -0.021289 0.057229 -0.555931 -0.427484 0.701119
0.350480 0.000000 -0.102033 0.000436 -0.108150 -0.991119
0.177893 0.092850 0.042304 0.000128 0.872325 0.480656
1.653006 -0.248482 0.255954 -0.114189 0.559997 0.820588
1.653006 0.248482 0.255954 -0.114189 -0.559997 0.820588
-0.758297 0.089272 0.049410 -0.000201 0.858317 0.506975
-0.145777 -0.327008 0.321581 0.074329 -0.705783 -0.704518
-0.160078 0.230360 -0.239373 0.084908 -0.705184 -0.703921
-0.194539 -0.091534 -0.080539 0.074329 -0.705783 0.704518
1.031920 0.068785 0.075362 -0.000673 0.750436 0.656122
-0.174841 0.514808 0.526113 -0.040633 -0.682763 0.728325
-0.100731 -0.100854 0.015465 0.000046 -0.975995 0.204370
1.666803 0.113538 -0.094579 0.000000 0.707740 0.706473
0.584310 0.100467 -0.017806 0.000061 0.956743 -0.279996
-0.177275 -0.258710 0.269849 0.084908 0.705184 0.703921
-0.108905 0.082734 0.059714 -0.000153 0.738010 0.670500
1.183853 0.064978 -0.078667 0.000097 0.592819 -0.801465
1.223423 -0.087729 -0.052099 -0.000120 -0.883556 -0.461572
1.228323 -0.085436 0.085589 -0.114189 -0.821590 -0.558525
-1.100226 0.094922 -0.037423 0.000143 0.906155 -0.415162
-0.088777 -0.243534 -0.243971 0.074329 -0.705783 0.704518
-0.056430 0.101137 -0.013489 -0.000553 0.974214 -0.211908
-1.423196 0.099854 -0.020977 -0.001304 0.962827 -0.255707
1.533548 0.178428 -0.191524 -0.114189 -0.559997 -0.820588
-0.145358 -0.012940 -0.101209 0.000965 -0.192832 -0.978647
0.318582 0.101099 -0.013775 -0.000706 0.975658 -0.206142
-0.315911 -0.088285 0.051151 0.001543 -0.844024 0.532001
1.659585 0.153273 -0.172711 -0.000000 -0.707740 -0.706473
-1.679975 0.100909 -0.015106 0.001608 0.979904 -0.186775
-1.747966 0.017733 -0.099663 -0.105040 0.210158 -0.968805
-0.836673 -0.094651 -0.038104 -0.000530 -0.878627 -0.470558
-1.177407 -0.015299 0.100880 -0.002152 -0.088176 0.994001
-0.482755 0.041730 -0.093109 -0.000904 0.343964 -0.934132
1.737466 -0.152362 0.139860 0.209963 -0.730956 -0.649322
-0.250210 0.083298 0.102920 0.084908 -0.705184 0.703921
-0.178869 -0.403350 -0.394569 0.074329 -0.705783 0.704518
1.416065 0.109161 -0.090194 -0.000000 0.707740 0.706473
0.215830 -0.095841 -0.035005 0.000523 -0.959445 -0.270498
-0.171404 -0.317254 -0.309106 0.074329 -0.705783 0.704518
-0.342439 0.110174 0.135926 -0.096857 -0.669797 0.736200
-0.184966 -0.497927 0.488672 0.025065 -0.716184 -0.696512
-0.319999 -0.314166 0.324471 -0.096857 0.669797 0.736200
-0.524250 0.046952 0.090588 -0.000305 0.529000 0.844912
-0.246324 -0.189927 -0.209271 0.084908 0.705184 -0.703921
-0.238630 -0.039354 0.094138 -0.000044 -0.430432 0.898836
1.821277 -0.045612 0.020563 1.000000 0.000000 0.000000
0.502869 -0.044177 -0.091974 0.000383 -0.482302 -0.872540
0.088253 0.098230 0.027596 0.000006 0.969951 0.233826
-0.471604 -0.093042 0.041880 -0.000852 -0.898464 0.431533
1.741670 0.244478 0.244916 0.209963 0.730956 -0.649322
-0.088777 0.114946 -0.115153 0.084908 -0.705184 -0.703921
-1.007372 -0.099922 -0.020648 0.000291 -0.945096 -0.314914
-0.088777 -0.214959 0.215345 0.074329 -0.705783 -0.704518
-0.088777 -0.443560 0.444356 0.074329 -0.705783 -0.704518
-0.088777 0.443560 0.444356 0.074329 0.705783 -0.704518
-0.088777 0.429273 -0.430043 0.084908 -0.705184 -0.703921
-0.088777 0.557861 0.558862 0.074329 0.705783 -0.704518
-0.088777 -0.457848 -0.458669 0.074329 -0.705783 0.704518
-0.689264 0.018844 0.100278 0.001677 0.295717 0.951664
0.346088 -0.099992 0.020305 -0.000342 -0.963706 0.252552
-0.260595 -0.413521 -0.406207 -0.084834 -0.734170 0.673644
1.632878 -0.058991 0.078260 0.000000 0.707740 0.706473
-0.159653 -0.556444 0.565991 0.024302 0.695426 0.716815
-0.159653 -0.556444 -0.565991 0.028649 0.696252 -0.716022
0.186461 -0.082550 0.059969 -0.000051 -0.736298 0.672114
1.301084 -0.051542 0.088058 0.000401 -0.453226 0.887767
1.499837 -0.203743 0.204108 -0.114189 -0.821590 -0.558525
1.652564 0.270291 -0.270776 -0.114189 0.821590 0.558525
-0.439709 0.248851 -0.249297 -0.084834 0.734170 0.673644
-0.307282 0.438244 -0.439030 -0.084834 0.734170 0.673644
-0.492680 0.173093 0.173404 -0.084834 0.734170 -0.673644
-0.501509 0.160467 -0.160755 -0.084834 0.734170 0.673644
-0.369081 0.349861 -0.350488 -0.084834 0.734170 0.673644
1.133489 -0.077453 -0.066422 0.000398 -0.714514 -0.695176
1.360841 0.053574 0.086836 0.000145 0.569305 0.818258
-0.314494 0.039421 -0.094110 0.000521 0.406870 -0.910137
1.395908 -0.131230 -0.118690 -0.114189 -0.821590 0.558525
-0.149159 0.303548 -0.311376 0.084908 -0.705184 -0.703921
-0.046235 -0.035383 -0.095701 -0.001886 -0.415814 -0.905790
-1.502529 -0.040757 -0.093539 -0.000520 -0.494618 -0.865354
0.891178 -0.047458 0.090325 -0.000986 -0.523123 0.848841
0.740586 -0.086166 0.054646 0.000785 -0.875862 0.475654
-1.689461 0.034527 0.096014 -0.000095 0.386961 0.918831
1.161008 -0.048730 0.089644 -0.000831 -0.373958 0.924096
1.559006 -0.074006 -0.054976 -0.147638 0.698731 0.699984
-0.304817 -0.342406 -0.334271 -0.084834 -0.734170 0.673644
0.576007 -0.095426 0.036120 0.000036 -0.887541 0.453710
-1.839885 0.066328 -0.037126 -0.449698 0.835979 -0.296824
1.489576 0.090707 0.046722 0.000099 0.857698 0.507977
1.291767 0.102033 -0.000000 -0.000397 0.989243 0.118590
-0.376242 0.081240 -0.061732 -0.001084 0.752211 -0.654538
-0.333622 -0.280294 -0.291862 -0.096857 0.669797 -0.736200
-0.344033 -0.109830 0.135403 -0.096857 0.669797 0.736200
-0.628059 -0.027301 -0.098313 -0.000005 -0.223083 -0.972546
-0.204760 0.092435 0.043204 0.001544 0.866178 0.493235
0.891219 -0.102033 -0.000000 -0.000729 -0.992060 -0.071789
1.732370 -0.094242 -0.039106 0.253563 -0.883727 -0.381168
-0.413556 -0.169224 0.159222 -0.084834 -0.734170 -0.673644
1.586557 -0.165636 0.185096 -0.000000 0.707740 0.706473
1.768206 0.175240 0.175555 0.209963 0.730956 -0.649322
-0.353789 0.199692 0.215876 -0.096857 -0.669797 0.736200
1.675722 -0.200932 -0.220456 -0.000000 0.707740 -0.706473
-1.288671 -0.068150 -0.075936 0.001880 -0.740866 -0.667315
-0.521054 -0.110515 0.108776 -0.084834 -0.734170 -0.673644
-1.351850 0.000000 -0.102033 0.003714 -0.061410 -0.994285
-0.388560 0.015721 0.100815 -0.000557 0.188435 0.979546
-0.168936 -0.386493 0.378729 0.074329 -0.705783 -0.704518
-1.455399 -0.095608 0.035636 0.000237 -0.895205 0.439386
1.757592 0.202935 -0.203299 0.209963 0.730956 0.649322
-0.855833 -0.013590 0.101124 -0.003380 -0.215216 0.974479
0.115406 -0.035463 0.095672 0.003143 -0.290591 0.953765
1.566169 0.100987 0.014572 0.000201 0.978306 0.194505
-1.286042 0.039645 0.094016 -0.000361 0.484601 0.870893
-0.785744 -0.099889 0.020808 -0.001286 -0.966172 0.243533
1.011384 0.000000 -0.102033 0.000071 -0.115138 -0.989982
-0.764119 0.030837 -0.097262 0.002479 0.377887 -0.922793
1.821277 0.018798 -0.071226 0.303317 0.075101 -0.943873
-0.264515 -0.161650 0.183137 0.084908 0.705184 0.703921
1.329093 -0.080229 -0.061210 -0.019146 -0.728255 0.683088
-1.035662 0.099458 0.022779 -0.000674 0.964931 0.249820
1.756650 -0.017299 0.092685 0.304771 -0.057602 0.947176
1.377916 -0.109777 0.090811 -0.073619 -0.783961 -0.613905
1.329093 0.080229 -0.061210 -0.047823 0.757912 0.646999
-0.243696 0.131825 -0.115717 0.074329 0.705783 0.704518
-1.118427 0.027686 0.098205 0.002122 0.241670 0.967716
-1.876379 -0.040668 -0.036028 -0.565690 -0.689695 -0.440905
0.231407 0.099622 -0.022051 0.000210 0.966599 -0.243595
0.683240 0.053012 0.087181 0.002139 0.614904 0.783846
-1.436471 0.021690 0.099701 0.000036 0.268419 0.958953
-0.264306 0.329452 -0.345705 -0.096857 -0.669797 -0.736200
1.530685 0.041923 0.093023 0.001028 0.454391 0.886845
-0.492826 0.095176 -0.036774 -0.001918 0.893470 -0.441452
-0.826559 0.076316 -0.067725 0.001192 0.697286 -0.712413
0.008332 0.018844 -0.100278 -0.001677 0.295717 -0.951664
1.667183 0.053017 -0.053112 -0.147638 -0.698731 0.699984
-0.930570 -0.098018 0.028341 0.000359 -0.922264 0.378632
-0.161543 0.613485 0.617639 -0.000000 0.706473 0.707740
-0.161543 0.613485 -0.617639 -0.000000 0.706473 -0.707740
-0.264020 -0.081328 -0.062985 0.074329 -0.705783 0.704518
1.025967 0.086549 -0.054038 0.000595 0.780566 -0.620223
-1.550023 0.083521 0.058608 -0.001415 0.776272 0.625929
0.072161 -0.096910 -0.031925 0.000308 -0.907603 -0.412544
-0.238404 0.224668 -0.243119 0.084908 -0.705184 -0.703921
-0.179903 -0.511233 -0.502536 0.021263 -0.716879 0.695791
0.329905 0.063872 0.079569 0.000068 0.533236 0.842237
-0.403595 -0.067810 -0.076240 -0.000753 -0.745593 -0.661611
0.469202 -0.065639 0.078117 0.000092 -0.594123 0.800475
-1.200875 0.019944 -0.100065 -0.000191 0.244232 -0.966241
-1.167888 0.097661 0.029548 -0.000807 0.916551 0.392317
1.584198 -0.099305 0.118646 0.000000 0.707740 0.706473
-0.321275 -0.188311 -0.168403 -0.084834 -0.734170 0.673644
-0.787317 -0.060288 0.082317 0.000080 -0.569150 0.818458
-0.605547 0.071667 0.072626 0.000179 0.682910 0.726174
-1.578471 -0.047537 0.090283 -0.000439 -0.511924 0.855603
-0.643826 -0.063853 0.079583 0.000070 -0.603980 0.793035
-1.592179 0.000000 -0.102033 0.000931 -0.100072 -0.992441
1.142743 0.100110 -0.019719 -0.000402 0.964763 -0.248587
0.034449 -0.082849 0.059555 -0.000379 -0.776935 0.624634
-1.288671 0.068150 -0.075936 0.001880 0.740866 -0.667315
-1.061774 0.018126 -0.100410 -0.000075 0.285211 -0.955065
1.719382 0.128841 0.148235 0.140398 -0.672403 0.724910
0.826048 0.068411 0.075702 0.000285 0.720663 0.688844
-0.137715 -0.360178 -0.355662 0.074329 -0.705783 0.704518
-0.482755 -0.041730 -0.093109 -0.000904 -0.343964 -0.934132
-0.883410 -0.046827 -0.090653 -0.000734 -0.416864 -0.905901
-0.328118 0.050956 0.088398 -0.000770 0.511981 0.855533
0.889452 -0.032632 -0.096674 0.000264 -0.264852 -0.961379
-0.071034 0.028532 0.097963 0.000171 0.322611 0.943823
0.168319 0.028301 -0.098030 -0.002513 0.255567 -0.963752
0.984028 -0.099094 -0.024312 -0.000158 -0.953055 -0.293887
-1.130750 -0.035773 -0.095557 -0.000269 -0.291997 -0.952967
-0.142103 0.058631 -0.083505 -0.000089 0.552490 -0.829738
-1.789242 -0.064547 -0.068937 -0.205314 -0.749387 -0.619000
-0.688877 -0.068750 -0.075394 -0.000187 -0.638321 -0.765624
0.549404 0.036737 0.095190 0.000152 0.410812 0.908271
-1.610370 0.032861 0.096597 -0.000525 0.270896 0.959466
1.466161 -0.114954 -0.134323 -0.000000 0.707740 -0.706473
-1.480106 0.082816 -0.059601 -0.000497 0.846193 -0.527079
1.531577 0.190346 0.177912 -0.114189 0.821590 -0.558525
-1.650527 -0.041354 -0.093277 -0.000426 -0.353128 -0.931462
1.489143 -0.064227 -0.079282 0.000165 -0.661180 -0.745937
0.446612 0.100073 0.019905 -0.000082 0.947938 0.306846
0.725936 0.040554 -0.093627 -0.000089 0.442350 -0.892989
-0.149124 -0.200259 -0.194251 0.074329 -0.705783 0.704518
-0.490689 0.090488 0.047144 0.000543 0.873725 0.479634
-0.305417 -0.411039 0.414524 -0.096857 0.669797 0.736200
-1.483679 0.068516 0.075606 0.000422 0.635455 0.768615
1.301558 0.019222 0.100206 0.000198 0.238882 0.967578
-0.640944 -0.100368 0.018359 -0.001776 -0.954438 0.286328
1.519047 0.054012 -0.086564 -0.000235 0.558165 -0.825788
-0.162856 -0.100217 -0.019165 0.002586 -0.971496 -0.223034
-0.155856 0.466492 0.475420 0.084908 -0.705184 0.703921
-1.716281 -0.048827 0.089592 0.000943 -0.425906 0.900863
0.565541 -0.068814 -0.075335 0.000066 -0.586848 -0.805920
1.274074 0.040207 -0.093777 -0.004389 0.336507 -0.938264
0.250501 0.033097 0.096516 -0.000763 0.378775 0.922023
0.805747 -0.040957 -0.093452 -0.002263 -0.353050 -0.932661
1.657348 -0.044472 -0.063715 -0.147638 0.698731 0.699984
1.794741 -0.106003 -0.106193 0.209963 0.650631 -0.729791
1.210804 0.063790 0.079634 -0.000790 0.534097 0.841583
0.878655 0.072436 -0.071860 0.000961 0.747600 -0.659687
-1.494451 -0.056756 0.084791 0.000184 -0.461297 0.884073
-0.187727 -0.121793 0.133947 0.084908 0.705184 0.703921
1.431959 0.102033 -0.000000 0.002583 0.996025 0.052455
-0.380975 -0.050846 0.088461 -0.000504 -0.569861 0.817978
1.586422 -0.133325 -0.152727 -0.000000 0.707740 -0.706473
-0.365556 -0.125295 -0.105302 -0.084834 -0.734170 0.673644
0.902460 0.092422 0.043232 -0.000363 0.887092 0.454532
-0.216840 0.232125 0.219031 0.074329 0.705783 -0.704518
1.485252 0.137551 0.118635 -0.000000 0.707740 -0.706473
-0.700753 -0.100608 -0.016994 0.001009 -0.975562 -0.207104
1.597024 0.194364 -0.175550 -0.000000 0.707740 0.706473
-0.543651 -0.042741 0.092650 0.000526 -0.388798 0.918030
-0.144828 -0.123858 -0.130841 0.084908 0.705184 -0.703921
1.687204 0.073659 0.070605 -0.000907 0.791353 0.606463
0.045577 0.072116 0.072180 -0.000688 0.668293 0.739677
-0.911787 -0.060778 0.081956 -0.000199 -0.656512 0.750045
-0.146060 0.158812 -0.166007 0.084908 -0.705184 -0.703921
-0.243010 0.448542 0.456855 -0.096857 -0.669797 0.736200
-0.126945 -0.028971 0.097834 -0.000245 -0.242258 0.967629
-0.213892 0.061150 -0.081679 -0.000252 0.570491 -0.817475
-0.319839 0.097348 -0.030563 -0.000451 0.916649 -0.392256
1.042164 -0.055341 0.085721 -0.000256 -0.629685 0.772766
-0.399400 -0.093780 0.040200 0.000189 -0.870077 0.486232
1.709008 -0.175072 -0.156223 0.070410 -0.718376 0.690152
-0.560993 -0.072164 -0.072133 0.000473 -0.662542 -0.745265
1.162098 0.016427 0.100702 0.001023 0.105563 0.991583
0.705426 -0.089985 -0.048098 -0.000361 -0.850107 -0.520378
-0.580115 0.044948 -0.091599 0.000223 0.387379 -0.919034
0.183433 0.047825 0.090131 0.000179 0.375517 0.923905
-0.893574 0.031247 -0.097131 -0.000415 0.368342 -0.926583
-0.376475 0.149337 -0.132879 -0.084834 0.734170 0.673644
0.597480 0.078694 0.064946 0.000114 0.802060 0.591951
1.517946 -0.090704 0.071704 -0.000000 -0.707740 -0.706473
-1.664877 -0.086174 0.054633 0.001022 -0.775178 0.626801
-0.427160 -0.099154 -0.024068 -0.000385 -0.965197 -0.250408
-0.333746 0.307290 0.316406 -0.096857 -0.669797 0.736200
-1.537640 -0.100235 -0.019068 -0.001689 -0.964684 -0.249288
1.513541 -0.149710 -0.169142 -0.076356 0.611797 -0.785624
-0.265241 0.019304 0.100190 0.000534 0.253558 0.963185
0.459457 -0.089956 -0.048152 0.000290 -0.857209 -0.509037
-1.786791 0.049697 0.081007 -0.254596 0.570734 0.774992
1.654189 0.173733 0.154882 0.000000 0.707740 -0.706473
-0.362869 0.259225 -0.268845 -0.096857 -0.669797 -0.736200
1.412867 0.138620 0.126093 -0.114189 0.821590 -0.558525
1.632366 0.023456 -0.099300 0.000820 0.319448 -0.944847
-0.243696 -0.131825 -0.115717 0.074329 -0.705783 0.704518
1.632213 0.220582 0.201815 -0.076356 0.786720 -0.610388
-0.239953 0.385964 -0.400324 -0.096857 -0.669797 -0.736200
0.923398 0.099228 -0.023762 -0.002797 0.955574 -0.281210
1.756649 0.092693 -0.017256 0.304808 0.947189 -0.057210
-1.028107 -0.032066 0.096863 0.000463 -0.413792 0.906995
-0.046901 -0.088550 -0.050691 -0.000674 -0.853731 -0.514382
-0.148512 0.388359 -0.396261 0.084908 -0.705184 -0.703921
1.715816 -0.251656 0.244637 0.209963 -0.730956 -0.649322
-1.237135 0.095141 0.036865 0.003390 0.945692 0.313630
-0.451649 0.133122 0.124674 -0.084834 0.734170 -0.673644
-0.970927 -0.063615 -0.079774 -0.000130 -0.577505 -0.812526
-0.237748 -0.239299 -0.257698 0.084908 0.705184 -0.703921
-1.887990 0.045565 -0.000000 -0.641366 0.757958 -0.070451
0.150206 -0.102033 -0.000000 0.003785 -0.995930 -0.056200
0.812428 0.078825 -0.064787 -0.000515 0.742696 -0.665700
-0.743157 -0.029000 -0.097825 0.001943 -0.345109 -0.935154
-0.388806 -0.232154 -0.224690 -0.084834 -0.734170 0.673644
1.681430 -0.251384 -0.261890 -0.114189 0.559997 -0.820588
1.117126 -0.018356 -0.100368 0.000281 -0.234368 -0.968718
-0.560874 -0.100794 -0.015850 0.000923 -0.975047 -0.209634
1.599412 -0.219903 -0.207523 -0.114189 -0.821590 0.558525
-0.986794 0.100069 -0.019926 0.000383 0.962808 -0.255439
1.480701 -0.155402 0.168456 -0.114189 0.559997 0.820588
-0.306646 -0.227879 0.209684 -0.084834 -0.734170 -0.673644
-0.160989 0.379469 0.388861 0.084908 -0.705184 0.703921
-0.682006 0.100396 -0.018202 0.001053 0.956310 -0.281583
-0.688877 0.068750 -0.075394 -0.000187 0.638321 -0.765624
0.294613 -0.028228 -0.098051 0.001690 -0.292050 -0.952240
-0.368704 -0.232117 0.222118 -0.084834 -0.734170 -0.673644
1.789434 0.119851 -0.120066 0.209963 0.730956 0.649322
-0.204223 -0.331318 0.345838 0.084908 0.705184 0.703921
-0.235445 -0.437232 0.447561 -0.096857 0.669797 0.736200
-0.329502 0.177566 0.157729 -0.084834 0.734170 -0.673644
-0.283054 0.196432 -0.176287 0.074329 0.705783 0.704518
1.615748 0.013808 0.101094 -0.000300 0.184049 0.980395
1.242243 0.087761 -0.052045 -0.000173 0.796062 -0.599980
1.226418 -0.100014 0.020199 -0.000301 -0.946302 0.311464
-0.038431 -0.087285 0.052840 -0.001131 -0.885640 0.456374
-1.818763 -0.060271 0.060174 -0.347151 -0.546651 0.752386
0.002454 0.024907 0.098946 0.004972 0.291685 0.953327
-0.119363 0.346912 0.351224 0.084908 -0.705184 0.703921
1.756649 -0.092693 0.017256 0.304808 -0.947189 0.057210
-1.237024 -0.080827 0.062272 0.000586 -0.717948 0.691879
1.431747 0.134106 -0.147111 -0.114189 -0.559997 -0.820588
-0.209900 0.153401 0.140898 0.074329 0.705783 -0.704518
0.600588 -0.052413 0.087542 -0.000801 -0.462263 0.883103
1.374555 -0.034566 -0.096000 0.001909 -0.378405 -0.920715
-0.404395 0.299356 0.299893 -0.084834 0.734170 -0.673644
1.741670 0.244478 -0.244916 0.209963 0.730956 0.649322
1.805355 0.078308 0.078449 0.209963 0.730956 -0.649322
-0.380607 0.096093 0.034305 -0.000952 0.926276 0.368716
0.670918 0.000000 -0.102033 -0.000230 -0.130547 -0.987093
1.606972 0.110259 0.129620 0.000000 -0.707740 0.706473
1.734943 -0.088238 0.107559 0.070410 0.691439 0.717137
-1.356157 -0.053684 0.086768 -0.000322 -0.574060 0.814791
-0.562207 0.091128 -0.045895 -0.000445 0.863387 -0.498952
-0.969296 0.046044 0.091053 0.000049 0.521018 0.849846
-0.088777 -0.543573 0.544549 0.074329 -0.705783 -0.704518
-0.088777 0.186384 0.186719 0.074329 0.705783 -0.704518
-0.088777 -0.172097 0.172405 0.074329 -0.705783 -0.704518
-0.088777 0.229247 -0.229658 0.084908 -0.705184 -0.703921
-0.088777 0.329260 -0.329851 0.084908 -0.705184 -0.703921
-0.248855 -0.496278 0.494921 -0.084834 -0.734170 -0.673644
-0.456588 -0.154142 -0.160910 -0.096857 0.669797 -0.736200
1.424041 -0.080229 0.061210 -0.000000 0.706473 -0.707740
-1.285086 0.100297 -0.018742 0.000783 0.969037 -0.233417
0.019821 0.100608 0.016994 -0.001009 0.975562 0.207104
-0.149159 0.303548 0.311376 0.084908 -0.705184 0.703921
0.675432 0.096724 -0.032484 -0.000238 0.925006 -0.371595
0.585416 0.067491 -0.076523 -0.000178 0.626499 -0.775377
1.721218 -0.056716 -0.084818 0.001239 -0.589112 -0.804169
1.449579 0.059802 -0.082671 -0.000533 0.612216 -0.785981
-0.290900 0.251772 0.271533 -0.096857 -0.669797 0.736200
0.791082 0.102033 -0.000000 -0.005014 0.997551 0.032037
-0.891219 0.102033 -0.000000 0.002272 0.997062 0.048568
0.831137 -0.102033 -0.000000 0.004080 -0.996797 -0.045335
1.329541 -0.088690 0.050446 -0.000044 -0.891583 0.445673
-0.241155 0.193470 0.177741 0.074329 0.705783 -0.704518
0.110526 0.092977 -0.042024 -0.000542 0.942422 -0.321212
1.102946 -0.100038 -0.020079 -0.000485 -0.963685 -0.252306
-1.403201 -0.100082 -0.019856 -0.000732 -0.947111 -0.309093
-0.361119 0.202827 -0.189241 -0.084834 0.734170 0.673644
-0.230970 0.527014 -0.529834 -0.096857 -0.669797 -0.736200
1.767933 -0.000000 -0.090686 0.304808 -0.057210 -0.947189
1.262262 -0.100224 -0.100404 -0.114189 -0.821590 0.558525
1.364080 -0.144589 0.144849 -0.114189 -0.821590 -0.558525
0.969149 0.039054 0.094263 0.003606 0.332486 0.938528
-0.377910 -0.337234 0.337839 -0.084834 -0.734170 -0.673644
-0.236654 0.539254 0.540221 -0.084834 0.734170 -0.673644
-0.263140 -0.501375 -0.502275 -0.096857 0.669797 -0.736200
-0.342596 0.387739 0.388435 -0.084834 0.734170 -0.673644
-0.316110 -0.425618 -0.426382 -0.096857 0.669797 -0.736200
-0.442543 0.079367 -0.064943 -0.000000 -0.706473 0.707740
1.726188 0.046794 -0.046878 -0.147638 -0.698731 0.699984
0.420587 0.019096 0.100230 -0.000034 0.235218 0.968575
1.086810 0.084801 0.056741 0.001536 0.870290 0.486256
1.734943 0.088238 0.107559 0.140398 -0.672403 0.724910
-1.159813 0.094999 -0.037229 0.000149 0.907156 -0.413140
-0.003868 0.070631 -0.073634 0.000212 0.667331 -0.740530
-0.208615 0.300320 0.315314 0.084908 -0.705184 0.703921
-1.363749 0.100128 -0.019625 -0.000624 0.951594 -0.296503
0.356488 0.061249 -0.081605 0.000109 0.681238 -0.727776
-1.147443 -0.100079 -0.019872 0.000218 -0.964805 -0.248716
-0.312207 -0.108226 -0.084847 0.074329 -0.705783 0.704518
0.360316 0.017426 0.100534 0.000112 0.225002 0.971073
0.319787 -0.076233 0.067818 0.000001 -0.666162 0.741581
1.575081 0.089819 -0.109143 0.000000 -0.707740 -0.706473
-0.720521 -0.045971 0.091090 0.000121 -0.425364 0.901533
-1.120589 -0.088712 0.050407 -0.001113 -0.898332 0.432724
1.650296 -0.125120 -0.144508 -0.000000 0.707740 -0.706473
-0.246309 -0.255370 0.274830 0.084908 0.705184 0.703921
-0.219049 0.465863 -0.458020 -0.084834 0.734170 0.673644
-1.438008 -0.061958 -0.081067 -0.000467 -0.657063 -0.749784
0.393395 -0.096713 -0.032516 0.001199 -0.966207 -0.246884
-1.572151 0.102033 -0.000000 0.000729 0.992060 0.071789
-0.146599 0.154445 0.148621 0.074329 0.705783 -0.704518
0.498587 -0.095309 0.036427 0.000219 -0.909314 0.408431
0.096571 -0.031905 -0.096917 -0.001152 -0.278961 -0.956943
-0.240654 0.351559 0.336166 -0.031791 0.726342 -0.685499
-1.751872 -0.099049 -0.019123 -0.138783 -0.936706 -0.296391
-1.418521 0.064019 -0.079450 0.000387 0.673564 -0.734990
1.383873 0.094335 -0.038880 0.000217 0.885463 -0.460557
-0.283790 -0.076540 0.100200 0.084908 0.705184 0.703921
-1.713362 0.066343 -0.077520 0.000234 0.705584 -0.703788
-0.290397 -0.102033 -0.000000 0.003339 -0.989058 -0.120908
-0.466610 -0.128598 0.121628 -0.084834 -0.734170 -0.673644
0.924889 -0.085109 -0.056278 -0.000202 -0.862749 -0.499233
-1.790485 0.094125 -0.000000 -0.200069 0.973133 -0.059757
-0.128117 -0.286433 -0.282797 0.074329 -0.705783 0.704518
-1.206934 -0.100210 -0.019204 -0.000200 -0.950219 -0.300000
-0.088777 -0.314972 0.315537 0.074329 -0.705783 -0.704518
1.703821 -0.169443 0.188910 0.070410 0.691439 0.717137
0.764784 -0.046417 0.090864 0.000500 -0.514179 0.854015
-0.393574 0.138556 0.123283 -0.084834 0.734170 -0.673644
0.366031 0.100057 0.019984 -0.000168 0.947041 0.309338
1.084948 0.086314 -0.054412 -0.000451 0.816660 -0.571574
-0.216014 -0.090122 0.076860 0.074329 -0.705783 -0.704518
-0.237922 0.402431 0.415572 -0.096857 -0.669797 0.736200
-0.271029 0.271722 -0.252982 0.021263 0.716879 0.695791
-0.478163 -0.100622 -0.092593 -0.084834 -0.734170 0.673644
-0.610836 0.102033 -0.000000 0.001348 0.982943 0.157135
1.632213 0.201419 -0.220944 -0.076356 -0.611797 -0.785624
-0.190713 -0.208811 0.221482 0.084908 0.705184 0.703921
-0.311530 -0.165273 0.142069 0.021263 -0.716879 -0.695791
-0.140668 0.465613 -0.472707 0.084908 -0.705184 -0.703921
-1.210378 -0.036783 -0.095172 -0.000234 -0.301306 -0.949948
-1.605820 -0.085109 0.056278 0.000202 -0.862750 0.499231
-1.874848 0.017712 -0.052506 -0.603836 0.286707 -0.736607
1.440073 -0.098129 -0.027954 0.001018 -0.923801 -0.374881
1.377916 0.109777 0.090811 -0.076356 0.786720 -0.610388
0.918809 0.016493 -0.100691 0.000508 0.218591 -0.972782
-1.712099 -0.032322 -0.096778 0.000254 -0.339891 -0.937839
-0.482362 0.118810 -0.125374 -0.096857 -0.669797 -0.736200
-0.815767 -0.062635 -0.080546 -0.000857 -0.558451 -0.824414
0.617622 0.020344 -0.099984 -0.000537 0.258930 -0.961801
1.618750 -0.157661 0.138781 0.000000 -0.707740 -0.706473
0.239460 0.022614 -0.099496 0.003038 0.219693 -0.973045
1.031411 -0.000000 0.102033 -0.000033 0.135506 0.986083
-0.267461 0.073975 -0.095661 0.084908 -0.705184 -0.703921
1.703821 0.188606 -0.169782 0.140398 0.726114 0.671102
-0.145073 0.227476 0.234674 0.084908 -0.705184 0.703921
-0.442543 -0.063756 0.080525 -0.000000 0.706473 -0.707740
-1.231685 -0.000000 0.102033 -0.002473 0.065529 0.993480
-0.115308 -0.408619 0.406553 0.074329 -0.705783 -0.704518
-1.692316 -0.102033 0.000000 -0.000087 -0.996332 -0.048781
-0.088777 -0.129234 -0.129466 0.074329 -0.705783 0.704518
-0.140668 -0.465613 0.472707 0.084908 0.705184 0.703921
-1.060276 -0.091320 0.045513 -0.000462 -0.934837 0.346349
-1.640613 -0.083902 -0.058063 -0.003114 -0.816811 -0.573488
1.613614 -0.088384 -0.050981 -0.002759 -0.888514 -0.450569
1.821277 0.018416 -0.000000 1.000000 0.000000 0.000000
0.280234 -0.100296 -0.018745 0.002867 -0.972597 -0.218733
1.111299 -0.069743 0.074476 -0.000058 -0.755292 0.650603
-0.458614 0.031380 0.097088 -0.000569 0.379766 0.921585
-0.264306 -0.329452 0.345705 -0.096857 0.669797 0.736200
-0.154590 0.570322 0.579284 -0.036286 -0.683631 0.727575
-0.154590 0.577763 -0.571856 0.021263 0.716879 0.695791
-0.210169 -0.577133 0.578168 -0.084834 -0.734170 -0.673644
-0.210169 -0.577133 -0.578168 -0.096857 0.669797 -0.736200
-0.126945 0.028971 0.097834 -0.000245 0.242258 0.967629
-0.142604 -0.235575 0.230319 0.074329 -0.705783 -0.704518
-1.796974 0.046000 -0.080117 -0.288168 0.369489 -0.877174
1.512043 -0.095937 -0.034739 -0.001251 -0.952725 -0.292117
-0.366972 0.091221 -0.115454 -0.096857 -0.669797 -0.736200
1.496588 0.161486 -0.142613 -0.076356 0.786720 0.610388
-0.290875 -0.251823 -0.271583 -0.096857 0.669797 -0.736200
0.248551 -0.064930 0.078708 -0.001054 -0.580221 0.810126
-0.205773 0.482520 0.492668 -0.096857 -0.669797 0.736200
-0.132897 -0.421269 -0.427347 0.084908 0.705184 -0.703921
-1.323744 -0.100402 -0.018170 -0.000431 -0.970370 -0.228923
1.421328 0.021155 0.099816 -0.002236 0.275526 0.957338
-0.271668 -0.171207 -0.152219 0.074329 -0.705783 0.704518
0.584310 -0.100467 -0.017806 0.000061 -0.956744 -0.279996
-0.715367 0.062643 0.080539 -0.000110 0.586866 0.805815
0.990978 -0.070415 0.073841 -0.001926 -0.634350 0.768325
-1.732370 0.102033 -0.000000 -0.018692 0.993807 0.077821
-0.309226 0.110958 0.087899 0.074329 0.705783 -0.704518
0.771055 0.000000 -0.102033 -0.006260 -0.143092 -0.984416
1.500850 0.087007 0.106326 -0.000000 -0.707740 0.706473
1.383874 -0.094335 -0.038880 0.000217 -0.885461 -0.460561
-0.280774 0.131950 -0.155345 0.084908 -0.705184 -0.703921
1.547004 0.132073 0.151473 -0.000000 -0.707740 0.706473
-1.346503 0.067722 0.076318 -0.000299 0.620763 0.779806
1.409460 0.090128 0.047830 0.000210 0.851098 0.518915
0.722269 0.100082 0.019856 0.000732 0.947111 0.309093
-1.071466 -0.000000 0.102033 0.005975 0.123941 0.988245
1.156852 0.018472 -0.100347 0.000242 0.235600 -0.968377
-0.230820 -0.449243 -0.441388 -0.084834 -0.734170 0.673644
-0.350480 0.000000 -0.102033 -0.004983 -0.050128 -0.996196
-1.021291 -0.017395 -0.100539 -0.000111 -0.223879 -0.971344
1.668184 -0.099938 0.080955 -0.000000 -0.707740 -0.706473
-0.135005 -0.474314 -0.480741 0.084908 0.705184 -0.703921
0.702728 -0.100222 0.019136 0.000917 -0.966962 0.241578
0.530726 0.102033 -0.000000 0.000235 0.988251 0.122865
1.484600 -0.136780 0.117862 -0.000000 -0.707740 -0.706473
-0.007975 -0.039571 0.094047 0.001624 -0.346304 0.935347
-0.388806 0.232154 -0.224690 -0.084834 0.734170 0.673644
0.680891 -0.019072 0.100235 -0.001711 -0.119312 0.989225
-0.222212 -0.164028 0.150244 0.074329 -0.705783 -0.704518
-0.166663 0.067386 0.076902 0.000000 -0.706473 -0.707740
-0.103739 -0.087082 0.085660 0.074329 -0.705783 -0.704518
-0.452539 0.199409 0.197029 -0.084834 0.734170 -0.673644
0.459395 0.077319 0.066577 -0.000221 0.718003 0.691527
-0.226919 -0.311549 -0.328771 0.084908 0.705184 -0.703921
1.346738 0.095780 -0.109126 -0.114189 -0.559997 -0.820588
0.974341 0.094338 -0.038873 -0.000331 0.898905 -0.430593
1.296201 0.115012 0.115219 -0.114189 0.821590 -0.558525
-0.099881 0.087050 -0.053226 -0.000150 0.789754 -0.608307
-0.356939 -0.135357 -0.156930 -0.096857 0.669797 -0.736200
-0.877059 -0.101163 0.013295 0.003816 -0.974862 0.211735
-0.286350 0.173167 0.197310 0.084908 -0.705184 0.703921
0.226079 0.075162 -0.069003 -0.000068 0.715920 -0.693560
-0.261430 -0.089389 0.049197 -0.001822 -0.842635 0.533170
-0.107234 0.263332 0.266031 0.084908 -0.705184 0.703921
1.269642 -0.087650 0.052232 0.000013 -0.882250 0.463693
-1.538238 0.078568 -0.065099 -0.000030 0.734206 -0.674401
-0.112451 0.108548 0.111598 0.084908 -0.705184 0.703921
-0.253772 0.099154 0.024068 0.000385 0.965197 0.250408
-0.289568 -0.372418 0.365059 -0.084834 -0.734170 -0.673644
-0.223690 0.325485 -0.311835 0.074329 0.705783 0.704518
-0.236963 0.267826 0.252672 0.074329 0.705783 -0.704518
-1.870854 -0.055577 0.017124 -0.575286 -0.737605 0.338875
-1.306447 -0.089688 0.048649 -0.000343 -0.847043 0.525578
-1.090391 -0.087325 -0.052773 0.000178 -0.822724 -0.562878
-0.911787 0.060778 0.081956 -0.000199 0.656511 0.750045
0.512945 0.059020 -0.083231 0.000959 0.530969 -0.843910
1.821277 -0.024453 -0.030909 1.000000 0.000000 -0.000000
1.510728 -0.041889 0.093038 0.000580 -0.506029 0.858547
0.245299 -0.071360 -0.072928 0.000294 -0.752061 -0.654176
1.539972 0.082320 0.060284 -0.000156 0.837689 0.540296
-0.970927 0.063615 -0.079774 -0.000130 0.577505 -0.812526
-0.122527 -0.612976 0.618147 0.000000 -0.706473 0.707740
-0.122527 -0.612976 -0.618147 0.064744 0.702165 -0.708449
1.183853 -0.064978 -0.078668 0.000097 -0.592816 -0.801467
0.168319 -0.028301 -0.098030 -0.002513 -0.255567 -0.963752
0.675225 -0.053684 -0.086768 0.000322 -0.574060 -0.814791
-0.975545 -0.028228 0.098051 -0.001690 -0.292050 0.952240
-0.198896 0.101340 -0.011873 -0.000196 0.979803 -0.186839
0.356488 -0.061249 -0.081605 0.000109 -0.681238 -0.727776
-0.771055 0.102033 -0.000000 -0.000604 0.988239 0.128849
-0.993208 0.081855 0.060913 0.000284 0.783212 0.616481
0.192471 -0.069323 -0.074867 0.000041 -0.657010 -0.749670
1.777553 -0.034989 0.047828 -0.147638 0.698731 -0.699984
1.616371 -0.214517 0.227678 -0.114189 0.559997 0.820588
0.410562 0.000000 -0.102033 -0.003164 -0.104054 -0.991775
-0.801325 0.071019 0.073261 0.000086 0.613029 0.786084
-1.376105 0.096717 0.032506 0.000026 0.903438 0.421417
-0.132884 0.426046 0.422157 0.074329 0.705783 -0.704518
1.639887 -0.097474 0.030160 -0.000542 -0.936288 0.343440
0.010593 -0.079793 -0.063591 0.000094 -0.707641 -0.702095
-0.863364 0.092261 0.043574 -0.000390 0.889816 0.448814
0.765531 -0.069251 -0.074934 -0.000193 -0.716492 -0.693206
-1.190027 0.066049 -0.077771 0.000225 0.684020 -0.725132
-0.475023 -0.198346 0.198702 -0.084834 -0.734170 -0.673644
0.869962 -0.087147 0.053067 0.000280 -0.827372 0.556490
-1.051389 0.071943 0.072352 -0.000044 0.775103 0.626847
0.764784 0.046417 0.090864 0.000500 0.514179 0.854015
0.419544 -0.077208 0.066706 -0.000073 -0.716849 0.692695
-1.465555 0.044395 -0.091868 0.000171 0.396295 -0.914725
-0.366575 -0.156756 0.139718 -0.084834 -0.734170 -0.673644
1.524162 -0.020525 -0.099947 0.002538 -0.242418 -0.966541
1.042513 -0.099757 -0.021432 0.000388 -0.943000 -0.321249
-0.518076 -0.100217 0.019165 -0.002583 -0.971503 0.222991
-1.070808 0.064782 -0.078829 0.000059 0.714891 -0.694721
-0.178225 -0.042811 0.092617 -0.001004 -0.470326 0.878067
1.777553 0.034989 0.047828 0.209963 -0.650631 0.729791
1.777553 0.034989 -0.047828 0.209963 -0.650631 -0.729791
1.065497 -0.035062 -0.095820 -0.000331 -0.390996 -0.917134
1.688260 -0.210046 0.229586 0.029005 0.651815 0.754198
0.635831 -0.080292 -0.062959 0.000327 -0.816394 -0.571976
-0.479534 0.094468 0.103600 -0.096857 -0.669797 0.736200
-0.523053 0.069308 -0.074984 -0.000000 -0.706473 0.707740
-1.011131 0.034049 -0.096184 -0.000110 0.277669 -0.957375
-0.590887 -0.061417 0.081478 -0.000654 -0.508740 0.857031
0.447416 0.096315 -0.033677 0.000048 0.924758 -0.372789
-0.204697 -0.279569 -0.267841 0.074329 -0.705783 0.704518
1.172932 -0.094926 -0.037414 -0.000286 -0.881471 -0.465607
1.729756 0.101772 -0.121118 0.140398 -0.672403 -0.724910
0.053501 0.057955 -0.083976 0.000204 0.630889 -0.771798
1.255944 -0.049924 -0.088985 0.000603 -0.543002 -0.835286
-0.189521 -0.039393 -0.094122 -0.000432 -0.452364 -0.888009
-0.255759 0.431806 -0.439951 -0.096857 -0.669797 -0.736200
1.024340 0.096787 0.032295 -0.000019 0.927289 0.366183
-0.351969 -0.071821 -0.072475 -0.000000 0.706473 0.707740
1.428775 -0.131938 0.113012 -0.073619 -0.783961 -0.613905
-1.394054 -0.034912 -0.095874 0.001137 -0.390617 -0.916848
-0.514241 -0.076937 0.067019 0.000239 -0.677271 0.731495
-1.238628 -0.077587 -0.066265 -0.000089 -0.795351 -0.601296
-0.391197 -0.289418 -0.287401 -0.084834 -0.734170 0.673644
-1.464173 0.100120 0.019665 -0.000047 0.964479 0.251363
-0.197622 0.161050 -0.149856 0.074329 0.705783 0.704518
1.430942 -0.040529 0.093639 -0.001215 -0.493546 0.865900
-0.437682 0.089186 0.049563 0.000288 0.814712 0.574494
-0.189338 -0.297268 0.309931 0.084908 0.705184 0.703921
1.629109 0.112839 -0.132205 0.000000 -0.707740 -0.706473
-0.663039 0.059698 0.082746 0.000065 0.646680 0.758645
-0.637432 0.041931 -0.093019 0.000384 0.316871 -0.945722
-0.714810 0.099719 0.021606 -0.001816 0.946733 0.310802
-1.238991 0.052322 -0.087597 0.000216 0.602756 -0.794075
0.941459 -0.056818 0.084749 0.001514 -0.516787 0.853075
-0.110570 -0.548934 -0.552547 0.084908 0.705184 -0.703921
-0.153082 0.194376 -0.202482 0.084908 -0.705184 -0.703921
1.670579 -0.164958 0.146091 0.000000 -0.707740 -0.706473
0.150206 0.102033 -0.000000 0.003226 0.990357 0.111863
1.739708 -0.191667 -0.198398 0.209963 0.650631 -0.729791
-1.518348 -0.079556 -0.063887 0.000028 -0.703507 -0.706362
1.742653 -0.126053 -0.139054 0.209963 0.650631 -0.729791
-0.283986 0.324202 0.338339 -0.096857 -0.669797 0.736200
1.411932 0.000000 -0.102033 -0.000261 -0.119285 -0.989240
1.113989 -0.097175 0.031108 -0.002049 -0.941025 0.328075
1.588490 -0.047134 -0.090494 0.000557 -0.498054 -0.863495
-0.153690 -0.516126 0.524882 0.084908 0.705184 0.703921
-1.162411 0.071263 0.073023 -0.000548 0.612695 0.786514
0.996571 0.049598 -0.089167 -0.000059 0.436225 -0.896493
1.626280 0.073829 -0.093124 -0.000000 -0.707740 -0.706473
1.570201 -0.071666 0.072627 -0.000103 -0.774677 0.627418
1.006631 -0.063742 -0.079673 0.000713 -0.577230 -0.812908
-1.572110 0.047458 -0.090325 0.000986 0.523123 -0.848841
0.201318 -0.101111 0.013688 0.001143 -0.978674 0.191747
1.124282 0.064832 -0.078788 0.000002 0.588159 -0.805026
-0.186374 0.542253 -0.549565 -0.096857 -0.669797 -0.736200
0.455091 -0.027509 -0.098255 0.000025 -0.228186 -0.971383
1.329541 0.088690 0.050446 -0.000044 0.891583 0.445673
1.547004 0.132073 -0.151473 -0.000000 -0.707740 -0.706473
1.360963 -0.083227 -0.102539 -0.073619 0.615309 -0.782860
-1.651027 0.071864 -0.072431 -0.000186 0.777344 -0.623311
-0.444500 0.148990 -0.141067 -0.084834 0.734170 0.673644
-1.676213 0.075404 0.068739 -0.000584 0.661963 0.745539
0.931274 -0.000000 0.102033 -0.001237 0.048883 0.996395
-0.169649 0.269443 -0.279682 0.084908 -0.705184 -0.703921
-1.406344 -0.090126 0.047834 0.000126 -0.904347 0.419469
1.648035 0.092047 0.044024 -0.000052 0.844682 0.529674
-0.548100 0.082330 0.060270 -0.000264 0.787569 0.611138
0.319165 0.094432 0.038644 -0.000302 0.901279 0.425488
0.634202 -0.096404 0.033423 0.000290 -0.919409 0.385805
-0.099006 -0.032759 -0.096631 -0.000281 -0.286636 -0.954603
1.784127 -0.133698 0.133938 0.209963 -0.730956 -0.649322
-0.137715 0.360178 -0.355662 0.074329 0.705783 0.704518
-0.320729 0.326380 -0.335487 -0.096857 -0.669797 -0.736200
-0.423460 -0.020826 0.099885 -0.001873 -0.293887 0.951658
1.541480 0.090476 -0.047168 -0.000739 0.903592 -0.421021
1.223780 0.036046 -0.095454 -0.000044 0.402859 -0.911803
1.482867 -0.196349 -0.196701 -0.114189 -0.821590 0.558525
1.004439 -0.096974 0.031730 0.000999 -0.975664 0.206076
-0.355213 -0.102670 0.079341 -0.084834 -0.734170 -0.673644
1.476656 0.103301 -0.084323 -0.000000 0.707740 0.706473
-1.154709 -0.057244 0.084462 -0.000401 -0.508264 0.857864
-0.215341 -0.418090 0.405487 0.017461 -0.717540 -0.695037
0.784217 -0.098161 0.027843 -0.004201 -0.950782 0.296604
-0.438684 -0.225212 -0.223406 -0.084834 -0.734170 0.673644
1.703710 0.067527 -0.086811 0.000000 -0.707740 -0.706473
-0.261725 -0.041346 -0.093280 0.000623 -0.476891 -0.875237
1.280645 -0.088399 -0.050954 -0.000918 -0.914768 -0.396403
-1.828025 -0.000000 0.081428 -0.421635 -0.074305 0.898040
0.150206 -0.000000 0.102033 -0.002250 0.133605 0.986346
-1.632233 0.102033 -0.000000 -0.002971 0.990110 0.116401
0.062225 0.029000 0.097825 -0.001943 0.345109 0.935154
-1.779760 -0.093874 0.022840 -0.178318 -0.907280 0.361518
1.690385 -0.046317 0.090915 0.000328 -0.550670 0.830875
-0.376943 0.066714 0.077201 -0.000280 0.711620 0.698380
-1.276995 0.080281 0.062974 -0.000465 0.815532 0.573393
-0.383414 0.042773 -0.092635 -0.001606 0.444751 -0.891468
1.791622 -0.081482 -0.016455 0.314105 -0.943227 -0.061861
1.748060 0.031778 0.091675 0.305772 0.273593 0.908809
1.325399 0.041929 -0.093020 -0.000399 0.505354 -0.859175
1.414989 0.166772 0.167071 -0.114189 0.821590 -0.558525
1.548536 -0.197735 0.185314 -0.114189 -0.821590 -0.558525
-0.138316 -0.286954 0.282243 0.074329 -0.705783 -0.704518
1.118000 0.041064 0.093405 -0.000447 0.365443 0.927669
-1.732370 -0.000000 0.102033 -0.016498 0.062759 0.993762
-0.130491 -0.145486 0.150779 0.084908 0.705184 0.703921
-1.560274 0.047066 0.090529 -0.000376 0.409857 0.909088
-1.778626 -0.020820 -0.094583 -0.155923 -0.214335 -0.961094
-0.366667 -0.261556 0.270466 -0.096857 0.669797 0.736200
-0.146951 -0.096062 0.034392 -0.003296 -0.928594 0.365656
-1.572151 -0.000000 0.102033 -0.000790 0.054055 0.995587
1.668184 -0.099938 -0.080955 -0.000000 -0.707740 0.706473
-0.104332 -0.095508 -0.035903 0.000661 -0.889688 -0.449458
0.164990 -0.049354 0.089302 -0.000898 -0.429176 0.900338
1.586557 -0.184799 -0.165967 -0.000000 -0.707740 0.706473
-0.088777 -0.357835 -0.358477 0.074329 -0.705783 0.704518
-0.132101 0.509719 -0.506063 0.074329 0.705783 0.704518
1.455498 -0.101464 -0.082483 -0.000000 -0.707740 0.706473
-0.419895 -0.248528 0.251611 -0.096857 0.669797 0.736200
1.558357 -0.083663 -0.102976 -0.000000 0.707740 -0.706473
-1.492042 -0.102033 0.000000 -0.000376 -0.996745 -0.035431
0.576150 -0.020617 -0.099928 -0.000105 -0.261587 -0.961007
0.461692 0.069629 -0.074582 -0.000307 0.648793 -0.757017
-0.127085 0.524007 0.529568 0.084908 -0.705184 0.703921
-0.260904 0.278873 -0.300136 0.024302 -0.695426 -0.716815
-1.768411 -0.073737 0.065648 -0.208458 -0.754342 0.611231
0.058625 -0.100982 0.014610 -0.000676 -0.977862 0.196858
-1.546941 -0.017718 -0.100483 0.001175 -0.283135 -0.955634
0.943964 0.078973 0.064606 0.000346 0.746486 0.661700
-0.398776 -0.152700 -0.139353 -0.084834 -0.734170 0.673644
1.533776 0.218531 -0.218923 -0.114189 0.821590 0.558525
-0.388806 0.232154 0.224690 -0.084834 0.734170 -0.673644
-0.466195 0.210972 -0.211351 -0.084834 0.734170 0.673644
-0.100731 0.100854 0.015465 0.000046 0.975995 0.204370
1.804960 0.072833 0.030265 0.305333 0.876175 0.355329
1.698021 0.254095 -0.266049 -0.005642 -0.596482 -0.798357
-0.307298 -0.191680 -0.214704 -0.096857 0.669797 -0.736200
-0.137596 0.437643 -0.433278 0.074329 0.705783 0.704518
-0.291474 -0.365336 -0.374778 -0.096857 0.669797 -0.736200
-1.324389 0.089324 -0.049315 0.000310 0.897314 -0.434529
0.076445 -0.060672 0.082035 -0.000921 -0.559276 0.825453
1.612206 0.102033 -0.000000 0.000476 0.996314 0.045684
1.698021 0.265593 0.254572 -0.005642 0.799425 -0.595050
1.344010 -0.075840 0.095139 -0.035556 0.664557 0.744821
-1.878124 0.029357 0.044221 -0.570178 0.528379 0.624019
1.696686 -0.059487 -0.040430 -0.147638 0.698731 0.699984
0.550145 0.089114 -0.049694 -0.000207 0.845994 -0.528408
1.706840 -0.100923 0.015013 0.000167 -0.968041 0.241321
1.688260 0.229209 0.210457 0.029005 0.755365 -0.650461
1.709008 0.175072 0.156223 0.070410 0.718376 -0.690152
-0.566493 0.018379 0.100364 0.000075 0.258741 0.962534
1.586589 0.079580 0.098886 0.000000 -0.707740 0.706473
-1.311795 -0.000000 0.102033 -0.000026 0.132543 0.986691
-0.204607 0.380554 0.369017 0.074329 0.705783 -0.704518
-0.137715 -0.354645 0.361185 0.084908 0.705184 0.703921
0.775799 0.055827 -0.085406 0.000203 0.591233 -0.802611
-0.354793 0.310502 -0.305794 -0.084834 0.734170 0.673644
-0.181366 0.018545 -0.100334 -0.001108 0.256533 -0.962313
-0.351603 -0.248731 -0.260780 -0.096857 0.669797 -0.736200
-1.456384 -0.021768 0.099684 0.002694 -0.274032 0.957640
-0.264117 -0.088953 -0.110262 0.084908 0.705184 -0.703921
0.126494 0.081923 0.060822 0.002468 0.805844 0.586377
-0.312895 0.192902 -0.215079 -0.096857 -0.669797 -0.736200
1.341955 -0.100592 -0.017090 0.000404 -0.969138 -0.233035
1.164498 0.099482 0.022675 0.003052 0.960963 0.261869
-0.146951 0.096062 0.034392 -0.003296 0.928594 0.365656
-0.379857 0.100376 -0.018312 0.000595 0.971093 -0.224759
-1.342685 -0.045350 -0.091401 0.000951 -0.461367 -0.883530
-0.264514 -0.233351 -0.215229 0.074329 -0.705783 0.704518
-0.194600 -0.191424 -0.204532 0.084908 0.705184 -0.703921
1.755691 -0.053264 -0.034197 -0.147638 0.698731 0.699984
-0.938225 0.100535 -0.017420 -0.003111 0.991360 -0.109187
-1.597849 -0.096857 -0.032085 0.001506 -0.920867 -0.382740
1.239042 0.094739 0.037885 0.000053 0.878941 0.469966
1.651228 -0.017471 0.100526 -0.000009 -0.204979 0.976487
-0.316593 0.151967 -0.128204 0.021263 0.716879 0.695791
1.810663 0.064461 -0.064577 0.209963 0.730956 0.649322
1.649888 0.044863 0.091641 -0.000488 0.390571 0.917741
1.716354 0.038250 0.057481 -0.147638 -0.698731 -0.699984
1.070956 0.042440 0.092788 -0.000325 0.446130 0.892336
-1.131548 0.102033 -0.000000 0.001553 0.989152 0.117501
-0.671510 -0.024669 0.099006 -0.001666 -0.319734 0.943935
1.622132 -0.106497 0.087525 -0.000000 -0.707740 -0.706473
-0.278067 -0.294077 0.278231 -0.084834 -0.734170 -0.673644
-0.189587 -0.111594 -0.123954 0.084908 0.705184 -0.703921
1.632367 -0.023455 -0.099301 0.000820 -0.319438 -0.944851
-0.290397 0.000000 -0.102033 0.004695 -0.041230 -0.997403
-0.049295 0.096374 0.033507 0.000987 0.926186 0.369356
1.527593 -0.105199 0.124551 -0.000000 0.707740 0.706473
-0.336523 0.249329 0.236824 -0.084834 0.734170 -0.673644
1.560133 -0.100679 -0.016567 0.000389 -0.991470 -0.107871
0.801769 -0.087830 -0.051929 0.000528 -0.835240 -0.545008
-1.320882 0.039552 -0.094055 -0.001427 0.500193 -0.861257
0.414018 0.048140 -0.089963 -0.000241 0.539200 -0.838453
-1.831764 -0.045683 -0.065428 -0.395058 -0.420001 -0.811651
-0.143488 -0.167265 -0.161793 0.074329 -0.705783 0.704518
0.130178 0.000000 -0.102033 0.003162 -0.070073 -0.992526
-0.276092 -0.258416 0.239117 0.021263 -0.716879 -0.695791
-1.531894 -0.030614 0.097332 -0.000251 -0.341913 0.936826
0.861011 0.035113 0.095801 -0.000992 0.299619 0.950242
1.433281 0.091447 -0.045257 0.000262 0.862711 -0.499632
0.470644 -0.102033 -0.000000 -0.001714 -0.995542 -0.049291
-1.174257 0.030820 0.097267 0.000847 0.393296 0.917214
1.588489 0.047135 -0.090493 0.000557 0.498063 -0.863490
-0.147191 -0.068561 -0.075730 0.084908 0.705184 -0.703921
-0.129874 -0.116645 0.112519 0.074329 -0.705783 -0.704518
-0.281872 0.113983 0.137479 0.084908 -0.705184 0.703921
-0.231360 -0.205164 0.190489 0.074329 -0.705783 -0.704518
-0.369560 0.166527 0.183628 -0.096857 -0.669797 0.736200
1.606604 0.149707 -0.169139 0.000000 -0.707740 -0.706473
1.734441 0.211798 0.205790 0.209963 0.730956 -0.649322
1.251713 0.000000 -0.102033 0.003701 -0.062651 -0.994047
1.654248 0.199388 -0.180582 0.000000 0.707740 0.706473
0.632452 0.056578 0.084910 0.001919 0.637109 0.767195
-0.323944 0.352050 0.358418 -0.096857 -0.669797 0.736200
0.050069 0.000000 -0.102033 0.010800 -0.101196 -0.991686
-0.731000 -0.000000 0.102033 -0.010800 0.101196 0.991686
-0.225466 -0.391478 -0.377759 0.021263 -0.716879 0.695791
1.701290 -0.136058 0.117139 0.000000 -0.707740 -0.706473
-1.783544 0.082259 0.049083 -0.205659 0.751290 0.616841
-0.209171 0.217322 -0.205010 0.074329 0.705783 0.704518
-0.450084 -0.080524 -0.062663 -0.000806 -0.715850 -0.693944
0.510699 0.000000 -0.102033 0.001124 -0.050781 -0.996104
1.179154 -0.081150 0.061851 0.000718 -0.780884 0.620018
1.531321 0.107268 -0.088298 -0.000000 0.707740 0.706473
-0.430762 -0.194257 -0.188672 -0.084834 -0.734170 0.673644
-0.384162 -0.182991 0.196686 -0.096857 0.669797 0.736200
-0.260595 -0.413521 0.406207 -0.084834 -0.734170 -0.673644
-0.180196 -0.360226 -0.371900 0.084908 0.705184 -0.703921
-0.108128 0.143546 -0.146138 0.084908 -0.705184 -0.703921
1.673583 0.122726 -0.142109 0.000000 -0.707740 -0.706473
-0.590808 0.000000 -0.102033 0.001101 -0.047875 -0.996543
-0.456588 -0.154142 0.160910 -0.096857 0.669797 0.736200
-0.501509 -0.160467 -0.160755 -0.096857 0.669797 -0.736200
1.396616 0.068543 -0.075582 -0.000082 0.701563 -0.708337
1.013099 0.101395 -0.011394 0.005499 0.978742 -0.196977
1.530494 -0.157097 0.176542 -0.038293 0.661045 0.747586
-0.222340 -0.484462 -0.492255 -0.096857 0.669797 -0.736200
1.550307 -0.154935 -0.136050 -0.000000 -0.707740 0.706473
-0.757865 -0.100949 -0.014834 -0.000304 -0.993077 -0.094169
-0.392546 0.163629 -0.177967 -0.096857 -0.669797 -0.736200
1.714204 0.096836 -0.032148 -0.001064 0.958316 -0.274968
-1.901926 -0.008175 0.032562 -0.690303 -0.243001 0.675547
-0.360858 -0.198494 -0.213857 -0.096857 0.669797 -0.736200
-0.253837 0.371122 -0.359147 -0.084834 0.734170 0.673644
-0.131527 -0.223176 -0.228733 0.084908 0.705184 -0.703921
1.645912 0.095537 -0.035824 0.000082 0.953396 -0.290109
-0.348872 -0.297460 0.290834 -0.084834 -0.734170 -0.673644
1.622132 0.106497 0.087525 0.000000 0.707740 -0.706473
-0.250592 0.201046 0.220925 0.084908 -0.705184 0.703921
0.270370 0.102033 -0.000000 0.004939 0.995068 0.066479
