1.502094 -0.100439 0.013877 0.108385 -0.980437 0.138540
-1.218130 -0.038652 -0.093737 0.000062 -0.425323 -0.904194
-0.636252 -0.049545 -0.088464 -0.000049 -0.527283 -0.848751
1.579560 -0.202675 -0.191080 0.380793 -0.638604 0.668716
1.579560 0.202675 -0.191080 0.380793 0.638604 0.668716
0.100249 0.407284 -0.379628 -0.049954 0.712081 0.700318
1.425016 0.008520 -0.101034 -0.000059 0.142115 -0.988862
1.065972 -0.006960 -0.101154 -0.000056 -0.109766 -0.993332
0.119454 0.484616 0.456890 -0.026594 -0.670997 0.740983
0.011386 0.380459 0.358692 -0.026594 -0.670997 0.740983
0.331087 0.305235 -0.287771 0.093737 0.682965 0.724411
0.331087 0.464364 -0.437796 0.093737 0.682965 0.724411
0.153683 -0.144360 -0.148304 0.049990 0.685128 -0.726705
-1.450490 -0.060437 0.081412 0.000019 -0.595512 0.802343
0.117455 0.028419 -0.097329 -0.001284 0.327552 -0.943863
-0.109772 0.096114 0.032288 -0.000177 0.964217 0.262252
-0.234769 0.143213 -0.135019 -0.049954 0.712081 0.700318
0.055948 -0.016415 0.100055 0.000450 -0.203321 0.978511
0.329570 -0.097682 0.027181 0.000193 -0.948942 0.312912
-0.018732 0.256184 -0.234477 -0.049954 0.712081 0.700318
0.939516 -0.066737 -0.076333 -0.000524 -0.619238 -0.784239
-0.319020 0.030769 -0.096612 -0.000073 0.307362 -0.950751
1.216333 -0.098993 -0.021931 0.000017 -0.963598 -0.264362
-1.424765 -0.047717 -0.089463 0.000090 -0.513156 -0.857357
1.336763 0.107907 -0.087212 -0.000000 0.685986 0.727615
-0.228077 0.020062 0.099388 -0.000033 0.224747 0.973548
1.401549 -0.235327 0.221863 -0.181138 0.390537 0.902591
1.401549 0.235327 0.221863 -0.181138 0.878045 -0.442975
0.744774 -0.051571 0.087298 0.000082 -0.527817 0.848412
-0.081720 0.149596 -0.130593 -0.049954 0.712081 0.700318
-0.960690 -0.000000 0.101393 -0.000021 0.056386 0.997513
0.331087 0.543928 0.512808 0.049990 -0.685128 0.726705
1.373067 -0.130917 0.108905 0.000000 -0.685986 -0.727615
-0.011632 -0.098338 0.024702 -0.000027 -0.955770 0.291472
-0.360259 -0.101393 -0.000000 -0.000165 -0.998824 -0.028282
0.196026 0.186655 -0.158499 0.093737 0.682965 0.724411
0.191685 -0.122435 0.125020 0.049990 0.685128 0.726705
-0.139034 0.222734 0.209047 -0.049954 0.712081 -0.700318
1.377657 0.123105 0.130582 -0.000000 -0.685986 0.727615
-0.837010 -0.076277 -0.066800 -0.000042 -0.753441 -0.656371
-0.700526 0.099927 -0.017177 0.000407 0.989318 -0.140249
0.708438 0.088506 0.049470 -0.000537 0.843908 0.535038
0.417725 -0.085408 -0.054644 -0.000077 -0.823805 -0.565432
0.487937 0.044110 0.091295 -0.000139 0.459179 0.887526
-0.345845 0.060912 0.081057 -0.000664 0.615635 0.786955
0.190649 0.307692 0.271916 0.045880 0.693959 -0.717696
1.048913 0.100166 -0.015728 -0.000203 0.980753 -0.191063
-0.095309 -0.148156 -0.130097 -0.049954 -0.712081 0.700318
-0.903147 0.071770 -0.071621 0.000059 0.743321 -0.667753
-0.063406 -0.027473 -0.097600 0.000442 -0.319688 -0.946761
0.247245 -0.491801 0.455079 -0.049954 -0.712081 -0.700318
-0.844070 0.021131 0.099166 -0.000010 0.205074 0.978043
-0.003573 0.236361 0.213240 -0.049954 0.712081 -0.700318
0.067153 0.303877 0.291344 -0.026594 -0.670997 0.740983
0.932637 0.094492 0.036766 -0.000068 0.913642 0.404602
1.191793 0.124337 0.131744 -0.061550 -0.594460 0.796477
0.082697 -0.416026 0.393459 -0.026594 0.670997 0.740983
1.172968 -0.145397 0.137078 -0.181138 0.390537 0.902591
-0.970697 -0.101393 0.000000 0.000207 -0.999273 -0.016682
1.579249 -0.217222 0.204794 0.380793 -0.638604 -0.668716
0.248253 0.096823 0.030096 -0.000056 0.946741 0.319589
0.074600 0.308291 -0.280803 -0.049954 0.712081 0.700318
1.581427 0.115394 0.108792 0.380793 0.638604 -0.668716
1.579249 0.217222 0.204794 0.380793 0.638604 -0.668716
-1.090783 0.101393 -0.000000 -0.001482 0.996065 -0.075224
1.581427 -0.115394 0.108792 0.380793 -0.638604 -0.668716
1.075724 -0.009053 0.100988 -0.000787 -0.143954 0.988459
0.086291 0.159554 0.128734 -0.049954 0.712081 -0.700318
0.274174 -0.314933 -0.289551 0.093737 -0.682965 0.724411
1.476452 -0.029419 0.097031 -0.000003 -0.290000 0.956184
1.564776 0.084315 0.000000 0.304731 0.950599 -0.034122
-1.321577 0.100122 0.016002 -0.000327 0.990148 0.134539
1.298876 -0.105755 -0.114225 -0.000000 0.685986 -0.727615
0.220240 0.451153 0.415676 -0.049954 0.712081 -0.700318
0.016955 0.081558 0.060239 -0.000012 0.834042 0.550280
-0.025471 -0.179489 0.175381 -0.026594 0.670997 0.740983
-1.626239 0.070451 0.013535 -0.462989 0.877338 0.119487
1.286862 -0.078182 0.064561 0.000021 -0.770765 0.635875
-0.172119 -0.074061 0.069249 -0.000091 -0.696216 0.716767
1.229332 0.108766 -0.117064 0.000000 -0.685986 -0.727615
0.230121 -0.204567 -0.199808 0.049990 0.685128 -0.726705
1.581427 0.115394 -0.108792 0.380793 0.638604 0.668716
-1.458623 0.056515 -0.084182 -0.000240 0.558641 -0.828531
0.197503 -0.559841 0.527810 -0.026594 0.670997 0.740983
0.364217 -0.014682 0.100324 0.000087 -0.192323 0.980588
0.080392 -0.322853 -0.309003 -0.026594 0.670997 -0.740983
0.225056 0.218452 0.213247 0.049990 -0.685128 0.726705
0.331087 -0.160572 -0.151386 0.093737 -0.682965 0.724411
0.643565 -0.024806 -0.098312 -0.000403 -0.278809 -0.959532
-0.480318 0.051277 -0.087471 -0.000059 0.543814 -0.838252
-1.627224 -0.067878 0.021556 -0.482336 -0.812411 0.323336
1.402725 -0.181432 -0.156530 -0.000000 -0.685986 0.727615
-0.626907 -0.035857 0.094841 -0.000070 -0.307955 0.950545
0.853033 -0.007777 -0.101094 0.000016 -0.127642 -0.991180
0.224331 0.566342 -0.532507 -0.049954 0.712081 0.700318
0.274240 -0.354280 0.337921 0.049990 0.685128 0.726705
-0.505953 0.100977 0.009170 0.000537 0.991963 0.119516
-0.465308 -0.101140 0.007159 -0.000044 -0.993643 0.106484
0.534222 -0.100885 0.010139 0.000723 -0.992325 0.116513
-1.204819 0.038038 0.093987 -0.000532 0.408147 0.912207
0.077246 -0.316068 0.302746 -0.026594 0.670997 0.740983
0.226760 0.467534 -0.431867 -0.049954 0.712081 0.700318
1.162630 0.032187 -0.096148 -0.000061 0.370042 -0.928146
1.581894 -0.093574 -0.088220 0.380793 -0.638604 0.668716
1.347965 0.100240 0.015249 0.000297 0.979242 0.198848
-1.055402 -0.054651 -0.085403 0.000172 -0.578811 -0.814496
1.387869 0.160064 -0.165427 -0.000000 -0.685986 -0.727615
0.331087 0.124407 -0.117289 0.093737 0.682965 0.724411
0.127388 0.136116 -0.101971 0.049311 0.693251 0.718258
-1.193520 -0.099973 -0.016909 0.000720 -0.976460 -0.212038
0.175235 -0.057054 -0.083818 0.000033 -0.561266 -0.826662
-0.240173 -0.101393 -0.000000 -0.000414 -0.999222 -0.021749
-0.201604 -0.153572 -0.143187 -0.049954 -0.712081 0.700318
-0.775956 -0.052054 0.087011 0.001277 -0.541283 0.840069
0.497422 0.041737 -0.092404 -0.000029 0.412873 -0.909915
-1.485129 0.034164 0.095464 0.000002 0.336491 0.940830
-1.228047 0.060260 -0.081543 0.000013 0.555264 -0.830732
1.085052 -0.110809 0.104469 -0.181138 0.390537 0.902591
1.489465 -0.269915 0.254472 -0.181138 0.390537 0.902591
1.489465 0.269915 0.254472 -0.181138 0.878045 -0.442975
-1.043204 -0.063329 0.079183 -0.000056 -0.656859 0.753074
-1.004309 0.063108 -0.079359 -0.001189 0.660205 -0.750046
0.182071 -0.428268 0.408111 -0.026594 0.670997 0.740983
1.148570 0.100202 -0.015495 -0.000220 0.977325 -0.208030
-0.192593 -0.049615 -0.088424 0.000301 -0.488284 -0.871880
1.260496 0.023644 0.098598 0.000112 0.223989 0.973757
0.157793 -0.027373 0.097628 -0.000011 -0.264432 0.963646
0.157662 0.343855 -0.330794 -0.026594 -0.670997 -0.740983
0.609982 0.098648 0.023431 0.000052 0.977893 0.205404
-0.545020 -0.076960 -0.066013 0.000049 -0.723302 -0.689362
-1.433971 -0.101208 -0.006128 0.000297 -0.994355 -0.099963
0.286492 -0.230604 0.211639 0.093737 -0.682965 -0.724411
0.294908 0.005996 -0.101215 0.000609 0.097209 -0.994724
-1.338167 -0.071733 0.071658 -0.000010 -0.706844 0.706231
1.117368 -0.095314 -0.034580 -0.000317 -0.940713 -0.337012
-1.316735 -0.036439 -0.094619 -0.000479 -0.382830 -0.923230
-0.440933 0.069745 0.073595 -0.000014 0.709568 0.703547
0.770553 -0.101393 -0.000000 -0.000894 -0.998948 -0.035320
-0.523743 -0.037662 0.094139 0.000150 -0.368755 0.928674
0.218960 -0.295705 0.286500 0.049990 0.685128 0.726705
-0.054496 -0.112793 0.113943 -0.026594 0.670997 0.740983
-0.671790 0.045078 -0.090821 0.000003 0.490206 -0.870682
0.297875 -0.567772 -0.530991 0.093737 -0.682965 0.724411
0.427403 0.091706 -0.043250 -0.000024 0.925568 -0.376433
1.152955 0.048967 0.088785 -0.000129 0.440987 0.896565
0.866531 -0.026195 0.097951 0.000504 -0.250799 0.967333
0.725477 0.030893 -0.096572 -0.000035 0.343576 -0.938257
0.542352 -0.039088 0.093556 0.000107 -0.341086 0.939186
0.237948 -0.086692 0.052583 0.000523 -0.856095 0.515302
0.325784 0.097366 -0.028291 0.000161 0.945045 -0.324565
1.582672 -0.049139 -0.000000 1.000000 0.000000 -0.000000
0.023914 0.007311 -0.101129 -0.000327 0.110357 -0.993236
1.287680 0.127664 0.105839 -0.000000 0.685986 -0.727615
-0.117522 0.131182 0.128333 -0.026594 -0.670997 0.740983
0.041508 -0.258815 -0.249618 -0.026594 0.670997 -0.740983
-1.519355 -0.037303 -0.093966 -0.056910 -0.414485 -0.907453
0.065520 -0.167622 -0.138418 -0.049954 -0.712081 0.700318
-0.334307 -0.028576 0.097283 -0.000034 -0.328142 0.943782
-0.623014 0.096366 0.031528 -0.000644 0.960882 0.274350
0.955528 -0.082995 0.058244 0.000617 -0.778843 0.625411
-0.044686 -0.302184 0.285797 -0.026594 0.670997 0.740983
1.511085 0.056298 0.084327 0.202659 0.581723 0.783443
0.331087 0.175039 0.165024 0.049990 -0.685128 0.726705
1.032302 -0.090056 -0.084903 -0.181138 -0.878045 0.442975
0.101577 -0.201737 0.200088 -0.026594 0.670997 0.740983
0.331087 0.392032 -0.369603 0.093737 0.682965 0.724411
1.226660 -0.156043 -0.136224 -0.181138 -0.878045 0.442975
0.254625 0.506473 0.481533 -0.026594 -0.670997 0.740983
-0.724635 -0.065322 -0.077547 0.000006 -0.637847 -0.769117
-0.074349 -0.247241 -0.229352 -0.049954 -0.712081 0.700318
0.287510 -0.445931 -0.414779 0.093737 -0.682965 0.724411
-0.900778 0.081507 0.060309 0.000449 0.796180 0.603661
0.167216 0.097690 -0.027152 -0.000104 0.963978 -0.262846
0.078430 0.424698 0.398892 -0.049954 0.712081 -0.700318
0.107447 -0.473043 -0.445979 -0.049954 -0.712081 0.700318
0.249639 0.228170 -0.220718 0.049990 -0.685128 -0.726705
0.238389 0.315042 -0.303394 0.049990 -0.685128 -0.726705
-1.635293 -0.030502 -0.059359 -0.518864 -0.387468 -0.759097
1.507114 0.071423 -0.067337 -0.250346 -0.704445 0.664142
-0.555140 0.004136 -0.101308 -0.000404 0.085628 -0.995814
1.344706 -0.029685 -0.096950 -0.000061 -0.336872 -0.940698
1.398194 -0.100011 -0.108810 0.000000 0.685986 -0.727615
0.848608 0.100928 0.009693 -0.000114 0.987829 0.149061
-0.351242 -0.056530 -0.084172 0.000046 -0.594735 -0.802943
0.850780 -0.084144 -0.056571 0.000590 -0.798304 -0.601042
1.524939 -0.246147 -0.246585 0.000000 0.685986 -0.727615
1.524939 0.246147 -0.246585 0.000000 -0.685986 -0.727615
-1.537583 -0.073966 0.066570 -0.137819 -0.762651 0.630333
0.657134 -0.043474 0.091600 0.000069 -0.443748 0.895249
-0.000621 -0.368886 -0.347781 -0.049954 -0.712081 0.700318
1.484772 -0.183775 -0.187781 0.000000 0.685986 -0.727615
0.165403 0.121725 0.126158 0.049990 -0.685128 0.726705
0.100419 0.247220 -0.216864 -0.049954 0.712081 0.700318
0.009202 0.145980 -0.120430 -0.049954 0.712081 0.700318
-0.850872 0.008103 -0.101069 0.000294 0.125140 -0.991355
0.140556 -0.410197 -0.390257 -0.026594 0.670997 -0.740983
1.180968 -0.052420 -0.086791 -0.000230 -0.558201 -0.828765
0.072887 -0.091222 0.044260 0.000149 -0.919774 0.390455
-0.237160 0.062870 -0.079548 0.000065 0.582666 -0.811722
-1.397918 0.098137 -0.025487 0.000184 0.979146 -0.198357
-1.402533 0.080779 0.061281 -0.000196 0.794543 0.606016
1.495103 0.182772 -0.186836 0.000000 -0.685986 -0.727615
-0.193519 0.086785 0.052430 0.000100 0.870822 0.489962
0.081276 0.098332 -0.024725 0.000080 0.958011 -0.283924
0.331087 -0.500529 0.471892 0.049990 0.685128 0.726705
0.312279 0.102038 0.097494 0.049990 -0.685128 0.726705
1.424697 -0.084345 0.056270 0.000026 -0.802644 0.595125
1.418925 0.090152 -0.070474 -0.000000 0.685986 0.727615
-0.222761 -0.154786 0.145930 -0.026594 0.670997 0.740983
0.583489 0.036343 -0.094656 0.000026 0.355631 -0.933789
-0.086826 0.088460 -0.049551 -0.000083 0.848993 -0.526907
1.502425 -0.043310 -0.091678 0.109081 -0.422142 -0.895598
-0.267428 0.102136 0.095582 -0.049954 0.712081 -0.700318
-1.555576 0.075742 0.060036 -0.183639 0.741711 0.643604
0.210131 -0.279028 -0.247412 0.093737 -0.682965 0.724411
1.006322 0.070346 0.071161 -0.181138 -0.390537 0.902591
-0.096682 0.276302 -0.260494 -0.049954 0.712081 0.700318
0.199131 0.052885 0.086508 -0.000091 0.547133 0.836094
-1.141407 -0.068360 -0.074883 -0.000067 -0.709046 -0.704045
-0.646353 -0.099546 -0.019264 -0.000014 -0.971476 -0.233804
-1.134072 -0.056411 0.084252 0.000015 -0.513403 0.857284
0.226945 -0.181748 0.178514 0.049990 0.685128 0.726705
-0.814853 0.078052 -0.064718 -0.000001 0.734852 -0.677040
0.279675 0.521295 -0.484818 0.093737 0.682965 0.724411
-1.547451 0.095139 -0.023935 -0.138376 0.960301 -0.236773
-1.019347 0.056562 0.084150 -0.000435 0.558989 0.828312
0.246076 -0.512472 -0.476182 -0.049954 -0.712081 0.700318
1.410875 -0.167867 0.172783 -0.000000 0.685986 0.727615
0.245132 -0.388642 -0.372319 0.049990 0.685128 -0.726705
-0.168727 -0.206864 0.195029 -0.026594 0.670997 0.740983
-0.025477 0.198451 -0.176257 -0.049954 0.712081 0.700318
0.268972 0.284730 0.272712 0.049990 -0.685128 0.726705
-1.155337 0.088205 -0.050004 0.000194 0.845866 -0.531935
1.152313 -0.092813 0.040821 0.000295 -0.892860 0.448664
-0.147744 0.033252 0.095785 -0.000452 0.377548 0.925196
-0.398711 0.014188 -0.100395 0.000025 0.186927 -0.981592
0.676150 -0.085399 -0.054658 -0.000655 -0.819139 -0.571910
-0.178874 0.097776 -0.026841 0.000139 0.964738 -0.259911
-1.140708 0.081109 0.060842 -0.000019 0.796976 0.602737
-0.041817 -0.104112 -0.081498 -0.049954 -0.712081 0.700318
0.232819 -0.155425 -0.133817 0.093737 -0.682965 0.724411
1.264882 -0.121935 0.129479 -0.000000 0.685986 0.727615
1.267227 0.089618 -0.047424 -0.000022 0.858216 -0.511867
1.424778 0.048099 0.089258 0.000016 0.516263 0.855487
-0.156287 0.125466 -0.111376 -0.049954 0.712081 0.700318
0.722605 0.097049 -0.029360 0.000068 0.939264 -0.340846
0.725500 0.025612 0.098105 0.000015 0.226209 0.973300
0.340776 -0.058035 -0.083141 -0.000016 -0.546550 -0.836461
0.119797 -0.115527 -0.081577 -0.025986 -0.707872 0.704992
1.500648 -0.114220 0.093165 -0.000000 -0.685986 -0.727615
0.207278 0.015313 -0.100230 0.001040 0.191207 -0.980831
-0.746692 0.089317 0.047989 0.000253 0.857684 0.512814
0.230252 0.391866 0.356398 0.093737 0.682965 -0.724411
0.155477 -0.519335 -0.489622 -0.049954 -0.712081 0.700318
0.986306 -0.006247 -0.101200 0.002105 -0.102737 -0.994177
-0.096458 -0.088514 0.049455 0.000237 -0.845651 0.532377
-0.805360 -0.101055 0.008272 -0.000854 -0.997295 0.056628
-0.328009 0.090637 -0.045447 0.000035 0.869001 -0.493177
0.593857 -0.092826 -0.040791 -0.000131 -0.900212 -0.433616
1.085380 0.066195 -0.076803 -0.000048 0.679403 -0.732699
1.456148 0.121214 0.099758 0.000000 0.685986 -0.727615
-1.650443 -0.000000 0.057249 -0.577810 -0.049994 0.811441
-0.053035 0.054471 0.085518 0.000140 0.582683 0.811733
0.454209 -0.030353 -0.096743 -0.000188 -0.351287 -0.935384
0.269220 0.157129 -0.152395 0.049990 -0.685128 -0.726705
1.450561 -0.086980 -0.052106 -0.000072 -0.857149 -0.513519
-0.892738 -0.099900 -0.017337 0.000694 -0.974870 -0.219577
0.113454 -0.276634 0.245842 -0.049954 -0.712081 -0.700318
-1.269045 -0.009982 0.100900 -0.000177 -0.147880 0.988215
0.156218 0.192016 0.158402 0.093737 0.682965 -0.724411
1.555042 -0.156777 -0.133286 0.256323 -0.662959 0.697374
0.095439 0.461470 -0.435068 -0.049954 0.712081 0.700318
1.418484 0.172031 0.176710 -0.000000 -0.685986 0.727615
-0.012907 -0.052419 0.086791 -0.000294 -0.517471 0.854778
1.366383 0.221491 -0.208819 -0.181138 0.878045 0.442975
-1.277916 0.065188 0.077660 0.000075 0.675540 0.736329
0.296732 -0.103062 0.099528 0.049990 0.685128 0.726705
-0.948546 -0.074640 0.068625 -0.000025 -0.699479 0.713514
0.895717 0.045016 0.090852 0.000115 0.445814 0.894280
-0.067605 0.199923 0.192372 -0.026594 -0.670997 0.740983
0.226473 -0.097195 -0.028874 -0.000219 -0.970587 -0.237381
-0.700811 -0.063678 0.078903 -0.000622 -0.605311 0.794997
0.253589 -0.417360 0.383453 0.093737 -0.682965 -0.724411
-0.036803 0.100935 0.009623 0.000417 0.987707 0.150768
0.407386 -0.098935 0.022191 0.000117 -0.963361 0.265179
1.323385 0.065038 0.077786 -0.000443 0.641235 0.766300
-1.260246 -0.098370 0.024573 0.000040 -0.956401 0.289302
0.119797 -0.094626 0.103747 0.000765 0.676395 0.736264
0.075971 -0.222020 -0.192985 -0.049954 -0.712081 0.700318
0.553468 0.074711 0.068547 0.000105 0.696887 0.716079
0.180106 0.412967 -0.394184 -0.026594 -0.670997 -0.740983
-0.009252 -0.153082 -0.128968 -0.049954 -0.712081 0.700318
0.331087 0.392032 0.369603 0.049990 -0.685128 0.726705
1.366383 -0.221491 -0.208819 -0.181138 -0.878045 0.442975
0.150568 -0.313129 -0.280303 -0.049954 -0.712081 0.700318
0.876782 0.076075 -0.067030 -0.000699 0.776212 -0.629263
0.060724 0.094750 -0.101739 -0.026594 -0.670997 -0.740983
-0.008185 0.328985 0.307749 -0.049954 0.712081 -0.700318
-0.260576 -0.020417 -0.099316 -0.000240 -0.194028 -0.980200
-1.411013 -0.000000 0.101393 -0.000020 0.022980 0.999263
0.453164 0.096697 0.030500 -0.000193 0.935754 0.350590
0.097397 -0.044679 -0.091018 0.000226 -0.395269 -0.917725
0.142571 -0.177295 0.142757 -0.002017 -0.703664 -0.709665
1.478607 -0.208869 0.211440 0.000000 0.685986 0.727615
0.055047 0.360106 -0.334883 -0.049954 0.712081 0.700318
-0.386155 -0.077713 0.065124 0.000009 -0.766049 0.641540
0.044869 0.186159 0.183945 -0.026594 -0.670997 0.740983
-0.045136 -0.239122 0.228676 -0.026594 0.670997 0.740983
0.927236 -0.101109 -0.007578 -0.002421 -0.993594 -0.106824
1.294675 -0.101038 -0.008474 -0.000040 -0.991575 -0.123702
1.478607 0.208869 0.211440 0.000000 -0.685986 0.727615
0.082818 0.362730 0.345201 -0.026594 -0.670997 0.740983
1.350104 0.201116 0.175088 -0.061550 0.760114 -0.640301
0.155223 -0.211610 -0.176746 -0.002017 -0.703664 0.709665
1.018152 -0.051664 0.087243 -0.001351 -0.552631 0.832462
0.409904 0.041784 0.092383 -0.000025 0.385758 0.921738
-0.151608 -0.113970 -0.099353 -0.049954 -0.712081 0.700318
1.561093 -0.161045 0.162721 0.380793 0.629977 0.676849
1.561093 0.161045 0.162721 0.380793 -0.629977 0.676849
1.543417 -0.064593 0.060897 -0.250346 0.704445 -0.664142
-1.283726 0.091074 -0.044566 -0.000367 0.898436 -0.437235
-0.097756 -0.197471 0.189070 -0.026594 0.670997 0.740983
0.779961 0.093562 0.039071 0.000083 0.910588 0.411368
1.349779 -0.204481 0.181891 -0.181138 -0.878045 -0.442975
0.072472 -0.097733 -0.026996 -0.000579 -0.948688 -0.313695
0.016695 -0.118212 0.091661 -0.049954 -0.712081 -0.700318
0.181490 0.509890 0.482003 -0.026594 -0.670997 0.740983
-0.639380 0.050821 0.087737 0.000181 0.543478 0.838497
-1.164648 0.008049 -0.101073 0.000340 0.137981 -0.989481
-0.171154 0.173916 -0.165105 -0.026594 -0.670997 -0.740983
-0.083246 -0.192171 -0.184792 -0.026594 0.670997 -0.740983
-0.492820 0.026381 0.097901 0.000010 0.260563 0.964619
-0.885566 0.101016 -0.008730 -0.000515 0.995146 -0.093244
0.137651 0.328354 0.316039 -0.026594 -0.670997 0.740983
1.251238 -0.065514 -0.076286 0.000000 0.727615 0.685986
0.148578 0.436529 0.405918 -0.049954 0.712081 -0.700318
0.311318 0.257344 -0.240062 0.093737 0.682965 0.724411
-1.660421 0.034582 -0.036329 -0.614948 0.584052 -0.523337
1.291505 0.147039 -0.124105 0.000000 0.685986 0.727615
0.162814 0.215553 -0.214796 -0.001060 -0.676062 -0.736608
0.103032 0.035099 0.095124 -0.000092 0.370027 0.928173
0.490078 -0.091678 -0.043309 0.000353 -0.877610 -0.477794
-0.034854 0.301428 -0.285465 -0.026594 -0.670997 -0.740983
1.225717 0.166150 -0.156644 -0.181138 0.878045 0.442975
1.355585 -0.089349 0.047930 -0.000020 -0.856258 0.514982
0.129882 0.273847 0.266402 -0.026594 -0.670997 0.740983
-0.040946 0.043450 -0.091611 -0.000130 0.473999 -0.879629
0.810047 -0.070938 0.072445 -0.000083 -0.693742 0.719172
0.191685 0.122435 -0.125020 0.049990 -0.685128 -0.726705
-0.331440 0.098596 0.023652 -0.000009 0.965420 0.257582
0.585949 0.092509 -0.041504 -0.000063 0.905986 -0.421400
-1.261585 -0.086541 -0.052831 -0.000064 -0.877591 -0.477721
0.027979 0.115808 0.119632 -0.026594 -0.670997 0.740983
-0.080158 0.229603 -0.211831 -0.049954 0.712081 0.700318
0.598296 -0.073351 0.070001 -0.000054 -0.696668 0.716271
1.217203 -0.103090 0.082671 -0.000000 -0.685986 -0.727615
-1.398322 0.015322 -0.100228 0.000249 0.153089 -0.987162
0.712952 -0.094363 0.037096 -0.000274 -0.908741 0.415541
-1.381853 -0.086767 -0.052460 -0.000031 -0.855661 -0.515985
0.315101 0.033279 0.095776 0.000095 0.300075 0.953077
-0.131551 -0.019468 -0.099506 0.000287 -0.242491 -0.969407
1.341961 -0.149563 -0.155527 0.000000 0.685986 -0.727615
0.090167 -0.370261 0.342703 -0.049954 -0.712081 -0.700318
0.291967 0.353326 -0.328048 0.093737 0.682965 0.724411
-0.776671 0.037606 0.094161 0.000117 0.370590 0.927922
1.331840 0.037461 -0.094219 -0.000027 0.326536 -0.944400
-0.997179 -0.080862 -0.061171 0.000443 -0.765552 -0.642144
1.114610 0.089435 0.047769 0.000246 0.857772 0.512243
1.437760 -0.115349 0.123270 0.000000 0.685986 0.727615
-0.895345 -0.032791 0.095944 0.000298 -0.296654 0.953767
-0.644310 -0.088164 0.050077 0.000382 -0.891745 0.450829
-0.231190 -0.047169 0.089753 0.000119 -0.465096 0.884353
0.040107 -0.198222 0.171345 -0.049954 -0.712081 -0.700318
-0.081626 0.251916 0.234624 -0.049954 0.712081 -0.700318
1.201486 0.080009 -0.060911 0.000000 -0.727615 0.685986
0.794761 -0.008055 0.101072 -0.001116 -0.056823 0.997699
-0.418338 -0.092797 -0.040857 0.000096 -0.911441 -0.409472
-0.744980 0.079047 -0.063498 -0.000020 0.749655 -0.660613
0.148276 -0.319984 0.287437 -0.049954 -0.712081 -0.700318
1.018530 0.058993 -0.082464 -0.000355 0.563349 -0.825332
-0.463972 -0.074311 0.068981 0.000028 -0.732256 0.679850
0.974896 0.099461 -0.019700 -0.000664 0.986771 -0.156591
0.283879 0.432609 -0.401749 0.093737 0.682965 0.724411
0.073627 -0.376642 -0.350371 -0.049954 -0.712081 0.700318
0.058170 0.261342 0.234237 -0.049954 0.712081 -0.700318
0.331087 0.305235 0.287771 0.049990 -0.685128 0.726705
1.582672 0.019656 -0.000000 1.000000 0.000000 0.000000
-1.577557 -0.064091 -0.065081 -0.279503 -0.720535 -0.632404
1.532654 0.142505 -0.148872 0.000000 -0.685986 -0.727615
0.031786 0.227436 -0.201644 -0.049954 0.712081 0.700318
-1.020733 0.000000 -0.101393 0.000074 0.028491 -0.998456
-1.268005 0.008555 -0.101031 0.000741 0.093699 -0.995015
1.582517 0.064480 0.060791 0.380793 0.638604 -0.668716
1.222675 0.080137 0.090073 -0.000000 -0.685986 0.727615
0.331211 0.058036 -0.083141 -0.000067 0.569428 -0.821161
0.302918 -0.095835 -0.033109 -0.000205 -0.944060 -0.327485
0.920661 0.000000 -0.101393 0.000498 0.058218 -0.997509
-0.005924 0.278335 0.265592 -0.026594 -0.670997 0.740983
1.118530 -0.056511 0.084184 -0.000057 -0.555728 0.830438
-0.299122 -0.097181 -0.028919 0.000003 -0.944217 -0.326952
-0.154030 0.174886 0.166599 -0.026594 -0.670997 0.740983
-0.003017 0.011724 0.100713 0.001612 0.171358 0.984383
-0.784806 -0.043954 -0.091370 -0.000178 -0.388107 -0.920660
-1.485150 -0.095500 0.034063 -0.000005 -0.923485 0.381527
-1.398609 -0.087025 0.052030 0.000018 -0.831318 0.554341
0.331087 -0.334167 -0.315049 0.093737 -0.682965 0.724411
0.792497 0.016496 -0.100042 -0.000166 0.217009 -0.975395
0.277352 0.416996 0.396835 0.049990 -0.685128 0.726705
1.538410 -0.083272 -0.040735 0.303432 -0.879074 -0.365302
0.253723 -0.144289 0.126023 0.093737 -0.682965 -0.724411
-1.476521 -0.078381 -0.064319 -0.000011 -0.740162 -0.671239
-1.025345 0.097419 -0.028107 0.000018 0.946205 -0.321252
0.196194 -0.117781 -0.093587 0.093737 -0.682965 0.724411
0.035401 0.403605 -0.380514 -0.049954 0.712081 0.700318
0.226217 0.333761 0.321880 0.049990 -0.685128 0.726705
0.253441 -0.532504 0.505063 -0.026594 0.670997 0.740983
-1.151745 -0.096082 0.032383 -0.000342 -0.930428 0.364434
0.207550 0.515742 -0.482254 -0.049954 0.712081 0.700318
0.004504 -0.094115 -0.037720 0.000133 -0.925270 -0.377494
0.130351 0.194177 -0.160795 -0.049954 0.712081 0.700318
1.518733 0.115823 0.123717 -0.000000 -0.685986 0.727615
-0.295471 0.022825 0.098790 0.000114 0.199248 0.979243
0.985475 -0.095395 -0.034354 0.000200 -0.941647 -0.334227
-0.383702 0.070416 -0.072953 0.000153 0.695724 -0.717211
0.321018 0.495631 0.467967 0.049990 -0.685128 0.726705
1.115653 -0.055530 -0.084835 0.000077 -0.590234 -0.806203
0.287517 0.210328 0.201292 0.049990 -0.685128 0.726705
-0.066721 -0.101084 -0.007907 0.000801 -0.992735 -0.113867
0.273623 -0.258603 -0.247760 0.049990 0.685128 -0.726705
0.331087 -0.377566 0.355964 0.049990 0.685128 0.726705
1.552702 -0.251625 0.251750 0.129392 0.675821 0.719770
1.552702 0.251625 0.251750 0.129392 -0.675821 0.719770
-1.524672 0.065853 -0.076277 -0.090562 0.676815 -0.729034
-0.315904 -0.089231 0.048149 -0.000097 -0.879031 0.475012
0.297520 -0.198892 -0.189822 0.049990 0.685128 -0.726705
0.092261 0.099761 0.107409 -0.026594 -0.670997 0.740983
-1.077090 0.079456 0.062986 0.000001 0.750046 0.660186
0.373301 -0.070965 0.072419 0.000073 -0.698793 0.714300
0.019726 -0.302983 0.279319 -0.049954 -0.712081 -0.700318
-0.037374 0.104951 -0.107455 -0.026594 -0.670997 -0.740983
-0.885769 -0.043921 -0.091386 0.000171 -0.428161 -0.902847
-0.212751 -0.108224 0.104126 -0.026594 0.670997 0.740983
0.191194 -0.512992 0.480625 -0.049954 -0.712081 -0.700318
0.176300 -0.095340 0.069856 0.093737 -0.682965 -0.724411
0.433877 -0.016272 0.100079 -0.000178 -0.204894 0.978007
-0.464111 0.092225 -0.042132 -0.000015 0.929961 -0.365580
-1.520384 -0.021659 0.098696 -0.077993 -0.194617 0.976081
1.570822 0.073579 -0.062820 0.380793 0.638604 0.668716
1.390801 0.114356 -0.122334 -0.000000 -0.685986 -0.727615
0.164549 0.460340 -0.436525 -0.026594 -0.670997 -0.740983
-1.028138 -0.098218 0.025175 -0.000279 -0.956001 0.290801
0.246461 0.093426 0.093903 0.049990 -0.685128 0.726705
-0.493605 -0.008530 -0.101033 0.000940 -0.125471 -0.991323
0.272597 -0.272384 0.260823 0.049990 0.685128 0.726705
1.383260 0.091892 0.072113 0.000000 0.685986 -0.727615
-0.178456 -0.100849 0.010483 -0.000282 -0.992600 0.115904
0.265980 0.567772 0.530991 -0.049954 0.712081 -0.700318
-0.145767 -0.172130 -0.164399 -0.026594 0.670997 -0.740983
1.316928 -0.156434 0.132963 -0.000000 -0.685986 -0.727615
1.193988 -0.113335 -0.092330 0.000000 -0.685986 0.727615
-0.064840 0.115010 0.094222 -0.049954 0.712081 -0.700318
1.493765 0.019789 -0.099443 0.000315 0.189806 -0.980819
0.166542 0.062381 -0.079932 0.000038 0.614258 -0.788337
-0.681582 0.088041 0.050292 -0.000014 0.871513 0.488440
0.138885 -0.401710 0.371205 -0.049954 -0.712081 -0.700318
-0.526552 0.084303 -0.056334 0.000051 0.804490 -0.592635
0.172936 0.259651 0.224331 0.050682 0.692960 -0.718475
-0.613473 0.024447 -0.098402 0.000018 0.246674 -0.968241
-0.772655 -0.089739 -0.047196 0.000026 -0.859225 -0.510048
1.139023 0.118071 0.096795 -0.057143 0.755348 -0.647127
0.645694 0.071360 0.072030 -0.000140 0.720555 0.692325
0.262507 0.096870 -0.029946 0.000032 0.952182 -0.302891
-0.946823 0.035210 -0.095083 0.000082 0.357603 -0.933001
1.421446 0.208789 -0.182322 -0.000000 0.685986 0.727615
-0.570410 0.101393 -0.000000 0.000402 0.998203 -0.039823
-0.706584 -0.008151 -0.101065 -0.000543 -0.095261 -0.994878
-0.962531 0.092687 -0.041105 0.000150 0.890300 -0.453653
-1.037577 -0.006272 0.101199 -0.000115 -0.053434 0.997881
-0.109213 0.182141 -0.174777 -0.026594 -0.670997 -0.740983
-0.123785 -0.102821 0.102425 -0.026594 0.670997 0.740983
-0.953180 0.058021 0.083151 -0.000167 0.570132 0.820582
1.323148 -0.077512 -0.065364 -0.000072 -0.767492 -0.639801
-0.393048 0.025922 0.098023 -0.000192 0.236576 0.970764
-0.837389 0.075079 0.068144 0.000761 0.738261 0.673183
-0.171991 0.108328 0.105683 -0.026594 -0.670997 0.740983
0.134282 0.301906 -0.291969 -0.026594 -0.670997 -0.740983
1.502095 0.100439 -0.013874 0.108385 0.980439 -0.138529
1.407456 -0.038788 0.093680 -0.000013 -0.382172 0.923220
0.207940 -0.310160 -0.300886 0.049990 0.685128 -0.726705
1.175050 0.093058 0.040259 0.000021 0.896483 0.441248
-0.646337 0.091410 -0.043872 0.000000 0.903843 -0.425975
0.184437 0.095826 0.033134 -0.000212 0.932397 0.359350
1.091961 0.049646 0.088407 -0.000004 0.493909 0.868608
-1.079065 0.082406 -0.059075 -0.000135 0.811400 -0.583153
-0.212751 -0.108224 -0.104126 -0.026594 0.670997 -0.740983
1.304208 -0.029656 0.096959 -0.000007 -0.338259 0.940197
0.315103 0.096352 0.031573 0.000068 0.940553 0.337372
-1.150827 -0.000000 0.101393 -0.000465 0.051289 0.997715
0.474290 -0.099406 0.019975 -0.000946 -0.976644 0.210779
-1.467338 -0.006023 -0.101214 -0.000195 -0.098468 -0.994511
-0.019185 -0.261769 -0.250115 -0.026594 0.670997 -0.740983
-0.486905 -0.089243 -0.048127 -0.000005 -0.853242 -0.519992
-1.277823 -0.068173 0.075053 -0.000037 -0.634476 0.771904
0.665847 0.100956 -0.009406 -0.000573 0.990262 -0.131747
-0.199463 0.008914 -0.101000 0.000842 0.139544 -0.989400
1.094200 -0.098042 0.025850 0.000088 -0.965955 0.255614
0.047598 0.269608 -0.243396 -0.049954 0.712081 0.700318
1.322608 0.150817 0.156709 0.000000 -0.685986 0.727615
-0.103263 -0.077788 -0.080494 -0.026594 0.670997 -0.740983
0.117263 -0.454742 0.426670 -0.049954 -0.712081 -0.700318
0.235660 -0.043643 -0.091519 -0.000013 -0.438070 -0.898003
1.085052 -0.110809 -0.104469 -0.181138 -0.878045 0.442975
1.225717 -0.166150 0.156644 -0.181138 0.390537 0.902591
1.172968 0.145397 -0.137078 -0.181138 0.878045 0.442975
-0.931112 -0.081991 -0.059649 0.000072 -0.780836 -0.623520
0.068956 0.095622 0.033718 0.000232 0.952839 0.300881
-0.270791 0.108494 -0.102287 -0.049954 0.712081 0.700318
1.244044 -0.034080 0.095494 -0.000001 -0.335535 0.941191
0.908358 0.099863 -0.017549 -0.000151 0.973364 -0.225714
1.320314 -0.101368 0.110089 -0.000000 0.685986 0.727615
0.239043 0.271618 -0.262409 0.049990 -0.685128 -0.726705
0.331087 -0.283536 -0.267313 0.093737 -0.682965 0.724411
0.331087 -0.334167 0.315049 0.049990 0.685128 0.726705
0.331087 -0.117174 -0.110470 0.093737 -0.682965 0.724411
1.399729 0.100276 -0.015007 0.000751 0.979902 -0.195674
-0.084674 -0.287875 -0.271405 -0.049954 -0.712081 0.700318
-0.763675 0.100735 -0.011530 -0.000529 0.993339 -0.110004
1.225717 0.166150 0.156644 -0.181138 0.878045 -0.442975
-0.575634 -0.062549 0.079801 -0.000019 -0.617826 0.785290
-0.391632 0.089631 0.047400 0.000449 0.907105 0.419154
0.029398 -0.397819 0.375058 -0.026594 0.670997 0.740983
-0.194751 -0.090537 -0.045646 0.000473 -0.888133 -0.457869
-1.113599 -0.021963 -0.098986 -0.000306 -0.224432 -0.973708
-0.167784 -0.022259 0.098919 0.001444 -0.246267 0.968406
-0.580417 -0.000000 0.101393 -0.001663 0.062547 0.996983
-0.503677 0.078756 0.063859 -0.000211 0.759544 0.649180
1.201997 0.016735 0.100002 0.000111 0.209664 0.976991
1.421021 -0.101393 -0.000000 0.000696 -0.997805 -0.054270
0.305364 -0.038239 0.093906 0.000272 -0.329841 0.943230
1.163164 -0.095870 0.104906 0.000000 0.685986 0.727615
0.220808 -0.348169 0.313979 0.093737 -0.682965 -0.724411
-1.459316 0.093733 -0.038660 -0.000006 0.903766 -0.426147
1.023262 0.017394 0.099890 0.000175 0.162841 0.985553
0.662992 0.030516 -0.096692 -0.000017 0.339724 -0.939668
0.542367 0.023718 0.098580 -0.000292 0.256267 0.965814
0.921631 -0.044685 0.091015 -0.000827 -0.472780 0.880496
-0.008728 -0.046738 -0.089978 0.000049 -0.469337 -0.882132
0.706064 -0.024077 -0.098493 -0.000027 -0.291294 -0.955822
0.275695 -0.359787 -0.332034 0.093737 -0.682965 0.724411
0.099736 -0.291525 -0.261962 -0.049954 -0.712081 0.700318
0.022387 0.319192 -0.303606 -0.026594 -0.670997 -0.740983
-1.601570 0.072568 -0.040520 -0.382750 0.823760 -0.414930
0.197511 -0.419137 -0.384743 -0.049954 -0.712081 0.700318
-1.574697 -0.091002 0.014486 -0.252371 -0.946894 0.193872
-0.832308 -0.040561 0.092927 -0.000114 -0.446775 0.893749
0.367827 -0.097381 -0.028239 0.002169 -0.974963 -0.216922
1.434601 -0.144719 -0.121918 0.000000 -0.685986 0.727615
0.301057 -0.462945 0.438524 0.049990 0.685128 0.726705
0.020014 0.101393 -0.000000 -0.001481 0.997934 -0.047930
-1.610693 0.047057 0.063795 -0.405983 0.599230 0.687540
-0.900735 0.035583 0.094944 0.000801 0.381849 0.923587
1.424521 -0.047788 -0.089425 0.000462 -0.471474 -0.880969
-0.120777 0.086664 0.087902 -0.026594 -0.670997 0.740983
0.200075 -0.397601 0.362662 -0.049954 -0.712081 -0.700318
0.101944 0.179582 0.180038 -0.026594 -0.670997 0.740983
-0.078110 -0.165145 0.146145 -0.049954 -0.712081 -0.700318
-1.594734 -0.054031 0.066557 -0.319114 -0.611346 0.722183
-1.671579 -0.040515 -0.008171 -0.626296 -0.750858 -0.196861
0.394479 -0.032814 -0.095936 0.000069 -0.376184 -0.925678
-1.261528 0.096544 0.030982 0.000293 0.947791 0.316551
1.582672 -0.041284 -0.058207 1.000000 0.000000 0.000000
1.526214 -0.206521 0.180184 0.000000 -0.685986 -0.727615
1.526214 0.206521 0.180184 -0.000000 0.685986 -0.727615
1.444742 0.158993 -0.164418 0.000000 -0.685986 -0.727615
1.244799 0.052462 -0.086765 0.000352 0.548595 -0.835102
0.017903 -0.144135 0.144923 -0.026594 0.670997 0.740983
-1.342552 0.078519 0.064151 -0.001075 0.754816 0.655182
1.519945 0.090156 0.039860 0.253017 0.894863 0.358974
0.194978 -0.468952 0.445415 -0.026594 0.670997 0.740983
0.270402 0.461689 0.439449 0.049990 -0.685128 0.726705
-1.048312 -0.094557 -0.036598 -0.000345 -0.930431 -0.364532
0.214924 -0.049675 0.088391 -0.000146 -0.528164 0.848312
1.528982 -0.000000 0.095700 0.302972 -0.026871 0.951863
0.069802 0.153665 -0.123921 -0.049954 0.712081 0.700318
-1.399997 0.069425 -0.073897 -0.000010 0.717408 -0.695596
0.206035 0.166862 0.165918 0.049990 -0.685128 0.726705
0.728905 -0.094347 -0.037136 -0.000019 -0.918669 -0.393085
0.027965 -0.301815 -0.288070 -0.026594 0.670997 -0.740983
0.383406 0.101037 -0.008491 -0.000237 0.997447 -0.060407
0.232084 -0.237590 0.230807 0.049990 0.685128 0.726705
0.226918 0.268181 0.239358 0.093737 0.682965 -0.724411
0.515024 -0.078435 0.064253 0.000253 -0.768085 0.638999
0.828041 -0.101065 -0.008145 -0.000466 -0.992794 -0.113087
-1.343608 0.093687 -0.038771 0.000300 0.922981 -0.382710
0.280748 -0.317612 0.292926 0.093737 -0.682965 -0.724411
1.053696 0.089314 0.047995 0.000044 0.855040 0.517018
-0.592471 -0.092817 -0.040810 0.000161 -0.910484 -0.411643
0.125308 -0.354938 -0.324616 -0.049954 -0.712081 0.700318
1.060697 -0.094416 -0.036961 -0.000273 -0.912535 -0.407422
0.529784 0.080915 -0.061100 0.000314 0.825593 -0.562866
-0.451734 0.098928 0.022221 -0.001597 0.981354 0.187106
-0.730532 -0.017142 0.099933 -0.000006 -0.140578 0.989254
-0.524383 -0.083103 0.058089 0.000012 -0.820457 0.570351
1.147004 0.089854 -0.070192 0.000000 0.685986 0.727615
1.578627 -0.246316 -0.232223 0.380793 -0.638604 0.668716
1.578627 0.246316 -0.232223 0.380793 0.638604 0.668716
0.666842 0.026891 0.097762 0.000767 0.294683 0.954777
0.174062 -0.270869 0.265291 -0.026594 0.670997 0.740983
-0.010441 0.183886 0.179902 -0.026594 -0.670997 0.740983
0.814206 -0.045921 -0.090398 0.000039 -0.480155 -0.876341
0.122270 0.094288 -0.061873 0.093737 0.682965 0.724411
0.331087 -0.203971 0.192301 0.049990 0.685128 0.726705
1.431069 -0.197913 -0.201111 0.000000 0.685986 -0.727615
0.081426 -0.115651 -0.121409 -0.026594 0.670997 -0.740983
1.067154 -0.072761 0.068599 0.000000 0.727615 -0.685986
1.280367 -0.143614 -0.149918 -0.000000 0.685986 -0.727615
0.112266 -0.176967 -0.178040 -0.026594 0.670997 -0.740983
1.130812 -0.000000 0.101393 0.000528 0.008762 0.999343
1.520679 0.116879 -0.095671 0.000000 0.685986 0.727615
0.437760 0.056375 -0.084276 0.000230 0.510120 -0.859159
-0.093482 0.101808 -0.102596 -0.026594 -0.670997 -0.740983
0.493973 -0.009797 0.100918 0.000690 -0.144917 0.988591
0.786806 -0.087740 -0.050815 -0.000303 -0.835164 -0.548566
-1.093866 -0.086506 0.052888 -0.000153 -0.828778 0.558261
0.953601 0.059229 0.082295 0.000318 0.589078 0.807139
0.864017 0.082361 0.059137 -0.000172 0.806801 0.589551
-1.031418 0.094642 0.036379 -0.000686 0.936173 0.349713
-0.093841 0.029463 -0.097018 0.000969 0.243820 -0.968939
0.175612 -0.194033 0.193627 0.049990 0.685128 0.726705
1.286148 0.091880 -0.101144 0.000000 -0.685986 -0.727615
1.333908 0.178043 -0.153336 -0.000000 0.685986 0.727615
1.243747 -0.095101 0.035160 0.000257 -0.935963 0.349874
0.588187 -0.098862 0.022513 0.000038 -0.978258 0.203650
0.179301 -0.246401 -0.212663 0.093737 -0.682965 0.724411
-0.761714 -0.089589 0.047479 -0.000557 -0.882955 0.467894
-0.520374 -0.101393 0.000000 0.000844 -0.997915 -0.051355
0.592571 -0.054131 -0.085734 0.000181 -0.551087 -0.833499
-0.212079 0.109305 -0.098923 -0.049954 0.712081 0.700318
1.526413 -0.108307 -0.087589 0.000000 -0.685986 0.727615
0.046756 0.047020 0.089831 -0.000008 0.482299 0.875084
0.380105 0.075791 -0.067352 0.000625 0.716482 -0.696503
1.297110 0.095090 0.035190 -0.000365 0.920214 0.389216
0.278186 0.477081 -0.453424 0.049990 -0.685128 -0.726705
0.156440 -0.009211 -0.100974 -0.000073 -0.106335 -0.993652
0.325196 0.165164 -0.154952 0.093737 0.682965 0.724411
1.524705 -0.220000 -0.192892 -0.000000 -0.685986 0.727615
0.759964 0.062935 0.079497 0.000185 0.574718 0.817403
1.249183 -0.118989 -0.097660 0.000000 -0.685986 0.727615
0.106682 -0.043692 0.091496 -0.000017 -0.475322 0.878955
-0.675682 -0.008814 0.101009 -0.000016 -0.142880 0.988918
0.285600 -0.136669 -0.131979 0.049990 0.685128 -0.726705
0.196675 -0.172690 -0.172056 0.049990 0.685128 -0.726705
-0.993648 -0.045528 0.090597 -0.000419 -0.402329 0.914754
1.390140 0.047873 -0.089379 -0.000067 0.472389 -0.880476
0.110085 0.364786 -0.348041 -0.026594 -0.670997 -0.740983
-1.208937 -0.015220 0.100244 -0.000430 -0.197737 0.979451
-1.390005 -0.047868 0.089382 0.000020 -0.471212 0.881107
0.886516 -0.055768 -0.084678 0.000339 -0.504515 -0.862556
0.331087 0.507762 -0.478711 0.093737 0.682965 0.724411
-1.370985 -0.101393 0.000000 -0.000939 -0.997939 -0.052196
0.004916 -0.215428 0.209016 -0.026594 0.670997 0.740983
-1.216155 0.081782 0.059935 0.000309 0.795448 0.604737
0.190605 0.407842 0.389920 -0.026594 -0.670997 0.740983
0.179870 0.469461 0.445334 -0.026594 -0.670997 0.740983
-1.468334 0.076033 0.067078 0.000553 0.743291 0.667731
-0.412766 -0.100183 0.015615 0.000058 -0.987364 0.151855
-1.672282 0.033858 0.022659 -0.645557 0.564821 0.507647
0.503690 -0.010302 -0.100868 -0.000211 -0.161425 -0.985888
0.066263 -0.089177 0.096891 -0.026594 0.670997 0.740983
0.592240 -0.021390 0.099111 0.000143 -0.264490 0.963517
0.208362 0.355733 -0.319500 0.045880 0.693959 0.717696
0.293883 0.095037 -0.092159 0.049990 -0.685128 -0.726705
1.120805 0.000000 -0.101393 0.001309 0.053595 -0.997588
-0.242340 -0.070507 -0.072865 0.000002 -0.687824 -0.724880
1.168715 -0.090282 -0.046148 -0.000098 -0.867402 -0.496080
-0.239623 -0.085557 0.054411 -0.000044 -0.818297 0.573480
0.245251 0.199234 -0.176728 0.093737 0.682965 0.724411
0.777898 0.098985 -0.021967 -0.000656 0.971805 -0.232115
1.206831 0.101024 -0.008642 -0.000374 0.994358 -0.099611
0.764126 -0.086940 0.052173 0.000532 -0.861360 0.507131
1.532137 -0.127274 0.134513 -0.000000 0.685986 0.727615
-0.583744 -0.046043 -0.090336 0.000055 -0.492890 -0.869173
0.160284 0.208440 0.208264 0.024468 -0.680772 0.731848
0.183256 0.319861 -0.284816 -0.049954 0.712081 0.700318
-1.231465 0.093696 -0.038750 -0.000014 0.904471 -0.424647
-0.078110 0.165145 0.146145 -0.049954 0.712081 -0.700318
1.208699 0.006503 -0.101184 -0.002401 0.110654 -0.993315
0.265817 -0.100870 0.010287 0.001087 -0.986283 0.158699
1.346473 -0.125472 -0.103773 0.000000 -0.685986 0.727615
1.459259 0.056361 -0.084285 -0.000013 0.555438 -0.830591
-1.134024 -0.097028 -0.029428 0.000168 -0.969198 -0.242855
0.283491 -0.485292 -0.451368 0.093737 -0.682965 0.724411
0.542544 -0.087229 -0.051687 -0.000379 -0.841476 -0.538816
0.347278 -0.009195 -0.100975 -0.000356 -0.118122 -0.992158
0.746747 0.073759 -0.069571 -0.000053 0.754968 -0.654534
0.331087 -0.247370 0.233217 0.049990 0.685128 0.726705
-0.695269 -0.091705 -0.043251 0.000001 -0.880164 -0.473003
0.280327 -0.191949 0.174399 0.093737 -0.682965 -0.724411
-1.320874 -0.029467 0.097016 -0.000003 -0.289904 0.956212
-1.142041 0.100899 0.009998 -0.000877 0.987832 0.149938
-1.467830 -0.014840 0.100301 -0.000388 -0.194223 0.980146
0.158161 -0.089843 -0.046997 -0.000077 -0.884836 -0.464172
-1.537259 0.033369 0.093792 -0.144943 0.342909 0.926702
0.035830 -0.343422 0.319289 -0.049954 -0.712081 -0.700318
-0.920506 -0.096674 0.030573 -0.000373 -0.938549 0.342571
1.324712 0.093811 -0.038471 0.000060 0.925149 -0.377547
0.276393 0.564297 -0.534677 0.003197 -0.676828 -0.735793
0.066423 0.038494 -0.093802 -0.000273 0.378232 -0.924929
-0.299262 -0.053166 -0.086336 -0.000124 -0.478735 -0.877056
-0.282303 -0.038216 0.093915 0.000072 -0.420852 0.906263
-0.903928 0.006372 -0.101192 -0.000873 0.107139 -0.993676
0.025300 0.166354 0.139998 -0.049954 0.712081 -0.700318
1.476452 -0.078384 0.064315 -0.000005 -0.772508 0.633733
-1.373851 -0.038813 -0.093670 -0.000157 -0.428246 -0.902789
0.359906 0.056591 0.084131 -0.000022 0.533928 0.844574
-0.276448 0.088161 -0.050081 -0.000006 0.841884 -0.538183
-1.563060 -0.009475 -0.094597 -0.240444 -0.138900 -0.959440
-0.820013 -0.080213 0.062020 0.000028 -0.818820 0.572696
0.496327 0.082985 0.058258 0.000363 0.780814 0.623265
-1.280355 0.055966 -0.084548 -0.000113 0.513447 -0.857156
-1.216039 0.013577 -0.100480 -0.000271 0.179243 -0.983011
1.362678 -0.150238 0.156163 0.000000 0.685986 0.727615
0.123618 -0.086596 0.052741 0.000181 -0.853948 0.518870
0.833502 0.046174 -0.090269 0.000000 0.416653 -0.908191
0.156674 0.150426 -0.153818 0.049990 -0.685128 -0.726705
0.992124 0.097217 0.028797 0.000053 0.942361 0.332206
-1.312200 -0.095503 0.034053 -0.000012 -0.941180 0.335511
-0.235060 0.065935 0.077026 0.000025 0.673017 0.738548
-0.118404 -0.051672 0.087239 -0.000373 -0.565416 0.823329
-1.176698 0.056323 -0.084311 0.000110 0.558549 -0.828504
-1.201340 -0.077869 -0.064938 0.000036 -0.735599 -0.676253
1.376188 -0.066477 -0.076559 0.000096 -0.688895 -0.723738
-0.042951 -0.088466 0.065670 -0.049954 -0.712081 -0.700318
0.238626 -0.101343 0.101905 0.049990 0.685128 0.726705
0.019737 0.170118 -0.168518 -0.026594 -0.670997 -0.740983
0.251844 0.041658 0.092440 0.000253 0.361666 0.931473
1.488111 0.239736 -0.211499 -0.000000 0.685986 0.727615
1.465173 0.072761 0.068599 0.000000 -0.727615 -0.685986
0.228734 0.428986 -0.392530 -0.049954 0.712081 0.700318
1.097036 0.095973 -0.032705 -0.000299 0.938162 -0.343968
-0.282846 0.088973 0.048625 -0.000098 0.861368 0.506434
-0.053498 -0.170203 -0.149532 -0.049954 -0.712081 0.700318
-0.013918 0.111860 0.087386 -0.049954 0.712081 -0.700318
0.312119 0.141014 0.130491 0.093737 0.682965 -0.724411
0.193297 0.106215 0.082309 0.093737 0.682965 -0.724411
0.156808 0.023618 0.098604 0.000009 0.287843 0.956840
0.478780 0.081075 -0.060888 -0.000730 0.829864 -0.556215
1.551231 -0.088203 0.008623 0.303643 -0.951315 0.030530
-0.558098 0.088920 0.048721 0.001083 0.859085 0.510848
-1.086930 -0.025525 0.098127 -0.000222 -0.253413 0.966615
-1.511085 0.019789 -0.099443 -0.032407 0.231882 -0.971014
1.427360 0.135636 0.142397 -0.000000 -0.685986 0.727615
0.241260 0.135409 -0.116039 0.093737 0.682965 0.724411
0.255501 0.037202 -0.094321 -0.000063 0.414319 -0.909211
0.132006 -0.232540 0.229073 -0.026594 0.670997 0.740983
0.128848 0.264677 -0.258061 -0.026594 -0.670997 -0.740983
-1.611831 -0.073251 -0.028950 -0.390860 -0.865794 -0.306460
1.580494 0.159035 -0.149936 0.380793 0.638604 0.668716
1.431069 -0.212409 0.185735 -0.000000 -0.685986 -0.727615
0.283813 0.293652 -0.270734 0.093737 0.682965 0.724411
0.216286 0.100916 -0.009822 -0.000865 0.992470 -0.115962
1.533442 0.222816 -0.195547 -0.000000 0.685986 0.727615
0.274637 0.253489 0.231682 0.093737 0.682965 -0.724411
0.292269 -0.531650 -0.496209 0.093737 -0.682965 0.724411
-1.211017 -0.095155 0.035015 0.000186 -0.935822 0.350254
-1.376613 0.098968 0.022042 0.000148 0.963248 0.265417
1.330954 0.102339 0.111005 -0.000000 -0.685986 0.727615
-0.035316 0.151838 -0.149988 -0.026594 -0.670997 -0.740983
0.280830 0.173336 0.166876 0.049990 -0.685128 0.726705
0.085072 -0.246092 0.216811 -0.049954 -0.712081 -0.700318
0.253867 -0.445303 0.425138 0.049990 0.685128 0.726705
0.035830 -0.343422 -0.319289 -0.049954 -0.712081 0.700318
0.550829 0.098440 0.024290 -0.000184 0.975680 0.215873
-1.050434 0.046793 -0.089949 0.000473 0.503555 -0.863075
0.033228 -0.126478 -0.129483 -0.026594 0.670997 -0.740983
-1.434108 0.043327 0.091669 -0.000201 0.381713 0.923435
-1.319513 0.013169 -0.100534 -0.000182 0.179187 -0.982904
0.686389 -0.101056 -0.008257 0.001178 -0.992954 -0.111616
0.197077 -0.501392 -0.468410 -0.049954 -0.712081 0.700318
1.506633 -0.165948 -0.141932 0.000000 -0.685986 0.727615
1.459227 0.093704 -0.038730 -0.000002 0.923498 -0.381496
1.445508 -0.252621 0.238167 -0.181138 0.390537 0.902591
1.445508 0.252621 0.238167 -0.181138 0.878045 -0.442975
0.448162 0.070579 0.072795 -0.000063 0.673074 0.738551
0.291000 -0.408842 -0.380264 0.093737 -0.682965 0.724411
1.467792 0.024571 0.098371 0.000004 0.241435 0.969553
-0.126701 -0.247370 -0.233217 -0.049954 -0.712081 0.700318
0.065420 0.432538 -0.407791 -0.049954 0.712081 0.700318
0.703651 -0.019136 0.099571 -0.000482 -0.220070 0.974654
0.988817 -0.061415 -0.080677 0.000076 -0.606009 -0.794487
0.286703 -0.046778 -0.089957 0.000305 -0.457056 -0.888589
0.238727 -0.428953 -0.410765 -0.001060 0.676062 -0.736608
0.331087 -0.464364 -0.437796 0.093737 -0.682965 0.724411
1.521507 -0.242548 0.214150 0.000000 -0.685986 -0.727615
1.521507 0.242548 0.214150 0.000000 0.685986 -0.727615
0.131715 0.149072 0.153478 -0.026594 -0.670997 0.740983
1.271749 0.143766 0.150061 0.000000 -0.685986 0.727615
0.983550 -0.099904 0.017310 -0.002262 -0.979292 0.198022
0.129918 -0.142979 0.108768 0.001413 -0.702956 -0.710227
0.023778 -0.233550 -0.208431 -0.049954 -0.712081 0.700318
0.040163 -0.039224 -0.093499 0.001135 -0.351118 -0.935735
-0.434980 0.067492 -0.075666 0.000012 0.666903 -0.744079
1.129010 -0.128103 0.120774 -0.181138 0.390537 0.902591
-1.330863 -0.075539 -0.067634 0.000639 -0.774121 -0.631826
-0.138582 0.086255 -0.053298 0.000107 0.824672 -0.564185
1.355693 -0.047779 0.089430 -0.000006 -0.426692 0.903512
0.169909 0.386531 -0.353558 -0.049954 0.712081 0.700318
1.274284 0.069627 0.073706 -0.000604 0.688965 0.723694
0.200144 -0.000000 0.101393 -0.001815 0.017720 0.999421
-1.090442 -0.082234 -0.059313 -0.000105 -0.809693 -0.585554
0.034198 0.350544 0.326647 -0.049954 0.712081 -0.700318
0.887320 0.036464 -0.094609 0.000005 0.398481 -0.916305
0.879752 -0.068000 0.075210 -0.000688 -0.706026 0.707113
0.147461 -0.449563 -0.419250 -0.049954 -0.712081 0.700318
0.025386 -0.076316 0.066859 -0.000000 0.727615 -0.685986
1.238371 0.126787 0.105013 -0.000000 0.685986 -0.727615
0.112162 -0.158162 -0.125472 -0.049954 -0.712081 0.700318
1.183920 0.118560 -0.097256 0.000000 0.685986 0.727615
0.280426 0.381343 0.363010 0.049990 -0.685128 0.726705
0.008129 0.282482 -0.269852 -0.026594 -0.670997 -0.740983
1.049885 0.096973 -0.091425 -0.181138 0.878045 0.442975
-0.655877 -0.006275 -0.101199 -0.000379 -0.098380 -0.994511
0.100580 -0.165330 0.167083 -0.026594 0.670997 0.740983
0.248171 -0.549659 -0.520409 -0.026594 0.670997 -0.740983
1.311245 0.022355 0.098898 0.000125 0.250520 0.967602
0.130267 0.101269 0.005018 0.000639 0.994826 0.097181
1.476161 -0.236561 -0.208505 -0.000000 -0.685986 0.727615
1.334875 0.125632 -0.132965 0.000000 -0.685986 -0.727615
0.196263 -0.169425 0.142285 0.093737 -0.682965 -0.724411
-0.028195 -0.155357 0.132633 -0.049954 -0.712081 -0.700318
0.666651 -0.082016 0.059614 -0.000111 -0.773810 0.632143
0.227208 -0.353149 -0.340090 0.049990 0.685128 -0.726705
1.480674 -0.266456 -0.251211 -0.181138 -0.878045 0.442975
0.180575 0.362512 0.328375 -0.049954 0.712081 -0.700318
-0.532373 0.048495 -0.089043 0.000054 0.482704 -0.874871
-0.498147 -0.054585 -0.085446 -0.000035 -0.532757 -0.845322
1.137172 -0.104125 -0.083647 0.000000 -0.685986 0.727615
1.292590 -0.036482 -0.094602 0.000042 -0.355539 -0.933851
1.402957 -0.090177 0.099539 0.000000 0.685986 0.727615
-0.356537 -0.089147 -0.048304 -0.000702 -0.856486 -0.514665
0.133191 0.122248 0.089647 0.093737 0.682965 -0.724411
0.037998 -0.101136 0.007214 0.000510 -0.993336 0.109231
0.070448 -0.278485 0.268469 -0.026594 0.670997 0.740983
0.200005 -0.098563 0.023786 -0.000306 -0.958628 0.281663
