-0.925640 -0.038037 -0.077935 -0.001595 -0.419416 -0.906812
-0.589942 -0.000000 0.086722 0.000566 -0.074157 0.995493
1.409335 -0.071608 0.103083 0.058060 0.782146 0.620385
-0.756029 -0.027819 0.082139 0.000825 -0.276589 0.959700
0.249966 0.398681 0.506354 0.080969 0.783111 -0.616588
1.016246 -0.071447 -0.049154 -0.000048 -0.853908 -0.518343
0.671000 -0.036439 -0.078695 -0.000332 -0.420798 -0.906068
-0.118780 0.215006 -0.265804 -0.048327 0.800686 0.597132
1.396085 -0.152321 -0.201224 -0.022143 0.751085 -0.659835
0.314054 -0.051390 -0.069856 0.000470 -0.541794 -0.839209
0.040875 0.255264 0.306863 -0.048327 0.800686 -0.597132
1.056915 -0.068773 0.094740 -0.022143 0.751085 0.659835
1.411644 0.165108 0.202126 -0.022143 0.817637 -0.575308
-1.408408 -0.045848 -0.073612 0.000100 -0.527842 -0.848097
0.239517 -0.550403 0.697679 0.080969 -0.783111 -0.616588
0.206837 0.067120 -0.079584 0.080969 0.783111 0.616588
-0.212429 0.129450 -0.158661 -0.048327 0.800686 0.597132
0.177385 -0.126673 -0.151353 0.080969 -0.783111 0.616588
0.708923 0.037556 -0.078168 -0.000007 0.471469 -0.880654
0.133183 0.081900 -0.028514 -0.000254 0.938082 -0.343272
0.712616 0.055962 0.066250 0.000255 0.630909 0.774572
-0.082967 -0.167315 -0.220152 -0.028821 0.775618 -0.630544
1.534242 0.119423 0.151676 0.058060 0.786576 -0.614758
0.063965 -0.271856 -0.355461 -0.028821 0.775618 -0.630544
0.014937 0.079970 -0.033548 -0.000035 0.900054 -0.433264
0.874217 -0.078355 -0.099517 -0.022143 -0.817637 0.575308
0.892722 0.083068 -0.105502 -0.022143 0.817637 0.575308
1.126837 -0.099257 0.119500 -0.022143 -0.817637 -0.575308
0.249966 0.552714 -0.701986 0.048343 -0.784773 -0.617896
-0.038444 -0.019149 -0.084582 -0.001004 -0.273067 -0.960723
-0.022005 -0.085545 0.014239 -0.001818 -0.972390 0.228948
0.173979 -0.067445 0.091605 0.048343 0.784773 0.617896
-0.241932 0.083997 0.021570 0.000191 0.968670 0.244311
-1.150002 0.063817 -0.058721 0.000007 0.692605 -0.719800
0.057496 -0.196387 0.226572 -0.048327 -0.800686 -0.597132
-0.088848 0.125916 -0.168960 -0.028821 -0.775618 -0.630544
1.248852 0.092051 0.127678 -0.022143 -0.751085 0.659835
1.447873 -0.224439 -0.285054 -0.022143 -0.817637 0.575308
0.882357 -0.074481 0.044422 -0.000105 -0.854619 0.517209
-0.549595 0.079153 -0.035434 -0.000025 0.886745 -0.459877
1.101762 -0.064466 -0.058008 -0.000007 -0.700930 -0.711776
0.550473 0.028468 -0.081917 -0.000119 0.367296 -0.928915
-1.236016 0.062043 0.060592 -0.000303 0.670655 0.740254
-0.330792 0.075365 -0.095719 -0.028821 -0.775618 -0.630544
1.468517 -0.070648 0.050074 0.009870 -0.814740 0.577919
1.526803 0.084902 0.011895 0.012352 0.989585 0.137130
-0.100640 0.074461 -0.044456 -0.000566 0.827781 -0.559012
1.256231 0.083818 0.022253 0.001161 0.952026 0.302648
0.067560 0.009089 0.086245 -0.002951 0.158814 0.986183
0.173946 0.205035 0.250427 0.080969 0.783111 -0.616588
-1.275553 0.064176 -0.058328 -0.000430 0.700707 -0.712011
1.139142 -0.128708 -0.165724 -0.022143 0.751085 -0.659835
1.299861 -0.075625 0.042445 -0.000206 -0.867981 0.494181
-0.195011 0.057325 0.079735 -0.028821 -0.775618 0.630544
1.277149 -0.139211 0.170498 -0.022143 -0.817637 -0.575308
-0.905375 0.038519 -0.077699 0.002515 0.382208 -0.922706
0.993625 -0.072932 0.046921 -0.000163 -0.867791 0.494730
-1.049911 -0.017008 -0.085038 -0.000734 -0.131764 -0.990095
0.192916 -0.457885 -0.574056 0.080969 -0.783111 0.616588
-0.905514 -0.062153 0.060479 -0.000636 -0.687726 0.724625
-0.292788 0.118799 0.150884 -0.028821 -0.775618 0.630544
0.067843 -0.193222 -0.221490 -0.005204 -0.795980 0.604500
-0.117902 -0.075057 -0.105071 -0.028821 0.775618 -0.630544
-0.772303 0.017355 -0.084968 0.000366 0.195954 -0.979405
0.066366 -0.133447 0.183852 0.048343 0.784773 0.617896
0.425762 0.081744 -0.028961 -0.000178 0.945429 -0.322179
1.468007 0.209547 -0.268778 -0.022143 -0.751085 -0.659835
-0.073019 -0.087473 0.122395 -0.028821 0.775618 0.630544
0.950135 0.050755 0.070319 0.000826 0.541755 0.839392
-1.201197 -0.074514 0.044366 -0.000143 -0.845980 0.531323
1.124035 -0.141972 0.180315 -0.022143 0.751085 0.659835
1.062716 0.023286 0.083537 -0.000257 0.318329 0.946715
-0.863332 0.069748 0.051536 0.000050 0.763516 0.644173
-1.600746 -0.015474 -0.046867 -0.500564 -0.298024 -0.809743
-1.006050 0.079702 -0.034180 -0.000011 0.921159 -0.386371
1.216560 -0.165534 0.210240 -0.022143 0.751085 0.659835
1.542886 -0.084869 0.010311 0.019170 -0.982375 0.179705
-0.248073 -0.016333 0.085170 -0.000268 -0.224260 0.973423
1.463513 0.072311 0.084717 0.058060 0.786576 -0.614758
0.310070 -0.064677 0.057772 -0.000146 -0.751543 0.658067
0.111390 -0.434716 0.541782 -0.048327 -0.800686 -0.597132
-0.187131 -0.177175 0.220609 -0.048327 -0.800686 -0.597132
0.198926 -0.014313 -0.085533 0.000602 -0.220004 -0.974505
0.035203 0.335589 -0.432543 -0.028821 -0.775618 -0.630544
-1.145831 0.082136 0.027830 0.000005 0.924609 0.378050
1.212034 -0.065881 -0.056396 0.000121 -0.759169 -0.649220
1.260061 0.070452 -0.050570 -0.001442 0.803084 -0.594253
-1.181669 -0.059663 -0.062937 0.000126 -0.691118 -0.721253
1.272075 0.179671 0.228196 -0.022143 -0.751085 0.659835
1.477178 0.046024 -0.073199 0.014859 0.532183 -0.845258
0.948477 -0.043908 -0.074785 -0.000338 -0.554366 -0.830988
-0.195566 -0.036062 -0.078869 0.000177 -0.464497 -0.884332
-0.202627 -0.072028 0.048299 0.000357 -0.849456 0.525699
0.010214 -0.328582 -0.422782 -0.028821 0.775618 -0.630544
-0.328285 0.067588 0.054338 0.000136 0.779273 0.624920
-1.290031 -0.009871 0.086159 -0.000409 -0.116292 0.992456
0.991694 -0.091190 0.118069 -0.022143 0.751085 0.659835
0.140643 0.075832 0.042075 -0.000387 0.848023 0.527842
1.333260 0.182332 -0.233277 -0.022143 -0.751085 -0.659835
0.123361 0.182715 -0.215436 0.080969 0.783111 0.616588
1.077223 0.075652 -0.103252 -0.022143 -0.751085 -0.659835
-1.510386 0.052237 0.064661 -0.146642 0.618667 0.770557
1.146295 0.054529 0.067434 0.000080 0.631581 0.773912
-0.639937 0.086722 -0.000000 0.001773 0.998273 0.032769
-0.094830 -0.271000 -0.338946 -0.048327 -0.800686 0.597132
1.275050 0.131419 -0.173371 -0.022143 -0.751085 -0.659835
1.194818 0.060030 -0.089417 -0.022143 -0.751085 -0.659835
-0.117201 0.139918 0.164991 -0.048327 0.800686 -0.597132
1.142540 0.146685 0.186300 -0.022143 -0.751085 0.659835
-0.427954 0.020920 -0.084161 -0.000043 0.295287 -0.954203
0.039753 0.498848 0.633573 -0.028821 -0.775618 0.630544
0.118723 0.286228 0.346295 0.080969 0.783111 -0.616588
0.249966 -0.392520 0.498529 0.080969 -0.783111 -0.616588
0.249966 0.552714 0.701986 0.080969 0.783111 -0.616588
0.249966 -0.306261 0.388974 0.080969 -0.783111 -0.616588
0.114991 0.259497 -0.340140 0.048343 -0.784773 -0.617896
-0.159642 -0.081770 0.111421 -0.028821 0.775618 0.630544
-0.345512 -0.069561 -0.051789 -0.000173 -0.769205 -0.637065
1.108990 0.077379 -0.039156 -0.000039 0.865581 -0.498564
1.309836 0.065350 -0.099332 -0.022143 -0.751085 -0.659835
1.067770 0.088587 0.106609 -0.022143 0.817637 -0.575308
-0.992865 -0.052937 -0.068691 0.000383 -0.652386 -0.756582
1.259089 -0.141788 -0.174855 -0.022143 -0.817637 0.575308
0.146968 -0.314341 -0.385711 0.080969 -0.783111 0.616588
1.383910 0.124708 0.145777 -0.022143 0.817637 -0.575308
-0.243618 0.089794 -0.108011 -0.048327 0.800686 0.597132
0.184331 0.216342 -0.279905 0.048343 -0.784773 -0.617896
0.048502 -0.432142 -0.543419 -0.048327 -0.800686 0.597132
-0.841105 0.058995 -0.063564 -0.000893 0.666357 -0.744318
0.152159 -0.140870 0.166071 0.080969 -0.783111 -0.616588
0.366234 0.086156 0.009890 -0.000090 0.990824 0.127969
0.207826 -0.209913 -0.261071 0.080969 -0.783111 0.616588
1.534242 0.119423 -0.151676 0.058060 0.786576 0.614758
-1.459856 -0.067828 0.054039 0.001619 -0.745140 0.665311
0.817850 -0.024649 -0.083146 -0.000004 -0.340993 -0.938902
-1.152456 -0.037126 0.078374 0.001165 -0.413862 0.909628
-0.075047 -0.161973 0.191152 -0.048327 -0.800686 -0.597132
0.187556 -0.584878 0.736968 -0.048327 -0.800686 -0.597132
-0.185188 0.200247 -0.255989 -0.028821 -0.775618 -0.630544
1.497834 -0.083652 -0.102469 0.058060 -0.786576 0.614758
-0.280166 -0.020853 -0.084178 0.000009 -0.293136 -0.954932
-0.465172 -0.066568 0.055582 -0.000188 -0.785018 0.617732
0.059565 0.429693 0.549412 -0.028821 -0.775618 0.630544
1.131276 -0.075614 0.042465 -0.000090 -0.867787 0.494791
0.435246 -0.058681 0.063853 0.000109 -0.635345 0.770824
-0.603710 -0.009047 -0.086249 0.000711 -0.167054 -0.984824
1.018215 0.066673 0.055457 -0.000074 0.769115 0.637470
1.198554 -0.022114 0.083855 -0.001471 -0.321042 0.945800
-0.178068 0.155769 0.191171 -0.048327 0.800686 -0.597132
1.464713 -0.157912 0.206707 0.058060 0.782146 0.620385
-0.041641 -0.091422 -0.093849 -0.048327 -0.800686 0.597132
0.199075 0.051713 0.069661 0.000000 -0.618619 -0.785691
0.545390 -0.081130 -0.030639 0.001394 -0.913460 -0.404313
0.689883 -0.080946 -0.031121 0.000029 -0.911467 -0.408720
0.192237 -0.403610 -0.505033 0.080969 -0.783111 0.616588
-0.631791 0.050639 0.070402 0.000049 0.624194 0.780015
-0.050828 0.030891 0.081034 0.000621 0.348863 0.936113
-0.171315 0.063843 -0.058693 -0.000279 0.697361 -0.715184
0.067292 0.203515 0.271549 -0.028821 -0.775618 0.630544
0.182112 0.254501 0.314324 0.080969 0.783111 -0.616588
-0.103358 -0.011180 0.085999 0.001632 -0.175952 0.982895
1.309836 -0.065350 -0.099332 -0.022143 0.751085 -0.659835
1.485172 -0.208846 0.261458 0.031339 -0.797529 -0.602053
0.040945 0.290154 0.376918 -0.028821 -0.775618 0.630544
0.130942 0.515082 0.647961 -0.048327 0.800686 -0.597132
1.022325 -0.089159 -0.116785 -0.022143 0.751085 -0.659835
1.535477 -0.107036 0.135944 0.058060 -0.786576 -0.614758
0.249966 0.287778 -0.365498 0.048343 -0.784773 -0.617896
1.299787 0.056996 0.065362 0.000196 0.701216 0.711518
1.542886 0.009695 0.059922 1.000000 0.000000 0.000000
-0.053219 0.315344 0.403599 -0.028821 -0.775618 0.630544
0.093577 -0.467283 -0.586892 -0.048327 -0.800686 0.597132
0.042073 0.153616 0.209017 -0.028821 -0.775618 0.630544
0.095809 -0.086403 0.007429 0.000833 -0.990448 0.130949
1.460724 0.168079 -0.206987 0.058060 0.786576 0.614758
0.249966 0.293939 0.373324 0.080969 0.783111 -0.616588
-0.534634 -0.064658 0.057793 0.000012 -0.698944 0.713646
0.181667 -0.069937 -0.051279 0.000486 -0.838248 -0.543323
0.015522 -0.374084 0.468240 -0.048327 -0.800686 -0.597132
1.366876 0.058232 -0.064264 -0.000726 0.712208 -0.700437
-1.031492 -0.082146 0.027800 0.000049 -0.933560 0.355008
0.249966 0.146068 0.185516 0.080969 0.783111 -0.616588
0.148636 0.328276 -0.403627 0.080969 0.783111 0.616588
1.354879 -0.192536 0.245618 -0.022143 0.751085 0.659835
-0.002224 0.107156 0.149843 -0.028821 -0.775618 0.630544
-0.473981 0.044649 0.074345 -0.000002 0.515698 0.855617
0.268830 0.077111 0.039683 0.000562 0.865417 0.499142
0.249966 -0.121422 -0.154215 0.080969 -0.783111 0.616588
-0.576168 -0.082183 -0.027688 -0.000387 -0.943871 -0.327768
1.096248 -0.088367 -0.118364 -0.022143 0.751085 -0.659835
-0.190500 -0.122099 0.159619 -0.028821 0.775618 0.630544
0.161380 -0.157493 -0.206958 0.048343 0.784773 -0.617896
0.227038 -0.072426 0.047700 -0.001741 -0.806778 0.589567
-1.468515 -0.064712 -0.057869 0.001619 -0.744593 -0.665922
0.249966 0.189197 -0.240294 0.048343 -0.784773 -0.617896
0.683694 -0.075103 0.043363 -0.000022 -0.833808 0.550070
-1.269222 -0.049889 -0.070935 0.000257 -0.624023 -0.779999
0.117528 0.128288 0.173297 0.048343 -0.784773 0.617896
0.098585 -0.035113 -0.079296 -0.000272 -0.403803 -0.913660
0.900009 0.079376 0.034932 -0.000128 0.895032 0.443243
-0.010017 -0.141329 -0.158208 -0.048327 -0.800686 0.597132
0.183147 -0.206582 0.253600 0.080969 -0.783111 -0.616588
0.186546 0.581003 -0.741340 -0.028821 -0.775618 -0.630544
0.543046 -0.007073 0.086433 0.000828 -0.132151 0.990371
0.136063 -0.563824 -0.712904 -0.048327 -0.800686 0.597132
0.110913 0.564633 -0.716024 -0.048327 0.800686 0.597132
0.097804 -0.552443 0.700740 -0.048327 -0.800686 -0.597132
1.335816 -0.150210 0.196799 -0.022143 0.751085 0.659835
-0.255820 0.075280 -0.043054 0.000075 0.837488 -0.544503
1.153434 -0.082975 -0.025219 -0.000002 -0.937548 -0.344651
-0.722212 0.030774 0.081079 -0.000627 0.310954 0.948907
-0.139329 0.219177 0.273059 -0.048327 0.800686 -0.597132
0.068353 -0.502776 -0.639713 -0.028821 0.775618 -0.630544
1.472320 -0.137526 -0.180294 0.058060 0.782146 -0.620385
0.100071 -0.206464 0.273952 0.048343 0.784773 0.617896
-0.015340 -0.252810 0.308123 -0.048327 -0.800686 -0.597132
1.542886 -0.059200 -0.047642 1.000000 0.000000 0.000000
-1.611033 0.039293 -0.016890 -0.565549 0.706407 -0.418917
-0.353977 -0.064004 0.058517 0.000385 -0.761663 0.646479
0.416766 0.020797 0.084192 0.000616 0.240025 0.969650
0.044784 -0.426879 0.536664 -0.048327 -0.800686 -0.597132
0.072514 0.086725 0.086844 0.080969 0.783111 -0.616588
1.259390 -0.005493 0.086548 0.001654 -0.115254 0.992675
-0.058852 0.177506 0.233790 -0.028821 -0.775618 0.630544
-0.140798 -0.232985 0.291693 -0.048327 -0.800686 -0.597132
-1.391712 0.068332 0.053399 0.000069 0.819936 0.570561
-0.439625 -0.084904 -0.017664 0.000926 -0.963782 -0.262556
1.352040 -0.074981 0.077606 0.058060 -0.786576 -0.614758
-1.112076 -0.068487 -0.053200 0.000198 -0.824817 -0.563496
-0.377635 0.086295 0.008600 0.000093 0.987876 0.148768
-0.854285 -0.083434 0.023654 0.000043 -0.969361 0.241558
0.117649 -0.048616 0.072099 0.048343 0.784773 0.617896
0.104007 -0.242493 -0.288817 0.080969 -0.783111 0.616588
1.384312 0.086568 0.005166 -0.000010 0.993150 0.109639
-0.744041 0.086277 0.008775 0.000151 0.991623 0.121901
0.190403 -0.369331 0.461255 0.080969 -0.783111 -0.616588
0.183907 -0.440110 0.564140 0.048343 0.784773 0.617896
0.766419 -0.010360 0.086101 0.001075 -0.183611 0.981525
-0.290515 -0.059707 0.062896 0.000367 -0.711900 0.700781
0.193433 -0.104796 0.137522 0.048343 0.784773 0.617896
-0.085642 -0.282829 0.362121 -0.028821 0.775618 0.630544
1.439359 -0.066460 -0.074949 0.000000 0.618619 0.785691
-1.503660 0.010979 -0.083465 -0.130241 0.203020 -0.968619
0.130838 0.088417 -0.096652 0.080969 0.783111 0.616588
0.187881 0.587343 0.749200 -0.028821 -0.775618 0.630544
1.197934 0.114138 -0.151111 -0.022143 -0.751085 -0.659835
-1.612278 -0.000000 0.041925 -0.563566 -0.106526 0.815481
-0.140754 -0.081379 -0.029970 -0.000065 -0.917108 -0.395936
0.076517 -0.114844 -0.123083 0.080969 -0.783111 0.616588
1.383305 0.005452 0.086551 0.001688 0.112583 0.992863
0.120372 0.562357 0.715379 -0.028821 -0.775618 0.630544
0.307829 -0.010230 0.086117 -0.000490 -0.126825 0.990784
-0.060426 0.284725 -0.354566 -0.048327 0.800686 0.597132
-1.335273 0.072884 -0.046997 0.000003 0.807719 -0.587756
-0.945371 0.075785 -0.042159 -0.000310 0.841705 -0.537965
1.200594 -0.122639 -0.149892 -0.022143 -0.817637 0.575308
0.936172 -0.050450 0.070537 0.000351 -0.576207 0.815940
1.012273 0.073012 -0.098067 -0.022143 -0.751085 -0.659835
0.919075 0.069394 -0.052011 -0.000046 0.765369 -0.641907
-1.442536 0.078156 -0.037582 -0.000001 0.900430 -0.432572
0.114189 -0.503519 0.642721 -0.028821 0.775618 0.630544
-0.557801 0.034023 -0.079770 -0.000047 0.338670 -0.939750
-0.231973 0.124340 0.153392 -0.048327 0.800686 -0.597132
-0.080744 0.103469 -0.113166 -0.048327 0.800686 0.597132
1.189027 -0.089878 0.103776 -0.022143 -0.817637 -0.575308
-0.262224 -0.069999 -0.051195 0.000876 -0.840732 -0.539500
-0.245126 -0.115342 -0.142390 -0.048327 -0.800686 0.597132
0.118274 0.414990 0.534010 -0.028821 -0.775618 0.630544
0.030496 -0.277988 0.338174 -0.048327 -0.800686 -0.597132
0.819621 0.080834 0.031410 -0.000638 0.936736 0.346823
1.530537 -0.156583 -0.198871 0.058060 0.782146 -0.620385
1.525597 -0.206129 -0.261799 0.058060 0.782146 -0.620385
0.014471 0.169667 -0.194225 -0.048327 0.800686 0.597132
0.194664 -0.335094 -0.418332 0.080969 -0.783111 0.616588
0.649936 -0.000000 0.086722 -0.002893 -0.075146 0.995731
1.114782 0.139616 -0.177323 -0.022143 0.817637 0.575308
0.085294 0.476514 -0.608182 -0.028821 -0.775618 -0.630544
-0.006269 -0.376339 -0.473027 -0.048327 -0.800686 0.597132
0.357702 -0.010144 -0.086127 -0.000076 -0.120802 -0.991873
0.203388 -0.237958 0.305869 0.048343 0.784773 0.617896
0.207064 0.480379 -0.604483 0.080969 0.783111 0.616588
-0.012503 -0.439126 -0.557722 -0.048327 -0.800686 0.597132
-0.292788 -0.118799 0.150884 -0.048327 -0.800686 -0.597132
-0.057312 -0.323728 0.406613 -0.048327 -0.800686 -0.597132
-0.792814 -0.079708 -0.034167 0.000296 -0.893738 -0.446196
0.098210 -0.371810 -0.458499 -0.048327 -0.800686 0.597132
0.249966 0.152229 -0.193342 0.048343 -0.784773 -0.617896
0.249966 -0.386358 -0.490703 0.080969 -0.783111 0.616588
0.056700 -0.079674 0.116313 0.048343 0.784773 0.617896
-0.060277 0.202543 -0.264523 -0.028821 -0.775618 -0.630544
-0.004840 -0.202726 -0.267281 -0.028821 0.775618 -0.630544
-0.020085 0.236525 0.308161 -0.028821 -0.775618 0.630544
0.123696 0.520828 -0.656253 -0.048327 0.800686 0.597132
-0.114818 0.248938 -0.319099 -0.028821 -0.775618 -0.630544
0.181259 -0.503626 0.630619 0.080969 -0.783111 -0.616588
-0.106930 0.082052 0.028074 0.000076 0.925127 0.376878
0.011784 0.079731 0.034114 0.000234 0.920481 0.388207
0.725676 0.077950 -0.038008 -0.000481 0.865879 -0.498111
0.847648 0.052615 -0.068938 0.000331 0.639581 -0.767504
0.082699 0.349360 0.451655 -0.028821 -0.775618 0.630544
-1.215356 0.054150 -0.067738 0.000158 0.668867 -0.742025
0.013122 -0.052585 -0.083417 -0.028821 0.775618 -0.630544
1.333511 -0.156036 -0.192240 -0.022143 -0.817637 0.575308
1.486973 -0.079248 0.105450 0.058060 0.782146 0.620385
0.090799 -0.326418 0.398232 -0.048327 -0.800686 -0.597132
1.413748 0.081362 0.114968 0.058060 -0.782146 0.620385
-0.132071 -0.125755 -0.166786 -0.028821 0.775618 -0.630544
-0.066699 -0.313037 -0.393037 -0.048327 -0.800686 0.597132
-0.039540 0.340383 -0.427507 -0.048327 0.800686 0.597132
-0.539545 0.037015 0.078426 0.000631 0.477298 0.877558
1.417025 -0.083515 -0.023365 0.000086 -0.961476 -0.270967
0.256318 -0.037134 -0.078370 0.000269 -0.426658 -0.903363
-1.250762 -0.051729 0.069605 0.000632 -0.592664 0.804349
1.408939 0.124303 -0.146086 0.058060 0.786576 0.614758
0.313614 0.056347 -0.065923 0.000027 0.694327 -0.718075
0.028422 0.400889 -0.503138 -0.048327 0.800686 0.597132
-0.471826 0.077327 -0.039259 -0.000038 0.890567 -0.452422
0.193075 -0.590805 -0.744469 -0.048327 -0.800686 0.597132
-1.349867 -0.086722 0.000000 -0.000178 -0.997059 0.061723
0.195196 -0.516515 -0.648820 0.080969 -0.783111 0.616588
-1.392285 0.054208 -0.067692 0.000240 0.669279 -0.741582
-1.289873 -0.086722 0.000000 0.001245 -0.998970 0.019088
0.099346 0.338340 -0.438859 -0.028821 -0.775618 -0.630544
1.198563 0.080308 0.032731 0.001525 0.917134 0.394493
-0.096659 0.174667 -0.228570 -0.028821 -0.775618 -0.630544
0.899247 -0.072687 -0.047301 -0.000381 -0.865736 -0.498466
0.475691 0.052996 0.068645 0.000215 0.605741 0.794327
0.022285 0.055361 -0.087251 -0.028821 -0.775618 -0.630544
0.189818 -0.245208 -0.303534 0.080969 -0.783111 0.616588
0.249966 -0.460294 -0.584607 0.080969 -0.783111 0.616588
0.045948 0.106818 -0.151629 -0.003094 -0.779073 -0.626651
0.127385 0.405440 -0.501231 -0.048327 0.800686 0.597132
0.782578 -0.083008 -0.025109 0.000423 -0.971062 -0.235295
0.072535 0.078062 -0.037776 -0.000053 0.894102 -0.444907
0.039754 -0.160714 -0.180173 -0.048327 -0.800686 0.597132
-0.634942 -0.086087 -0.010481 0.001229 -0.988604 -0.142312
1.482697 0.090380 -0.109647 0.058060 0.786576 0.614758
0.243778 0.080591 -0.032029 -0.000481 0.933793 -0.354537
1.542886 0.062319 -0.038638 1.000000 -0.000000 0.000000
-0.119824 0.103457 0.116313 -0.048327 0.800686 -0.597132
0.002508 0.009866 0.086159 -0.000062 0.183924 0.981539
0.249966 -0.565036 -0.717637 0.080969 -0.783111 0.616588
0.153658 0.334304 0.411943 0.080969 0.783111 -0.616588
-1.459856 -0.019307 0.084546 0.001381 -0.275343 0.960202
-0.082423 0.268095 0.344145 -0.028821 -0.775618 0.630544
0.089738 -0.258846 0.307712 0.037894 -0.790122 -0.610985
0.204487 0.133518 -0.163605 0.080969 0.783111 0.616588
-0.043927 -0.132257 0.148789 -0.048327 -0.800686 -0.597132
0.188179 0.099959 0.131789 0.048343 -0.784773 0.617896
0.195195 0.516516 -0.648821 0.080969 0.783111 0.616588
1.282441 -0.106730 0.124131 -0.022143 -0.817637 -0.575308
-0.153638 0.122076 -0.161274 -0.028821 -0.775618 -0.630544
0.194862 0.394007 0.493181 0.080969 0.783111 -0.616588
-0.290393 0.040415 -0.076729 -0.000084 0.465092 -0.884039
-0.041007 0.406550 -0.516349 -0.028821 -0.775618 -0.630544
0.419959 0.000000 -0.086722 -0.001190 0.069310 -0.996548
-0.007526 0.229908 -0.276781 -0.048327 0.800686 0.597132
1.513819 0.208138 0.265433 0.058060 -0.782146 0.620385
1.289799 0.124575 0.149210 -0.022143 0.817637 -0.575308
-0.991002 -0.084009 -0.021524 0.000083 -0.951584 -0.303853
0.218614 0.223768 0.280084 0.080969 0.783111 -0.616588
0.135143 -0.525935 -0.671252 -0.028821 0.775618 -0.630544
-0.035815 0.088719 0.089753 -0.048327 0.800686 -0.597132
-0.700815 -0.072963 -0.046874 -0.000127 -0.809340 -0.585735
-1.184943 0.043849 0.074820 0.000853 0.464186 0.884909
1.422886 -0.186880 -0.241462 -0.022143 0.751085 -0.659835
0.133527 -0.378234 0.489494 0.022627 0.782125 0.622434
0.007747 -0.252910 -0.329587 -0.028821 0.775618 -0.630544
1.462765 0.171480 0.223995 0.058060 -0.782146 0.620385
-0.488541 -0.015748 -0.085280 -0.000636 -0.152934 -0.987314
0.803697 -0.082515 0.026685 -0.000214 -0.931821 0.359904
-0.670107 0.073971 -0.045266 -0.000023 0.820752 -0.569345
-0.381211 0.013489 0.085667 0.000890 0.145547 0.988283
1.400633 -0.118369 0.137708 0.058060 -0.786576 -0.614758
-1.084108 -0.086170 0.009771 0.001077 -0.988339 0.143817
1.521897 -0.140018 0.178796 0.058060 0.782146 0.620385
1.226170 0.149882 -0.192746 -0.022143 -0.751085 -0.659835
1.489531 0.145252 0.180501 0.058060 0.786576 -0.614758
-1.442536 0.081851 0.028657 -0.000027 0.943054 0.329347
-0.499025 -0.066504 -0.055659 0.000268 -0.756795 -0.651541
0.100775 0.124416 -0.138425 0.080969 0.783111 0.616588
0.145847 0.453617 -0.564337 -0.048327 0.800686 0.597132
0.020759 0.383076 0.479874 -0.048327 0.800686 -0.597132
-0.047367 0.081118 -0.030670 0.000118 0.938863 -0.341110
0.146900 -0.269015 0.349733 0.048343 0.784773 0.617896
-0.659240 -0.068477 0.053214 0.000060 -0.808601 0.586489
-0.321291 0.086224 0.109510 -0.028821 -0.775618 0.630544
-1.110594 0.083030 -0.025036 0.000017 0.937153 -0.345757
0.808963 0.080849 -0.031371 0.000138 0.907847 -0.416689
-0.187511 -0.227523 -0.288150 -0.048327 -0.800686 0.597132
0.145954 0.450613 0.579094 -0.028821 -0.775618 0.630544
-0.020774 -0.076829 -0.040224 0.000063 -0.857124 -0.512986
-1.556311 0.009733 0.070147 -0.363789 0.164823 0.914390
-1.544235 0.074712 -0.005936 -0.311852 0.940433 -0.126706
-1.493449 0.060120 -0.060720 -0.091430 0.660813 -0.743533
1.502228 -0.023481 0.082831 0.015041 -0.326704 0.943875
0.395858 -0.080497 0.032264 0.000568 -0.927997 0.369609
0.865624 0.045197 0.074013 0.000146 0.491466 0.869647
0.864964 -0.075999 0.096524 -0.022143 0.751085 0.659835
-0.845674 0.027724 0.082171 -0.000133 0.367687 0.928782
-0.074597 -0.213310 -0.259954 -0.048327 -0.800686 0.597132
0.158734 0.163253 0.214482 0.048343 -0.784773 0.617896
0.220705 -0.179590 0.224250 0.080969 -0.783111 -0.616588
-1.349084 -0.023367 0.083515 0.000225 -0.321545 0.945760
-0.086513 0.034224 -0.079683 -0.000314 0.335796 -0.940776
-0.376506 0.039935 -0.076980 -0.000069 0.510309 -0.858718
-0.979903 -0.000000 0.086722 -0.001726 -0.025870 0.999122
1.258465 -0.054037 -0.084730 -0.022143 0.751085 -0.659835
0.588324 -0.074168 0.044942 0.000028 -0.824773 0.563527
-1.079893 -0.000000 0.086722 -0.000863 -0.030255 0.998445
1.348356 -0.080414 -0.032470 -0.000028 -0.926073 -0.374396
0.754596 -0.059715 0.062888 -0.000058 -0.727015 0.685027
-0.922887 0.067065 0.054982 0.000067 0.731571 0.680161
1.132375 0.085576 0.014051 -0.000350 0.974219 0.220759
0.195613 -0.329660 0.422945 0.048343 0.784773 0.617896
0.125097 -0.078190 -0.037510 0.000580 -0.876608 -0.479136
-0.729040 -0.067902 0.053945 -0.000202 -0.821068 0.568924
0.749926 0.000000 -0.086722 0.004108 0.043638 -0.997357
0.035142 0.464463 0.591066 -0.028821 -0.775618 0.630544
-0.069510 0.373975 -0.474975 -0.028821 -0.775618 -0.630544
-1.391996 0.019320 0.084543 0.000469 0.224952 0.973269
0.195196 0.516515 0.648820 0.080969 0.783111 -0.616588
-0.232902 -0.074529 -0.099166 -0.028821 0.775618 -0.630544
-1.536022 -0.067484 0.037863 -0.259120 -0.867986 0.420693
0.537168 -0.023838 -0.083382 0.000970 -0.272700 -0.960976
0.996341 -0.020789 -0.084194 -0.000155 -0.277146 -0.960093
0.077558 0.040843 -0.076502 -0.000272 0.461973 -0.885698
1.364519 0.079880 -0.117707 0.031339 -0.772365 -0.634013
0.043147 0.452787 -0.571536 -0.048327 0.800686 0.597132
1.326611 0.147200 -0.193064 -0.022143 -0.751085 -0.659835
1.417446 0.076086 -0.041614 -0.000059 0.902923 -0.427268
0.581468 0.064949 -0.057466 0.000288 0.702953 -0.709829
-0.800750 -0.036785 -0.078534 -0.000264 -0.474008 -0.879340
0.495950 -0.086387 -0.007619 0.001521 -0.996666 -0.061609
-0.007527 0.266319 -0.345384 -0.028821 -0.775618 -0.630544
0.044892 0.284124 -0.369681 -0.028821 -0.775618 -0.630544
-0.745805 -0.086224 -0.009284 -0.002945 -0.984110 -0.170339
-1.291494 0.056118 0.066117 -0.000213 0.649929 0.758640
0.979057 0.069499 -0.051871 -0.000086 0.832392 -0.552288
0.203523 0.312767 -0.400871 0.048343 -0.784773 -0.617896
-0.430491 0.085149 0.016444 -0.000460 0.967736 0.247530
0.082070 -0.361421 0.445874 -0.048327 -0.800686 -0.597132
0.154005 0.144587 -0.191144 0.048343 -0.784773 -0.617896
-1.356786 -0.027190 -0.082349 -0.000080 -0.316282 -0.947549
0.034360 -0.309061 -0.379527 -0.048327 -0.800686 0.597132
1.494734 0.095540 0.125263 0.058060 -0.782146 0.620385
1.168832 -0.039757 -0.077072 -0.000152 -0.508439 -0.859885
0.494698 -0.052399 0.069102 0.000772 -0.602381 0.796637
1.389787 -0.130215 -0.153377 -0.022143 -0.817637 0.575308
0.214898 -0.471246 0.593912 0.080969 -0.783111 -0.616588
-0.398375 -0.071983 -0.048366 0.000423 -0.826572 -0.560909
-0.782660 0.064941 -0.057475 -0.000330 0.700110 -0.712246
0.242081 -0.531358 -0.673828 0.080969 -0.783111 0.616588
-0.000641 -0.079870 0.075040 -0.048327 -0.800686 -0.597132
0.200667 0.252771 -0.314564 0.080969 0.783111 0.616588
1.094985 0.031173 -0.080926 -0.000932 0.412873 -0.909665
0.844140 -0.022371 0.083787 0.000279 -0.250286 0.967013
1.339955 0.077876 0.038159 0.000000 0.871809 0.487705
-1.029092 -0.028341 0.081960 -0.000054 -0.366789 0.929112
-1.283833 0.007403 -0.086406 0.000195 0.058580 -0.997351
-1.020056 0.073003 0.046811 -0.000013 0.835865 0.546937
1.303729 -0.059568 0.092545 -0.022143 0.751085 0.659835
0.631391 -0.070719 -0.050195 -0.000187 -0.819634 -0.571085
0.107470 0.048229 0.072403 0.000000 -0.618619 -0.785691
-0.618708 -0.043069 0.075271 0.000023 -0.524380 0.850188
-1.544832 -0.070797 -0.024012 -0.281179 -0.907317 -0.308042
-0.142581 -0.159482 0.193279 -0.048327 -0.800686 -0.597132
0.045948 -0.127598 0.135268 0.037894 -0.790122 -0.610985
-0.206849 0.083021 -0.025066 0.000065 0.937095 -0.346045
0.199897 0.094475 -0.123908 0.048343 -0.784773 -0.617896
0.764691 0.066996 0.055067 0.000826 0.760258 0.648103
-1.076157 0.049917 0.070916 0.000051 0.566558 0.822693
-1.177652 -0.010701 -0.086059 -0.000352 -0.182171 -0.982152
-0.452691 -0.008646 0.086290 0.000433 -0.163774 0.985409
0.126637 -0.399130 -0.492831 -0.048327 -0.800686 0.597132
1.143716 0.061775 -0.078638 -0.000000 -0.618619 0.785691
1.202541 0.108745 0.145127 -0.022143 -0.751085 0.659835
1.033723 0.086191 0.009585 0.000384 0.982601 0.178240
0.082290 0.206693 -0.240496 0.080969 0.783111 0.616588
-0.203908 -0.131559 -0.170642 -0.028821 0.775618 -0.630544
-0.179194 0.017315 -0.084976 -0.000503 0.254688 -0.965887
1.494050 0.027838 0.081598 0.014632 0.376367 0.925205
1.493678 0.081582 -0.027903 0.014816 0.962093 -0.268432
0.664901 0.074846 0.043805 0.000332 0.835625 0.547955
-0.077846 0.310822 -0.396911 -0.028821 -0.775618 -0.630544
-0.980060 0.049421 0.071262 -0.000040 0.561833 0.825937
0.539345 0.083820 0.022246 0.000480 0.949262 0.311198
0.059691 0.236860 -0.280664 -0.048327 0.800686 0.597132
1.542886 0.020185 -0.073759 1.000000 -0.000000 0.000000
0.670016 0.064733 -0.057709 -0.000033 0.758891 -0.649531
-0.251875 -0.079702 0.034182 -0.000201 -0.890093 0.453390
0.365110 0.020634 0.084232 0.000030 0.290608 0.955628
1.416898 -0.070611 0.050347 -0.000063 -0.779378 0.624860
1.019899 -0.086722 0.000000 -0.000673 -0.996152 0.067181
0.031361 -0.085747 0.012970 0.000372 -0.984891 0.166145
0.050049 -0.348293 -0.448849 -0.028821 0.775618 -0.630544
-1.339449 0.076394 0.041045 0.001380 0.849680 0.525448
-0.170643 -0.189138 -0.242989 -0.028821 0.775618 -0.630544
1.263809 -0.086406 0.007399 -0.000254 -0.989279 0.139152
-0.123638 -0.240495 -0.308311 -0.028821 0.775618 -0.630544
0.714029 0.084549 0.019293 0.000915 0.982323 0.180326
-0.799093 -0.052405 0.069098 0.002190 -0.661690 0.747953
-0.037589 0.354839 0.452896 -0.028821 -0.775618 0.630544
-0.055259 -0.390263 0.495662 -0.048327 -0.800686 -0.597132
0.512725 0.058273 -0.064226 0.000033 0.636395 -0.770027
-0.092979 -0.034639 -0.079504 -0.000147 -0.451929 -0.890848
-1.382860 -0.075827 0.042084 0.000458 -0.871334 0.488502
-0.168163 -0.078536 -0.086810 -0.048327 -0.800686 0.597132
0.125504 0.392909 0.484581 -0.048327 0.800686 -0.597132
-0.359480 0.075365 -0.042905 -0.000032 0.838505 -0.542882
-0.072971 -0.086074 0.010587 0.000774 -0.986230 0.156494
0.459069 0.085941 0.011617 -0.000541 0.980732 0.189574
0.091159 -0.464153 0.582891 -0.048327 -0.800686 -0.597132
-0.225185 0.094422 0.112725 -0.048327 0.800686 -0.597132
0.072869 0.264089 0.346315 -0.028821 -0.775618 0.630544
-0.971727 -0.082861 0.025590 0.000700 -0.959395 0.278081
1.504830 0.148594 -0.186222 0.058060 0.786576 0.614758
1.542886 -0.040176 0.034627 1.000000 0.000000 0.000000
0.592165 0.015594 0.085309 -0.000193 0.152078 0.987359
-0.199710 0.155573 -0.200373 -0.028821 -0.775618 -0.630544
0.208844 0.171519 0.212441 0.080969 0.783111 -0.616588
0.011326 -0.180151 0.240252 -0.028821 0.775618 0.630544
-0.235781 -0.183950 0.233630 -0.048327 -0.800686 -0.597132
-0.095716 -0.220159 0.270847 -0.048327 -0.800686 -0.597132
0.306567 -0.082707 -0.026083 -0.000265 -0.952358 -0.301362
-0.417786 -0.076717 0.040439 -0.000075 -0.899913 0.433811
-1.459856 -0.019238 -0.084561 0.003424 -0.274693 -0.960396
1.030143 0.113094 0.142886 -0.022143 0.817637 -0.575308
-0.194129 0.078816 -0.106211 -0.028821 -0.775618 -0.630544
-0.115604 -0.064216 0.091840 -0.028821 0.775618 0.630544
-0.000051 0.309822 0.399237 -0.028821 -0.775618 0.630544
0.019187 0.413267 0.520484 -0.048327 0.800686 -0.597132
-0.164678 -0.084962 0.017386 0.000196 -0.972589 0.228245
0.214636 -0.521008 0.664483 0.048343 0.784773 0.617896
0.205436 0.326713 0.418433 0.048343 -0.784773 0.617896
0.178860 -0.083614 -0.111759 0.048343 0.784773 -0.617896
1.054207 -0.062725 -0.087765 -0.022143 0.751085 -0.659835
-0.063902 -0.074782 0.073338 -0.048327 -0.800686 -0.597132
0.270936 0.038838 0.077539 0.000323 0.404241 0.913312
0.392283 -0.082363 -0.027150 0.000155 -0.929274 -0.366411
-0.215444 -0.166515 -0.208606 -0.048327 -0.800686 0.597132
-1.125234 -0.073382 0.046215 0.000160 -0.868244 0.494037
-0.876479 -0.048639 -0.071798 -0.000784 -0.606266 -0.794012
0.068830 -0.082086 -0.080469 0.080969 -0.783111 0.616588
1.525597 0.206129 -0.261799 0.058060 0.786576 0.614758
0.111943 -0.282366 -0.369424 0.048343 0.784773 -0.617896
-1.383557 -0.075834 -0.042071 -0.000167 -0.842765 -0.536364
0.029119 -0.297078 0.384894 -0.028821 0.775618 0.630544
-0.799921 -0.000000 0.086722 -0.000066 -0.022015 0.998840
1.170297 -0.153753 0.195278 -0.022143 0.751085 0.659835
0.938984 0.094849 0.120465 -0.022143 -0.751085 0.659835
1.013004 0.113698 -0.144405 -0.022143 0.817637 0.575308
1.318337 0.191452 0.243158 -0.022143 -0.751085 0.659835
1.240525 -0.071080 0.049683 0.000131 -0.782994 0.620374
1.282102 0.026361 -0.082619 0.000066 0.298605 -0.953350
0.008437 -0.412318 -0.520080 -0.048327 -0.800686 0.597132
0.148479 -0.033701 -0.079906 0.000046 -0.436231 -0.898713
1.042273 -0.022239 0.083822 0.000107 -0.245580 0.968284
-0.064760 -0.379404 -0.481871 -0.048327 -0.800686 0.597132
-0.102764 -0.335970 -0.426706 -0.048327 -0.800686 0.597132
-0.269035 0.145946 -0.185361 -0.028821 -0.775618 -0.630544
-0.050118 -0.142895 -0.191615 -0.028821 0.775618 -0.630544
0.142663 -0.458757 -0.588962 -0.028821 0.775618 -0.630544
-0.077919 0.146603 0.194905 -0.028821 -0.775618 0.630544
0.258967 -0.044874 0.074209 -0.000246 -0.514141 0.856380
0.083932 -0.201494 -0.268902 0.048343 0.784773 -0.617896
0.249966 -0.115261 0.146390 0.080969 -0.783111 -0.616588
0.249966 0.417165 -0.529830 0.048343 -0.784773 -0.617896
0.200752 -0.273387 0.340759 0.080969 -0.783111 -0.616588
0.642292 -0.057606 0.064825 0.000053 -0.659522 0.750228
1.348397 0.053108 0.085462 -0.000000 -0.618619 -0.785691
0.249966 -0.318584 -0.404625 0.080969 -0.783111 0.616588
0.200151 0.445502 -0.569718 0.048343 -0.784773 -0.617896
0.070533 -0.489529 0.623517 -0.028821 0.775618 0.630544
1.175636 -0.062289 0.060339 0.000090 -0.715244 0.697305
-0.523985 0.074058 0.045124 0.000954 0.846316 0.530584
0.221913 0.360049 -0.459483 0.048343 -0.784773 -0.617896
0.228852 0.427718 0.540460 0.080969 0.783111 -0.616588
-0.036827 0.134958 -0.182460 -0.028821 -0.775618 -0.630544
0.231055 -0.070245 -0.050857 0.000043 -0.773059 -0.632744
-0.938509 -0.031591 0.080763 0.000147 -0.337734 0.940204
0.209087 -0.367760 -0.470280 0.048343 0.784773 -0.617896
-0.093263 -0.346828 0.440497 -0.048327 -0.800686 -0.597132
0.106601 -0.161824 0.186702 0.080969 -0.783111 -0.616588
1.098815 0.056819 0.082540 -0.000000 -0.618619 -0.785691
0.047531 0.321982 0.416370 -0.028821 -0.775618 0.630544
-1.197019 0.079294 0.035117 -0.000039 0.909683 0.412666
0.452150 -0.071290 -0.049382 0.000133 -0.822700 -0.566570
0.582348 0.074519 0.044359 -0.000057 0.859926 0.508528
1.361924 0.170834 0.221151 -0.022143 -0.751085 0.659835
0.249966 -0.275455 -0.349848 0.080969 -0.783111 0.616588
0.189237 -0.021351 0.084053 0.000030 -0.249456 0.967268
0.113259 -0.178968 -0.209350 0.080969 -0.783111 0.616588
0.947905 0.071303 -0.093962 -0.022143 -0.751085 -0.659835
-0.000123 0.097540 -0.098692 -0.048327 0.800686 0.597132
0.618955 -0.012220 -0.085857 0.000472 -0.189710 -0.980736
0.175595 -0.166240 0.201371 0.080969 -0.783111 -0.616588
0.091675 0.099863 0.139218 0.048343 -0.784773 0.617896
1.110154 0.102151 0.134521 -0.022143 -0.751085 0.659835
1.493359 0.073083 0.045759 0.014748 0.813140 0.580033
1.198458 0.086246 0.098252 -0.022143 0.817637 -0.575308
-0.242879 0.034838 0.079417 -0.000292 0.401482 0.914671
0.150570 0.251138 -0.305911 0.080969 0.783111 0.616588
-1.026579 0.043229 -0.075180 0.000199 0.547038 -0.835853
0.130445 -0.121576 -0.138715 0.080969 -0.783111 0.616588
0.213422 0.271534 0.347727 0.048343 -0.784773 0.617896
1.099692 -0.022989 -0.083620 0.000770 -0.268735 -0.962164
1.414389 0.189574 0.244244 -0.022143 -0.751085 0.659835
0.249966 0.078293 -0.099438 0.048343 -0.784773 -0.617896
0.193971 0.387339 -0.496330 0.048343 -0.784773 -0.617896
0.125275 0.201365 0.265504 0.048343 -0.784773 0.617896
-1.259484 0.085043 -0.016982 0.000282 0.969438 -0.241887
-1.568592 -0.035016 0.055847 -0.412388 -0.483509 0.770273
0.208860 0.360445 0.461008 0.048343 -0.784773 0.617896
0.367674 0.077732 -0.038451 0.000102 0.868052 -0.494316
0.183818 0.077851 -0.038210 0.000174 0.867153 -0.495865
-0.292788 -0.118799 -0.150884 -0.048327 -0.800686 0.597132
-1.399862 0.000000 -0.086722 0.002295 0.040609 -0.997967
0.000132 -0.445339 0.565030 -0.048327 -0.800686 -0.597132
-0.036984 0.218407 0.263745 -0.048327 0.800686 -0.597132
-0.160776 -0.205876 0.256960 -0.048327 -0.800686 -0.597132
-0.011531 -0.342688 0.428331 -0.048327 -0.800686 -0.597132
-0.172277 0.185959 0.231185 -0.048327 0.800686 -0.597132
-1.624626 -0.032130 -0.007295 -0.625211 -0.740103 -0.232410
0.376366 0.065393 0.056960 -0.001477 0.721778 0.691077
0.472875 -0.079138 0.035468 -0.000303 -0.880690 0.471202
-1.250238 -0.082421 0.026971 0.000364 -0.949246 0.311914
0.128478 -0.344372 -0.421424 0.080969 -0.783111 0.616588
0.145385 -0.563282 0.711423 -0.048327 -0.800686 -0.597132
0.019156 -0.034608 0.079517 0.000170 -0.458840 0.887338
1.375011 -0.090774 -0.130459 0.031339 0.772365 -0.634013
1.103006 -0.072296 0.082099 -0.022143 -0.817637 -0.575308
-0.593604 0.085876 -0.012085 0.000278 0.988897 -0.141514
-0.889404 -0.022553 0.083738 -0.000038 -0.241533 0.969331
-1.185119 -0.085347 -0.015385 0.000268 -0.972155 -0.229702
1.290173 0.096963 -0.134657 -0.022143 -0.751085 -0.659835
0.238547 0.118099 0.148495 0.080969 0.783111 -0.616588
0.195644 0.453037 0.579640 0.048343 -0.784773 0.617896
1.099964 0.110841 -0.136997 -0.022143 0.817637 0.575308
1.235088 -0.108971 0.129140 -0.022143 -0.817637 -0.575308
1.345911 -0.182872 -0.229902 -0.022143 -0.817637 0.575308
-0.157843 -0.061766 0.060875 0.000125 -0.729935 0.681950
-1.558729 0.000000 -0.069911 -0.353305 0.090734 -0.929051
0.980963 -0.073847 -0.097967 -0.022143 0.751085 -0.659835
1.424265 0.186472 -0.241045 -0.022143 -0.751085 -0.659835
1.193124 0.008810 -0.086274 0.000390 0.139316 -0.989205
1.373049 -0.019837 -0.084423 -0.000128 -0.282271 -0.958173
-0.042138 -0.269854 -0.333146 -0.048327 -0.800686 0.597132
1.250987 0.075410 0.080829 -0.022143 0.817637 -0.575308
-0.033050 -0.100485 -0.140228 -0.028821 0.775618 -0.630544
0.132096 0.297975 -0.362971 0.080969 0.783111 0.616588
0.848906 -0.060751 -0.061888 -0.000515 -0.705883 -0.706744
0.148807 0.195607 -0.256350 0.048343 -0.784773 -0.617896
1.278822 0.152864 0.189837 -0.022143 0.817637 -0.575308
-0.060788 -0.189476 0.226877 -0.048327 -0.800686 -0.597132
-0.682506 -0.039780 -0.077060 -0.000936 -0.450406 -0.891787
0.009112 -0.119722 0.165818 -0.028821 0.775618 0.630544
0.452187 -0.033724 -0.079896 0.000047 -0.440316 -0.896624
-0.093024 0.198695 0.258292 -0.028821 -0.775618 0.630544
0.039977 0.109701 0.111753 0.037894 0.790122 -0.610985
-0.305035 -0.060743 -0.074028 -0.048327 -0.800686 0.597132
-0.814688 0.078824 0.036160 0.000903 0.902872 0.427701
0.188013 -0.274328 -0.340281 0.080969 -0.783111 0.616588
-0.154398 0.073474 0.101455 -0.028821 -0.775618 0.630544
-0.013475 0.020469 -0.084272 -0.000319 0.281167 -0.958541
1.447873 -0.224439 0.285054 -0.022143 0.751085 0.659835
1.244317 -0.172603 -0.219218 -0.022143 -0.817637 0.575308
-0.929153 0.086196 0.009537 0.000398 0.990518 0.129696
1.444292 -0.099308 0.117444 0.058060 -0.786576 -0.614758
0.125938 -0.297532 0.387591 0.048343 0.784773 0.617896
0.889912 -0.086722 0.000000 -0.003110 -0.997207 0.059529
-0.689932 0.086722 -0.000000 -0.001185 0.998489 0.033965
-0.545321 -0.086059 0.010703 0.000111 -0.979520 0.194373
-0.155501 0.026967 0.082423 0.000098 0.312252 0.948727
-0.596925 -0.056550 -0.065749 -0.000297 -0.704881 -0.707421
0.208665 -0.482479 -0.616014 0.048343 0.784773 -0.617896
-0.037656 0.094145 -0.132219 -0.028821 -0.775618 -0.630544
0.209979 -0.086722 0.000000 -0.000787 -0.995649 0.077465
0.579943 -0.086722 0.000000 -0.001319 -0.996073 0.069391
0.017476 -0.397768 0.508219 -0.028821 0.775618 0.630544
-0.133542 0.060129 -0.085994 -0.028821 -0.775618 -0.630544
1.205506 -0.079821 -0.112303 -0.022143 0.751085 -0.659835
1.488588 -0.107659 -0.141117 0.058060 0.782146 -0.620385
0.249966 -0.195358 -0.248119 0.080969 -0.783111 0.616588
-0.079993 0.070289 0.100938 -0.028821 -0.775618 0.630544
-0.674302 0.034507 0.079562 0.000124 0.449252 0.892457
0.157367 0.062617 0.086773 0.048343 -0.784773 0.617896
0.221649 -0.418044 0.533161 0.048343 0.784773 0.617896
0.622025 0.077518 -0.038881 0.001184 0.867714 -0.495395
1.542886 0.052690 0.041063 1.000000 0.000000 0.000000
-0.335981 -0.086188 -0.009615 0.000437 -0.983394 -0.174255
-0.150270 0.281677 0.357751 -0.028821 -0.775618 0.630544
0.087182 -0.412050 -0.513349 -0.048327 -0.800686 0.597132
0.228818 0.485476 0.613813 0.080969 0.783111 -0.616588
0.025615 0.228546 0.272273 -0.048327 0.800686 -0.597132
0.426165 0.055203 -0.066884 0.000285 0.600062 -0.798613
0.059087 0.196476 0.226562 -0.048327 0.800686 -0.597132
1.433876 0.075890 0.041969 0.000002 0.874028 0.483719
1.289196 0.076540 0.111376 -0.022143 -0.751085 0.659835
0.672670 0.010068 -0.086136 -0.000259 0.143411 -0.988351
0.047939 -0.112987 -0.159308 -0.003094 0.779073 -0.626651
-0.126961 -0.181280 -0.221242 -0.048327 -0.800686 0.597132
0.669552 0.041991 0.075878 -0.000599 0.492655 0.869165
-0.014176 0.191158 -0.252625 -0.028821 -0.775618 -0.630544
0.038042 0.367888 -0.472403 -0.028821 -0.775618 -0.630544
0.270649 -0.079496 0.034657 -0.000247 -0.888705 0.456093
-0.948950 -0.068794 -0.052802 -0.000237 -0.825034 -0.563090
-0.246803 -0.116739 0.150451 -0.028821 0.775618 0.630544
-0.250265 -0.063538 0.084851 -0.028821 0.775618 0.630544
1.227354 0.084084 -0.021230 0.000442 0.964492 -0.260856
-1.503757 0.010791 0.083476 -0.130483 0.202192 0.968772
0.056616 0.503220 -0.639723 -0.028821 -0.775618 -0.630544
1.291064 -0.110142 -0.128649 -0.022143 -0.817637 0.575308
0.349350 -0.071725 -0.048747 -0.000059 -0.791714 -0.609108
-0.392897 -0.036609 -0.078617 -0.000081 -0.457109 -0.888233
1.242460 0.060722 -0.091803 -0.022143 -0.751085 -0.659835
1.080993 -0.098512 0.120205 -0.022143 -0.817637 -0.575308
0.929908 0.000000 -0.086722 -0.001217 0.070536 -0.996413
1.059883 -0.078421 -0.037025 0.000275 -0.877619 -0.477124
0.129546 0.378162 -0.464480 0.037894 0.790122 0.610985
-1.257606 0.022349 0.083793 -0.000090 0.313030 0.948525
0.913457 0.086167 -0.009800 0.000361 0.990266 -0.131847
1.036049 0.040168 -0.076859 -0.000113 0.457027 -0.888265
0.622990 0.084115 0.021104 0.000161 0.968399 0.245266
-0.742334 0.064616 0.057841 0.000354 0.776170 0.628904
-0.159571 0.070326 0.050745 0.000165 0.841267 0.538548
0.037988 -0.170957 0.194051 -0.048327 -0.800686 -0.597132
1.076482 0.086317 -0.008372 -0.001605 0.987735 -0.148874
1.167662 0.011430 0.085966 0.000408 0.134760 0.989943
-0.292810 0.084363 0.020093 -0.000094 0.957378 0.285039
1.287682 -0.019029 -0.084609 -0.000778 -0.220194 -0.974393
-0.039010 -0.191790 -0.228217 -0.048327 -0.800686 0.597132
-1.050328 0.083343 -0.023972 -0.000186 0.941605 -0.333300
1.340782 0.112482 0.154020 -0.022143 -0.751085 0.659835
0.494372 -0.008556 -0.086299 -0.000750 -0.165082 -0.984970
-1.112661 0.043538 -0.075001 -0.000242 0.553015 -0.831855
0.146206 -0.227874 -0.297535 0.048343 0.784773 -0.617896
0.556100 -0.052758 0.068828 0.000004 -0.603799 0.795766
1.416620 -0.033138 0.080141 -0.000079 -0.381018 0.923425
-0.563459 -0.036530 0.078653 0.000019 -0.451419 0.891069
-0.729562 0.031880 -0.080650 0.000096 0.366601 -0.929131
0.128230 -0.077970 0.037965 -0.000002 -0.900099 0.433153
0.465122 0.071582 -0.048957 0.000070 0.798253 -0.600525
0.939907 -0.000000 0.086722 0.000936 -0.017351 0.999220
0.149123 -0.100034 0.113808 0.080969 -0.783111 -0.616588
-0.193025 0.232814 0.295691 -0.028821 -0.775618 0.630544
-0.276307 -0.090587 0.111721 -0.048327 -0.800686 -0.597132
-0.132057 -0.292729 0.372177 -0.028821 0.775618 0.630544
-0.935817 0.006311 -0.086492 -0.000537 0.110599 -0.993060
1.493616 -0.085185 0.013334 0.014075 -0.980909 0.190614
-0.139490 -0.282491 -0.357969 -0.048327 -0.800686 0.597132
-0.117254 0.250807 0.321286 -0.028821 -0.775618 0.630544
1.425834 0.037234 0.078322 0.000183 0.480281 0.875885
1.393415 -0.176492 0.219007 -0.022143 -0.817637 -0.575308
0.155390 0.056200 -0.066048 -0.000165 0.656650 -0.752792
-0.109517 -0.112840 -0.128061 -0.048327 -0.800686 0.597132
0.007571 -0.222555 0.265700 -0.048327 -0.800686 -0.597132
0.090643 -0.082551 0.083924 0.080969 -0.783111 -0.616588
0.355009 -0.064831 0.057599 0.000776 -0.699639 0.712803
0.320698 0.083178 0.024539 0.000483 0.937702 0.343270
-1.163765 0.084110 -0.021123 -0.000834 0.971687 -0.231579
0.112046 0.156064 -0.180101 0.080969 0.783111 0.616588
-1.312106 -0.031124 -0.080945 0.001264 -0.378513 -0.923997
0.042798 0.057740 0.064705 -0.000461 0.704862 0.708024
-0.136422 -0.044389 -0.074501 -0.000184 -0.558089 -0.828511
-0.153020 0.266312 -0.337370 -0.048327 0.800686 0.597132
0.734202 0.020637 0.084231 -0.001251 0.282256 0.958189
1.037995 -0.069966 0.051240 0.000165 -0.800928 0.596987
1.260981 -0.161784 0.207462 -0.022143 0.751085 0.659835
-0.001171 0.181234 0.211000 -0.048327 0.800686 -0.597132
-0.093721 -0.150694 -0.177541 -0.048327 -0.800686 0.597132
0.086767 0.162296 0.184696 0.080969 0.783111 -0.616588
-1.165157 0.005597 0.086541 -0.000210 0.109025 0.993198
0.081436 0.402133 -0.516512 -0.028821 -0.775618 -0.630544
-0.199013 -0.068610 0.093434 -0.028821 0.775618 0.630544
-0.052283 -0.270755 0.335174 -0.048327 -0.800686 -0.597132
0.918388 -0.075901 -0.094329 -0.022143 -0.817637 0.575308
0.083140 0.506405 0.640195 -0.048327 0.800686 -0.597132
-0.075048 0.161960 -0.191135 -0.048327 0.800686 0.597132
1.485643 -0.057110 -0.064754 0.014881 -0.662257 -0.747672
-0.015545 0.054339 0.067587 0.000119 0.666939 0.743655
0.974697 -0.079172 -0.035391 0.000306 -0.910742 -0.410492
1.459856 -0.019238 -0.084561 0.010003 -0.274427 -0.960438
0.036460 -0.191565 -0.255441 -0.028821 0.775618 -0.630544
-0.294663 0.035640 0.079060 -0.000039 0.462653 0.885299
0.185563 -0.431297 -0.539322 0.080969 -0.783111 0.616588
-0.896674 -0.078866 -0.036068 -0.000092 -0.875441 -0.480138
-0.635758 0.009419 0.086209 0.000549 0.174071 0.983356
-0.529948 0.000000 -0.086722 0.000505 0.029182 -0.998976
1.408637 0.046373 -0.073282 -0.000020 0.533054 -0.844825
-1.459856 -0.084546 -0.019307 0.003506 -0.960236 -0.275238
0.055953 0.185458 -0.212042 -0.048327 0.800686 0.597132
1.324407 -0.086414 0.007301 -0.000160 -0.990710 0.128584
0.313646 -0.007119 -0.086430 -0.001034 -0.127165 -0.991000
-1.067075 -0.054022 -0.067840 0.000551 -0.622513 -0.780795
-0.121767 0.314253 -0.399124 -0.028821 -0.775618 -0.630544
-0.034632 -0.072927 0.106258 -0.028821 0.775618 0.630544
-0.099801 0.325788 0.412814 -0.048327 0.800686 -0.597132
0.240954 0.259933 -0.330839 0.048343 -0.784773 -0.617896
1.369765 0.085327 0.124083 0.031339 -0.772365 0.634013
-0.741755 -0.014458 -0.085509 0.000352 -0.224887 -0.973341
1.112636 -0.086219 -0.009327 -0.000653 -0.982922 -0.176423
0.136077 0.300360 0.390390 0.048343 -0.784773 0.617896
1.013327 -0.065634 0.089704 -0.022143 0.751085 0.659835
0.713689 -0.027217 -0.082341 0.000142 -0.309832 -0.949568
-0.588422 0.045493 0.073832 -0.000796 0.470564 0.881115
0.898491 -0.033544 -0.079972 0.000248 -0.360206 -0.931644
1.340002 -0.046324 -0.073313 0.000074 -0.531715 -0.845639
0.547813 0.082635 -0.026308 -0.001719 0.933207 -0.355876
0.093718 -0.270777 -0.323389 -0.002119 -0.795549 0.604955
1.147482 -0.068010 0.096912 -0.022143 0.751085 0.659835
0.022073 0.149180 0.166138 -0.048327 0.800686 -0.597132
-0.138308 0.190903 -0.235064 -0.048327 0.800686 0.597132
-0.661116 0.042190 -0.075768 0.000136 0.434308 -0.899544
1.437960 -0.164564 -0.200340 0.004605 -0.807883 0.588903
0.044120 0.425834 -0.535316 -0.048327 0.800686 0.597132
0.767497 0.071747 -0.048715 -0.000977 0.849724 -0.525440
-0.117564 -0.264454 0.332010 -0.048327 -0.800686 -0.597132
-0.845078 0.083717 -0.022632 0.000473 0.977971 -0.204229
0.208209 0.199241 -0.247568 0.080969 0.783111 0.616588
-0.116759 -0.094738 0.129332 -0.028821 0.775618 0.630544
0.201995 -0.141901 -0.183978 0.048343 0.784773 -0.617896
-1.003384 -0.014214 -0.085549 0.000001 -0.224190 -0.973489
1.232109 -0.137365 0.169607 -0.022143 -0.817637 -0.575308
0.733375 -0.080422 -0.032450 0.000011 -0.902195 -0.428769
0.805429 -0.061782 -0.060858 -0.000188 -0.723042 -0.688588
-1.080130 0.016517 -0.085135 0.000029 0.124661 -0.991173
0.055411 -0.039782 -0.077059 0.000216 -0.509313 -0.859348
-1.225762 -0.050968 -0.070164 0.000096 -0.592667 -0.804096
-0.333145 0.026536 -0.082563 0.000192 0.305014 -0.951230
1.369765 -0.100600 0.112058 0.031339 -0.797529 -0.602053
-0.242859 -0.086382 -0.007677 0.000755 -0.990195 -0.132750
0.121584 0.354299 0.433126 0.037894 0.790122 -0.610985
0.207421 0.562186 0.717346 0.048343 -0.784773 0.617896
-1.107048 0.071287 0.049385 -0.000044 0.815628 0.576668
-0.219560 0.179465 0.226303 -0.048327 0.800686 -0.597132
-0.236946 -0.019262 -0.084556 0.000323 -0.216351 -0.975269
0.948861 -0.077371 0.039173 0.000085 -0.861991 0.504751
-0.143416 0.081136 -0.030621 0.000482 0.935679 -0.350286
1.373715 -0.037623 0.078136 0.000083 -0.431160 0.901078
-0.357200 -0.022339 0.083796 0.000613 -0.281617 0.958130
1.230066 -0.083989 -0.021603 -0.000417 -0.966107 -0.253903
