1.340974 0.049272 0.106416 0.000217 0.462806 0.885797
0.241412 0.106232 0.049669 -0.000261 0.893886 0.446881
0.649056 0.101714 0.058365 -0.000390 0.853029 0.520654
-0.174455 0.341508 -0.283712 0.017588 -0.596632 -0.801337
0.780302 -0.095739 0.067721 -0.000104 -0.822547 0.567680
1.424731 -0.172518 0.116650 0.000000 -0.610383 -0.792106
-1.379997 -0.022122 0.115164 -0.000086 -0.238101 0.970646
1.299270 -0.087086 -0.050818 0.000000 0.792106 0.610383
-0.239966 -0.000000 0.117270 -0.000129 -0.010410 0.999532
1.419287 -0.191057 -0.130936 0.000000 -0.610383 0.792106
-1.415285 -0.110206 0.040085 -0.001083 -0.929807 0.366184
0.128287 0.100131 -0.061040 0.000025 0.871225 -0.489653
0.066748 0.110997 -0.037840 0.000905 0.958397 -0.283404
1.573048 -0.008648 -0.114962 0.147133 -0.024820 -0.988179
1.253864 -0.163103 0.135584 -0.104887 0.470884 0.875938
-0.635108 -0.112188 -0.034148 0.000338 -0.962242 -0.269874
-0.184697 -0.194272 -0.171179 0.071308 0.608829 -0.790090
1.434537 0.298441 0.229973 -0.104887 0.726999 -0.678580
1.007133 0.108334 0.044899 0.000081 0.931694 0.361678
-0.345992 -0.307341 0.241162 -0.089786 0.568036 0.818091
0.884100 0.094501 -0.069439 -0.000223 0.795120 -0.605424
1.646099 0.057952 -0.086805 0.151885 0.510701 -0.845122
-0.311327 -0.279030 -0.225309 -0.089786 0.568036 -0.818091
-0.605851 -0.008950 0.116928 -0.000345 -0.106681 0.993592
-0.336437 0.162501 0.141642 -0.089786 -0.568036 0.818091
-0.146534 -0.545469 -0.428396 -0.089786 0.568036 -0.818091
1.330251 0.112356 -0.070290 0.000000 0.610383 0.792106
0.820912 0.087907 0.077618 0.000407 0.766023 0.641879
1.280610 0.192477 -0.154578 -0.104887 -0.470884 -0.875938
1.509392 -0.136941 0.089235 0.000000 -0.610383 -0.792106
-0.088853 0.517597 0.388692 0.056532 0.609407 -0.790840
1.583130 -0.249480 0.175956 -0.000000 -0.610383 -0.792106
0.312693 -0.097922 -0.064524 0.000158 -0.808021 -0.588197
-1.389802 0.117270 -0.000000 0.000964 0.999270 -0.018417
-0.011573 0.458040 0.358809 0.071308 -0.608829 0.790090
-0.100058 -0.325234 0.239660 0.056532 -0.609407 -0.790840
0.749554 0.114587 0.024941 -0.000840 0.973038 0.228439
-1.307723 0.100807 -0.059918 -0.000161 0.869722 -0.492346
-0.236110 0.114477 -0.025442 0.000059 0.980746 -0.192191
0.779938 0.110769 -0.038502 -0.000175 0.936561 -0.348771
1.459854 -0.071335 0.071259 -0.000000 0.610383 0.792106
1.653010 0.113842 -0.087724 0.189806 0.572536 0.797606
-0.760253 0.054047 -0.104073 -0.000019 0.409607 -0.911394
-0.078270 0.317939 -0.235596 0.056532 0.609407 0.790840
0.166820 -0.074946 0.090195 0.001798 -0.626246 0.778902
-0.257816 -0.232208 0.162198 -0.071254 -0.639417 -0.765551
-0.284364 -0.359584 -0.284201 -0.089786 0.568036 -0.818091
0.989011 -0.107033 0.047918 0.000101 -0.931115 0.362999
0.041062 -0.716828 0.551503 0.056532 -0.609407 -0.790840
0.450097 -0.065291 0.097413 0.000006 -0.535998 0.843503
-0.492605 0.020976 0.115378 -0.000003 0.225046 0.973747
-0.220561 -0.247291 -0.213233 -0.089786 0.568036 -0.818091
-0.339224 -0.022691 -0.115053 -0.000014 -0.218585 -0.975214
1.559282 0.072740 -0.072341 -0.000000 -0.610383 -0.792106
-0.307539 -0.112900 0.110373 -0.089786 0.568036 0.818091
-1.317356 -0.101588 -0.058585 0.000131 -0.888726 -0.457150
-0.980333 -0.096739 -0.066285 0.000069 -0.850600 -0.524692
1.489118 -0.187497 -0.160771 -0.000000 0.610383 -0.792106
-0.052731 -0.486043 -0.366960 0.056532 -0.609407 0.790840
0.206683 -0.083770 -0.082065 0.000541 -0.681899 -0.730747
1.644030 0.280893 -0.227992 0.189806 -0.625347 -0.756911
-0.069959 -0.556598 -0.440026 0.071308 0.608829 -0.790090
0.053260 -0.268063 0.206564 0.056532 -0.609407 -0.790840
0.053260 -0.355649 -0.274057 0.056532 -0.609407 0.790840
0.585480 0.026525 0.114230 -0.000001 0.249480 0.967757
-0.834752 -0.051293 -0.105457 -0.000090 -0.410434 -0.911234
0.028481 -0.409332 0.317660 0.071308 0.608829 0.790090
-1.665211 -0.044553 0.074898 -0.486645 -0.413653 0.767893
1.090370 -0.093220 0.071149 -0.000017 -0.815045 0.578354
1.538145 0.216216 0.150323 -0.000000 0.610383 -0.792106
0.848205 -0.092421 -0.072184 0.000234 -0.806738 -0.589916
1.351485 0.242327 0.182692 -0.104887 0.726999 -0.678580
0.138141 -0.028095 -0.113854 0.000121 -0.190261 -0.981087
0.032436 -0.625989 -0.480887 0.056532 -0.609407 0.790840
-0.480456 -0.079729 -0.085997 -0.000197 -0.714308 -0.699001
-0.398423 0.180982 0.132499 -0.071254 0.639417 -0.765551
-0.037383 -0.195488 0.158820 0.071308 0.608829 0.790090
-0.002164 0.170087 -0.136068 0.071308 -0.608829 -0.790090
1.646099 -0.015722 -0.031844 1.000000 0.000000 0.000000
-1.628775 -0.066914 -0.078583 -0.348956 -0.627304 -0.694703
-0.294277 0.200304 -0.138944 -0.071254 0.639417 0.765551
0.004694 -0.506909 -0.394998 0.071308 0.608829 -0.790090
0.442294 0.082880 -0.082964 -0.000287 0.683868 -0.728758
-1.325705 0.087963 0.077555 -0.000317 0.733276 0.679094
0.661019 -0.037793 0.111013 0.000012 -0.344433 0.938176
1.569566 -0.055938 0.101401 0.147807 -0.432220 0.888875
-1.528601 -0.105981 0.050201 -0.000039 -0.894677 0.445469
0.019967 0.460210 -0.352250 0.056532 0.609407 0.790840
0.459792 -0.012858 -0.116563 -0.000315 -0.157133 -0.987011
0.542779 -0.008605 0.116954 0.000050 -0.122058 0.991919
1.391123 0.117108 0.073952 0.000000 0.610383 -0.792106
-0.001171 0.734362 -0.570799 0.071308 -0.608829 -0.790090
-0.127410 0.078489 0.087130 0.000747 0.655560 0.754476
-0.155302 0.102933 -0.056186 0.000081 0.859552 -0.509933
-0.258293 -0.405383 0.318862 -0.089786 0.568036 0.818091
-0.033678 0.733411 0.571277 -0.089786 -0.568036 0.818091
1.413645 0.167006 0.144981 0.000000 -0.610383 0.792106
-0.233921 -0.314410 0.258370 -0.089786 0.568036 0.818091
0.405247 -0.085263 0.080514 -0.000002 -0.743076 0.668302
-1.027446 -0.084037 0.081792 0.000173 -0.746828 0.664233
1.554944 0.165582 0.111306 0.000000 0.610383 -0.792106
-0.053596 0.658567 0.517124 -0.036110 -0.583034 0.810671
1.559777 -0.115487 -0.020370 0.048006 -0.973770 -0.217234
0.568998 -0.026200 -0.114306 -0.000275 -0.254060 -0.966499
1.534581 -0.080030 -0.061670 0.029914 0.791752 0.610110
0.814254 -0.050218 -0.105973 -0.000020 -0.470296 -0.881839
0.006762 -0.241126 -0.182483 0.056532 -0.609407 0.790840
1.609235 -0.141804 -0.121803 0.189806 0.625347 -0.756911
-0.316094 0.325497 0.257050 -0.089786 -0.568036 0.818091
-0.729931 0.055861 0.103110 -0.000149 0.504218 0.862890
-0.068064 -0.042630 -0.109247 -0.000003 -0.393251 -0.918779
1.485152 -0.189376 0.162219 0.000000 0.610383 0.792106
1.489118 0.187497 -0.160771 -0.000000 -0.610383 -0.792106
-0.305363 0.112397 0.033452 -0.000463 0.942654 0.332015
-0.004227 0.589542 0.459479 0.071308 -0.608829 0.790090
0.044893 0.304459 -0.235366 0.071308 -0.608829 -0.790090
1.118591 -0.071991 -0.070407 -0.093331 0.487107 -0.867808
-0.159060 0.573058 0.446177 -0.089786 -0.568036 0.818091
-1.601830 0.043995 0.101978 -0.247680 0.367715 0.895406
0.494284 -0.085387 0.080382 -0.000129 -0.744168 0.667109
-0.745582 0.098109 0.064240 -0.000216 0.828537 0.558894
0.298313 0.053867 0.104166 -0.000005 0.481840 0.875574
1.201393 0.147817 -0.121084 -0.104887 -0.470884 -0.875938
-0.132655 -0.492886 0.368277 -0.071254 -0.639417 -0.765551
-1.552162 -0.106593 -0.048889 -0.000689 -0.893718 -0.447350
-1.620384 -0.019900 0.104116 -0.313298 -0.225493 0.921555
-0.438134 -0.146484 0.119359 -0.089786 0.568036 0.818091
-1.182325 0.112130 -0.034337 0.000130 0.949307 -0.312569
-0.830522 0.030615 0.113203 -0.000188 0.293217 0.955421
0.482814 0.113346 -0.030081 -0.000782 0.953414 -0.299879
1.620332 -0.351313 -0.257900 -0.104887 -0.726999 0.678580
-1.165087 -0.110281 0.039879 0.000270 -0.921995 0.385679
0.373597 -0.031152 -0.113056 -0.000233 -0.260723 -0.964794
0.552489 -0.056755 0.102621 0.000054 -0.506968 0.861319
-0.063407 0.386618 0.308451 0.071308 -0.608829 0.790090
-0.677991 0.048427 0.106804 -0.000171 0.442415 0.896135
1.069847 -0.117270 -0.000000 -0.000535 -0.998637 -0.032689
1.611753 -0.138865 0.095868 0.189806 -0.572536 -0.797606
-0.120007 0.424308 -0.314578 0.056532 0.609407 0.790840
1.617498 -0.223118 -0.157714 0.189806 -0.572536 0.797606
1.279817 0.117270 0.000000 0.000088 0.998367 -0.043757
-0.058937 -0.105486 -0.073265 0.056532 -0.609407 0.790840
-1.236684 0.068514 0.095174 -0.000385 0.600807 0.798717
-1.253243 0.080830 -0.084963 -0.000557 0.675721 -0.736387
-0.348339 -0.163642 -0.141128 -0.089786 0.568036 -0.818091
-0.602298 -0.106593 0.048889 -0.000144 -0.894197 0.446349
-0.046458 -0.517188 0.407536 0.071308 0.608829 0.790090
1.112293 0.109535 -0.089835 -0.104887 -0.470884 -0.875938
1.348277 0.109940 0.101007 -0.000000 -0.610383 0.792106
-0.083842 -0.189104 -0.135919 0.056532 -0.609407 0.790840
1.208574 -0.173645 -0.131199 -0.104887 -0.726999 0.678580
-1.567796 0.115485 -0.016301 -0.112029 0.983032 -0.140719
-0.190914 0.356890 0.260110 -0.071254 0.639417 -0.765551
0.895374 0.053251 -0.104482 -0.000223 0.439987 -0.897357
-1.611035 -0.100682 0.041073 -0.268444 -0.872050 0.407427
-0.022125 0.420592 -0.330905 0.071308 -0.608829 -0.790090
-0.688125 0.113412 0.029831 -0.000134 0.961501 0.272598
0.798621 0.044947 -0.108314 0.000046 0.427166 -0.903510
-1.226850 -0.088006 0.077506 0.000054 -0.763178 0.645299
-0.172810 -0.125270 0.080370 0.056532 -0.609407 -0.790840
1.582953 -0.335380 0.246608 -0.104887 -0.726999 -0.678580
0.040847 -0.443797 -0.343103 0.071308 0.608829 -0.790090
-0.034850 -0.315977 -0.237187 0.056532 -0.609407 0.790840
-1.034882 -0.042537 0.109283 0.000684 -0.406027 0.913233
-1.662894 -0.080410 -0.036670 -0.442572 -0.802698 -0.396154
0.947389 0.114228 -0.026534 -0.000155 0.966370 -0.254820
0.053260 -0.315837 -0.243378 0.056532 -0.609407 0.790840
0.971124 0.065404 -0.097337 0.000446 0.541007 -0.840327
-0.296785 0.137885 -0.087043 -0.071254 0.639417 0.765551
1.213960 0.079211 0.061038 0.000000 -0.792106 -0.610383
1.630927 0.103613 -0.025225 0.147972 0.954076 -0.257981
1.370497 0.115845 0.018221 -0.000563 0.990057 0.135558
1.458970 0.178405 0.121187 0.000000 0.610383 -0.792106
-0.529924 -0.117270 0.000000 0.000077 -0.997575 -0.056311
0.049993 -0.117270 -0.000000 0.000961 -0.999251 -0.020584
1.632474 -0.273344 -0.224652 0.189806 0.625347 -0.756911
1.718661 0.409933 -0.315887 0.189806 0.572536 0.797606
1.678925 -0.230720 0.177789 0.189806 0.625347 0.756911
1.405037 -0.136169 -0.088641 0.000000 -0.610383 0.792106
-0.077417 0.431218 0.344083 0.071308 -0.608829 0.790090
-1.479176 -0.082990 -0.082854 -0.000045 -0.673492 -0.738430
1.317433 -0.238260 0.183599 -0.104887 -0.726999 -0.678580
1.610194 0.388712 -0.299534 -0.104887 0.726999 0.678580
0.013510 0.094264 0.069797 0.056532 0.609407 -0.790840
-0.549552 0.090985 -0.073986 -0.000009 0.790524 -0.611443
0.682186 0.116863 0.009758 0.000171 0.990276 0.134090
-0.203400 0.569415 -0.438781 -0.071254 0.639417 0.765551
-0.876693 -0.083259 0.082584 -0.000008 -0.729609 0.682984
-0.271553 -0.097743 -0.064795 -0.000006 -0.804995 -0.592251
-0.475950 0.073337 -0.091509 0.000007 0.641516 -0.766325
0.000044 0.158477 0.118315 0.056532 0.609407 -0.790840
-0.659906 -0.000000 0.117270 -0.000069 -0.023685 0.999108
-0.261578 0.196074 0.132368 -0.071254 0.639417 -0.765551
1.353434 -0.202604 -0.139834 -0.072597 -0.692999 0.715996
1.566851 -0.275433 -0.228533 -0.000000 0.610383 -0.792106
-0.185192 -0.259164 0.221228 0.071308 0.608829 0.790090
0.540557 0.072944 -0.091822 -0.000712 0.651351 -0.757870
0.872863 -0.115200 0.021935 -0.000409 -0.974671 0.220811
0.240565 -0.024909 0.114594 -0.000422 -0.254288 0.966638
-0.242170 0.193000 -0.173165 -0.089786 -0.568036 -0.818091
-0.137270 -0.222104 -0.188345 0.071308 0.608829 -0.790090
-0.141034 -0.659195 -0.507964 -0.071254 -0.639417 0.765551
0.974698 -0.103489 -0.055156 -0.000453 -0.858563 -0.511678
-0.045304 0.336214 0.252034 0.056532 0.609407 -0.790840
1.428720 0.243923 -0.199969 -0.104887 -0.470884 -0.875938
-0.162664 -0.389325 -0.284572 -0.028669 -0.630346 0.775144
-1.571048 -0.045427 0.107059 -0.119767 -0.334192 0.933656
-0.286407 0.132052 0.081205 -0.071254 0.639417 -0.765551
-0.254804 0.079447 -0.089024 0.071308 -0.608829 -0.790090
0.320423 0.112649 0.032595 0.000827 0.952055 0.303944
1.616987 0.155747 0.131379 0.189806 -0.625347 0.756911
-0.169999 0.055343 0.103389 0.000129 0.427634 0.903305
-0.180560 0.222276 -0.192385 0.071308 -0.608829 -0.790090
-0.690040 -0.113972 -0.027616 -0.000211 -0.965567 -0.257779
-0.124418 -0.204086 0.173301 0.071308 0.608829 0.790090
-0.549274 -0.108573 -0.044317 -0.000005 -0.905618 -0.422669
-0.137963 0.383666 0.281977 0.056532 0.609407 -0.790840
1.585458 0.280705 -0.200017 0.000000 0.610383 0.792106
-0.178421 -0.323098 0.232412 0.056532 -0.609407 -0.790840
-0.266644 0.252795 0.180215 -0.071254 0.639417 -0.765551
-0.251097 -0.140445 0.135694 0.017588 0.596632 0.801337
0.701062 -0.117095 -0.006400 -0.000998 -0.995004 -0.094151
-0.449412 -0.113728 -0.028604 0.000197 -0.962989 -0.267402
-0.065734 -0.726016 -0.562625 -0.089786 0.568036 -0.818091
-0.320345 0.241800 0.176029 -0.071254 0.639417 -0.765551
1.124585 -0.007525 0.117028 0.000538 -0.089499 0.995459
-0.196334 0.489509 -0.384075 -0.089786 -0.568036 -0.818091
1.241730 0.061892 -0.099607 0.000303 0.547534 -0.836206
-0.413122 -0.192282 -0.153904 -0.089786 0.568036 -0.818091
0.771834 0.096403 0.066772 0.000061 0.832778 0.552535
-0.074223 -0.386464 0.309308 0.071308 0.608829 0.790090
-0.773481 -0.053746 0.104229 -0.000323 -0.481434 0.875827
-0.204260 0.112891 0.031744 0.000480 0.973232 0.227716
-1.077865 -0.116226 -0.015613 -0.000060 -0.982645 -0.182333
1.715206 -0.394349 0.303879 0.189806 0.625347 0.756911
1.488722 0.214197 0.148768 0.000000 0.610383 -0.792106
1.492792 -0.281751 -0.203088 -0.104887 -0.726999 0.678580
-0.269295 -0.207395 -0.142541 -0.071254 -0.639417 0.765551
-1.262248 0.035287 -0.111835 -0.000044 0.331053 -0.943021
1.265128 0.123211 -0.078656 0.000000 0.610383 0.792106
-0.177310 0.123435 0.115926 0.071308 -0.608829 0.790090
1.403802 -0.220060 0.184157 -0.104887 0.470884 0.875938
-0.063893 0.185203 -0.134339 0.056532 0.609407 0.790840
-0.126642 0.679914 0.523929 -0.071254 0.639417 -0.765551
-0.068943 -0.122691 0.105573 0.071308 0.608829 0.790090
1.389599 0.071335 -0.071259 0.000000 -0.792106 0.610383
0.721242 0.049188 0.106455 0.000064 0.373592 0.926979
-0.359949 -0.117270 0.000000 -0.000844 -0.999098 -0.023623
0.343781 -0.115339 0.021189 0.000840 -0.979839 0.196602
1.052885 0.058850 0.101434 0.000980 0.477511 0.877957
1.409812 0.135102 -0.120396 -0.000000 -0.610383 -0.792106
-1.042823 -0.010594 -0.116790 -0.000511 -0.140747 -0.989325
0.053260 -0.594521 0.458127 0.056532 -0.609407 -0.790840
-0.055463 0.602517 0.456517 0.056532 0.609407 -0.790840
1.533137 0.275146 0.195734 -0.000000 0.610383 -0.792106
-0.464953 0.118454 0.086466 -0.071254 0.639417 -0.765551
-0.046595 0.507468 -0.383908 0.056532 0.609407 0.790840
-0.273429 0.039373 0.110462 0.000598 0.361478 0.931819
1.627448 -0.363292 0.269634 -0.104887 -0.726999 -0.678580
0.004874 0.398353 0.311331 0.071308 -0.608829 0.790090
-0.520027 -0.113609 -0.087545 -0.071254 -0.639417 0.765551
0.311453 -0.018701 -0.115769 0.000052 -0.200885 -0.979058
0.053193 -0.080618 -0.085164 -0.000179 -0.717390 -0.695952
1.343559 -0.109222 -0.042695 -0.000200 -0.924180 -0.380347
1.677111 0.423101 0.326034 -0.104887 0.726999 -0.678580
1.163551 -0.112574 -0.097607 -0.104887 0.470884 -0.875938
0.720675 -0.089728 0.075506 0.000480 -0.771715 0.634940
0.110017 0.109673 0.041520 0.000222 0.919740 0.390326
0.006420 0.499526 -0.381577 0.056532 0.609407 0.790840
1.158505 -0.156586 0.120662 -0.104887 -0.726999 -0.678580
-0.197256 -0.186581 -0.125868 0.056532 -0.609407 0.790840
-0.125955 0.449290 0.333404 0.056532 0.609407 -0.790840
0.651815 -0.067186 -0.096116 0.000567 -0.598840 -0.800155
0.225374 0.110401 -0.039546 0.000158 0.949392 -0.312338
-0.076796 0.117076 0.006739 0.000173 0.995876 0.085144
-0.117608 -0.151240 -0.131964 0.071308 0.608829 -0.790090
1.398607 0.239358 0.172228 -0.104887 0.726999 -0.678580
0.370491 0.057236 -0.102353 -0.000473 0.519960 -0.853435
-0.457213 0.160564 -0.120917 -0.071254 0.639417 0.765551
-1.011790 0.062116 0.099468 0.000281 0.489148 0.871606
-1.505900 -0.116979 0.008258 -0.000529 -0.994679 0.097028
0.012162 0.666963 0.517659 0.071308 -0.608829 0.790090
0.100235 -0.107326 0.047259 -0.000038 -0.923647 0.381746
0.034678 0.616457 0.473702 0.056532 0.609407 -0.790840
0.291316 -0.114551 -0.025106 -0.000009 -0.965096 -0.259657
1.395183 -0.105481 0.097571 0.000000 0.610383 0.792106
-0.509417 0.100342 0.075476 -0.071254 0.639417 -0.765551
0.014166 -0.380811 -0.296975 0.071308 0.608829 -0.790090
1.617498 0.209371 -0.175554 0.189806 -0.625347 -0.756911
-0.067802 -0.676359 -0.527919 -0.089786 0.568036 -0.818091
0.811927 -0.113380 -0.029951 -0.000398 -0.963769 -0.264581
1.228554 -0.122676 0.110821 -0.035127 0.565584 0.822674
-0.137248 0.031325 -0.113008 0.000037 0.253517 -0.966712
1.231536 -0.114775 0.024060 0.000542 -0.966648 0.253875
-1.694755 0.063521 -0.025946 -0.597244 0.757963 -0.256629
1.484736 -0.078226 -0.062316 0.000000 0.792106 0.610383
1.061713 -0.008375 0.116970 0.000315 -0.119144 0.992296
-0.753696 -0.116925 0.008988 0.000433 -0.991278 0.126795
-1.481068 0.070452 -0.093748 0.000109 0.563090 -0.825726
-0.111569 -0.407469 0.328865 0.071308 0.608829 0.790090
1.651050 -0.308828 -0.249310 0.189806 0.625347 -0.756911
-0.118099 0.256825 0.213371 0.071308 -0.608829 0.790090
-0.328484 0.036862 0.111326 -0.000540 0.283649 0.958305
-0.038211 0.228375 0.169443 0.056532 0.609407 -0.790840
-1.323960 0.025840 -0.114387 -0.000345 0.257010 -0.965892
-0.249079 -0.328852 -0.266734 -0.089786 0.568036 -0.818091
-1.543716 0.104029 0.054131 -0.000012 0.877817 0.477779
1.619790 -0.105267 -0.088971 0.189806 0.625347 -0.756911
0.851345 0.117083 0.006620 0.003062 0.994816 0.097770
-0.099391 0.214056 0.154036 0.056532 0.609407 -0.790840
0.934904 -0.038605 0.110733 -0.000570 -0.346339 0.937416
1.617344 0.245949 0.205813 0.063567 -0.617315 0.782811
-0.215277 -0.374663 -0.302253 -0.089786 0.568036 -0.818091
1.433793 0.190750 -0.163278 -0.000000 -0.610383 -0.792106
-0.162271 0.318933 0.230357 0.056532 0.609407 -0.790840
-0.296785 -0.137885 -0.087043 -0.071254 -0.639417 0.765551
-0.200985 0.291791 0.206674 -0.028669 0.630346 -0.775144
0.161395 0.115659 -0.019369 0.000167 0.983635 -0.176839
0.032324 0.706296 -0.546148 0.071308 -0.608829 -0.790090
0.233813 -0.010301 -0.116816 0.000663 -0.141654 -0.989137
1.610445 -0.101523 -0.041557 0.147781 -0.933136 -0.325697
-0.192976 0.229092 0.198758 0.071308 -0.608829 0.790090
-0.135083 0.502712 0.399964 -0.089786 -0.568036 0.818091
1.511365 0.111087 0.037574 -0.000491 0.930136 0.365638
0.313708 -0.009523 0.116882 -0.000398 -0.108686 0.993372
-0.200320 -0.531173 -0.412566 -0.089786 0.568036 -0.818091
1.047821 0.009152 -0.116912 -0.000671 0.128875 -0.990993
-1.578055 -0.089288 0.073176 -0.151629 -0.743678 0.649854
0.053260 0.538784 0.415178 0.056532 0.609407 -0.790840
-0.093819 -0.449012 0.359275 0.071308 0.608829 0.790090
-0.259935 -0.147579 -0.139677 -0.089786 0.568036 -0.818091
-0.265766 -0.479635 -0.369598 -0.071254 -0.639417 0.765551
-1.298256 0.112803 0.032057 -0.000139 0.953556 0.299327
-0.162385 -0.587513 -0.450079 -0.071254 -0.639417 0.765551
-0.412182 0.064780 -0.097753 -0.000228 0.509680 -0.859691
0.053260 0.387499 -0.298600 0.071308 -0.608829 -0.790090
-0.964210 -0.115539 0.020075 0.000267 -0.980576 0.192722
1.250516 -0.203871 0.157099 -0.104887 -0.726999 -0.678580
0.007118 -0.297081 -0.233090 0.071308 0.608829 -0.790090
-0.497445 0.116842 -0.010001 0.000076 0.989457 -0.139589
-0.221753 0.293410 -0.209960 -0.071254 0.639417 0.765551
0.383895 0.111425 -0.036561 0.000254 0.942038 -0.333710
0.053260 -0.634333 0.488806 0.056532 -0.609407 -0.790840
1.498649 0.248685 -0.175344 0.000000 0.610383 0.792106
-0.259940 0.117246 -0.118615 0.017588 -0.596632 -0.801337
0.906126 0.039508 0.110414 0.000097 0.312035 0.949536
-0.352119 0.355324 0.273806 -0.071254 0.639417 -0.765551
-0.205116 0.101820 -0.059991 0.056532 0.609407 0.790840
-0.093548 0.316434 0.257089 0.071308 -0.608829 0.790090
1.566976 -0.316854 -0.255730 -0.104887 0.470884 -0.875938
1.464403 -0.126528 -0.081211 -0.000000 -0.610383 0.792106
-0.295330 -0.116953 -0.008613 0.000514 -0.998382 -0.045325
1.416132 -0.249868 -0.180780 -0.104887 -0.726999 0.678580
0.442269 -0.116817 0.010298 0.000136 -0.992899 0.112596
0.016490 0.725406 0.556356 0.056532 0.609407 -0.790840
0.700340 0.098137 -0.064197 0.000281 0.818602 -0.573344
-0.220622 -0.382163 0.306874 -0.089786 0.568036 0.818091
-1.269208 -0.112465 0.033222 -0.000145 -0.964778 0.260809
0.124567 0.020082 0.115537 -0.000068 0.203944 0.978370
0.729931 0.055861 -0.103110 0.000149 0.504218 -0.862890
-0.206676 -0.306584 -0.255927 -0.089786 0.568036 -0.818091
1.129215 0.113487 -0.029543 0.001143 0.963940 -0.264369
-0.067091 -0.116769 0.010828 -0.000428 -0.987885 0.149594
0.026173 0.184926 0.144946 0.071308 -0.608829 0.790090
-1.685175 0.009073 -0.074696 -0.534857 0.136742 -0.832197
0.540070 -0.113596 0.029123 0.000029 -0.974068 0.223294
-0.118447 -0.488438 -0.391879 0.017588 0.596632 -0.801337
0.605408 0.113447 -0.029700 0.000108 0.960971 -0.274418
0.169976 -0.117270 -0.000000 -0.000187 -0.997481 -0.061477
0.489886 0.034113 0.112198 0.000006 0.243403 0.969302
1.387968 0.032638 -0.112636 0.000058 0.227752 -0.973041
-0.948267 -0.076353 0.089008 -0.000015 -0.665218 0.745843
-0.322995 0.226173 -0.163224 -0.071254 0.639417 0.765551
0.564907 0.072687 0.092026 0.000007 0.638142 0.769134
-0.555497 0.026207 -0.114304 0.000001 0.247741 -0.968203
-1.123705 -0.042670 -0.109231 -0.000023 -0.392498 -0.919107
-0.264082 0.279949 0.231133 -0.089786 -0.568036 0.818091
-0.638050 -0.087960 0.077558 -0.000088 -0.729103 0.683463
-0.076018 -0.677793 0.528013 -0.089786 0.568036 0.818091
-0.405578 0.115214 0.021862 0.000477 0.971647 0.233849
-1.611393 0.074919 -0.078675 -0.262954 0.705430 -0.656760
-1.379831 0.079363 0.086335 0.000009 0.696134 0.717097
1.032031 -0.047826 -0.107074 0.000043 -0.384541 -0.922386
1.307688 0.057417 -0.102252 0.000175 0.466543 -0.883949
-0.579954 -0.065824 -0.097054 0.000003 -0.580831 -0.813284
-1.058918 0.035591 -0.111738 -0.000094 0.325958 -0.944795
-0.201254 -0.034675 -0.112026 -0.000284 -0.276964 -0.960341
1.334866 0.144943 0.127980 0.000000 -0.610383 0.792106
-1.451586 0.098678 0.063363 0.000022 0.829161 0.557928
0.588516 -0.104723 -0.052776 0.000026 -0.882958 -0.468217
0.364225 -0.009445 0.116889 -0.000051 -0.103481 0.993997
-0.171290 0.421158 -0.311963 -0.071254 0.639417 0.765551
1.498955 -0.240739 -0.169220 0.000000 -0.610383 0.792106
1.538065 -0.169309 -0.146756 -0.000000 0.610383 -0.792106
-0.177853 -0.191304 0.168274 0.071308 0.608829 0.790090
-0.167032 0.272480 0.229850 0.071308 -0.608829 0.790090
1.315889 -0.136033 -0.121114 0.000000 0.610383 -0.792106
1.535372 0.341552 -0.265223 -0.104887 -0.470884 -0.875938
-0.858905 0.060779 -0.100290 -0.000516 0.476198 -0.878631
-0.113960 0.548482 -0.434062 -0.089786 -0.568036 -0.818091
-1.536526 0.041733 0.109592 -0.000100 0.400944 0.915435
0.084202 0.061225 0.100018 -0.000083 0.508777 0.860210
-0.765540 -0.045025 -0.108282 0.000469 -0.341215 -0.939342
-0.221814 0.092350 0.072280 0.000000 -0.792106 -0.610383
1.644496 -0.300288 0.219533 0.189806 -0.572536 -0.797606
-0.135048 -0.326047 -0.237785 0.056532 -0.609407 0.790840
-0.051754 -0.641596 -0.486896 0.056532 -0.609407 0.790840
-0.993655 0.067024 -0.096229 0.000279 0.590631 -0.806227
-0.909183 0.109280 -0.042545 0.000248 0.938289 -0.344146
0.015782 0.770989 -0.591431 0.000000 0.792106 -0.610383
-0.352433 -0.172196 0.146618 -0.089786 0.568036 0.818091
-0.836728 0.094101 -0.069980 -0.000740 0.830388 -0.556118
1.547628 0.106587 0.098423 0.000000 -0.610383 0.792106
0.409941 -0.000000 -0.117270 -0.000622 0.050803 -0.998045
-0.081829 0.028368 -0.113787 -0.000334 0.226427 -0.973390
-0.172599 0.534384 0.417838 -0.089786 -0.568036 0.818091
-0.119540 -0.619844 -0.473096 -0.071254 -0.639417 0.765551
-1.115937 0.112432 0.033337 0.000481 0.952004 0.304123
0.621263 -0.114999 -0.022964 -0.000638 -0.976353 -0.213183
-0.437445 -0.155439 -0.125653 -0.089786 0.568036 -0.818091
-0.863814 0.110956 -0.037959 0.000098 0.935900 -0.350607
-0.136523 -0.435967 -0.322382 0.056532 -0.609407 0.790840
1.559777 0.110213 -0.040066 0.052893 0.920015 -0.384750
-0.248385 -0.102693 0.106358 0.071308 0.608829 0.790090
-0.213389 -0.117010 0.007804 0.000958 -0.996016 0.083528
-0.121551 0.160438 0.139408 0.071308 -0.608829 0.790090
-0.231265 -0.250578 0.214340 -0.089786 0.568036 0.818091
1.344050 -0.178374 0.121163 -0.000000 -0.610383 -0.792106
-1.274183 0.112744 -0.032265 -0.000532 0.952342 -0.303047
-0.048536 0.091500 0.073348 0.000420 0.812980 0.580948
0.460706 0.090998 0.073969 0.000052 0.805260 0.591933
-1.445166 -0.090195 0.074947 0.001184 -0.764265 0.644323
0.635080 0.082091 -0.083745 -0.000046 0.718916 -0.694226
1.232540 -0.040932 0.109894 -0.000150 -0.387320 0.921449
-0.062267 -0.256303 -0.189244 0.056532 -0.609407 0.790840
-0.338422 0.155856 -0.136810 -0.089786 -0.568036 -0.818091
1.587527 -0.194022 0.165799 -0.000000 0.610383 0.792106
-0.099840 0.265491 -0.193638 0.056532 0.609407 0.790840
-0.413400 0.201516 -0.151044 -0.071254 0.639417 0.765551
1.655254 0.288233 0.213440 0.189806 0.572536 -0.797606
-1.189830 -0.117270 0.000000 -0.000448 -0.997471 -0.061173
-0.776683 0.115871 -0.018059 -0.000111 0.982349 -0.183667
-0.371432 -0.241137 0.180231 -0.071254 -0.639417 -0.765551
0.683958 -0.109639 0.041610 0.000155 -0.942638 0.332017
0.543147 0.102760 -0.056504 0.000341 0.864112 -0.502178
1.586858 0.293629 0.209976 -0.000000 0.610383 -0.792106
-1.272671 -0.103092 -0.055895 0.000204 -0.885455 -0.463441
-0.014960 0.038605 -0.110733 -0.000570 0.346339 -0.937416
-0.066220 0.441575 -0.351054 0.071308 -0.608829 -0.790090
0.399890 -0.113403 -0.029866 -0.000234 -0.953033 -0.300799
-0.380212 -0.108220 -0.099148 -0.089786 0.568036 -0.818091
0.068831 -0.020984 -0.115377 0.000209 -0.204395 -0.978197
1.070470 0.077608 -0.087916 -0.000001 0.682137 -0.730400
1.208942 0.087086 -0.050818 -0.000000 0.610383 0.792106
0.748650 -0.093088 -0.071321 0.000282 -0.762939 -0.645556
-0.061253 0.471397 0.355064 0.056532 0.609407 -0.790840
0.605662 -0.114508 0.025299 0.000528 -0.963934 0.263800
1.572434 0.210212 0.178274 -0.000000 -0.610383 0.792106
-0.487660 -0.102523 0.056932 0.001185 -0.861044 0.507266
0.312693 0.097922 -0.064524 0.000158 0.808021 -0.588197
0.016101 -0.573496 0.445280 0.071308 0.608829 0.790090
-0.033877 -0.617115 0.483403 0.071308 0.608829 0.790090
-1.527593 0.108539 -0.044402 0.000120 0.915271 -0.401485
-0.262282 0.161021 -0.103156 -0.071254 0.639417 0.765551
-0.181153 0.172145 -0.115895 0.056532 0.609407 0.790840
-0.923297 0.023117 -0.114969 0.000134 0.242039 -0.969700
-0.312404 0.199986 0.140366 -0.071254 0.639417 -0.765551
-0.147129 -0.020514 0.115461 0.000349 -0.197865 0.979533
1.359717 -0.113193 0.030653 -0.000156 -0.958959 0.281360
-1.196623 0.025648 0.114431 0.000381 0.244693 0.969025
-0.351148 -0.108410 0.067485 -0.071254 -0.639417 -0.765551
1.649555 0.098258 0.075716 0.189806 0.572536 -0.797606
-0.439697 -0.109939 0.040811 -0.000105 -0.943054 0.330773
-0.588502 0.060929 0.100199 0.000625 0.483372 0.874849
-1.579414 -0.082687 -0.080289 -0.164669 -0.712906 -0.679706
1.606690 0.033347 0.105097 0.147978 0.273183 0.949841
-0.292618 -0.211655 0.180581 -0.089786 0.568036 0.818091
-0.920621 -0.101777 -0.058254 0.000268 -0.854413 -0.518427
-0.832331 0.026824 -0.114161 -0.000047 0.246967 -0.968413
1.124571 -0.046229 -0.107773 0.000352 -0.375323 -0.926267
-1.695036 -0.011058 0.067511 -0.599308 -0.218448 0.767138
-0.269755 -0.175318 0.115793 -0.071254 -0.639417 -0.765551
0.903726 -0.073749 -0.091177 -0.000290 -0.603541 -0.796659
0.978637 0.023426 -0.114906 -0.000765 0.184611 -0.982220
-0.341082 0.295233 0.222589 -0.071254 0.639417 -0.765551
-1.727861 0.039993 -0.000000 -0.704420 0.703877 -0.047785
-0.208064 -0.493783 -0.376045 -0.071254 -0.639417 0.765551
0.975422 0.091746 0.073041 0.000164 0.812452 0.582055
1.529781 -0.000000 -0.117270 -0.000792 0.051454 -0.998009
-0.118843 0.625927 -0.478112 -0.071254 0.639417 0.765551
1.396052 -0.175852 0.151797 0.000000 0.610383 0.792106
-1.350799 0.084332 -0.081488 -0.000154 0.730555 -0.682055
1.464983 0.116078 0.016677 -0.000262 0.985622 0.165458
-0.330665 -0.031427 0.112980 0.000305 -0.256729 0.965969
1.346697 0.202576 -0.167920 -0.104887 -0.470884 -0.875938
-0.091917 0.569389 0.428383 -0.028669 0.630346 -0.775144
-0.239189 0.207365 0.183466 -0.089786 -0.568036 0.818091
-0.114251 -0.279098 -0.230187 0.071308 0.608829 -0.790090
-0.300643 0.261397 -0.190564 -0.071254 0.639417 0.765551
0.945767 -0.103071 0.055933 0.000005 -0.871481 0.489208
1.579043 -0.073209 -0.072702 0.052962 0.616372 -0.784639
-1.284557 -0.011069 0.116746 -0.000623 -0.141669 0.989191
1.294854 -0.103290 0.095882 0.000000 0.610383 0.792106
-0.141129 -0.116791 -0.010587 -0.000403 -0.994934 -0.095051
1.155505 -0.050250 0.105958 -0.000115 -0.403648 0.914272
-0.325796 -0.345686 -0.270003 -0.089786 0.568036 -0.818091
0.053260 -0.196401 0.151343 0.056532 -0.609407 -0.790840
-0.389840 0.106305 -0.069327 -0.071254 0.639417 0.765551
-0.160864 0.287525 -0.206255 0.056532 0.609407 0.790840
-0.264082 -0.279949 -0.231133 -0.089786 0.568036 -0.818091
0.021266 -0.561477 -0.435552 0.071308 0.608829 -0.790090
-1.318875 -0.112694 0.032440 -0.000105 -0.966385 0.254746
1.384188 -0.092690 -0.055137 0.000000 -0.610383 0.792106
-0.348681 -0.241759 -0.178633 -0.071254 -0.639417 0.765551
0.005604 0.677682 -0.526511 0.071308 -0.608829 -0.790090
-0.223137 -0.164386 0.106915 0.056532 -0.609407 -0.790840
1.192490 -0.034713 -0.112014 0.000260 -0.339326 -0.940077
1.554075 0.182467 -0.156895 0.000000 -0.610383 -0.792106
-0.297617 -0.402491 -0.312538 -0.089786 0.568036 -0.818091
1.625732 -0.181524 -0.129817 0.189806 -0.572536 0.797606
-1.399727 0.031482 0.112965 0.000192 0.249054 0.967848
-0.462663 -0.065269 0.097428 -0.000602 -0.572978 0.818520
-0.046847 -0.724805 0.563857 -0.089786 0.568036 0.818091
1.274741 -0.115951 0.017534 -0.000053 -0.979699 0.197457
-1.238038 -0.031742 -0.112892 -0.000062 -0.286110 -0.957662
1.175097 -0.095496 0.068064 -0.000359 -0.798330 0.601318
-1.210033 0.093307 0.071035 0.000008 0.782364 0.621895
1.568090 0.106624 -0.098452 -0.000000 -0.610383 -0.792106
-0.149380 0.464028 0.371535 -0.089786 -0.568036 0.818091
0.216878 0.027467 0.114008 0.000102 0.282656 0.958646
-1.207743 -0.049579 0.106274 -0.000767 -0.444131 0.895262
0.909183 0.109280 0.042545 -0.000248 0.938289 0.344146
1.259124 0.071335 0.071259 0.000000 -0.610383 0.792106
-0.218400 -0.114249 -0.112556 0.071308 0.608829 -0.790090
0.604521 0.096510 0.066618 0.000016 0.835990 0.547645
0.003701 -0.427078 -0.325556 0.056532 -0.609407 0.790840
0.059875 0.045695 -0.108001 0.000568 0.433944 -0.900264
-0.663809 0.060229 -0.100621 0.000607 0.530567 -0.846957
1.194077 0.064731 -0.097786 0.000458 0.588761 -0.807681
-1.649301 -0.078978 0.052785 -0.431590 -0.746138 0.504785
1.563734 -0.222264 -0.187562 -0.000000 0.610383 -0.792106
-0.780485 -0.105297 -0.051620 -0.000030 -0.885326 -0.463689
-0.142503 0.206779 -0.145346 0.056532 0.609407 0.790840
-0.008379 0.114468 -0.093770 0.071308 -0.608829 -0.790090
0.198141 0.100375 0.060638 0.000064 0.860552 0.508196
-1.551072 0.050859 -0.105667 -0.000031 0.444317 -0.895279
-1.488530 -0.088638 0.076782 0.000076 -0.769835 0.637169
-0.118116 -0.242021 0.201964 0.071308 0.608829 0.790090
0.011701 -0.075148 0.090027 -0.000109 -0.677294 0.734910
1.629261 -0.177628 0.146379 0.189806 0.625347 0.756911
0.257454 0.080882 0.084914 -0.000115 0.671951 0.739781
0.632103 -0.069105 0.094745 0.000055 -0.609482 0.792040
1.148723 0.087086 0.050818 -0.015053 0.628060 -0.777034
0.332414 0.076137 0.089193 0.000011 0.631080 0.774947
-0.174616 -0.552486 0.421963 -0.071254 -0.639417 -0.765551
-0.105829 -0.378520 -0.280308 0.056532 -0.609407 0.790840
-0.759910 0.026541 0.114227 -0.000057 0.273304 0.961300
-0.498547 -0.021996 0.115188 0.000496 -0.200837 0.979025
1.123615 0.079375 -0.060825 0.000000 -0.792106 0.610383
0.981400 -0.037324 0.111171 0.000687 -0.303172 0.952276
-0.932527 0.117022 0.007615 0.000418 0.996113 0.082377
1.227161 -0.110241 0.068661 0.000000 -0.610383 -0.792106
-0.168111 -0.416065 0.336176 -0.089786 0.568036 0.818091
0.524107 -0.069841 -0.094204 -0.000109 -0.622680 -0.781711
-0.826134 -0.094053 -0.070044 0.000073 -0.812774 -0.581596
1.713426 -0.412318 -0.319170 0.189806 0.625347 -0.756911
-0.913892 -0.116919 0.009058 0.000456 -0.991160 0.127664
0.315411 -0.073304 0.091536 0.000023 -0.585435 0.809980
-1.209827 0.117270 -0.000000 -0.000543 0.998791 -0.032422
1.591042 0.340064 -0.250376 -0.104887 0.726999 0.678580
-0.042815 0.145216 0.120572 0.071308 -0.608829 0.790090
-0.789143 0.099244 0.062473 -0.001246 0.848170 0.528475
0.261182 0.069066 -0.094774 0.000040 0.564512 -0.824775
-0.081430 -0.188743 0.157599 0.071308 0.608829 0.790090
0.814922 0.049671 0.106230 0.000125 0.396014 0.917595
-0.993487 -0.014991 -0.116308 0.000993 -0.179515 -0.983090
-0.086529 0.088317 -0.077151 0.000024 0.730843 -0.681663
1.492763 -0.097155 0.091155 -0.000000 0.610383 0.792106
-0.966161 0.092729 -0.071788 -0.000535 0.801462 -0.597155
-0.920433 0.077481 0.088028 -0.000099 0.675111 0.736933
0.812566 0.090339 -0.074774 0.000389 0.759240 -0.649957
-0.242388 -0.127810 -0.077354 0.056532 -0.609407 0.790840
-0.317217 -0.377428 0.289020 -0.071254 -0.639417 -0.765551
-1.405044 -0.107370 -0.047157 0.000604 -0.894765 -0.445349
1.304288 -0.079211 0.061038 0.000000 0.792106 -0.610383
-1.451948 0.038915 0.110625 0.000215 0.304759 0.951808
-0.162684 0.401701 0.326798 -0.089786 -0.568036 0.818091
-0.399943 -0.000000 0.117270 -0.000063 -0.017704 0.999382
-0.298756 -0.097227 0.065567 0.000171 -0.838145 0.544647
0.662397 -0.018438 -0.115811 0.000155 -0.201726 -0.978875
-0.010938 -0.099411 -0.062207 -0.000057 -0.839401 -0.542406
1.114136 0.010373 -0.116810 0.001941 0.129793 -0.990752
-0.163316 -0.255655 -0.216550 0.071308 0.608829 -0.790090
-1.192480 -0.092580 -0.071979 -0.000131 -0.777527 -0.628151
-0.184697 0.194272 0.171179 0.071308 -0.608829 0.790090
1.343835 0.149684 -0.131633 -0.000000 -0.610383 -0.792106
1.506588 -0.227591 0.159089 -0.000000 -0.610383 -0.792106
-0.080458 0.473846 -0.377206 0.071308 -0.608829 -0.790090
-0.061040 0.704368 0.548109 -0.089786 -0.568036 0.818091
0.662405 -0.112023 -0.034683 0.000269 -0.945896 -0.322787
-0.095139 -0.222718 -0.161015 0.056532 -0.609407 0.790840
-0.023704 -0.591698 0.450450 0.056532 -0.609407 -0.790840
0.859877 -0.000000 0.117270 -0.001576 -0.015457 0.999523
0.003197 0.569263 -0.435085 0.056532 0.609407 0.790840
-0.268216 -0.290149 0.211560 -0.071254 -0.639417 -0.765551
-0.268471 -0.033679 0.112329 0.000371 -0.271986 0.961671
-1.386378 0.007557 -0.117026 0.000794 0.041577 -0.998699
1.458970 -0.178405 -0.121187 0.000000 -0.610383 0.792106
0.016299 -0.535244 0.415786 0.071308 0.608829 0.790090
0.500030 -0.108376 0.044797 0.000180 -0.932747 0.358897
-0.108774 -0.603206 0.458198 -0.071254 -0.639417 -0.765551
-1.100492 -0.113161 0.030770 -0.000511 -0.958452 0.283043
1.321702 0.114345 0.026026 -0.000367 0.962370 0.269590
-0.077310 -0.072399 0.092253 0.000195 -0.600429 0.799021
-0.681373 0.021909 -0.115205 -0.000141 0.208028 -0.977502
0.536015 -0.114660 -0.024602 -0.000032 -0.966416 -0.254662
0.005417 -0.150685 0.112695 0.056532 -0.609407 -0.790840
-0.137755 -0.158354 0.108370 0.056532 -0.609407 -0.790840
-0.262282 0.161021 0.103156 -0.071254 0.639417 -0.765551
-0.220392 -0.423633 -0.318600 -0.071254 -0.639417 0.765551
-1.651621 0.086394 -0.036872 -0.399401 0.831804 -0.382167
1.556539 -0.158080 0.138103 0.000000 0.610383 0.792106
-1.474957 0.116154 -0.016139 0.000514 0.986430 -0.160846
-0.690784 -0.031662 0.112915 -0.000007 -0.283453 0.958372
-0.235019 -0.470244 0.358893 -0.071254 -0.639417 -0.765551
0.905067 -0.027503 -0.113999 -0.000464 -0.281809 -0.958849
-0.034698 -0.080605 0.085177 0.000241 -0.703355 0.710049
1.646099 -0.103869 -0.010234 0.149469 -0.987399 -0.029981
1.470963 -0.180922 0.123126 0.000000 -0.610383 -0.792106
-0.274758 0.392726 0.308267 -0.089786 -0.568036 0.818091
-1.727803 -0.014934 -0.037164 -0.730069 -0.315258 -0.602256
-1.686688 0.045162 0.058923 -0.538099 0.540792 0.643995
-0.035909 -0.480741 0.364076 0.056532 -0.609407 -0.790840
0.597845 0.058418 -0.101684 -0.000173 0.489936 -0.871176
-0.196347 0.387074 -0.312948 -0.089786 -0.568036 -0.818091
0.821227 -0.103157 0.055774 -0.000534 -0.857452 0.513545
1.433137 0.121077 0.077011 0.000000 0.610383 -0.792106
0.938598 -0.114504 -0.025316 0.000341 -0.972303 -0.231341
1.209827 0.117270 0.000000 0.000220 0.999338 -0.016572
-0.133563 -0.095108 -0.068606 -0.000313 -0.788974 -0.613513
-0.391167 0.127040 -0.111013 -0.089786 -0.568036 -0.818091
1.131696 -0.116547 -0.012995 0.000412 -0.988619 -0.146470
-1.579476 0.000000 -0.115245 -0.140002 -0.059531 -0.987272
-1.293741 -0.063883 0.098342 -0.000002 -0.585072 0.810246
-0.183525 -0.125548 -0.079819 0.056532 -0.609407 0.790840
-0.210249 -0.508987 0.388947 -0.071254 -0.639417 -0.765551
1.501933 -0.324367 -0.251981 -0.104887 0.470884 -0.875938
0.398042 0.084215 -0.081609 -0.000651 0.725204 -0.687661
1.549930 0.116103 0.016502 -0.000132 0.984615 0.171198
-0.415894 -0.116032 0.100656 -0.089786 0.568036 0.818091
-0.692951 0.085890 -0.079844 -0.000284 0.714785 -0.698532
-0.108067 -0.092711 0.071812 -0.000470 -0.784243 0.619739
-0.578175 0.022641 0.115063 -0.000118 0.228733 0.972847
-1.608756 -0.109347 0.000000 -0.273065 -0.960615 -0.028251
-0.550250 -0.058756 0.101489 0.000435 -0.475808 0.878961
0.015325 0.331864 -0.259153 0.071308 -0.608829 -0.790090
-0.683268 -0.061074 -0.100111 -0.000087 -0.495238 -0.868126
0.025134 -0.476818 0.365417 0.056532 -0.609407 -0.790840
-0.177403 -0.333774 -0.278019 0.017588 0.596632 -0.801337
0.011521 0.216014 0.170224 0.071308 -0.608829 0.790090
1.646099 -0.039896 -0.096446 0.149586 -0.359564 -0.920377
0.594915 0.008636 -0.116951 -0.000212 0.024025 -0.999133
1.347842 -0.145301 0.095678 0.000000 -0.610383 -0.792106
1.291625 -0.204688 -0.151621 -0.104887 -0.726999 0.678580
1.340533 0.186842 0.127688 0.000000 0.610383 -0.792106
1.476443 0.154175 -0.135094 0.000000 -0.610383 -0.792106
-0.251495 0.159050 -0.148568 -0.089786 -0.568036 -0.818091
-0.069325 0.711093 -0.544636 -0.071254 0.639417 0.765551
-0.314300 -0.184906 -0.159629 -0.089786 0.568036 -0.818091
-0.112552 -0.503904 0.403265 0.017588 0.596632 0.801337
-0.103986 -0.346495 0.281195 0.071308 0.608829 0.790090
-0.146253 0.154666 -0.137190 0.071308 -0.608829 -0.790090
1.442469 -0.020976 0.115378 0.000003 -0.225046 0.973747
-0.065387 0.636913 0.482312 -0.028669 0.630346 -0.775144
-0.114367 -0.536822 -0.403271 -0.071254 -0.639417 0.765551
-0.331580 0.106291 -0.103146 -0.089786 -0.568036 -0.818091
-0.113959 0.391427 -0.289673 0.056532 0.609407 0.790840
-0.135498 0.103633 0.054886 -0.000010 0.898865 0.436856
-1.322215 -0.052146 -0.105038 0.001237 -0.476023 -0.878720
-0.429939 -0.000000 -0.117270 -0.000205 0.051913 -0.997976
-1.107213 0.037354 -0.111161 0.000366 0.362069 -0.931489
-1.459416 -0.104517 -0.053182 -0.000701 -0.887537 -0.459668
0.587790 -0.077472 0.088036 -0.000198 -0.677087 0.735085
1.172445 0.121842 -0.103654 -0.104887 -0.470884 -0.875938
1.318114 -0.099972 -0.093326 0.000000 0.610383 -0.792106
1.677111 0.423101 -0.326034 -0.104887 0.726999 0.678580
1.492594 0.018535 0.115796 -0.000352 0.205535 0.978045
1.669121 0.346638 -0.276016 0.189806 -0.625347 -0.756911
1.208693 0.182378 0.140537 -0.104887 0.726999 -0.678580
0.013077 -0.685183 -0.525117 0.056532 -0.609407 0.790840
-0.025916 -0.363893 -0.287555 0.071308 0.608829 -0.790090
-0.067211 -0.402834 -0.301805 0.056532 -0.609407 0.790840
-0.205493 0.466176 0.366868 -0.089786 -0.568036 0.818091
-0.013637 -0.416587 0.327052 0.071308 0.608829 0.790090
1.524692 -0.041428 0.109708 0.000234 -0.388282 0.920911
-0.202154 0.413670 0.330777 -0.089786 -0.568036 0.818091
0.888673 0.072403 0.092250 -0.000164 0.633758 0.772742
-0.035541 -0.519236 -0.393766 0.056532 -0.609407 0.790840
0.029825 0.121857 0.096016 0.071308 -0.608829 0.790090
1.451267 0.307038 -0.236598 -0.104887 0.726999 0.678580
1.385460 0.106448 -0.098316 -0.000000 -0.610383 -0.792106
-1.336979 0.006760 0.117075 0.001368 0.095312 0.995065
1.203759 -0.114820 -0.023842 0.000186 -0.973813 -0.224788
-1.474311 0.016010 -0.116172 -0.000156 0.184883 -0.982167
1.426173 -0.294142 0.226661 -0.104887 -0.726999 -0.678580
1.641305 -0.111812 0.083482 0.189806 -0.572536 -0.797606
-0.435657 -0.120583 -0.101647 -0.089786 0.568036 -0.818091
0.982476 0.094173 -0.069883 0.000394 0.789869 -0.612328
-0.061420 0.194941 0.160569 0.071308 -0.608829 0.790090
-0.404890 -0.279356 -0.215267 -0.071254 -0.639417 0.765551
-0.464953 0.118454 -0.086466 -0.071254 0.639417 0.765551
1.361344 -0.017730 0.115922 0.000231 -0.188292 0.981345
-1.041126 0.029050 0.113614 -0.000523 0.228266 0.972928
1.494964 0.259586 0.216321 -0.070090 -0.519085 0.850618
-0.065418 -0.280775 -0.227072 0.071308 0.608829 -0.790090
-0.153772 -0.026504 -0.114235 -0.000244 -0.209674 -0.977128
1.378628 -0.032238 -0.112751 0.000898 -0.252589 -0.966958
-0.304979 -0.195704 0.136099 -0.071254 -0.639417 -0.765551
0.584859 0.115884 0.017977 -0.000063 0.990723 0.130898
-0.368980 -0.158578 0.111046 -0.071254 -0.639417 -0.765551
1.557003 0.175239 0.151325 0.000000 -0.610383 0.792106
-0.899871 -0.000000 0.117270 -0.001020 -0.020576 0.999212
-0.342958 -0.309788 -0.234920 -0.071254 -0.639417 0.765551
-0.098358 -0.332106 -0.269599 0.071308 0.608829 -0.790090
-1.383720 -0.116855 0.009850 0.000044 -0.990817 0.130590
1.540026 -0.251592 0.177583 -0.000000 -0.610383 -0.792106
1.433133 -0.105327 -0.097452 -0.000000 0.610383 -0.792106
1.239823 -0.000000 -0.117270 -0.000473 0.046421 -0.998381
1.497775 0.288317 -0.232103 -0.104887 -0.470884 -0.875938
1.594868 0.326678 0.235444 -0.070090 0.690231 -0.718735
-0.227041 0.330227 0.270108 -0.089786 -0.568036 0.818091
1.359303 -0.245474 -0.184856 -0.104887 -0.726999 0.678580
1.280365 0.140041 0.124202 -0.000000 -0.610383 0.792106
0.013579 -0.690691 0.535815 0.071308 0.608829 0.790090
0.449446 0.116854 0.009863 -0.001033 0.992777 0.113200
-0.380719 -0.208015 0.153430 -0.071254 -0.639417 -0.765551
-0.438849 0.076052 0.089265 -0.000255 0.622734 0.781671
-0.248125 -0.067126 -0.096157 -0.000281 -0.553980 -0.831829
-0.044179 0.256454 0.206414 0.071308 -0.608829 0.790090
0.310289 -0.101118 0.059392 -0.000257 -0.849733 0.526032
0.130456 -0.111182 -0.037294 0.000025 -0.943731 -0.328893
1.543730 -0.123257 -0.111268 0.000000 0.610383 -0.792106
-0.145256 0.310386 -0.257095 0.071308 -0.608829 -0.790090
-0.357990 0.009095 0.116916 0.001064 0.126962 0.991218
-0.058584 -0.567854 0.429583 0.056532 -0.609407 -0.790840
-0.967572 0.028190 -0.113831 -0.000226 0.296073 -0.954296
1.493090 -0.328531 0.253160 -0.104887 -0.726999 -0.678580
1.626359 0.179997 -0.128870 0.189806 0.572536 0.797606
-0.729207 0.115186 -0.022008 0.000721 0.975458 -0.217241
-0.010673 -0.208027 -0.166072 0.071308 0.608829 -0.790090
-0.181153 -0.172145 0.115895 0.056532 -0.609407 -0.790840
-0.182078 -0.290708 -0.207192 0.056532 -0.609407 0.790840
1.620256 -0.041379 0.100011 0.147707 -0.351860 0.923604
-0.165378 0.228604 0.160529 0.056532 0.609407 -0.790840
-0.307539 0.112900 0.110373 -0.089786 -0.568036 0.818091
0.030861 -0.177920 -0.135501 0.056532 -0.609407 0.790840
-1.064367 -0.096509 0.066620 -0.000348 -0.834094 0.550484
0.435894 -0.088050 -0.077456 -0.000061 -0.764555 -0.643613
1.468268 0.217492 0.183885 -0.000000 -0.610383 0.792106
0.220334 0.090186 -0.074958 -0.000216 0.752040 -0.658275
1.701384 -0.332014 -0.255844 0.189806 -0.572536 0.797606
-0.149086 0.370928 -0.271366 0.056532 0.609407 0.790840
-0.250484 0.344713 -0.277593 -0.089786 -0.568036 -0.818091
-1.418942 -0.038724 0.110692 -0.000176 -0.305845 0.951450
-0.366364 0.219653 -0.178041 -0.089786 -0.568036 -0.818091
0.955856 -0.078672 -0.086965 -0.000223 -0.663248 -0.747663
-0.305545 -0.340975 0.268955 -0.089786 0.568036 0.818091
0.006412 -0.771313 0.591011 0.056532 -0.609407 -0.790840
1.420308 -0.078927 0.077109 -0.000000 0.610383 0.792106
-0.149891 -0.092848 0.071634 0.000000 0.792106 -0.610383
1.418869 -0.111423 0.036566 0.000196 -0.943763 0.328990
-0.109935 0.668428 -0.512781 -0.071254 0.639417 0.765551
-0.192071 -0.090250 0.091687 0.071308 0.608829 0.790090
-0.156507 -0.165447 -0.112496 0.056532 -0.609407 0.790840
0.486277 -0.111026 -0.037755 -0.000084 -0.930064 -0.365989
-0.269302 0.092867 0.071610 -0.000060 0.778124 0.627233
-0.122761 0.241137 0.173233 0.056532 0.609407 -0.790840
-0.062308 0.114359 -0.098553 0.071308 -0.608829 -0.790090
1.251105 -0.074224 -0.090790 -0.000231 -0.651398 -0.758062
0.004182 0.488289 0.380696 0.071308 -0.608829 0.790090
-0.198936 0.211613 -0.145037 0.056532 0.609407 0.790840
1.377368 0.067508 0.095890 -0.000143 0.588998 0.807446
0.521094 0.116501 -0.013409 -0.000200 0.990330 -0.132986
1.450946 0.129244 -0.115882 -0.000000 -0.610383 -0.792106
-0.040288 0.304066 -0.242751 0.071308 -0.608829 -0.790090
1.409812 0.135102 0.120396 -0.000000 -0.610383 0.792106
1.631272 0.324515 -0.233776 0.125012 0.587318 0.798145
1.258411 -0.100448 -0.060518 0.000231 -0.843653 -0.535721
-0.042012 0.740713 -0.566835 -0.071254 0.639417 0.765551
-0.036314 -0.578999 -0.439763 0.056532 -0.609407 0.790840
0.031827 -0.114879 -0.086992 0.056532 -0.609407 0.790840
-1.254449 -0.116895 -0.009372 0.000036 -0.993524 -0.107213
-0.749779 -0.022847 0.115022 0.000247 -0.230774 0.972500
-0.645052 0.112131 -0.034335 0.000185 0.947301 -0.318465
-0.899247 0.059145 -0.101262 0.000317 0.524881 -0.850590
-0.343310 0.047348 -0.107286 0.000089 0.381920 -0.923556
0.015294 0.363985 -0.283907 0.071308 -0.608829 -0.790090
-0.494907 0.025770 -0.114403 -0.000008 0.195478 -0.980092
1.032752 0.025873 0.114380 0.000300 0.255228 0.966209
-0.045615 0.646537 -0.491142 0.056532 0.609407 0.790840
-0.394885 0.076523 0.088862 -0.000266 0.665131 0.745922
-0.266287 0.102268 -0.057389 0.000118 0.883668 -0.466831
-0.853796 -0.010247 -0.116821 -0.000446 -0.140520 -0.989321
-0.299013 -0.021615 -0.115260 0.000494 -0.204492 -0.978240
1.578389 -0.360378 -0.274095 -0.104887 -0.726999 0.678580
0.053260 0.307875 0.237243 0.056532 0.609407 -0.790840
0.053260 -0.244176 -0.188157 0.056532 -0.609407 0.790840
-0.094498 -0.122439 -0.083787 0.056532 -0.609407 0.790840
-0.360044 0.286887 -0.217383 -0.071254 0.639417 0.765551
-1.598601 0.088381 0.068460 -0.190487 0.783056 0.589874
0.004590 0.341347 0.259557 0.056532 0.609407 -0.790840
1.183851 -0.079211 -0.061038 0.000000 0.792106 0.610383
-0.378432 -0.075291 0.089908 0.000265 -0.657420 0.752765
-0.288554 0.053635 -0.104285 -0.000070 0.500199 -0.865213
1.463512 -0.112707 -0.032393 0.000034 -0.953983 -0.297829
1.662076 -0.346071 0.256580 0.189806 -0.572536 -0.797606
0.104942 0.057035 -0.102465 0.000048 0.503771 -0.863144
-0.165340 0.102430 -0.098660 0.071308 -0.608829 -0.790090
-1.099075 0.062334 0.099331 -0.000008 0.571756 0.819701
1.253356 -0.076382 0.088983 -0.000298 -0.631257 0.774917
-0.589601 0.091260 -0.073646 0.000016 0.793159 -0.608023
-1.041528 -0.077603 -0.087920 -0.000094 -0.681052 -0.731512
1.647177 -0.379235 -0.283665 -0.104887 -0.726999 0.678580
0.408008 0.116782 0.010681 -0.000172 0.992302 0.117334
-1.129839 0.000000 -0.117270 -0.001861 0.020335 -0.999372
-0.799416 -0.094746 0.069103 -0.000015 -0.819025 0.572707
-0.019997 -0.000000 0.117270 -0.002504 -0.051410 0.997952
-0.849879 0.117270 -0.000000 0.000141 0.999370 -0.016156
-1.049850 0.117270 -0.000000 -0.000383 0.999343 -0.016714
-0.202790 -0.254376 0.177714 0.056532 -0.609407 -0.790840
1.665724 0.321102 0.255771 0.189806 -0.625347 0.756911
-0.024381 0.115722 -0.018988 0.000243 0.977936 -0.206049
1.659921 0.145009 -0.111741 0.189806 0.572536 0.797606
-0.011249 -0.225200 0.179357 0.071308 0.608829 0.790090
1.571644 -0.256090 0.213627 0.000000 0.610383 0.792106
-0.012602 -0.028834 -0.113670 -0.000580 -0.297205 -0.954051
-0.139082 0.434306 -0.352028 0.017588 -0.596632 -0.801337
1.454890 -0.228923 0.192693 -0.000000 0.610383 0.792106
1.322307 0.081224 0.084587 -0.000246 0.704741 0.708672
0.416858 0.084576 0.081235 -0.000027 0.753520 0.656499
0.259963 -0.117270 -0.000000 0.000008 -0.999283 -0.018804
