0.459307 0.080075 -0.049105 0.000007 0.867154 -0.496175
-0.044929 0.093536 0.008623 0.000018 0.998592 0.030608
1.253875 0.063989 -0.085072 -0.000000 -0.735946 -0.677041
-0.152263 0.121035 -0.109250 -0.071740 0.765037 0.639978
-0.773782 0.093534 0.008642 -0.000007 0.997181 0.061238
0.026272 0.411601 -0.436583 0.029986 0.745636 0.664612
0.116679 0.198943 0.216252 0.080834 0.733537 -0.674825
1.004094 0.041228 -0.084401 0.000307 0.382360 -0.923006
0.507195 -0.078710 0.051265 -0.000099 -0.847587 0.528993
1.327182 0.154727 0.152673 -0.000000 0.735946 -0.677041
-0.379398 -0.000000 0.093933 -0.000001 0.030637 0.998589
-0.653945 -0.090383 0.025577 -0.000003 -0.969160 0.242591
1.577841 0.099818 -0.103330 0.353196 0.683240 0.639090
-0.329687 -0.129249 0.141732 -0.063745 0.705549 0.705789
-0.968531 -0.080043 0.049157 -0.000013 -0.866799 0.496779
0.019801 0.097058 -0.115806 0.071819 -0.734045 -0.675292
0.001820 -0.185566 -0.187952 0.080834 -0.733537 0.674825
-1.213124 -0.031356 -0.088545 0.000600 -0.379472 -0.924330
0.100059 -0.114850 -0.126609 0.071819 0.734045 -0.675292
0.359415 -0.017200 0.092345 -0.000007 -0.152687 0.987323
0.090939 -0.346453 0.379334 0.071819 0.734045 0.675292
0.214965 -0.070861 -0.061661 -0.000334 -0.771874 -0.634426
-0.139866 0.062999 0.069674 -0.000035 0.623440 0.780673
-1.339798 -0.093664 -0.007101 -0.000231 -0.991790 -0.122146
-0.295440 0.079736 0.049654 -0.000159 0.832111 0.552953
-0.052021 -0.333604 -0.352121 -0.071740 -0.765037 0.639978
1.190216 -0.155352 -0.168868 -0.190466 -0.889937 0.414410
0.758758 0.049199 0.080018 0.000007 0.497000 0.866669
0.485097 -0.006955 0.093675 -0.000828 -0.102642 0.993994
-1.053571 -0.047480 -0.081049 -0.000039 -0.464042 -0.884777
1.425330 -0.252373 0.269158 -0.190466 -0.889937 -0.414410
-0.100353 -0.092565 -0.015971 -0.001409 -0.988120 -0.147986
-0.097809 -0.194981 0.228384 -0.063745 0.705549 0.705789
1.574394 -0.282119 0.296321 0.353196 -0.683240 -0.639090
0.767288 -0.057602 -0.074198 -0.000009 -0.619369 -0.783702
0.021211 -0.497196 0.539470 -0.071740 -0.765037 -0.639978
1.408929 -0.186903 -0.218680 -0.000000 0.735946 -0.677041
-1.174680 0.054745 -0.076330 0.000076 0.575130 -0.816905
0.116679 -0.138037 0.150047 0.080834 -0.733537 -0.674825
0.885915 -0.084100 -0.041839 0.000490 -0.895895 -0.442477
-0.054117 -0.301955 0.339268 -0.063745 0.705549 0.705789
-1.335968 0.066762 -0.066077 0.000323 0.747870 -0.662518
-0.060854 0.328355 -0.346836 -0.071740 0.765037 0.639978
0.023332 -0.405312 0.429394 -0.020872 -0.756136 -0.652997
0.347140 -0.083823 0.042391 0.000412 -0.877747 0.477120
1.187413 -0.108630 -0.102566 -0.000000 -0.735946 0.677041
-0.394366 -0.093534 0.008642 0.000336 -0.997190 0.061131
1.021688 0.082312 0.089473 -0.190466 0.889937 -0.414410
0.069743 0.455661 -0.489683 0.080834 0.733537 0.674825
1.257628 -0.184568 -0.200626 -0.190466 -0.889937 0.414410
-0.316608 -0.082404 0.045089 0.000553 -0.893683 0.446615
0.116679 -0.226012 -0.245676 0.080834 -0.733537 0.674825
-0.221935 0.254839 0.277011 -0.071740 0.765037 -0.639978
1.381294 -0.164718 0.194564 0.000000 0.735946 0.677041
0.330607 0.049094 -0.080082 -0.000105 0.493565 -0.868718
1.250778 0.027426 0.089840 -0.000026 0.342331 0.938565
-0.688908 0.093933 -0.000000 0.000011 0.998592 -0.030609
0.883599 0.093536 -0.008623 0.000001 0.998591 -0.030620
1.418156 0.089691 -0.113010 0.000000 -0.735946 -0.677041
-1.328711 -0.037339 0.086193 -0.000174 -0.394803 0.917804
-0.499245 -0.069628 0.063050 -0.000008 -0.780182 0.624053
-0.231540 -0.149354 0.151990 -0.071740 -0.765037 -0.639978
1.209149 -0.076614 0.054348 -0.000963 -0.813884 0.579155
0.041039 -0.083076 -0.081243 0.080834 -0.733537 0.674825
0.019888 0.080002 0.049225 -0.000047 0.867078 0.496354
0.039700 0.498176 0.538569 -0.071740 0.765037 -0.639978
1.319953 0.084093 -0.041854 0.000104 0.870961 -0.489573
0.820789 -0.071229 0.061235 0.000280 -0.737339 0.674617
0.726567 0.075847 -0.055413 0.000143 0.802579 -0.594932
0.025224 -0.304859 0.320427 0.080834 -0.733537 -0.674825
0.994826 0.091668 -0.020502 0.000209 0.968554 -0.244821
1.127826 -0.063578 -0.069146 0.001306 -0.644328 -0.763456
1.523491 -0.206465 0.208913 0.000000 -0.735946 -0.677041
1.338484 0.151630 -0.180339 0.000000 -0.735946 -0.677041
1.329844 -0.075435 0.066482 -0.000000 0.677041 -0.735946
-0.038865 -0.211634 -0.246590 0.071819 0.734045 -0.675292
-0.246677 0.121052 -0.141034 -0.063745 -0.705549 -0.705789
1.131232 0.129788 -0.141080 -0.190466 0.889937 0.414410
-0.793785 -0.008615 -0.093537 0.000117 -0.060357 -0.997262
1.395108 -0.038953 -0.085475 0.000163 -0.459753 -0.887070
-0.806739 -0.070985 0.061518 0.000721 -0.737474 0.674379
0.891186 0.052719 0.077743 -0.000440 0.560133 0.827292
-0.234551 -0.215254 0.231105 -0.071740 -0.765037 -0.639978
1.262702 -0.057300 -0.074432 0.000221 -0.569581 -0.820808
-0.016896 -0.123838 0.118612 0.080834 -0.733537 -0.674825
-1.462912 -0.093571 0.008238 0.000177 -0.987633 0.149582
0.508881 -0.057188 -0.074518 0.000443 -0.633829 -0.772336
-0.537585 -0.083328 -0.043356 0.000158 -0.902178 -0.429194
1.508228 0.072176 0.062939 0.000000 0.735946 -0.677041
-0.031059 0.072414 -0.061017 0.080834 0.733537 0.674825
0.287417 -0.060413 -0.071928 -0.000010 -0.615206 -0.787229
-0.109826 -0.000000 0.093933 0.000006 0.030647 0.998588
-1.403833 0.090840 -0.023906 0.000016 0.951344 -0.305159
1.585065 0.063008 -0.012363 1.000000 0.000000 0.000000
-0.170414 -0.196202 -0.201141 -0.071740 -0.765037 0.639978
1.046967 -0.093268 -0.101383 -0.190466 -0.889937 0.414410
1.513949 -0.045928 0.077685 0.220362 -0.446095 0.866363
-0.189587 -0.074834 0.056774 -0.000135 -0.813128 0.580482
1.435268 -0.116646 0.111279 -0.000000 -0.735946 -0.677041
-1.635907 -0.007385 0.053822 -0.513112 -0.160916 0.841056
1.184439 0.098882 0.123001 0.000000 -0.735946 0.677041
1.537416 -0.036325 -0.076787 0.221079 -0.466731 -0.855192
-1.083410 -0.093588 0.008037 0.000738 -0.989255 0.140197
0.219496 0.062290 -0.070309 0.000463 0.639778 -0.767492
1.467722 0.153439 0.182305 0.000000 -0.735946 0.677041
-1.209314 -0.091910 0.019389 -0.000131 -0.978096 0.204494
1.486144 0.161556 -0.160096 -0.000000 0.735946 0.677041
-1.642127 0.023699 -0.044351 -0.541305 0.383639 -0.745469
0.683835 0.056341 0.075160 -0.000419 0.549761 0.834224
0.633986 0.093534 -0.008642 -0.000012 0.997179 -0.061260
0.109738 0.087659 -0.033753 -0.000017 0.942902 -0.330245
0.539751 0.049863 0.079605 0.000682 0.571811 0.819443
0.040972 -0.443046 -0.472523 -0.022330 -0.756388 0.652621
-0.103963 0.041200 -0.084415 -0.000077 0.411810 -0.910251
-0.700358 -0.089389 -0.028860 -0.000043 -0.929466 -0.366365
-0.033264 0.146808 0.175528 0.071819 -0.734045 0.675292
0.084605 0.036467 -0.086565 0.000244 0.438145 -0.897929
0.780179 -0.017698 0.092250 -0.000080 -0.234970 0.971016
1.513605 0.052160 -0.073741 0.220336 0.608849 -0.760875
-0.590363 -0.018832 -0.092026 0.000619 -0.230695 -0.971861
0.051519 0.293309 -0.325758 0.071819 -0.734045 -0.675292
-0.830146 0.087489 -0.034191 0.000169 0.941191 -0.334782
0.633995 0.008623 0.093536 0.000124 0.030849 0.998589
-1.043372 0.025581 -0.090382 0.000004 0.242453 -0.969194
1.272887 0.152978 -0.150772 0.000000 0.735946 0.677041
1.328021 0.087480 0.110607 -0.000000 -0.735946 0.677041
1.077559 -0.075079 0.056449 0.000264 -0.828058 0.559263
-0.148828 -0.238312 0.249059 -0.071740 -0.765037 -0.639978
0.116679 -0.246314 0.267745 0.080834 -0.733537 -0.674825
-0.953508 -0.025580 0.090383 -0.000009 -0.242703 0.969130
-0.539113 0.033843 0.087624 -0.000685 0.332810 0.941928
-0.104421 0.256390 0.265692 -0.071740 0.765037 -0.639978
-1.351621 -0.051883 -0.078304 0.000179 -0.591078 -0.805560
0.324486 0.090390 0.025554 0.000000 0.976207 0.212463
-0.079892 -0.092155 0.121079 0.071819 0.734045 0.675292
-0.178418 0.299838 -0.325925 -0.063745 -0.705549 -0.705789
-0.058748 0.423583 0.460437 -0.071740 0.765037 -0.639978
1.515729 0.257957 -0.264885 -0.000000 0.735946 0.677041
0.069814 0.141034 -0.147691 0.080834 0.733537 0.674825
-0.770765 -0.086013 -0.037751 0.000729 -0.908332 -0.416870
1.402500 0.024080 0.090794 -0.000105 0.305346 0.951309
1.552460 0.205996 -0.208402 -0.000000 0.735946 0.677041
0.024727 0.231777 0.240927 0.080834 0.733537 -0.674825
1.267760 -0.042230 0.083905 0.000094 -0.497498 0.866416
0.023791 0.272325 0.305897 0.071819 -0.734045 0.675292
0.114818 -0.025607 0.090375 -0.000001 -0.212931 0.976105
0.399406 0.057310 -0.074424 -0.000081 0.633058 -0.772909
0.039700 -0.498176 -0.538569 -0.071740 -0.765037 0.639978
1.393431 0.029823 -0.089073 -0.000983 0.365382 -0.929815
0.773753 0.093535 -0.008639 0.000001 0.997176 -0.061292
1.260001 0.146918 0.175216 0.000000 -0.735946 0.677041
-0.004077 -0.354743 -0.396558 -0.063745 0.705549 -0.705789
0.053439 0.360829 0.384647 0.080834 0.733537 -0.674825
1.194074 -0.099046 0.123179 -0.000000 0.735946 0.677041
1.510420 -0.294128 0.319718 -0.190466 0.487043 0.852357
-1.538235 0.016300 -0.089394 -0.153231 0.117060 -0.980253
1.571958 0.292615 0.306195 0.353196 0.683240 -0.639090
0.624052 -0.090389 -0.025556 0.000014 -0.969258 -0.242214
-1.507531 0.042023 0.083837 -0.045552 0.489265 0.869796
0.429344 0.087661 0.033748 -0.000024 0.942964 0.330072
-0.454280 0.008623 -0.093536 -0.000003 0.030647 -0.998588
0.116679 0.226012 -0.245676 0.080834 0.733537 0.674825
0.574786 -0.081531 0.046648 0.000377 -0.838423 0.543357
0.049541 -0.204768 0.214542 0.080834 -0.733537 -0.674825
0.014960 -0.090379 0.025591 -0.000016 -0.969182 0.242504
-0.698818 0.058105 -0.073805 -0.000006 0.592637 -0.804337
0.738829 -0.092354 -0.017150 -0.000003 -0.987385 -0.152309
-1.218095 -0.021906 0.091343 -0.000331 -0.279545 0.959221
-0.599050 0.093933 -0.000000 0.000004 0.998595 -0.030575
-0.162690 -0.096795 -0.124371 -0.063745 0.705549 -0.705789
1.354707 0.206580 0.234897 -0.190466 -0.487043 0.852357
1.571871 0.204304 0.211736 0.353196 0.683240 -0.639090
1.537311 -0.159012 -0.188363 -0.000000 0.735946 -0.677041
1.138196 0.093933 -0.000000 -0.000064 0.997062 -0.062319
-0.036950 -0.077995 -0.101120 0.071819 0.734045 -0.675292
0.018348 -0.280030 -0.292615 0.080834 -0.733537 0.674825
0.451199 -0.028497 -0.089506 -0.000755 -0.359656 -0.932115
0.072240 0.091224 0.093838 0.080834 0.733537 -0.674825
-0.758788 -0.033781 0.087648 -0.000454 -0.300364 0.952919
1.128211 0.000000 -0.093933 0.002475 0.065177 -0.996605
1.584847 0.288170 -0.308566 0.353196 0.683240 0.639090
-0.038874 0.362213 0.384846 -0.071740 0.765037 -0.639978
1.465850 0.236203 0.272269 0.000000 -0.735946 0.677041
-0.804029 0.068813 0.063938 -0.000207 0.753968 0.655556
0.061731 0.366781 -0.404536 0.071819 -0.734045 -0.675292
-0.124380 0.148776 0.179795 -0.063745 -0.705549 0.705789
-0.242701 0.141317 0.143633 -0.071740 0.765037 -0.639978
-0.163705 0.109542 0.137022 -0.063745 -0.705549 0.705789
1.586596 -0.081198 -0.088263 0.353196 0.693740 -0.627676
1.090179 0.082993 -0.043995 -0.000323 0.856267 -0.514850
1.424822 -0.197746 0.230466 0.000000 0.735946 0.677041
-0.026796 0.194381 0.226552 0.071819 -0.734045 0.675292
1.113408 -0.029497 0.089181 0.000268 -0.363970 0.930424
0.793705 0.008624 -0.093536 -0.000175 0.061242 -0.997208
-1.497626 0.093425 -0.009756 -0.004099 0.998270 -0.033586
0.861941 0.032253 -0.088222 0.000098 0.399433 -0.915743
0.202210 -0.056569 0.074989 -0.000438 -0.648880 0.759624
1.258842 0.078750 0.051204 -0.000024 0.835901 0.547030
1.501634 -0.120313 -0.146297 -0.000000 0.735946 -0.677041
-0.214351 0.093657 -0.083482 -0.071740 0.765037 0.639978
-0.151221 0.327962 0.356496 -0.071740 0.765037 -0.639978
-1.193127 0.090371 -0.025621 0.000156 0.969164 -0.242601
-0.337801 0.064367 -0.068412 -0.000609 0.654278 -0.754669
-0.274945 0.093697 0.111136 -0.063745 -0.705549 0.705789
0.239623 0.017191 0.092346 0.000007 0.122322 0.991543
-0.653944 0.025627 0.090369 0.000006 0.242860 0.969091
1.546719 0.014520 0.081563 0.219623 0.231728 0.946580
-0.913598 0.008610 -0.093537 -0.000308 0.059088 -0.997187
-0.130644 -0.161226 0.154871 -0.071740 -0.765037 -0.639978
0.658955 0.000000 -0.093933 0.000210 0.030945 -0.998560
0.945481 -0.091988 -0.019016 -0.000198 -0.966795 -0.252165
-0.238506 0.041877 0.084081 0.000796 0.419203 0.906963
-1.043365 0.090371 -0.025621 0.000449 0.968813 -0.243833
-0.939530 0.087587 -0.033939 0.000223 0.942037 -0.332555
0.053219 0.181465 -0.204002 0.071819 -0.734045 -0.675292
-0.328779 -0.043401 -0.083305 -0.001121 -0.432937 -0.900417
-0.126381 -0.133412 -0.164255 -0.063745 0.705549 -0.705789
1.513562 -0.086236 -0.026897 0.220427 -0.912014 -0.343269
-0.498792 0.092165 -0.018135 -0.000778 0.986130 -0.159425
1.559793 0.104954 0.129601 0.119677 -0.729750 0.667771
-0.486043 0.063751 0.068986 -0.000004 0.721530 0.691052
-0.241019 -0.036023 0.086751 -0.000090 -0.452607 0.889840
-0.169731 -0.093933 -0.000000 0.000542 -0.998543 -0.031125
0.039909 -0.033792 0.087644 0.000011 -0.330726 0.942731
-0.044412 0.286001 0.324195 -0.063745 -0.705549 0.705789
1.215496 0.166308 -0.180777 -0.190466 0.889937 0.414410
-0.238502 -0.072519 -0.060921 -0.071740 -0.765037 0.639978
1.072329 -0.082516 -0.044882 -0.000021 -0.852433 -0.521020
1.460193 0.080052 0.102532 -0.000000 -0.735946 0.677041
-1.112371 0.063272 0.069426 -0.000192 0.675338 0.736419
1.305552 -0.121044 0.147090 0.000000 0.735946 0.677041
-0.629154 -0.056959 0.074693 -0.000022 -0.629669 0.775637
1.569217 -0.111717 0.131773 0.353196 0.693740 0.627676
-0.072390 -0.350229 0.374277 -0.071740 -0.765037 -0.639978
-0.039949 0.017218 -0.092341 -0.000155 0.152023 -0.987446
-0.289544 0.092346 -0.017191 0.000221 0.991480 -0.122873
1.414200 -0.158377 -0.156641 -0.000000 -0.735946 0.677041
1.145182 -0.077197 0.053516 -0.000025 -0.789335 0.612447
1.073475 0.039541 -0.085205 -0.001174 0.428218 -0.902467
1.010886 -0.016936 0.092393 0.000653 -0.235527 0.970820
0.576053 0.028294 -0.089570 0.001444 0.280518 -0.958352
0.407052 -0.093685 0.006814 -0.001614 -0.991026 0.127920
1.096319 0.082674 0.074351 0.000000 0.735946 -0.677041
-0.055573 -0.090011 0.026859 0.000324 -0.951789 0.303855
-0.062056 -0.117027 -0.146217 0.071819 0.734045 -0.675292
-1.454926 -0.066503 0.066338 0.000167 -0.668309 0.742648
-1.577081 -0.058698 0.056823 -0.322803 -0.700548 0.634784
0.073923 -0.029511 -0.089176 -0.001301 -0.304310 -0.951779
1.545448 -0.075877 0.033965 0.220297 -0.863129 0.452096
-1.384344 0.078625 0.051395 -0.000265 0.836730 0.545986
1.524088 0.251926 0.258329 -0.000000 0.735946 -0.677041
1.463363 0.081583 -0.046557 -0.000057 0.867375 -0.495814
-0.053731 0.092138 0.118278 0.071819 -0.734045 0.675292
0.314481 -0.008639 -0.093535 -0.000149 -0.061299 -0.997176
0.058302 0.146646 0.152412 0.080834 0.733537 -0.674825
-0.398307 0.057311 -0.074423 0.000074 0.656440 -0.753136
-0.250911 0.170573 -0.179527 -0.071740 0.765037 0.639978
0.494237 -0.093535 -0.008639 -0.001087 -0.997123 -0.061139
-0.043501 0.172638 -0.204694 0.071819 -0.734045 -0.675292
1.442473 0.197771 0.230493 -0.000000 -0.735946 0.677041
0.954961 -0.057215 0.074497 -0.001111 -0.647545 0.760967
-1.653739 -0.033514 -0.025365 -0.615037 -0.664947 -0.416406
-0.439263 -0.063056 0.069622 0.000057 -0.620956 0.782534
0.374467 0.075153 0.056350 -0.000140 0.817138 0.574793
0.124794 0.041735 0.084152 -0.000007 0.416018 0.908323
1.470598 -0.195880 -0.228438 0.000000 0.735946 -0.677041
-0.833681 0.041678 -0.084180 -0.000039 0.414831 -0.908890
1.384663 -0.087684 0.033687 -0.000225 -0.934010 0.354586
-0.257432 -0.142806 -0.161810 -0.063745 0.705549 -0.705789
-0.335539 -0.040949 0.084537 0.000389 -0.384318 0.922352
-1.110708 -0.066852 -0.065986 0.000558 -0.676743 -0.735066
-0.201615 0.206237 -0.216634 -0.071740 0.765037 0.639978
1.454411 -0.083793 -0.042450 0.000034 -0.890916 -0.452105
1.511741 -0.149114 0.177603 0.000000 0.735946 0.677041
1.242363 -0.153121 0.150927 0.000000 -0.735946 -0.677041
1.530445 0.153476 0.182345 0.000000 -0.735946 0.677041
-0.208845 0.206398 0.217636 -0.071740 0.765037 -0.639978
1.266132 0.005847 -0.093751 0.002036 0.108865 -0.993377
-0.530661 -0.026250 0.090190 0.000243 -0.306647 0.950805
1.468288 -0.275868 -0.299869 -0.190466 -0.889937 0.414410
-0.240392 0.030859 -0.088719 0.000958 0.353179 -0.934487
-0.424328 0.041695 0.084172 0.000008 0.387798 0.920725
-0.339957 0.049148 0.080049 0.000308 0.550612 0.833653
0.017629 0.435370 0.465965 -0.071740 0.765037 -0.639978
1.429199 0.185559 -0.217219 0.000000 -0.735946 -0.677041
-0.376319 -0.072571 -0.059639 -0.000805 -0.788133 -0.613774
-0.311336 0.111266 -0.125412 -0.063745 -0.705549 -0.705789
-0.167539 -0.311087 0.338153 -0.071740 -0.765037 -0.639978
0.186028 -0.024774 -0.090607 -0.000374 -0.291664 -0.955651
-0.085568 0.079761 0.049614 0.000372 0.830367 0.555551
-0.149763 -0.017193 -0.092346 -0.000376 -0.122927 -0.991428
0.114774 -0.084177 0.041684 0.000002 -0.908456 0.415730
0.897290 -0.045662 0.082087 0.000149 -0.441442 0.896300
-0.052156 0.146330 -0.138837 0.080834 0.733537 0.674825
0.915644 0.008144 -0.093579 0.000058 0.116865 -0.992264
0.116679 -0.456102 0.495784 0.080834 -0.733537 -0.674825
1.128882 0.028626 0.089465 -0.000263 0.354394 0.934073
-1.403452 -0.024752 0.090613 -0.000485 -0.311449 0.949338
0.621239 -0.047551 0.081008 0.000120 -0.520766 0.852602
-0.308283 -0.089487 0.103916 -0.063745 0.705549 0.705789
-0.132386 0.133292 -0.163593 -0.063745 -0.705549 -0.705789
-1.286723 0.092804 -0.014515 0.000654 0.976911 -0.209170
1.009809 -0.047226 -0.081198 -0.000019 -0.498750 -0.865658
-0.669398 -0.056378 -0.075132 -0.000660 -0.571143 -0.819847
-1.556773 -0.087284 0.000000 -0.210659 -0.975134 0.038663
-0.723897 0.008613 -0.093537 -0.000001 0.061157 -0.997189
1.203680 0.095447 -0.088235 -0.000000 0.735946 0.677041
-0.096462 0.245907 -0.252268 -0.071740 0.765037 0.639978
-0.416394 0.091000 -0.023287 0.000568 0.972821 -0.228120
0.030664 0.056452 -0.075077 -0.000427 0.651048 -0.757627
-1.244544 0.019401 -0.091907 0.000396 0.209704 -0.977029
1.365341 0.086621 -0.078641 -0.000000 0.735946 0.677041
0.823638 0.041669 0.084185 0.000075 0.470733 0.881208
-0.083672 0.086714 -0.036112 0.000277 0.911777 -0.408443
0.068226 0.394272 0.433728 0.071819 -0.734045 0.675292
0.059150 0.311399 0.331600 0.080834 0.733537 -0.674825
-1.404079 0.059174 -0.072950 -0.000161 0.632409 -0.773479
-0.917064 -0.056432 -0.075092 -0.001038 -0.563813 -0.824775
-1.445809 0.046817 0.081434 0.000112 0.498886 0.865598
0.116679 -0.395196 -0.429579 0.080834 -0.733537 0.674825
-1.317159 -0.082389 0.045116 0.000143 -0.876841 0.478838
-0.868779 -0.016490 0.092474 -0.000732 -0.120555 0.991773
-0.970767 -0.076116 -0.055043 0.000316 -0.782318 -0.621386
0.974763 0.049885 0.079592 0.000727 0.523361 0.850587
-0.154551 0.081133 -0.061807 -0.071740 0.765037 0.639978
-0.184000 0.087365 0.034506 -0.000362 0.905119 0.423005
0.157170 -0.089291 -0.029163 0.000172 -0.928671 -0.368655
-1.588430 0.049651 0.059865 -0.362531 0.555431 0.746767
-0.817464 -0.067320 -0.065509 -0.000195 -0.752110 -0.657623
-0.142771 -0.270567 -0.286938 -0.071740 -0.765037 0.639978
1.331435 -0.196502 0.198083 0.000000 -0.735946 -0.677041
0.985641 -0.086800 0.035905 0.000331 -0.900219 0.432988
-1.290344 0.078459 0.051648 -0.000153 0.832626 0.551830
0.475955 0.049782 0.079656 -0.000323 0.580821 0.812801
0.078733 -0.465835 -0.510400 0.071819 0.734045 -0.675292
-0.206062 -0.025195 -0.090491 -0.000362 -0.239489 -0.969996
0.455308 0.034528 -0.087357 -0.000206 0.422873 -0.905158
-1.207982 -0.077220 -0.053483 0.001285 -0.803553 -0.594131
0.244469 -0.083420 0.043179 0.000114 -0.904173 0.424459
1.420902 -0.137325 0.164788 0.000000 0.735946 0.677041
0.050812 -0.146023 -0.150837 0.080834 -0.733537 0.674825
-0.606712 0.035121 -0.087120 0.000166 0.428752 -0.902317
1.552839 -0.216251 -0.250581 -0.000000 0.735946 -0.677041
0.169704 0.080008 0.049215 -0.000272 0.866211 0.497743
-0.332029 0.101184 0.105671 -0.071740 0.765037 -0.639978
-0.393644 0.087831 0.033303 0.000095 0.906895 0.418409
1.456036 -0.066905 0.088242 0.000000 0.735946 0.677041
1.259881 0.115831 -0.110393 -0.000000 0.735946 0.677041
1.452788 0.093636 0.007456 -0.000290 0.997530 0.055377
0.564083 0.090381 0.025587 0.000200 0.975822 0.213892
0.042869 -0.108484 0.125772 0.071819 0.734045 0.675292
-0.003970 0.211212 -0.215137 0.080834 0.733537 0.674825
1.441730 -0.074349 -0.096333 -0.000000 0.735946 -0.677041
-0.736340 0.087391 -0.034440 -0.000954 0.941788 -0.333261
-0.183858 -0.294213 -0.319811 -0.071740 -0.765037 0.639978
-0.002940 -0.238611 0.245042 0.080834 -0.733537 -0.674825
1.364877 0.067704 0.073595 -0.000000 -0.677041 -0.735946
-0.304380 0.025596 -0.090378 -0.000126 0.240924 -0.969615
-0.098747 0.292254 0.307928 -0.071740 0.765037 -0.639978
-1.521996 -0.040156 -0.083739 -0.089725 -0.473163 -0.875524
1.183565 -0.066768 -0.066071 -0.001182 -0.696345 -0.716927
0.402652 -0.060907 -0.071510 -0.000333 -0.620496 -0.783035
1.372354 0.118093 -0.143884 0.000000 -0.735946 -0.677041
-1.178344 0.077397 0.053226 0.000090 0.826506 0.561287
0.009957 0.033805 0.087639 -0.000028 0.330746 0.942726
0.828655 0.092349 -0.017178 0.000255 0.987120 -0.153753
-0.753823 0.025577 0.090383 0.000008 0.242545 0.969173
-0.120234 -0.068500 -0.064274 -0.000305 -0.703119 -0.709832
0.224689 -0.093537 -0.008613 0.000001 -0.997189 -0.061157
-0.017261 -0.161453 0.159456 0.080834 -0.733537 -0.674825
0.414825 -0.014646 0.092784 0.000677 -0.201976 0.978790
-0.913948 0.080427 0.048527 -0.001028 0.833289 0.550898
-1.235306 0.055285 0.075940 -0.000330 0.549052 0.834888
-0.145414 0.188335 -0.188933 -0.071740 0.765037 0.639978
-0.074897 -0.041724 0.084157 0.000297 -0.417253 0.907708
-0.021084 -0.269729 0.307847 0.071819 0.734045 0.675292
-0.058076 -0.368729 -0.394788 -0.071740 -0.765037 0.639978
-1.008436 -0.033797 0.087642 -0.000164 -0.330997 0.942625
1.300707 0.049025 0.080124 -0.000607 0.519235 0.854109
-0.089791 -0.190108 -0.224237 -0.063745 0.705549 -0.705789
1.198902 0.045641 0.082099 -0.000160 0.483805 0.874120
-1.058350 0.049224 0.080002 0.000686 0.471478 0.880755
-0.026583 -0.412614 0.452376 -0.063745 0.705549 0.705789
1.007736 0.087956 0.032970 0.000454 0.923831 0.381082
0.861379 -0.093208 0.011644 -0.000702 -0.981389 0.184891
-0.001776 0.368273 -0.410290 -0.063745 -0.705549 -0.705789
0.678924 -0.093933 -0.000000 -0.000425 -0.998534 -0.031364
0.937394 0.091715 -0.020288 -0.001028 0.968822 -0.244005
1.383048 0.186509 -0.187220 -0.000000 0.735946 0.677041
0.687464 -0.067530 0.065292 -0.001239 -0.726969 0.686026
1.328124 -0.115117 -0.140648 0.000000 0.735946 -0.677041
-0.486057 -0.066495 -0.066346 0.000102 -0.747802 -0.662466
0.105622 0.161168 0.176366 0.071819 -0.734045 0.675292
-0.212071 -0.116180 -0.110151 -0.071740 -0.765037 0.639978
-0.093454 0.188889 -0.222687 -0.063745 -0.705549 -0.705789
1.196582 0.036343 -0.086617 0.000802 0.436185 -0.898668
-0.278563 0.168941 0.180675 -0.071740 0.765037 -0.639978
-1.463248 -0.069778 -0.062883 0.000083 -0.777035 -0.628003
0.244566 0.093537 0.008610 -0.000000 0.997193 0.061110
-1.522103 -0.031102 0.087497 -0.105010 -0.387367 0.914701
-0.161609 0.248293 -0.275915 -0.063745 -0.705549 -0.705789
0.686541 0.048515 -0.080434 -0.001750 0.513542 -0.857135
-0.888591 -0.092354 0.017150 0.000576 -0.987306 0.152728
-0.123999 -0.113775 0.097403 -0.071740 -0.765037 -0.639978
1.377489 0.141534 0.169364 -0.000000 -0.735946 0.677041
0.834705 -0.073992 -0.057866 -0.000214 -0.791184 -0.609903
1.474960 -0.223027 0.226915 -0.000000 -0.735946 -0.677041
0.016844 0.458245 -0.501914 -0.063745 -0.705549 -0.705789
1.237299 -0.091819 -0.115323 0.000000 0.735946 -0.677041
-1.272243 -0.020802 0.091600 0.000467 -0.273248 0.960962
0.276574 0.046532 -0.081597 0.000906 0.500343 -0.864724
-0.079481 0.160533 0.151003 0.080834 0.733537 -0.674825
0.523427 0.064664 -0.068132 -0.001209 0.664898 -0.745800
-1.420571 -0.042275 -0.083882 -0.000159 -0.451865 -0.891089
1.262014 -0.085289 0.039360 -0.000162 -0.881960 0.469341
-1.136228 -0.090265 0.025992 0.000110 -0.945672 0.322361
-0.869055 -0.079488 -0.050051 -0.000343 -0.816411 -0.575728
0.062573 -0.354518 -0.378881 0.080834 -0.733537 0.674825
-0.058031 0.253436 -0.290412 -0.063745 -0.705549 -0.705789
-1.409092 -0.093778 0.005387 0.000058 -0.993417 0.108849
-1.165155 -0.053201 -0.077415 -0.000113 -0.515160 -0.856011
0.084844 -0.313605 -0.337077 0.080834 -0.733537 0.674825
-0.888584 0.092343 -0.017206 0.000021 0.987317 -0.152719
0.317717 -0.049231 0.079998 -0.000148 -0.549085 0.834507
-0.175959 -0.232806 -0.245518 -0.071740 -0.765037 0.639978
0.069102 -0.379696 0.417791 0.071819 0.734045 0.675292
1.037197 0.074051 -0.057790 0.000069 0.766394 -0.641097
1.585065 -0.011422 -0.027546 1.000000 0.000000 -0.000000
1.450701 0.134284 -0.130451 0.000000 0.735946 0.677041
0.457133 -0.089071 0.029827 0.000047 -0.932335 0.359072
1.450701 0.118822 0.144676 -0.000000 -0.735946 0.677041
1.287958 0.093933 -0.000000 -0.000207 0.999246 -0.022378
1.435176 0.222056 -0.256891 -0.000000 -0.735946 -0.677041
-1.335893 0.057617 0.074187 -0.000188 0.575643 0.816766
-0.154739 -0.041691 0.084174 -0.000033 -0.415770 0.908437
0.046054 -0.192760 -0.217042 0.071819 0.734045 -0.675292
-0.025530 -0.382502 0.407604 -0.071740 -0.765037 -0.639978
1.296374 -0.145989 -0.174207 -0.000000 0.735946 -0.677041
-0.321752 -0.124874 -0.132839 -0.071740 -0.765037 0.639978
1.557594 0.052619 0.041681 0.139476 0.722778 -0.669088
0.674067 0.083729 -0.042578 0.000364 0.907066 -0.418577
-0.029217 -0.158025 -0.154297 0.080834 -0.733537 0.674825
-0.098991 0.209036 0.242328 -0.063745 -0.705549 0.705789
-1.517589 0.075080 -0.055276 -0.096945 0.788326 -0.605001
-0.003606 0.248792 -0.256029 0.080834 0.733537 0.674825
-1.587733 -0.065650 -0.042183 -0.323861 -0.777043 -0.537548
-0.519148 -0.092348 0.017181 0.000001 -0.987339 0.152588
-0.503505 0.027478 -0.089824 0.000768 0.355588 -0.933358
-0.963519 0.025549 -0.090391 0.000003 0.242230 -0.969252
-0.858681 0.049237 0.079994 0.000002 0.470611 0.881277
-0.963401 0.056413 0.075106 -0.000017 0.549996 0.834044
-1.137935 0.087041 -0.035317 -0.000094 0.939291 -0.339663
1.541219 -0.251367 -0.288752 -0.000000 0.735946 -0.677041
-0.024960 -0.008623 0.093536 -0.000001 -0.030638 0.998589
-0.604844 -0.093630 -0.007541 0.000406 -0.993239 -0.108808
1.379033 0.091355 0.021854 -0.000010 0.972584 0.228924
0.068430 -0.263140 -0.280255 0.080834 -0.733537 0.674825
-0.100320 -0.244196 0.277355 -0.063745 0.705549 0.705789
-0.058361 -0.188642 0.184087 0.080834 -0.733537 -0.674825
1.451026 -0.128746 -0.124431 -0.000000 -0.735946 0.677041
0.550632 -0.017492 -0.092290 -0.000372 -0.124896 -0.991164
0.346487 -0.048719 -0.080310 0.000088 -0.567477 -0.822301
-1.311914 -0.076497 -0.054513 0.000193 -0.812102 -0.582206
-0.788738 -0.092351 0.017168 0.000007 -0.991574 0.122090
1.373514 -0.095114 0.087874 0.000000 -0.735946 -0.677041
-0.103091 0.134892 -0.120303 0.029986 0.745636 0.664612
-1.261439 -0.049285 -0.079964 0.000026 -0.564808 -0.824290
0.717985 -0.043231 -0.083393 0.000344 -0.512054 -0.857811
0.299525 -0.000000 0.093933 -0.000001 0.030638 0.998589
1.538852 0.110970 -0.136140 -0.000000 -0.735946 -0.677041
0.509164 0.092348 -0.017181 -0.000001 0.987338 -0.152591
0.763770 0.084177 0.041685 -0.000289 0.907809 0.417033
0.871343 0.073757 -0.058166 -0.000104 0.764165 -0.643574
0.068430 0.263140 -0.280255 0.080834 0.733537 0.674825
0.563961 -0.063624 -0.069104 -0.000054 -0.699202 -0.713609
0.074835 0.093537 0.008610 -0.000004 0.997189 0.061157
1.220944 0.093696 0.086332 -0.000000 0.735946 -0.677041
1.063820 -0.100572 0.109322 -0.190466 0.487043 0.852357
-0.698945 -0.069619 0.063060 -0.000009 -0.760939 0.647382
-0.574892 0.067332 0.065496 0.000349 0.713631 0.699304
-0.020769 -0.295493 -0.335819 -0.018550 0.716259 -0.696785
1.523491 -0.206465 -0.208913 0.000000 -0.735946 0.677041
1.446229 0.047074 -0.081286 0.000038 0.500658 -0.864587
-0.554083 0.090379 -0.025593 0.000011 0.968927 -0.243420
0.334439 0.084183 -0.041672 -0.000001 0.908545 -0.415533
-1.576006 0.082038 -0.000000 -0.284783 0.956432 0.035964
-1.088275 0.093933 -0.000000 0.000002 0.998588 -0.030649
-0.222332 -0.176132 0.198295 -0.063745 0.705549 0.705789
1.036710 -0.089728 0.027788 -0.000496 -0.938229 0.343590
-1.141556 -0.009957 0.093403 0.000874 -0.126009 0.991040
-1.198329 -0.066336 0.066505 0.000351 -0.716465 0.696224
1.343968 -0.085853 -0.038112 0.000096 -0.890903 -0.452138
-1.098865 -0.041854 0.084093 0.000151 -0.495419 0.867627
1.312623 0.047618 -0.080968 -0.000320 0.514285 -0.856639
-1.260913 -0.092383 0.016995 0.000817 -0.973224 0.226232
1.385959 -0.089649 -0.081933 0.000000 -0.735946 0.677041
1.540667 -0.098011 0.091022 -0.000000 -0.735946 -0.677041
1.123887 0.088222 -0.111413 -0.000000 -0.735946 -0.677041
0.075342 0.468866 0.514055 0.071819 -0.734045 0.675292
-0.109315 0.311169 -0.343493 -0.063745 -0.705549 -0.705789
1.472146 -0.143744 0.140734 0.000000 -0.735946 -0.677041
0.086091 -0.073668 -0.058278 -0.000275 -0.796644 -0.603036
0.899717 -0.045821 -0.081999 -0.000454 -0.531842 -0.845733
-0.195021 0.137489 -0.133712 -0.071740 0.765037 0.639978
-0.010744 -0.253187 -0.259952 0.080834 -0.733537 0.674825
-0.271603 -0.119921 0.137653 -0.063745 0.705549 0.705789
-1.437575 0.024636 -0.090645 0.000023 0.312912 -0.948820
-0.107393 0.077622 0.108206 0.071819 -0.734045 0.675292
-0.568968 -0.056896 0.074741 -0.000777 -0.549404 0.834198
0.359413 0.033798 0.087642 0.000000 0.301713 0.952413
1.257734 -0.087932 -0.033034 0.000173 -0.925734 -0.375897
-0.968465 -0.093933 0.000000 -0.000321 -0.998517 -0.031880
0.153690 0.074459 -0.057265 -0.000167 0.774590 -0.631040
1.338680 0.169790 0.200077 0.000000 -0.735946 0.677041
0.279756 0.080653 0.048150 -0.000109 0.869324 0.492539
0.584514 0.027654 0.089770 -0.000834 0.253896 0.965968
-0.016889 0.091218 0.083155 0.080834 0.733537 -0.674825
-0.070559 -0.075607 -0.055740 -0.000166 -0.792538 -0.608368
-0.093392 -0.285046 -0.298712 -0.071740 -0.765037 0.639978
-0.262382 -0.079401 0.050189 0.000399 -0.861753 0.505506
1.567373 0.065586 -0.060948 0.353196 0.683240 0.639090
1.571615 -0.186096 0.212630 0.353196 0.693740 0.627676
-0.315124 -0.091546 -0.092255 -0.071740 -0.765037 0.639978
-0.188979 0.053344 0.078561 -0.063745 -0.705549 0.705789
0.082197 -0.163845 0.181767 0.071819 0.734045 0.675292
1.360007 -0.177156 -0.208085 0.000000 0.735946 -0.677041
-0.136770 0.196583 0.197824 -0.071740 0.765037 -0.639978
-0.109608 -0.311200 0.343498 -0.063745 0.705549 0.705789
1.428708 -0.093481 0.009197 -0.001523 -0.987538 0.151242
-1.488966 0.033677 -0.087688 -0.005571 0.356987 -0.933102
-0.110268 0.098210 -0.079569 0.080834 0.733537 0.674825
1.345995 -0.155141 0.153123 -0.000000 -0.735946 -0.677041
1.382645 -0.218688 -0.248059 -0.190466 0.487043 -0.852357
1.534621 -0.093082 -0.116696 0.000000 0.735946 -0.677041
1.167672 -0.093371 0.010260 -0.000031 -0.985621 0.163354
1.142463 -0.129779 0.135898 -0.190466 -0.889937 -0.414410
-1.293215 0.039057 -0.085428 0.000181 0.463670 -0.884917
-1.013229 0.069221 0.063496 -0.000050 0.756411 0.652677
1.221413 0.132553 0.128570 -0.000000 0.735946 -0.677041
-0.235683 0.079204 0.050498 0.000133 0.826561 0.561161
-0.019943 -0.030158 -0.088960 -0.000278 -0.353463 -0.934524
-0.080506 -0.401084 -0.435980 -0.071740 -0.765037 0.639978
0.069450 -0.311228 0.343329 0.071819 0.734045 0.675292
1.344836 -0.045730 -0.082050 0.001308 -0.495431 -0.867566
-1.060782 -0.082776 -0.044401 -0.000342 -0.858186 -0.511517
1.140818 0.103285 0.096756 -0.000000 0.735946 -0.677041
1.570554 -0.307997 -0.321864 -0.169923 -0.876920 0.446041
1.340236 0.190277 -0.222348 -0.064538 -0.659713 -0.743902
1.468288 -0.275868 0.299869 -0.190466 0.487043 0.852357
1.063820 0.100572 0.109322 -0.190466 0.889937 -0.414410
1.148084 0.137092 0.149019 -0.190466 0.889937 -0.414410
1.173364 0.148048 -0.160929 -0.190466 0.889937 0.414410
1.552552 -0.312388 0.339566 -0.190466 0.487043 0.852357
-0.051118 -0.224187 0.223592 0.080834 -0.733537 -0.674825
-0.043499 -0.172645 -0.204702 0.071819 0.734045 -0.675292
-1.034075 -0.090488 0.025206 0.000593 -0.963744 0.263606
0.116679 0.280151 0.304525 0.080834 0.733537 -0.674825
0.116679 0.435800 -0.473716 0.080834 0.733537 0.674825
0.116679 0.408731 0.444291 0.080834 0.733537 -0.674825
-0.042322 0.394219 0.423493 -0.071740 0.765037 -0.639978
0.977200 -0.076568 -0.054412 -0.000084 -0.812563 -0.581290
-1.183161 0.008624 -0.093536 0.000507 0.065585 -0.996876
-0.103424 -0.336172 -0.360952 -0.071740 -0.765037 0.639978
1.306829 -0.191261 -0.192385 -0.064538 -0.796230 0.595508
1.190707 0.089909 0.027197 0.000019 0.940164 0.338183
-1.093264 0.025597 -0.090378 0.000011 0.242532 -0.969175
0.873562 0.084167 0.041705 -0.000010 0.908417 0.415813
-0.068809 -0.250656 -0.254845 -0.071740 -0.765037 0.639978
1.589219 -0.162101 -0.176204 0.353196 0.693740 -0.627676
-0.026305 0.112604 -0.105273 0.080834 0.733537 0.674825
1.061996 -0.038082 0.085867 0.000596 -0.402567 0.914560
0.064841 -0.084191 0.041656 0.000008 -0.908570 0.415480
-0.198920 -0.083079 0.107388 -0.063745 0.705549 0.705789
-0.107704 0.372960 -0.405409 -0.063745 -0.705549 -0.705789
-0.042429 -0.440458 -0.478779 -0.071740 -0.765037 0.639978
-0.064187 0.417959 -0.454323 -0.063745 -0.705549 -0.705789
-0.124023 0.356086 0.387067 -0.071740 0.765037 -0.639978
0.068385 -0.483298 0.519562 0.080834 -0.733537 -0.674825
-0.988424 0.092352 -0.017160 0.000004 0.987369 -0.152407
0.658912 0.087646 0.033786 0.000032 0.952439 0.301615
0.983343 -0.007249 -0.093653 -0.000178 -0.119073 -0.992061
0.031039 -0.082245 0.079142 0.080834 -0.733537 -0.674825
-0.421510 -0.088223 -0.032250 -0.000311 -0.927589 -0.370853
0.471209 -0.055485 0.075794 0.000159 -0.637066 0.769578
1.480306 -0.046928 -0.081370 0.000025 -0.499161 -0.865453
-0.014889 0.308733 -0.349586 0.026638 -0.725758 -0.686620
-0.289541 -0.093933 -0.000000 0.000523 -0.998438 -0.032227
1.543288 -0.218683 0.253224 -0.000000 0.735946 0.677041
1.305429 -0.086165 0.109178 -0.000000 0.735946 0.677041
0.522026 -0.043999 0.082990 -0.000171 -0.491954 0.869607
-0.076807 -0.285124 0.296945 -0.071740 -0.765037 -0.639978
-0.179058 -0.154079 0.151755 -0.071740 -0.765037 -0.639978
0.784243 -0.088392 0.031784 -0.000077 -0.923083 0.382369
-0.564488 -0.056993 -0.074667 -0.000167 -0.653893 -0.755381
0.064959 0.206237 0.229681 0.071819 -0.734045 0.675292
0.082424 -0.272156 0.291731 0.080834 -0.733537 -0.674825
1.162047 -0.123081 -0.144134 -0.190466 0.487043 -0.852357
0.074181 0.422115 -0.453750 0.080834 0.733537 0.674825
-0.172154 0.246927 0.273598 -0.063745 -0.705549 0.705789
1.140818 -0.087824 -0.110980 -0.000000 0.735946 -0.677041
-1.599578 0.027508 -0.067979 -0.407546 0.283859 -0.866079
1.240017 -0.146843 -0.175134 -0.069135 0.653621 -0.748056
-1.335645 0.015683 -0.092614 -0.000492 0.161659 -0.985656
-0.247627 0.082995 -0.043992 0.000737 0.866387 -0.497278
0.027899 0.467017 0.502644 -0.071740 0.765037 -0.639978
0.154739 -0.064626 0.068168 0.000412 -0.724143 0.688710
1.454965 -0.239066 -0.244349 0.000000 -0.735946 0.677041
-0.365153 -0.081632 0.046470 -0.000555 -0.849384 0.525825
-0.221877 -0.176114 -0.182895 -0.071740 -0.765037 0.639978
0.120051 -0.014907 -0.092742 -0.000655 -0.192993 -0.980481
1.424189 0.160012 0.158418 0.000000 0.735946 -0.677041
0.969921 0.073856 -0.058040 -0.000220 0.746363 -0.664155
-0.020978 0.400690 -0.440963 -0.063745 -0.705549 -0.705789
-0.111789 -0.117101 0.149268 -0.063745 0.705549 0.705789
-0.052446 -0.093504 0.081380 0.080834 -0.733537 -0.674825
-0.160697 0.102481 0.088016 -0.071740 0.765037 -0.639978
-0.125709 -0.169090 -0.199982 -0.063745 0.705549 -0.705789
1.568662 -0.030726 0.071573 0.219545 -0.375543 0.898798
-0.287049 -0.048467 0.080463 0.000617 -0.504772 0.862203
0.017015 -0.427748 0.471443 -0.063745 0.705549 0.705789
1.355254 0.128300 0.123947 0.000000 0.735946 -0.677041
0.116679 0.144804 -0.157403 0.080834 0.733537 0.674825
0.044464 -0.359344 0.381958 0.080834 -0.733537 -0.674825
-1.662727 0.023803 0.025578 -0.631635 0.427878 0.640453
0.116679 -0.104200 0.113266 0.080834 -0.733537 -0.674825
1.522975 0.169272 -0.199515 0.000000 -0.735946 -0.677041
-0.674623 0.080190 0.048917 0.000491 0.868741 0.493382
0.071700 0.483510 -0.530361 0.071819 -0.734045 -0.675292
-0.195878 0.087818 -0.033337 -0.000324 0.910679 -0.410931
0.068248 0.085755 -0.087414 0.080834 0.733537 0.674825
0.017427 -0.407371 -0.451110 -0.063745 0.705549 -0.705789
0.763147 0.043733 -0.083131 0.000673 0.476960 -0.877976
-0.559122 0.017167 -0.092351 -0.000002 0.152459 -0.987359
1.585065 -0.051986 0.022576 1.000000 0.000000 -0.000000
-0.396658 -0.026824 -0.090021 0.001314 -0.220328 -0.974344
1.098040 -0.100772 -0.094024 -0.064538 -0.796230 0.595508
0.732737 -0.045671 0.082082 0.000145 -0.528644 0.847943
1.381561 -0.209274 0.211966 0.000000 -0.735946 -0.677041
1.150921 -0.087594 -0.033922 -0.001186 -0.911489 -0.409422
1.407721 0.075094 0.097143 -0.000000 -0.735946 0.677041
1.289489 -0.093454 -0.117101 0.000000 0.735946 -0.677041
0.066951 -0.413680 0.454960 0.071819 0.734045 0.675292
1.523434 0.211446 -0.245358 -0.000000 -0.735946 -0.677041
0.116679 0.368126 -0.400155 0.080834 0.733537 0.674825
1.184469 0.088494 -0.031499 -0.000196 0.922297 -0.384179
0.029579 -0.086919 -0.035614 -0.000264 -0.910153 -0.411439
-0.038164 0.136423 0.129745 0.080834 0.733537 -0.674825
0.898575 -0.000000 0.093933 0.000724 0.029865 0.998585
1.521925 0.083756 0.106559 -0.000000 -0.735946 0.677041
-0.287210 -0.187342 -0.203641 -0.071740 -0.765037 0.639978
0.290962 -0.079575 0.049911 -0.000608 -0.859721 0.508370
1.545444 0.262725 -0.301099 0.000000 -0.735946 -0.677041
0.096711 0.341775 0.373634 0.071819 -0.734045 0.675292
-0.437606 -0.090018 0.026836 -0.000767 -0.946410 0.320354
0.329478 -0.093933 -0.000000 0.000210 -0.998619 -0.030307
-0.058990 0.229225 0.228126 0.026342 0.746372 -0.663766
0.005691 0.355074 0.397770 -0.023080 -0.715282 0.697781
1.343916 -0.093455 0.009459 -0.000739 -0.985994 0.159468
1.588126 0.128391 -0.139562 0.353196 0.683240 0.639090
-0.053705 0.286265 -0.323621 -0.063745 -0.705549 -0.705789
-1.660520 -0.030101 0.021068 -0.628213 -0.684368 0.363046
0.078469 -0.415627 -0.455851 0.071819 0.734045 -0.675292
1.493954 -0.094055 0.086722 -0.000000 -0.735946 -0.677041
1.298370 0.126601 0.122100 0.000000 0.735946 -0.677041
-0.341240 0.083965 0.042110 0.000217 0.877418 0.477803
1.018148 0.034887 0.087214 0.000631 0.329208 0.943227
0.107661 0.304796 -0.330234 0.080834 0.733537 0.674825
0.116679 0.456102 0.495784 0.080834 0.733537 -0.674825
0.081843 -0.225388 0.240825 0.080834 -0.733537 -0.674825
1.300479 -0.077581 -0.052958 -0.000603 -0.832104 -0.552816
-0.826188 -0.035599 0.086926 -0.000105 -0.396247 0.917104
1.269095 0.084373 -0.041287 -0.000470 0.872518 -0.486719
0.064799 0.331031 -0.353618 0.080834 0.733537 0.674825
0.026195 0.078652 0.095118 0.071819 -0.734045 0.675292
-0.105677 -0.161170 0.193874 -0.063745 0.705549 0.705789
0.020001 -0.463666 0.507618 -0.063745 0.705549 0.705789
1.174097 -0.066760 0.088084 0.000000 0.735946 0.677041
1.513027 0.007956 -0.090104 0.219414 0.136326 -0.965187
1.401946 0.223931 0.227898 0.000000 0.735946 -0.677041
-0.196008 -0.228392 0.252915 -0.063745 0.705549 0.705789
1.166893 0.114345 -0.108778 0.000000 0.735946 0.677041
0.013793 0.138378 0.161359 0.071819 -0.734045 0.675292
0.201851 0.045238 0.082322 0.000498 0.532640 0.845211
-0.703870 0.025600 0.090377 -0.000021 0.242682 0.969135
-0.091454 -0.072034 -0.100436 0.071819 0.734045 -0.675292
0.116679 -0.144804 -0.157403 0.080834 -0.733537 0.674825
0.049642 -0.104697 -0.120936 0.071819 0.734045 -0.675292
1.535700 0.305084 0.331627 -0.190466 0.889937 -0.414410
-0.039513 0.345252 -0.383869 -0.063745 -0.705549 -0.705789
-0.284087 -0.060780 -0.071618 0.000179 -0.666378 -0.744393
-1.333039 0.007710 0.093616 0.000187 0.056770 0.997078
-1.610133 0.060920 -0.031447 -0.453460 0.788139 -0.411006
-0.221228 -0.228409 -0.250654 -0.063745 0.705549 -0.705789
-0.424319 -0.008642 0.093534 0.000004 -0.061293 0.997176
-0.643970 0.093534 -0.008642 0.000008 0.997177 -0.061290
-1.048338 -0.000000 0.093933 -0.000552 0.027910 0.998588
1.229552 -0.073186 0.095069 0.000000 0.735946 0.677041
-1.447241 0.093404 -0.009950 0.000085 0.986900 -0.155916
-0.234519 0.171407 0.192471 -0.063745 -0.705549 0.705789
-0.232166 0.230852 -0.252108 -0.063745 -0.705549 -0.705789
-1.488966 0.078765 0.051180 -0.005291 0.837051 0.545442
-0.933478 0.056329 -0.075169 0.000007 0.574259 -0.817531
-0.863677 0.008610 -0.093537 -0.000303 0.057430 -0.997173
1.436484 -0.014424 0.092819 0.001594 -0.149666 0.987753
0.459272 0.093933 -0.000000 0.000018 0.998598 -0.030545
-0.107704 -0.372960 0.405409 -0.071740 -0.765037 -0.639978
1.119170 0.044001 -0.082990 -0.001238 0.479371 -0.876584
0.116679 0.232780 0.253032 0.080834 0.733537 -0.674825
1.543404 0.212302 0.246289 -0.000000 -0.735946 0.677041
1.531496 0.095110 -0.087869 -0.000000 0.735946 0.677041
-0.168246 0.077933 -0.105014 -0.063745 -0.705549 -0.705789
1.589875 0.182326 -0.198189 0.353196 0.683240 0.639090
-0.838646 -0.087657 0.033758 0.000048 -0.942822 0.330445
0.604910 0.080312 -0.048718 0.000130 0.820811 -0.569548
1.052918 0.074177 0.057629 -0.000006 0.788612 0.613291
-0.609037 0.033700 0.087679 0.000001 0.387385 0.920907
0.005001 0.093534 0.008642 0.000015 0.997183 0.061223
-0.409364 0.017218 -0.092341 0.000097 0.152956 -0.987271
0.229626 0.087666 -0.033733 0.000044 0.941827 -0.333070
-0.009902 0.184755 0.185667 0.080834 0.733537 -0.674825
-1.507426 -0.093783 0.000000 -0.025319 -0.998783 0.023198
1.217980 -0.137571 -0.134024 0.000000 -0.735946 0.677041
0.633652 -0.063648 -0.069082 -0.000052 -0.720500 -0.692113
-0.591768 0.079782 -0.049581 -0.000061 0.864028 -0.501559
1.298415 0.090457 -0.082812 -0.000000 0.735946 0.677041
1.289333 0.096145 0.088994 0.000000 0.735946 -0.677041
-0.000478 -0.218968 -0.223985 0.080834 -0.733537 0.674825
0.305353 -0.085454 -0.038999 0.000152 -0.893639 -0.446722
0.773618 -0.061266 0.071203 -0.000552 -0.613115 0.788854
-0.043650 0.329913 0.346769 -0.071740 0.765037 -0.639978
0.260600 -0.083117 -0.043760 0.000109 -0.854149 -0.518198
-1.009589 -0.060613 -0.071760 -0.000140 -0.601569 -0.797707
1.368372 -0.024769 0.090608 -0.000046 -0.314407 0.948329
1.540314 -0.081871 -0.073479 -0.000000 -0.735946 0.677041
-1.016599 -0.018033 -0.092186 0.000123 -0.235301 -0.970993
-0.094883 0.041727 0.084156 0.000199 0.416427 0.908118
-1.238068 0.092343 -0.017206 -0.001192 0.987312 -0.152903
-0.656130 -0.091522 -0.021145 -0.000109 -0.965135 -0.257735
0.590505 -0.093715 0.006385 0.002150 -0.993108 0.112917
-0.014889 -0.323557 0.335948 -0.020872 -0.756136 -0.652997
0.743857 0.008624 0.093536 0.000894 0.060516 0.997183
0.022516 -0.173000 0.198066 0.071819 0.734045 0.675292
0.002456 -0.063891 -0.068859 0.000000 0.677041 0.735946
0.959908 0.034331 -0.087434 -0.000116 0.390910 -0.919497
1.033136 0.008371 -0.093559 -0.000295 0.060653 -0.997337
1.585065 -0.037044 -0.064274 0.224480 -0.540146 -0.809403
-0.737264 0.087613 0.033871 -0.000043 0.942684 0.330874
-0.294533 -0.150173 0.165824 -0.063745 0.705549 0.705789
-0.344434 -0.093535 0.008639 0.000369 -0.997215 0.060866
-1.098703 -0.075996 0.055208 -0.000102 -0.814677 0.578317
0.116679 0.090666 0.098554 0.080834 0.733537 -0.674825
-0.204325 -0.089682 -0.027939 -0.000049 -0.934788 -0.352462
1.292174 0.160787 -0.190291 -0.000000 -0.735946 -0.677041
-0.638966 -0.017183 0.092348 -0.000006 -0.122256 0.991552
0.030634 -0.465122 -0.510033 -0.063745 0.705549 -0.705789
-0.171867 -0.277798 0.304485 -0.063745 0.705549 0.705789
-0.006784 0.120822 -0.144464 0.071819 -0.734045 -0.675292
-0.163329 -0.167814 -0.166411 -0.071740 -0.765037 0.639978
0.241373 -0.042588 -0.083724 0.000270 -0.472544 -0.880332
-0.210329 0.111930 0.135199 -0.063745 -0.705549 0.705789
-0.215706 -0.122794 0.118465 -0.071740 -0.765037 -0.639978
-0.778634 -0.048381 -0.080515 -0.000135 -0.487823 -0.871889
1.361571 0.091927 -0.019305 -0.000604 0.978438 -0.202589
1.225589 -0.029316 0.089241 -0.000044 -0.359772 0.932140
1.484725 0.271891 -0.301270 -0.190466 -0.487043 -0.852357
-0.630549 -0.037935 -0.085932 0.000572 -0.425987 -0.903753
0.532918 -0.092229 0.017811 -0.000158 -0.978444 0.202305
-0.063096 -0.133096 0.123142 0.080834 -0.733537 -0.674825
1.372354 -0.133555 -0.129659 0.000000 -0.735946 0.677041
0.200419 0.018177 -0.092157 -0.000072 0.248209 -0.967719
0.662765 -0.030729 0.088764 -0.000046 -0.364693 0.930139
-0.153228 0.152151 0.146555 -0.071740 0.765037 -0.639978
1.232349 -0.173612 0.188717 -0.190466 0.487043 0.852357
0.373180 -0.055630 0.075688 -0.000352 -0.608151 0.792585
-0.281644 0.049676 0.079722 -0.000227 0.578724 0.814340
1.559891 0.312169 -0.335724 -0.190466 0.889937 0.414410
0.864279 -0.075290 0.056167 0.000638 -0.772498 0.633553
-0.396480 -0.041314 0.084359 0.001819 -0.484346 0.874082
0.534190 0.008624 0.093536 -0.000427 0.060752 0.997184
-1.296237 -0.093130 -0.012251 -0.000464 -0.983129 -0.177690
-0.097211 -0.147470 -0.134679 -0.020872 -0.756136 0.652997
-0.210396 -0.074243 -0.097519 -0.063745 0.705549 -0.705789
1.226714 0.077301 -0.053366 -0.000073 0.850276 -0.524615
0.668539 -0.041901 -0.084070 -0.000099 -0.422957 -0.905069
0.052610 0.111058 0.127534 0.071819 -0.734045 0.675292
1.564189 -0.256009 0.262767 0.249329 -0.706679 -0.657555
-1.361507 -0.081121 -0.047358 0.000049 -0.862274 -0.504869
1.156978 -0.036150 -0.086698 0.000005 -0.385423 -0.921364
1.400877 0.246652 -0.268111 -0.190466 0.889937 0.414410
-0.908578 -0.033791 0.087644 0.000503 -0.302786 0.952053
-0.496186 0.090228 0.026120 -0.000016 0.941522 0.334152
0.724672 0.070110 0.062513 -0.000174 0.719000 0.693419
1.464453 0.168181 -0.198329 0.000000 -0.735946 -0.677041
-0.651200 0.041775 -0.084132 0.000066 0.498001 -0.866092
-1.138191 0.033777 -0.087650 -0.000010 0.301468 -0.952490
-0.239237 0.225125 0.243430 -0.071740 0.765037 -0.639978
-0.698921 -0.092348 0.017181 0.000017 -0.987335 0.152606
1.437094 -0.078935 0.050917 -0.000056 -0.866650 0.497077
1.292174 0.176248 0.176067 0.000000 0.735946 -0.677041
-0.149766 0.017197 0.092345 0.000006 0.152700 0.987320
-0.094858 0.093534 0.008642 -0.000160 0.997176 0.060606
-0.922899 -0.079682 0.049740 0.000023 -0.833344 0.551142
0.139778 0.093933 -0.000000 -0.000001 0.998596 -0.030561
-0.614028 -0.084177 0.041684 -0.000007 -0.908456 0.415726
1.459862 0.272216 0.295899 -0.190466 0.889937 -0.414410
0.209675 -0.017205 0.092344 0.000017 -0.152691 0.987322
0.414383 0.084198 -0.041643 0.000129 0.908760 -0.415078
-0.118960 0.094881 -0.126408 -0.063745 -0.705549 -0.705789
-1.042847 0.069167 -0.063555 -0.000034 0.692636 -0.720019
0.758784 -0.017218 -0.092341 -0.000685 -0.159016 -0.986167
-0.813671 0.090379 0.025593 0.000340 0.968819 0.243795
-0.075158 -0.299853 -0.335267 -0.063745 0.705549 -0.705789
1.548353 0.257726 0.295664 -0.000000 -0.735946 0.677041
0.731522 -0.075182 -0.056312 -0.000134 -0.761165 -0.647189
0.640427 0.053912 0.076921 -0.000008 0.603097 0.796501
-0.505280 0.067932 -0.064874 -0.000569 0.762006 -0.646276
-0.084250 0.117292 0.148866 0.071819 -0.734045 0.675292
0.074253 -0.134286 0.140888 0.080834 -0.733537 -0.674825
-0.129798 -0.090479 0.025236 -0.000059 -0.950827 0.306226
1.539963 -0.147482 0.144798 -0.000000 -0.735946 -0.677041
-0.133418 0.087378 0.034473 0.000048 0.904590 0.423977
-1.369396 -0.050944 0.078918 0.000160 -0.585955 0.809202
0.116679 -0.192176 -0.208896 0.080834 -0.733537 0.674825
-1.085188 -0.020071 -0.091763 -0.000074 -0.258920 -0.964900
0.932972 0.040433 0.084785 0.000289 0.469358 0.882169
1.302660 -0.037543 -0.086104 -0.000278 -0.393562 -0.918225
1.223040 -0.082289 -0.073933 -0.000000 -0.735946 0.677041
-1.361571 0.086202 -0.037317 0.000007 0.893474 -0.447084
-0.009009 -0.336135 -0.350325 -0.020872 -0.756136 0.652997
0.119810 -0.093933 -0.000000 0.001234 -0.998791 -0.027222
1.475775 0.231858 -0.267546 -0.000000 -0.735946 -0.677041
-0.948465 0.017178 0.092349 -0.000001 0.152602 0.987336
0.390142 -0.082501 0.044910 -0.000050 -0.904134 0.425041
0.107751 -0.087584 -0.094135 0.080834 -0.733537 0.674825
-0.682888 0.084244 -0.041548 0.000429 0.882002 -0.469262
-0.083628 0.131461 -0.164202 0.071819 -0.734045 -0.675292
0.069775 0.080024 0.049188 0.000345 0.866348 0.497533
-0.923544 0.093534 0.008642 -0.000007 0.997181 0.061238
-0.017574 0.223342 0.257051 0.071819 -0.734045 0.675292
1.535563 -0.262426 0.300773 -0.000000 0.735946 0.677041
1.077246 -0.093049 0.012857 -0.001213 -0.981318 0.187105
0.614018 0.008642 -0.093534 -0.000259 0.060687 -0.997232
