-0.169341 -0.154877 0.096672 -0.058285 -0.617420 -0.784472
-0.317717 0.166574 0.116902 -0.058285 0.617420 -0.784472
0.711773 -0.051099 -0.064963 0.000067 -0.611057 -0.790092
0.698604 0.081172 -0.015568 -0.000604 0.984845 -0.166655
-0.227535 -0.314257 -0.231601 -0.029877 0.575537 -0.817229
-1.018609 -0.024446 -0.078953 -0.000021 -0.352263 -0.934612
-0.993513 0.046657 -0.068223 -0.000113 0.565211 -0.823518
-0.586785 -0.050331 0.065559 0.000043 -0.605404 0.794459
0.782659 0.078156 0.026884 0.000061 0.939885 0.338206
1.284450 0.190266 -0.153073 -0.000000 -0.590432 -0.807087
-0.976441 -0.072819 0.039098 -0.000058 -0.879970 0.472505
-1.182009 0.008799 -0.082181 -0.000229 0.122325 -0.991523
0.075781 0.303485 -0.202235 0.113428 0.586622 0.801879
0.656392 0.018709 -0.080506 0.000227 0.290725 -0.955495
-0.163026 0.384349 -0.283322 -0.029877 -0.575537 -0.817229
-0.621150 0.082281 0.007808 0.000549 0.988359 0.145383
0.094809 -0.654081 0.469945 -0.058285 -0.617420 -0.784472
-1.243278 0.078807 0.024912 -0.000012 0.932341 0.358234
-0.392425 -0.039068 -0.072834 0.000313 -0.470512 -0.881082
-1.070229 -0.006308 -0.082410 -0.000089 -0.121356 -0.991651
-0.006105 0.266859 -0.172679 -0.058285 0.617420 0.784472
-0.746691 0.038931 -0.072908 -0.000185 0.521498 -0.851877
-0.007150 0.252873 0.196428 -0.029877 -0.575537 0.817229
0.160996 0.528393 -0.390506 0.058321 -0.589427 -0.805713
-0.388875 0.070037 -0.043887 -0.000143 0.847042 -0.529242
0.164051 -0.110638 -0.084672 0.058321 0.589427 -0.805713
1.401403 -0.243937 -0.192336 0.000000 0.590432 -0.807087
-1.061849 0.073024 -0.038714 0.000004 0.882837 -0.467101
-0.083509 0.317808 0.239367 -0.029877 -0.575537 0.817229
0.721096 0.048316 0.067058 -0.000128 0.626812 0.777621
0.138501 -0.352921 -0.263766 0.058321 0.589427 -0.805713
-0.311135 -0.078693 -0.025269 0.000937 -0.932108 -0.358819
-1.286801 -0.073034 0.038695 0.000067 -0.883013 0.466772
-0.353245 -0.093843 0.071778 -0.029877 0.575537 0.817229
0.057530 -0.355298 -0.237558 0.052157 -0.599159 0.797683
-0.171287 0.048113 0.067204 -0.000085 0.528967 0.847289
-0.644139 0.038594 -0.073087 -0.000063 0.463866 -0.884595
-0.122699 -0.104526 -0.053578 -0.058285 -0.617420 0.784472
1.105066 -0.082651 0.000000 -0.002645 -0.998581 -0.027870
1.143835 0.166290 -0.107770 0.000000 0.590432 0.807087
0.016662 0.153359 -0.084046 0.113428 0.586622 0.801879
-0.106491 0.152830 -0.090391 -0.058285 0.617420 0.784472
1.469975 -0.103034 0.089257 -0.000000 0.590432 0.807087
0.185845 0.065679 -0.050204 0.000000 -0.807087 0.590432
0.494354 -0.066621 -0.048917 0.000190 -0.801227 -0.596363
-0.289182 0.081365 -0.065332 -0.029877 -0.575537 -0.817229
-0.432539 -0.089625 -0.064871 -0.058285 -0.617420 0.784472
0.156335 0.184053 0.126258 0.113428 0.586622 -0.801879
0.880302 -0.099477 -0.063517 -0.149663 -0.827503 0.541147
0.257241 0.080287 0.019627 0.000215 0.953067 0.298563
-0.007081 -0.168958 0.137333 -0.029877 0.575537 0.817229
-1.217895 -0.046942 0.068027 -0.000050 -0.615815 0.786356
0.132675 -0.407424 -0.286320 0.113428 -0.586622 0.801879
1.200909 0.016480 0.080991 0.000617 0.258940 0.964671
1.501009 0.047139 0.024292 1.000000 0.000000 0.000000
1.501009 -0.047139 0.024292 1.000000 0.000000 0.000000
0.642173 0.066677 -0.048840 -0.000438 0.817114 -0.574394
0.958109 -0.080897 -0.073062 -0.000000 0.590432 -0.807087
-0.010446 -0.403257 -0.280354 -0.058285 -0.617420 0.784472
0.385394 -0.072418 0.039836 -0.000188 -0.879879 0.472712
-0.279280 0.232186 -0.165687 -0.058285 0.617420 0.784472
-0.803158 -0.029042 -0.077381 -0.000066 -0.406395 -0.912394
1.018270 0.072618 -0.039469 -0.001376 0.908778 -0.414779
1.280955 0.144361 0.091727 -0.000000 0.590432 -0.807087
-0.899056 0.069487 -0.044753 0.000183 0.842230 -0.536958
1.428138 -0.228965 0.181383 0.000000 0.590432 0.807087
-0.125332 0.207732 -0.160316 -0.029877 -0.575537 -0.817229
1.253821 0.066406 0.049208 0.000012 0.799446 0.598719
1.213375 0.145595 -0.120393 0.000000 -0.590432 -0.807087
-0.907472 -0.079885 0.021203 0.000572 -0.966403 0.252320
0.036889 -0.348618 0.233834 -0.058285 -0.617420 -0.784472
1.265725 -0.096586 -0.056777 0.000000 -0.590432 0.807087
-0.499114 0.065182 -0.050819 -0.000081 0.788784 -0.612920
-0.114524 -0.124313 -0.101963 -0.029877 0.575537 -0.817229
-0.077954 -0.038370 -0.073205 0.000109 -0.406913 -0.912196
0.104220 0.080359 0.019331 -0.000204 0.986812 0.150075
1.520543 -0.158082 -0.115647 0.371936 -0.486961 0.790273
1.321999 0.200762 0.132988 -0.000000 0.590432 -0.807087
1.022390 -0.081897 -0.011138 -0.000413 -0.978656 -0.197272
-0.060547 0.403403 -0.284192 -0.058285 0.617420 0.784472
0.111845 0.445411 -0.311164 0.113428 0.586622 0.801879
0.160849 0.172286 -0.118288 0.113428 0.586622 0.801879
1.041724 0.167054 0.122210 -0.149663 -0.265195 0.952509
1.438305 -0.304566 0.222808 -0.149663 -0.827503 -0.541147
0.940274 0.131876 0.096475 -0.149663 -0.265195 0.952509
0.857268 -0.103094 0.075420 -0.149663 -0.827503 -0.541147
1.069393 -0.176648 -0.129228 -0.149663 0.265195 -0.952509
-0.050816 0.093889 -0.082867 -0.029877 -0.575537 -0.817229
-0.495499 -0.028297 -0.077656 -0.000328 -0.395215 -0.917366
-0.296929 0.245549 0.177515 -0.058285 0.617420 -0.784472
1.305078 0.000000 -0.082651 -0.000187 0.074311 -0.996073
-0.030764 -0.457587 0.339736 -0.029877 0.575537 0.817229
1.235777 0.104460 0.090300 0.000000 -0.590432 0.807087
-1.338464 0.054693 0.061967 -0.000001 0.660966 0.748797
-1.251892 -0.061681 -0.055015 0.000018 -0.745366 -0.664840
0.104893 -0.421986 0.316723 0.058321 0.589427 0.805713
-1.071129 -0.075192 0.034313 0.000053 -0.908874 0.414182
-0.863224 -0.033634 -0.075498 -0.000090 -0.461177 -0.885966
-0.130045 -0.507167 0.371023 -0.058285 -0.617420 -0.784472
0.176967 -0.204855 0.144395 0.113428 -0.586622 -0.801879
0.215633 0.628752 0.459970 0.113428 0.586622 -0.801879
0.215633 -0.676928 -0.495213 0.113428 -0.586622 0.801879
0.095675 -0.491382 0.368158 0.028931 0.585191 0.810101
-0.061388 0.477637 -0.352736 -0.029877 -0.575537 -0.817229
0.117784 -0.654273 -0.483683 -0.029877 0.575537 -0.817229
1.272294 -0.247003 0.180697 -0.149663 -0.827503 -0.541147
0.065282 0.768690 0.562343 -0.058285 0.617420 -0.784472
0.215633 -0.701015 0.512834 0.113428 -0.586622 -0.801879
0.145871 0.112517 0.072445 0.113428 0.586622 -0.801879
0.143859 0.690942 -0.495312 -0.000976 0.608705 0.792317
-0.020888 -0.405693 0.283048 -0.058285 -0.617420 -0.784472
1.364522 -0.278982 0.204092 -0.149663 -0.827503 -0.541147
0.925055 0.000000 -0.082651 -0.003614 0.071443 -0.996197
-0.099087 -0.340512 0.254787 -0.029877 0.575537 0.817229
-0.076551 -0.146889 0.083491 -0.058285 -0.617420 -0.784472
0.859681 0.065100 0.050924 -0.001747 0.805633 0.590865
1.475527 -0.166430 0.135635 0.000000 0.590432 0.807087
0.068349 -0.306746 0.235064 0.058321 0.589427 0.805713
1.366398 0.172987 0.140432 0.000000 -0.590432 0.807087
1.523259 0.240564 0.185241 0.371936 -0.605736 0.703382
0.081589 -0.068660 -0.046130 -0.000000 0.807087 0.590432
0.043477 -0.300659 -0.195598 0.056261 -0.598439 0.798120
-1.399088 0.033848 0.075402 -0.000002 0.353280 0.934219
0.049753 -0.419485 0.315845 -0.029877 0.575537 0.817229
-0.186200 -0.324427 0.231369 -0.058285 -0.617420 -0.784472
0.591153 0.071364 -0.041694 0.000411 0.882971 -0.466988
-0.082460 -0.224866 0.173951 -0.029877 0.575537 0.817229
0.076292 0.136556 -0.080189 0.113428 0.586622 0.801879
-0.109485 0.534696 0.391162 -0.058285 0.617420 -0.784472
-0.264769 -0.071832 0.040883 -0.000734 -0.836420 0.545854
0.038807 -0.241959 -0.151995 0.113428 -0.586622 0.801879
-0.332749 0.045210 0.069190 -0.000070 0.546718 0.835886
0.023716 -0.635596 -0.467091 -0.029877 0.575537 -0.817229
-1.096668 0.038447 -0.073165 -0.000050 0.464195 -0.884377
-1.497891 -0.074712 0.009042 -0.258629 -0.951044 0.158212
1.368216 0.078479 0.025927 0.000276 0.960846 0.273012
-0.172234 -0.184028 0.141909 -0.029877 0.575537 0.817229
-0.775046 0.082651 -0.000000 -0.000158 0.996807 -0.064377
1.501009 0.000000 0.048565 1.000000 -0.000000 0.000000
1.426980 0.104410 -0.062500 -0.000000 0.590432 0.807087
-0.165010 0.000000 -0.082651 -0.000872 0.050216 -0.996607
0.480854 -0.072210 0.040211 -0.000043 -0.839040 0.541828
-1.315078 0.000000 -0.082651 -0.001167 0.062420 -0.997029
-0.259975 -0.149493 0.114380 -0.029877 0.575537 0.817229
-0.231375 -0.064071 -0.052212 -0.000310 -0.732961 -0.678570
1.156141 0.101051 0.060044 -0.000000 0.590432 -0.807087
0.089251 0.077779 -0.027958 0.000130 0.941510 -0.333378
0.101447 -0.068333 0.046577 0.000000 0.807087 -0.590432
1.328661 0.111030 0.095107 0.000000 -0.590432 0.807087
-0.985059 0.082651 -0.000000 -0.001086 0.998659 -0.035752
-0.032375 -0.212798 -0.167283 -0.029877 0.575537 -0.817229
-0.575529 0.081819 -0.011699 -0.000351 0.978640 -0.199372
-1.521103 0.067732 -0.008904 -0.340475 0.918389 -0.193066
1.323279 0.087324 0.050001 0.000000 -0.807087 -0.590432
1.499888 -0.222491 0.176647 -0.000000 0.590432 0.807087
-0.163018 0.296129 0.221193 -0.029877 -0.575537 0.817229
-0.244602 0.275840 0.197468 -0.058285 0.617420 -0.784472
1.167910 -0.143298 -0.090950 0.000000 -0.590432 0.807087
-0.215963 -0.139342 0.087909 -0.058285 -0.617420 -0.784472
-0.020610 -0.278950 -0.214301 -0.029877 0.575537 -0.817229
-0.273146 -0.095011 -0.057267 -0.058285 -0.617420 0.784472
1.136005 0.172273 0.112147 -0.000000 0.590432 -0.807087
1.487793 0.225261 0.150910 0.000000 0.590432 -0.807087
-0.520101 0.074176 0.036456 -0.000174 0.868934 0.492544
0.047987 0.583007 0.417485 -0.058285 0.617420 -0.784472
-0.093148 0.369216 -0.259707 -0.058285 0.617420 0.784472
0.160956 0.272847 0.203562 0.058321 -0.589427 0.805713
-0.101401 -0.036080 0.074360 -0.000162 -0.427968 0.902469
0.398903 0.079566 -0.022370 0.000212 0.964009 -0.261299
0.127923 -0.266259 0.201133 0.058321 0.589427 0.805713
1.347950 -0.121500 -0.102766 0.000000 0.590432 -0.807087
0.007339 0.138932 0.116714 -0.000468 -0.580561 0.813940
0.478088 0.067427 -0.047799 0.001950 0.783728 -0.619760
-0.381915 -0.169940 -0.124321 -0.058285 -0.617420 0.784472
0.970416 -0.045488 0.069008 -0.000284 -0.542456 0.838518
1.501517 -0.080467 -0.058866 0.371936 -0.486961 0.790273
1.219266 -0.200321 -0.132665 -0.000000 -0.590432 0.807087
0.145009 0.000000 0.082651 -0.001530 0.059145 0.997080
-0.108290 0.456766 0.336323 -0.029877 -0.575537 0.817229
0.111174 0.758297 -0.556701 -0.029877 -0.575537 -0.817229
0.086344 0.492405 -0.343327 -0.058285 0.617420 0.784472
0.073873 -0.126017 0.102450 0.058321 0.589427 0.805713
1.501516 0.243398 -0.164179 0.000000 0.590432 0.807087
-0.056524 0.546645 -0.401513 -0.029877 -0.575537 -0.817229
0.099948 -0.195999 0.151758 0.058321 0.589427 0.805713
1.067710 0.143373 -0.091004 -0.000000 0.590432 0.807087
0.089934 0.241104 0.158601 0.113428 0.586622 -0.801879
-0.196254 0.221475 0.167403 -0.029877 -0.575537 0.817229
0.659539 0.015540 0.081177 0.000150 0.183513 0.981485
-0.149533 -0.256623 0.175280 -0.058285 -0.617420 -0.784472
0.000359 -0.288044 0.188873 -0.058285 -0.617420 -0.784472
1.219266 0.200321 -0.132665 -0.000000 0.590432 0.807087
-0.099674 -0.415888 -0.296925 -0.058285 -0.617420 0.784472
0.926104 0.092869 -0.054057 -0.000000 0.590432 0.807087
0.393578 -0.025927 0.078479 -0.000057 -0.367290 0.928848
-0.148622 0.075631 0.033334 0.001341 0.907824 0.417139
0.026832 -0.562977 -0.403292 -0.058285 -0.617420 0.784472
0.801932 0.083907 -0.061383 -0.149663 -0.265195 -0.952509
0.171186 -0.262254 -0.185567 0.113428 -0.586622 0.801879
0.425084 -0.080922 0.016818 -0.001595 -0.989258 0.137451
0.087706 -0.503633 -0.376495 -0.029877 0.575537 -0.817229
1.268879 -0.094733 0.055421 0.000000 -0.590432 -0.807087
1.350923 0.073547 -0.037709 0.000586 0.872755 -0.485931
-0.307884 -0.101733 0.065139 -0.058285 -0.617420 -0.784472
-1.157712 -0.082412 -0.006288 0.000228 -0.990596 -0.129981
1.400385 -0.080059 0.020536 0.000181 -0.970808 0.233852
1.025693 -0.112275 -0.096017 0.000000 0.590432 -0.807087
1.061869 -0.052036 0.064214 -0.001056 -0.689164 0.722393
-0.010058 0.146551 -0.121444 -0.029877 -0.575537 -0.817229
1.154381 -0.179150 -0.117177 -0.000000 -0.590432 0.807087
0.095195 0.689868 -0.507925 -0.029877 -0.575537 -0.817229
-0.182249 -0.378268 0.273452 -0.058285 -0.617420 -0.784472
1.426023 0.260279 0.204291 -0.000000 -0.590432 0.807087
-0.078981 0.099280 0.085633 -0.029877 -0.575537 0.817229
-0.054694 0.256441 -0.197203 -0.029877 -0.575537 -0.817229
-1.509421 0.028058 0.066423 -0.307706 0.385919 0.867875
-0.283582 -0.271206 -0.196717 -0.058285 -0.617420 0.784472
0.040374 0.115632 -0.059801 0.113428 0.586622 0.801879
0.093477 -0.128301 -0.076581 0.113428 -0.586622 0.801879
0.011657 0.529783 -0.378294 -0.058285 0.617420 0.784472
-0.288859 -0.224527 0.160370 -0.058285 -0.617420 -0.784472
0.125644 -0.565721 -0.420372 0.058321 0.589427 -0.805713
0.127212 0.436552 0.325764 0.058321 -0.589427 0.805713
0.105055 -0.339092 -0.232424 0.113428 -0.586622 0.801879
-0.059032 0.214069 0.135064 -0.058285 0.617420 -0.784472
-0.028865 -0.114724 -0.098342 -0.029877 0.575537 -0.817229
1.214489 0.021153 -0.079898 0.000359 0.294934 -0.954353
-0.075734 -0.161771 -0.129762 -0.029877 0.575537 -0.817229
-0.331161 0.124339 0.094062 -0.029877 -0.575537 0.817229
0.849943 -0.078726 0.025168 0.000459 -0.970071 0.237943
1.440892 -0.184296 -0.148705 -0.000000 0.590432 -0.807087
0.016754 -0.105988 -0.091932 0.058321 0.589427 -0.805713
-0.915006 -0.013763 -0.081497 -0.001999 -0.169951 -0.984094
-0.779814 -0.005907 0.082440 -0.000080 -0.116983 0.992215
0.113939 0.321500 -0.220811 0.113428 0.586622 0.801879
-0.092447 -0.207260 0.132187 -0.058285 -0.617420 -0.784472
0.131490 0.087656 -0.070216 0.058321 -0.589427 -0.805713
-0.002699 0.121129 0.057729 -0.000976 0.608705 -0.792317
-0.242382 -0.205363 0.141834 -0.058285 -0.617420 -0.784472
0.292988 0.022933 0.079406 -0.000221 0.341452 0.938619
-0.135186 0.500285 -0.365988 -0.058285 0.617420 0.784472
1.009153 0.104980 0.090680 -0.000000 -0.590432 0.807087
1.194436 0.133612 0.083863 0.000000 0.590432 -0.807087
-0.330135 -0.201240 0.148257 -0.029877 0.575537 0.817229
0.949386 0.016234 0.081041 -0.000364 0.249636 0.967058
1.482587 0.209717 -0.139539 0.000000 0.590432 0.807087
0.073154 -0.750780 0.550017 -0.029877 0.575537 0.817229
0.092678 -0.218023 -0.168397 0.058321 0.589427 -0.805713
0.020359 -0.066716 -0.048787 0.000000 0.807087 0.590432
-0.021917 0.114544 -0.053975 -0.058285 0.617420 0.784472
-0.165390 -0.437257 0.318626 -0.058285 -0.617420 -0.784472
0.128809 -0.348751 0.261417 0.058321 0.589427 0.805713
-1.182746 0.061685 0.055010 -0.000038 0.745781 0.664386
-0.174351 -0.293758 -0.206350 -0.058285 -0.617420 0.784472
-1.355776 -0.061768 -0.054917 0.000001 -0.705054 -0.707440
1.339012 -0.196834 0.130114 -0.000000 -0.590432 -0.807087
0.335103 0.081792 0.011887 0.000984 0.986427 0.156729
0.515987 -0.082305 -0.007561 0.002038 -0.990337 -0.131418
-0.442570 -0.078871 0.024709 -0.000078 -0.952161 0.301398
-0.047456 -0.120309 0.060410 -0.058285 -0.617420 -0.784472
-1.053062 0.058300 0.058586 0.000047 0.704031 0.708475
-0.172725 -0.168017 -0.107266 -0.058285 -0.617420 0.784472
-1.312685 -0.024603 0.078904 -0.000019 -0.354028 0.933945
0.307374 -0.039345 0.072686 -0.000002 -0.521913 0.851573
-0.431523 -0.047319 0.067765 -0.000034 -0.619146 0.783755
-1.070299 -0.081214 -0.015347 0.000060 -0.968571 -0.243863
0.179344 -0.419263 0.309342 0.058321 0.589427 0.805713
0.093352 0.170829 0.107675 0.113428 0.586622 -0.801879
-0.119475 -0.446480 0.328670 -0.029877 0.575537 0.817229
0.775276 -0.078749 0.025095 -0.000523 -0.955204 0.291639
1.294242 0.124190 -0.076971 -0.000000 0.590432 0.807087
0.025757 -0.180997 -0.146154 0.058321 0.589427 -0.805713
0.817271 0.041934 0.071223 0.000159 0.496552 0.866706
1.143175 0.202231 -0.147944 -0.149663 -0.265195 -0.952509
1.408679 0.218868 -0.146233 -0.000000 0.590432 0.807087
-0.571220 0.041682 0.071371 0.000105 0.501637 0.863699
-0.150775 0.081107 -0.070210 -0.029877 -0.575537 -0.817229
0.664107 -0.080199 0.019985 -0.000456 -0.954354 0.295398
-1.001201 0.070644 0.042902 0.000089 0.852902 0.519731
1.348221 -0.058723 0.058162 -0.000113 -0.667098 0.743394
0.187664 0.050722 0.065257 0.000256 0.604986 0.794782
0.207142 -0.753196 -0.551622 0.058321 0.589427 -0.805713
-0.188617 0.272323 -0.190540 -0.058285 0.617420 0.784472
-1.496093 -0.065523 -0.037905 -0.226423 -0.866405 -0.441558
0.350145 0.059633 0.057229 0.000423 0.762618 0.645111
0.095754 -0.578140 0.429261 -0.029877 0.575537 0.817229
-0.031221 -0.175710 -0.141206 -0.029877 0.575537 -0.817229
1.101980 0.045032 0.069306 0.000000 0.536364 0.842549
0.018110 -0.465618 0.347178 -0.029877 0.575537 0.817229
0.043477 -0.300659 0.195598 0.056261 -0.598439 -0.798120
-0.190337 -0.033667 0.075483 0.000442 -0.463657 0.884651
0.059290 0.421880 0.317881 -0.029877 -0.575537 0.817229
-0.204006 0.397334 0.290969 -0.029877 -0.575537 0.817229
0.335492 -0.079664 -0.022020 0.000000 -0.960708 -0.273295
0.018237 0.363385 -0.275185 -0.029877 -0.575537 -0.817229
1.484217 0.087876 0.033172 -0.187805 0.937474 0.289979
-1.145068 0.082651 -0.000000 -0.001137 0.997027 -0.062068
1.543983 -0.253710 -0.185604 0.371936 -0.486961 0.790273
-1.235278 -0.080176 0.020075 -0.000023 -0.952502 0.300534
-0.419349 0.068075 0.046929 0.000000 -0.807087 -0.590432
-1.131848 -0.019971 0.080202 -0.000113 -0.298237 0.953169
-0.708323 -0.033323 -0.075636 0.000005 -0.401830 -0.914408
1.167263 0.096360 -0.056612 -0.000000 0.590432 0.807087
1.413533 -0.074094 -0.068086 0.000000 0.807087 0.590432
0.075599 0.425549 -0.291506 -0.000976 0.608705 0.792317
1.038737 -0.057662 -0.059214 0.000005 -0.690927 -0.721249
-0.361354 0.197468 -0.144460 -0.058285 0.617420 0.784472
0.136431 -0.080861 -0.017108 0.000875 -0.964715 -0.258743
1.189046 -0.138794 0.087655 -0.000000 -0.590432 -0.807087
1.459604 -0.085554 -0.025361 -0.187548 -0.956868 -0.217449
0.037144 0.698333 0.509059 -0.058285 0.617420 -0.784472
-0.364171 -0.078077 -0.027114 0.000161 -0.920386 -0.387991
0.472732 -0.038139 0.073326 0.000109 -0.468188 0.882285
1.214346 0.102246 -0.060918 -0.000000 0.590432 0.807087
0.859507 -0.076525 -0.031228 -0.000017 -0.917055 -0.396128
-0.682267 0.072616 0.039473 0.000233 0.877699 0.476767
0.214438 -0.079879 -0.021225 -0.000095 -0.947124 -0.317109
-0.639261 -0.080988 -0.016496 0.000078 -0.965189 -0.256739
-1.385082 0.082651 -0.000000 -0.001121 0.997022 -0.062214
0.061486 -0.407927 -0.278685 -0.058285 -0.617420 0.784472
0.077914 0.733488 -0.538013 -0.029877 -0.575537 -0.817229
-0.086134 -0.410150 0.291403 -0.058285 -0.617420 -0.784472
-0.207199 -0.081683 -0.012610 0.000182 -0.977515 -0.204879
-0.264078 0.264986 -0.195566 -0.029877 -0.575537 -0.817229
-0.028231 0.115282 0.098758 -0.029877 -0.575537 0.817229
1.009153 0.118210 -0.072596 -0.000000 0.590432 0.807087
0.093352 -0.170829 -0.107675 0.113428 -0.586622 0.801879
-0.015066 -0.360896 -0.247357 -0.058285 -0.617420 0.784472
0.951916 0.056127 0.060670 0.000105 0.672964 0.738061
-0.133721 -0.116646 0.095862 -0.029877 0.575537 0.817229
-0.125978 0.141269 0.113486 -0.029877 -0.575537 0.817229
-0.355678 0.191615 0.139431 -0.058285 0.617420 -0.784472
1.322769 -0.134219 0.112071 -0.000000 0.590432 0.807087
0.170377 0.438749 0.314569 0.113428 0.586622 -0.801879
-0.170130 -0.220522 -0.167686 -0.029877 0.575537 -0.817229
1.467550 0.144720 -0.091989 0.000000 0.590432 0.807087
-1.445603 0.056711 0.060165 -0.049213 0.637939 0.766927
1.549265 0.310955 0.232109 0.371936 -0.605736 0.703382
0.173711 -0.238585 0.177573 0.058321 0.589427 0.805713
-0.395023 0.000000 0.082651 0.000849 0.062048 0.996494
0.176086 -0.682921 0.494003 0.113428 -0.586622 -0.801879
-0.044542 -0.529149 -0.389630 -0.029877 0.575537 -0.817229
1.070131 0.072466 0.039747 0.000048 0.847902 0.527861
1.189289 0.218221 -0.159642 -0.149663 -0.265195 -0.952509
-0.105773 -0.074098 0.036616 0.000634 -0.905128 0.422160
0.072289 -0.090088 0.076280 0.058321 0.589427 0.805713
1.326381 0.203363 -0.162654 -0.000000 -0.590432 -0.807087
-1.588299 0.017334 0.027921 -0.581071 0.348843 0.729045
0.174844 -0.087918 0.058548 0.113428 -0.586622 -0.801879
-0.029539 0.318800 -0.242039 -0.029877 -0.575537 -0.817229
-0.245015 0.000000 0.082651 -0.000112 0.037591 0.998235
0.098800 0.555233 0.391850 -0.058285 0.617420 -0.784472
-0.828475 0.082213 -0.008503 -0.001951 0.985012 -0.165052
1.111403 0.128606 0.080201 0.000000 0.590432 -0.807087
1.314409 0.047358 -0.067738 0.000038 0.606783 -0.793394
1.501009 -0.039460 -0.088754 1.000000 0.000000 0.000000
-0.110373 0.227141 0.149166 -0.058285 0.617420 -0.784472
-0.402476 0.142411 -0.104182 -0.058285 0.617420 0.784472
1.086681 0.083179 -0.074732 0.000000 -0.590432 -0.807087
1.285067 0.043953 0.069995 0.000224 0.562050 0.825299
0.162307 -0.539636 0.387233 0.113428 -0.586622 -0.801879
1.053386 -0.143731 0.091266 0.000000 -0.590432 -0.807087
1.201634 -0.107834 -0.092769 0.000000 0.590432 -0.807087
1.493538 -0.090074 0.032346 -0.188175 -0.930030 0.313026
-0.026591 0.011154 0.081895 0.000129 0.191361 0.980269
-0.753303 -0.060736 0.056056 -0.001093 -0.689840 0.722321
0.015347 0.474024 0.352997 -0.029877 -0.575537 0.817229
1.138081 -0.108661 0.093374 0.000000 0.590432 0.807087
0.022589 0.260499 0.165542 -0.058285 0.617420 -0.784472
0.031732 0.147105 0.081603 0.113428 0.586622 -0.801879
-0.034949 -0.006280 -0.082412 -0.000162 -0.134385 -0.989882
-0.949377 -0.064887 -0.051195 0.000001 -0.745374 -0.664826
0.221560 -0.077891 0.027645 0.000059 -0.945546 0.321754
1.276046 -0.201379 0.133439 -0.000000 -0.590432 -0.807087
1.105314 0.081982 -0.010497 0.000405 0.978290 -0.199918
1.553750 -0.293555 -0.214753 0.371936 -0.486961 0.790273
-0.002699 -0.121129 0.057729 0.056261 -0.598439 -0.798120
1.338187 -0.085072 -0.076117 0.000000 0.590432 -0.807087
1.219266 -0.200321 0.132665 0.000000 -0.590432 -0.807087
1.379817 -0.112967 0.096524 -0.000000 0.590432 0.807087
-0.830465 -0.023959 0.079102 0.000200 -0.288539 0.956190
0.176394 -0.761396 0.551456 0.113428 -0.586622 -0.801879
0.751574 -0.010285 0.082009 0.001347 -0.147198 0.987744
-1.018762 0.075185 -0.034327 0.000059 0.881981 -0.468710
-1.449032 -0.035415 0.074539 -0.031514 -0.459594 0.885768
0.196019 0.699397 0.513070 0.058321 -0.589427 0.805713
1.129678 -0.011061 0.081908 -0.000666 -0.142930 0.988637
0.100356 0.057006 0.059845 0.000064 0.680424 0.731182
-0.881743 -0.057584 0.059290 -0.000021 -0.697415 0.714968
-0.092493 0.008566 0.082206 0.000221 0.171622 0.983717
-1.364493 -0.042724 0.070752 0.000011 -0.516540 0.854848
-0.095113 0.067209 0.048105 0.000184 0.774816 0.630310
-1.269215 0.054630 0.062022 0.000020 0.660168 0.749506
0.175480 -0.732251 -0.530005 0.113428 -0.586622 0.801879
1.217184 -0.026684 0.078225 0.000025 -0.380503 0.923466
-0.352424 0.095100 -0.063228 -0.058285 0.617420 0.784472
-0.167807 0.167294 0.130285 -0.029877 -0.575537 0.817229
0.730729 0.041321 -0.071581 0.000186 0.536911 -0.842188
1.399182 0.015083 -0.081263 -0.001010 0.163177 -0.985435
1.417493 -0.212726 0.141740 -0.000000 -0.590432 -0.807087
-0.966732 0.050784 0.065209 -0.000034 0.614112 0.787693
1.283604 0.080373 0.019271 -0.001017 0.970068 0.238227
1.202940 -0.074094 0.068086 -0.000000 0.807087 -0.590432
0.047034 0.188166 -0.149858 0.058321 -0.589427 -0.805713
0.103360 -0.030924 0.076648 0.000114 -0.390426 0.919337
-0.914964 0.058271 0.058615 -0.000043 0.660016 0.749649
-1.174174 -0.033880 -0.075388 -0.000001 -0.408975 -0.911219
1.078326 -0.028599 -0.077545 0.000356 -0.336591 -0.940291
-0.027546 -0.298867 0.228074 -0.029877 0.575537 0.817229
-1.122246 -0.042637 -0.070805 -0.000002 -0.515052 -0.855743
-0.112272 0.356539 0.265592 -0.029877 -0.575537 0.817229
-0.139738 -0.344470 -0.256089 -0.029877 0.575537 -0.817229
1.445904 0.158201 0.101852 -0.000000 0.590432 -0.807087
1.504596 -0.291477 0.199351 -0.000000 -0.590432 -0.807087
0.922149 -0.087324 -0.050001 0.000000 0.807087 0.590432
0.063384 -0.077438 0.028887 -0.000158 -0.930379 0.363307
-0.026503 0.079736 0.073788 -0.029877 -0.575537 0.817229
-0.047283 0.412262 0.290179 -0.058285 0.617420 -0.784472
-0.129929 0.439399 -0.317677 -0.058285 0.617420 0.784472
0.557060 0.046373 0.068416 0.000075 0.553304 0.831565
-0.549488 0.065044 -0.050995 0.000241 0.784068 -0.618902
-0.924394 0.081713 -0.012416 0.000614 0.976058 -0.211141
0.194678 -0.142389 0.101202 0.113428 -0.586622 -0.801879
0.215633 0.315613 -0.230889 0.058321 -0.589427 -0.805713
1.141053 -0.066921 -0.048505 -0.000132 -0.803254 -0.593626
0.035389 -0.669064 -0.491088 -0.029877 0.575537 -0.817229
-0.712521 0.010771 -0.081946 0.000213 0.190226 -0.980507
0.249236 0.054923 -0.061763 0.000190 0.669407 -0.741306
0.028262 0.425072 -0.294648 -0.058285 0.617420 0.784472
0.156901 -0.585212 0.432369 0.058321 0.589427 0.805713
1.285722 0.211054 0.168280 -0.000000 -0.590432 0.807087
1.301456 0.006345 0.082407 -0.000476 0.130917 0.990385
-0.205375 -0.255013 0.190688 -0.029877 0.575537 0.817229
1.236496 0.071921 -0.040726 -0.000148 0.885818 -0.461661
-0.322624 -0.166674 0.124189 -0.029877 0.575537 0.817229
0.055003 0.000000 0.082651 -0.000544 0.064376 0.996836
-0.660977 0.067877 -0.047158 0.000262 0.819227 -0.571407
0.215633 0.668898 -0.489339 0.058321 -0.589427 -0.805713
1.455428 -0.147140 0.093760 -0.000000 -0.590432 -0.807087
0.100224 0.491154 0.342983 0.113428 0.586622 -0.801879
-0.246646 0.041068 0.071726 -0.000087 0.490753 0.869918
1.426980 -0.104410 0.062500 -0.000000 -0.590432 -0.807087
0.108837 -0.759233 -0.551663 -0.058285 -0.617420 0.784472
1.035179 0.138397 0.087364 -0.000000 0.590432 -0.807087
-1.593792 0.024486 -0.015002 -0.605481 0.614985 -0.498736
0.011354 -0.175768 0.099689 0.056261 -0.598439 -0.798120
0.172955 0.582522 -0.420112 0.113428 0.586622 0.801879
-0.708857 -0.082335 -0.007223 0.000256 -0.989892 -0.134185
0.884347 -0.018099 0.080645 0.000422 -0.281748 0.958261
0.678116 0.078947 0.024464 -0.000348 0.932830 0.356968
-0.246714 0.194948 0.146876 -0.029877 -0.575537 0.817229
0.013362 -0.183574 -0.105683 0.056261 -0.598439 0.798120
0.860760 -0.036709 -0.074052 0.000130 -0.441734 -0.895964
-0.551380 -0.025445 0.078637 -0.000138 -0.363692 0.930247
-0.141210 0.114675 -0.094201 -0.029877 -0.575537 -0.817229
1.149016 0.108231 -0.093059 0.000000 -0.590432 -0.807087
-0.382963 -0.080765 0.017558 -0.000467 -0.962180 0.268066
-0.250409 0.147489 -0.113318 -0.029877 -0.575537 -0.817229
0.065091 -0.447121 -0.335869 -0.029877 0.575537 -0.817229
0.179987 -0.693964 -0.510256 0.058321 0.589427 -0.805713
-0.212464 0.020077 -0.080175 -0.000433 0.243365 -0.968795
-0.077205 0.105270 -0.050784 -0.058285 0.617420 0.784472
-0.204317 0.155569 0.099816 -0.058285 0.617420 -0.784472
1.527456 -0.325268 0.242580 -0.149663 0.265195 0.952509
0.434313 -0.015230 0.081236 -0.000369 -0.192850 0.979969
1.466391 0.048652 -0.076344 -0.187620 0.473954 -0.859198
1.505414 0.287592 0.224272 0.000000 -0.590432 0.807087
-0.916560 -0.014623 0.081347 0.000586 -0.234678 0.970885
0.047637 0.467588 0.326670 -0.058285 0.617420 -0.784472
-0.027994 0.562320 0.413595 -0.029877 -0.575537 0.817229
1.268877 -0.024228 0.079020 -0.000015 -0.351460 0.934913
-0.105855 -0.271484 -0.183731 -0.058285 -0.617420 0.784472
0.215633 0.733132 -0.536330 0.058321 -0.589427 -0.805713
1.329046 -0.236047 -0.186564 -0.100733 0.379085 -0.915299
-0.047456 -0.120309 -0.060410 -0.058285 -0.617420 0.784472
-0.228096 -0.321337 0.232050 -0.058285 -0.617420 -0.784472
0.803912 -0.065810 -0.050003 -0.000286 -0.788472 -0.613255
1.274097 -0.216994 -0.172625 -0.100733 0.379085 -0.915299
-0.248975 0.106208 0.064284 -0.058285 0.617420 -0.784472
1.484062 -0.204867 -0.163754 0.000000 0.590432 -0.807087
0.021825 0.627058 -0.454099 -0.058285 0.617420 0.784472
0.001246 -0.619505 0.454937 -0.029877 0.575537 0.817229
0.227429 -0.019892 -0.080222 0.000181 -0.292281 -0.955001
-0.223600 -0.092762 0.075756 -0.029877 0.575537 0.817229
-0.362442 0.074338 0.036125 0.000315 0.894086 0.445365
-0.105923 -0.380390 0.269451 -0.058285 -0.617420 -0.784472
-0.074308 0.123427 -0.102810 -0.029877 -0.575537 -0.817229
-0.685433 -0.011744 0.081812 -0.000210 -0.196761 0.979164
-0.097229 -0.199151 -0.155301 -0.029877 0.575537 -0.817229
0.017914 0.383072 0.262361 -0.058285 0.617420 -0.784472
0.108896 0.706059 0.519829 -0.029877 -0.575537 0.817229
-0.027546 0.298867 0.228074 -0.029877 -0.575537 0.817229
-0.309120 -0.011351 0.081868 -0.000161 -0.207123 0.976568
-0.209826 0.089067 -0.073658 -0.029877 -0.575537 -0.817229
-0.396711 -0.099305 0.069827 -0.058285 -0.617420 -0.784472
0.209208 -0.737163 0.539744 0.058321 0.589427 0.805713
-0.003621 -0.147477 -0.078535 -0.058285 -0.617420 0.784472
0.115476 -0.536016 0.377960 0.113428 -0.586622 -0.801879
-0.041346 0.208313 -0.129219 -0.058285 0.617420 0.784472
1.251789 -0.168036 -0.109047 -0.000000 -0.590432 0.807087
1.006726 -0.127216 0.079185 0.000000 -0.590432 -0.807087
0.394559 0.026811 -0.078182 -0.000354 0.332207 -0.941966
0.131584 0.599207 0.426467 0.113428 0.586622 -0.801879
1.272823 -0.113152 -0.096659 0.000000 0.590432 -0.807087
0.022372 -0.450505 -0.336690 -0.029877 0.575537 -0.817229
0.101098 0.290199 0.220588 0.058321 -0.589427 0.805713
-0.103286 -0.063972 -0.052334 -0.000122 -0.733424 -0.678016
0.773328 -0.079033 -0.024187 -0.000324 -0.970074 -0.238160
0.151877 -0.462705 -0.343111 0.058321 0.589427 -0.805713
-0.889064 0.019555 0.080305 0.000334 0.235692 0.970578
1.347363 0.255628 0.173126 -0.050846 0.678533 -0.727072
-0.011316 -0.218454 0.172036 -0.029877 0.575537 0.817229
-0.038717 0.079731 0.021777 0.001218 0.944353 0.325726
-0.036339 -0.118951 0.101046 -0.029877 0.575537 0.817229
0.564224 -0.064531 0.051642 0.000324 -0.788959 0.612037
1.354652 -0.016719 -0.080942 -0.000401 -0.242012 -0.968881
-0.579221 -0.079766 -0.021645 -0.000174 -0.963373 -0.263510
0.629724 0.071981 0.040618 -0.000867 0.871471 0.488138
0.731661 -0.074774 -0.035215 0.000086 -0.925494 -0.375576
0.185643 -0.485057 0.350606 0.113428 -0.586622 -0.801879
1.164199 -0.192117 0.126663 -0.104354 -0.763212 -0.631883
0.188164 0.140023 -0.098549 0.113428 0.586622 0.801879
1.461450 0.088050 0.078295 0.000000 -0.590432 0.807087
-0.093818 -0.366561 -0.273325 -0.029877 0.575537 -0.817229
0.562717 0.051763 -0.064435 0.001427 0.645803 -0.762222
1.359522 -0.195042 -0.156566 -0.000000 0.590432 -0.807087
1.345080 0.000000 0.082651 -0.001167 0.030336 0.998258
0.063553 -0.363219 0.276724 0.026829 0.584856 0.810370
0.838656 0.080487 0.018789 0.000175 0.955855 0.289916
-0.039042 -0.423644 0.315528 -0.029877 0.575537 0.817229
0.094712 -0.245197 0.188129 0.058321 0.589427 0.805713
0.111653 -0.455102 0.340461 0.058321 0.589427 0.805713
0.034048 -0.316655 -0.242853 -0.029877 0.575537 -0.817229
0.995059 0.000000 -0.082651 -0.000210 0.022612 -0.998485
0.054353 -0.163148 0.096539 0.113428 -0.586622 -0.801879
1.255000 -0.140191 0.088677 -0.000000 -0.590432 -0.807087
0.011888 0.218514 0.172927 -0.029877 -0.575537 0.817229
0.027107 0.187082 0.150508 0.058321 -0.589427 0.805713
0.126392 -0.055706 -0.061058 0.000138 -0.713294 -0.699157
-0.407616 0.135529 0.099147 -0.058285 0.617420 -0.784472
0.164495 -0.155753 -0.106709 0.113428 -0.586622 0.801879
1.478097 -0.148195 -0.094532 -0.000000 -0.590432 0.807087
1.339945 -0.227189 0.180084 0.000000 0.590432 0.807087
0.193896 0.081788 -0.011913 0.000051 0.980506 -0.190902
1.501009 -0.056018 -0.016606 1.000000 -0.000000 0.000000
-0.017169 -0.080970 -0.074998 -0.029877 0.575537 -0.817229
0.995384 -0.057041 -0.059812 -0.000029 -0.727973 -0.683842
-1.508629 0.008723 -0.071813 -0.261156 0.154295 -0.951152
0.104961 -0.317231 0.216418 0.113428 -0.586622 -0.801879
0.086327 0.378309 0.286115 0.058321 -0.589427 0.805713
-1.445001 0.063579 -0.052890 -0.011240 0.763362 -0.643644
-0.365983 -0.007086 -0.082347 -0.000258 -0.144354 -0.988386
0.963367 0.078669 0.025346 0.000260 0.946876 0.317591
1.508822 0.110268 0.080668 0.371936 0.486961 -0.790273
0.012517 0.082265 -0.007981 0.001000 0.988135 -0.146406
0.169959 0.792416 0.573238 0.008592 0.606901 -0.793174
-0.310008 -0.212863 -0.157178 -0.029877 0.575537 -0.817229
0.394969 -0.036896 -0.073958 0.000472 -0.496148 -0.866960
0.017006 0.404752 0.304273 -0.029877 -0.575537 0.817229
1.383996 0.255101 -0.200503 -0.050846 -0.487497 -0.866825
1.082314 -0.139193 -0.115709 0.000000 0.590432 -0.807087
-0.425042 0.080951 -0.016675 0.001438 0.963844 -0.261969
-0.240918 0.081941 0.010811 -0.000413 0.988262 0.144590
-1.338868 -0.082175 0.008857 0.000689 -0.982555 0.177796
-0.084758 0.210119 -0.163481 -0.029877 -0.575537 -0.817229
-1.399369 -0.006278 0.082412 0.000135 -0.122402 0.991518
0.169348 -0.199120 -0.149018 0.058321 0.589427 -0.805713
-0.139139 0.123678 0.069873 -0.058285 0.617420 -0.784472
1.133198 -0.077295 0.029268 0.000485 -0.952509 0.301763
1.026826 0.131254 -0.109901 -0.050846 -0.487497 -0.866825
-0.038205 0.263463 0.172391 -0.058285 0.617420 -0.784472
1.399515 -0.211173 -0.168367 -0.000000 0.590432 -0.807087
1.440892 0.197526 -0.130621 -0.000000 0.590432 0.807087
-0.630310 -0.071831 0.040883 -0.000307 -0.837762 0.543941
0.116671 0.198793 0.131431 0.113428 0.586622 -0.801879
0.026278 0.248489 -0.194563 -0.029877 -0.575537 -0.817229
0.045115 0.664464 0.488204 -0.029877 -0.575537 0.817229
1.258855 0.158246 0.129648 -0.000000 -0.590432 0.807087
0.194835 -0.304881 -0.220097 0.113428 -0.586622 0.801879
-0.357681 0.128775 -0.090122 -0.058285 0.617420 0.784472
0.005000 0.000000 -0.082651 -0.001252 0.017762 -0.999077
1.508822 -0.110268 0.080668 0.371936 0.605736 0.703382
0.175731 0.656280 0.474463 0.113428 0.586622 -0.801879
0.187955 0.190999 -0.141730 0.058321 -0.589427 -0.805713
-0.083251 -0.284236 0.215734 -0.029877 0.575537 0.817229
1.336836 0.137311 -0.086570 -0.000000 0.590432 0.807087
0.064275 0.324697 0.248491 0.058321 -0.589427 0.805713
0.031444 0.559084 -0.413489 -0.029877 -0.575537 -0.817229
0.304077 0.009487 -0.082105 -0.000521 0.173820 -0.983650
-0.171415 0.076627 -0.035239 -0.000000 -0.807087 0.590432
0.984977 -0.005573 0.082463 0.000919 -0.126401 0.991057
0.137095 -0.202331 0.136908 0.113428 -0.586622 -0.801879
1.045062 0.000000 0.082651 0.000668 0.030060 0.998822
-0.175140 -0.094502 -0.078753 -0.029877 0.575537 -0.817229
0.068705 0.607600 0.449019 -0.029877 -0.575537 0.817229
0.044155 0.095229 0.045409 0.113428 0.586622 -0.801879
1.559610 0.317462 -0.232242 0.371936 0.486961 0.790273
-0.614100 0.028335 0.077642 0.000164 0.399651 0.915399
0.030768 0.301761 0.232244 -0.029877 -0.575537 0.817229
-0.245202 -0.012529 -0.081696 0.000558 -0.155767 -0.986627
0.977165 -0.144668 0.105833 -0.149663 -0.827503 -0.541147
1.419859 0.298170 -0.218129 -0.149663 -0.265195 -0.952509
1.133952 0.199033 0.145605 -0.149663 -0.265195 0.952509
1.207735 0.224617 0.164321 -0.149663 -0.265195 0.952509
0.949496 0.135074 -0.098815 -0.149663 -0.265195 -0.952509
1.401413 0.291774 0.213450 -0.149663 -0.265195 0.952509
0.857268 0.103094 0.075420 -0.149663 -0.265195 0.952509
1.419132 -0.114609 -0.097725 -0.000000 0.590432 -0.807087
0.473421 0.078960 0.024423 0.000060 0.932877 0.356858
1.507600 0.176681 -0.138507 0.371936 -0.605736 -0.703382
0.037657 0.320074 -0.211311 -0.058285 0.617420 0.784472
-1.381730 -0.070690 0.042827 -0.000018 -0.821534 0.568032
0.067502 -0.709078 0.515260 -0.058285 -0.617420 -0.784472
0.079503 0.263595 -0.202689 0.058321 -0.589427 -0.805713
0.186090 -0.613978 -0.451299 0.058321 0.589427 -0.805713
0.479497 0.051759 0.064438 -0.000095 0.668331 0.742245
-0.212909 0.122371 -0.096999 -0.029877 -0.575537 -0.817229
0.051978 0.368411 -0.248291 -0.058285 0.617420 0.784472
-0.115007 0.000000 -0.082651 0.000218 0.058976 -0.997040
-0.298965 -0.079757 0.021678 0.000397 -0.946357 0.319229
0.135923 0.251849 -0.172967 0.113428 0.586622 0.801879
0.173467 -0.028845 0.077454 -0.000192 -0.408922 0.911260
0.940274 -0.131876 0.096475 -0.149663 -0.827503 -0.541147
-0.176374 -0.068958 0.045723 -0.000000 0.807087 -0.590432
-0.163239 -0.399564 -0.294029 -0.029877 0.575537 -0.817229
-1.303883 0.073191 -0.038396 0.000005 0.884505 -0.463922
-1.347087 0.078856 0.024757 0.000002 0.952941 0.299124
0.142382 -0.077639 0.028343 0.000060 -0.918661 0.391969
-0.029638 -0.196171 0.118793 -0.058285 -0.617420 -0.784472
1.513613 0.272253 -0.213051 0.000000 -0.590432 -0.807087
0.023486 0.681231 -0.496613 -0.058285 0.617420 0.784472
0.076777 -0.607146 0.448994 -0.029877 0.575537 0.817229
0.719605 -0.069684 0.044445 0.000148 -0.836090 0.546449
0.061301 0.167049 0.133377 0.058321 -0.589427 0.805713
-0.152799 0.466259 -0.341381 -0.029877 -0.575537 -0.817229
0.763389 0.058118 0.058766 -0.000137 0.710930 0.701681
0.777583 0.050704 -0.065271 -0.000516 0.628543 -0.776498
-0.335653 0.231879 -0.169633 -0.058285 0.617420 0.784472
0.013880 -0.699868 0.511995 -0.058285 -0.617420 -0.784472
-0.135186 0.500285 0.365988 -0.058285 0.617420 -0.784472
-0.119765 -0.520931 -0.381092 -0.058285 -0.617420 0.784472
-0.088924 0.562224 0.411301 -0.058285 0.617420 -0.784472
0.215633 -0.363788 0.266132 0.113428 -0.586622 -0.801879
0.215633 -0.363788 -0.266132 0.113428 -0.586622 0.801879
0.215633 -0.452109 -0.330745 0.113428 -0.586622 0.801879
0.115488 -0.775202 0.563737 -0.058285 -0.617420 -0.784472
-0.320438 0.080594 0.018325 -0.000623 0.975980 0.209859
-0.914708 -0.078778 -0.025004 -0.000028 -0.932124 -0.358780
0.615037 0.000000 -0.082651 0.002116 0.088777 -0.994359
0.117257 -0.137276 0.107546 0.058321 0.589427 0.805713
0.059911 0.053947 -0.062617 -0.000021 0.698686 -0.713779
1.309289 -0.185278 -0.121660 -0.000000 -0.590432 0.807087
1.501009 0.084106 -0.048585 -0.185580 0.858553 -0.476369
0.117921 0.188808 -0.145197 0.058321 -0.589427 -0.805713
0.892064 -0.087324 0.050001 -0.000000 0.807087 -0.590432
0.956791 0.025272 -0.078693 0.000235 0.254433 -0.965895
-0.138758 -0.077914 -0.027578 -0.000109 -0.920710 -0.386696
0.130289 -0.791047 -0.575109 0.000000 -0.807087 -0.590432
-0.479316 0.019810 0.080242 -0.000145 0.234520 0.971028
0.164793 0.240523 0.179637 0.058321 -0.589427 0.805713
-1.005060 0.000000 0.082651 -0.001392 0.061419 0.997132
-0.218706 0.212867 -0.160519 -0.029877 -0.575537 -0.817229
-0.010971 -0.257788 0.165902 -0.058285 -0.617420 -0.784472
1.207310 0.079439 0.022817 0.000012 0.940371 0.336624
-0.127005 0.311618 -0.216889 -0.058285 0.617420 0.784472
-0.287486 -0.126667 0.097298 -0.029877 0.575537 0.817229
1.315726 -0.088920 0.078932 -0.000000 0.590432 0.807087
-0.063261 0.138578 0.113884 -0.029877 -0.575537 0.817229
-0.087542 -0.130705 -0.071570 -0.058285 -0.617420 0.784472
0.057697 -0.256589 0.199142 0.058321 0.589427 0.805713
0.014694 -0.097173 0.085633 0.058321 0.589427 0.805713
-0.066688 0.469459 0.346783 -0.029877 -0.575537 0.817229
-1.407765 -0.019715 -0.080265 -0.000120 -0.238818 -0.969847
-1.260607 0.058465 -0.058421 -0.000007 0.662667 -0.747293
-0.305068 0.029821 -0.077084 -0.000109 0.413592 -0.909175
0.421770 0.080179 0.020064 0.000025 0.954243 0.294987
0.836345 -0.043068 0.070543 -0.000057 -0.527938 0.847863
-0.992730 -0.082013 -0.010250 -0.000177 -0.981673 -0.184218
1.103172 -0.143770 0.091295 0.000000 -0.590432 -0.807087
0.215633 -0.588606 0.430600 0.113428 -0.586622 -0.801879
-1.217310 0.073159 -0.038457 -0.000003 0.884186 -0.464532
1.385775 0.120553 -0.074310 0.000000 0.590432 0.807087
0.741122 -0.023874 -0.079128 -0.000095 -0.281812 -0.958235
0.462330 -0.050528 -0.065408 -0.000094 -0.606436 -0.793642
0.176792 0.362562 -0.259741 0.113428 0.586622 0.801879
1.242798 0.141325 -0.089506 -0.000000 0.590432 0.807087
-0.152701 0.261900 0.197464 -0.029877 -0.575537 0.817229
-1.534416 0.046859 0.042445 -0.403507 0.643692 0.645432
0.060867 0.624866 -0.449474 -0.058285 0.617420 0.784472
1.159464 0.062224 0.054400 0.000089 0.747227 0.662748
1.177692 -0.057500 -0.059372 0.000127 -0.686189 -0.725759
-0.959613 0.028962 -0.077411 0.000113 0.291747 -0.955201
-0.361814 -0.152418 0.112716 -0.029877 0.575537 0.817229
-0.467538 0.079549 -0.022431 -0.001252 0.942542 -0.330227
0.102958 -0.371718 0.280089 0.058321 0.589427 0.805713
0.174201 0.095565 -0.072911 0.058321 -0.589427 -0.805713
1.173556 0.142894 -0.118417 0.000000 -0.590432 -0.807087
-0.070376 0.509066 -0.374542 -0.029877 -0.575537 -0.817229
0.160739 0.718414 -0.517797 0.113428 0.586622 0.801879
0.215633 0.411963 0.301376 0.113428 0.586622 -0.801879
0.071173 0.716749 0.521024 -0.058285 0.617420 -0.784472
0.532550 -0.031525 -0.076403 -0.000077 -0.376060 -0.925362
-0.025179 0.442983 0.329655 -0.029877 -0.575537 0.817229
0.035418 -0.207695 0.164986 0.058321 0.589427 0.805713
0.517237 0.010325 -0.082004 -0.000656 0.191625 -0.980267
-0.054697 -0.470610 -0.348032 -0.029877 0.575537 -0.817229
0.157759 0.496778 -0.367612 0.058321 -0.589427 -0.805713
1.268942 -0.015037 -0.081272 -0.000062 -0.172442 -0.983599
-0.188868 0.076585 0.031080 -0.000201 0.928726 0.367740
-1.027261 -0.077149 -0.029651 0.000046 -0.908919 -0.414070
1.403505 0.087324 0.050001 0.000000 -0.807087 -0.590432
1.254583 0.213949 -0.142635 -0.000000 0.590432 0.807087
1.302833 0.182264 -0.119455 0.000000 0.590432 0.807087
-0.084222 0.268181 0.204391 -0.029877 -0.575537 0.817229
0.215633 -0.259408 0.189772 0.113428 -0.586622 -0.801879
-0.814259 0.056040 -0.060751 -0.000306 0.631676 -0.773735
0.142356 -0.008637 -0.082199 -0.001366 -0.170441 -0.984101
-0.631009 -0.028599 -0.077545 -0.000070 -0.401795 -0.914433
0.382232 -0.068458 -0.046311 0.000240 -0.789487 -0.611842
0.190574 0.469892 0.340209 0.113428 0.586622 -0.801879
0.531222 0.074416 -0.035964 -0.000034 0.867184 -0.495697
0.964183 0.063693 -0.052673 0.000584 0.789141 -0.612629
-1.477794 0.078836 0.009541 -0.158250 0.965544 0.197625
1.440779 -0.242940 -0.191607 -0.000000 0.590432 -0.807087
-0.453319 -0.079834 -0.021393 0.000285 -0.949763 -0.310014
0.075004 0.000000 -0.082651 -0.000845 0.077199 -0.995589
1.222350 -0.158273 0.101904 -0.000000 -0.590432 -0.807087
-0.174316 0.184467 -0.120331 -0.058285 0.617420 0.784472
-0.306770 -0.154948 -0.106939 -0.058285 -0.617420 0.784472
-0.059807 -0.236741 -0.152965 -0.058285 -0.617420 0.784472
0.100537 0.790021 -0.576512 -0.058285 0.617420 0.784472
0.158153 -0.590876 -0.424130 0.113428 -0.586622 0.801879
-0.426435 0.038188 0.073300 -0.000236 0.512999 0.857064
1.002375 0.074094 0.068086 0.000000 -0.590432 0.807087
1.052370 -0.089466 -0.079331 0.000000 0.590432 -0.807087
0.921637 0.080883 -0.017002 -0.000110 0.964948 -0.257754
-0.030764 0.457587 -0.339736 -0.029877 -0.575537 -0.817229
0.995838 -0.079651 0.072151 -0.000000 0.590432 0.807087
-0.345661 -0.051819 0.064390 0.000011 -0.671723 0.739268
-0.222569 -0.383287 -0.280398 -0.058285 -0.617420 0.784472
-0.167575 0.205601 0.136463 -0.058285 0.617420 -0.784472
1.121065 0.045606 -0.068930 0.000741 0.587125 -0.807962
-0.116900 0.098163 -0.048139 -0.058285 0.617420 0.784472
0.503200 -0.015445 0.081195 0.000954 -0.236861 0.970344
0.178952 0.088432 0.067349 0.058321 -0.589427 0.805713
0.051978 0.368411 0.248291 -0.058285 0.617420 -0.784472
0.033513 -0.106938 -0.052470 0.113428 -0.586622 0.801879
-0.002328 -0.535620 -0.395730 -0.029877 0.575537 -0.817229
0.181595 0.346187 0.248442 0.113428 0.586622 -0.801879
0.138195 0.037101 0.073856 0.000352 0.495732 0.867146
0.097650 0.135391 0.082357 0.113428 0.586622 -0.801879
-0.007739 0.236428 -0.148850 -0.058285 0.617420 0.784472
0.018263 -0.215218 -0.170838 -0.029877 0.575537 -0.817229
-0.044443 -0.489764 0.361896 -0.029877 0.575537 0.817229
0.060142 -0.761808 -0.557308 -0.058285 -0.617420 0.784472
0.169959 -0.792416 -0.573238 0.000000 -0.807087 -0.590432
-0.280539 0.130042 -0.085388 -0.058285 0.617420 0.784472
1.448049 0.250365 -0.169275 0.000000 0.590432 0.807087
0.607162 -0.082398 0.006467 -0.000614 -0.991911 0.119470
1.111817 0.142909 0.118428 0.000000 -0.590432 0.807087
1.345937 0.245989 -0.166074 -0.000000 0.590432 0.807087
0.080014 0.650513 0.479654 -0.029877 -0.575537 0.817229
0.193820 -0.090223 -0.062918 0.113428 -0.586622 0.801879
1.072659 -0.105804 0.091284 -0.000000 0.590432 0.807087
0.552701 0.076709 0.030773 0.000145 0.901364 0.430294
0.128894 0.364305 -0.272789 0.058321 -0.589427 -0.805713
1.440892 0.184296 0.148705 -0.000000 -0.590432 0.807087
0.113643 0.116963 -0.092948 0.058321 -0.589427 -0.805713
0.131490 -0.087656 0.070216 0.058321 0.589427 0.805713
1.481702 0.150578 0.124038 0.000000 -0.590432 0.807087
0.048524 -0.262029 -0.203786 0.058321 0.589427 -0.805713
0.889490 0.102652 -0.065832 -0.149663 0.827503 0.541147
1.408467 0.231230 -0.183040 0.000000 -0.590432 -0.807087
-0.179652 0.236217 -0.178392 -0.029877 -0.575537 -0.817229
-1.505885 0.053507 -0.049855 -0.283820 0.756257 -0.585197
0.039581 -0.734279 -0.537169 -0.058285 -0.617420 0.784472
-0.159645 0.410540 0.297172 -0.058285 0.617420 -0.784472
1.286054 -0.058217 -0.058668 -0.000543 -0.724458 -0.687800
1.484217 0.033172 0.087876 -0.187808 0.289933 0.937488
1.484217 -0.033172 0.087876 -0.187808 -0.289933 0.937488
0.935892 -0.081732 0.012293 -0.002124 -0.978073 0.201489
1.126231 -0.156632 0.128467 0.000000 0.590432 0.807087
0.128257 0.049758 -0.065995 0.000024 0.649014 -0.759250
-0.106413 -0.479814 -0.347738 -0.058285 -0.617420 0.784472
0.401503 0.056670 0.060164 -0.000121 0.683347 0.728551
0.046096 0.484653 -0.340216 -0.058285 0.617420 0.784472
-0.006615 -0.587492 -0.432104 -0.029877 0.575537 -0.817229
0.015502 0.556154 0.410843 -0.029877 -0.575537 0.817229
1.239305 -0.096772 -0.084676 0.000000 0.590432 -0.807087
-1.089352 -0.006439 0.082400 0.000108 -0.123003 0.991437
-1.545993 -0.007702 -0.057577 -0.436511 -0.182412 -0.878849
0.133893 0.542009 0.384949 0.113428 0.586622 -0.801879
-0.188822 0.410531 -0.300818 -0.029877 -0.575537 -0.817229
-0.040205 0.376268 0.261323 -0.058285 0.617420 -0.784472
-0.194408 -0.124017 -0.098835 -0.029877 0.575537 -0.817229
0.649309 -0.062640 -0.053920 0.000586 -0.713686 -0.698789
1.227301 -0.014709 -0.081332 -0.000727 -0.232286 -0.971436
0.040893 0.187239 -0.112259 0.113428 0.586622 0.801879
-0.116493 0.387572 0.287293 -0.029877 -0.575537 0.817229
-0.120260 -0.180946 0.141638 -0.029877 0.575537 0.817229
-0.057417 0.501808 0.369904 -0.029877 -0.575537 0.817229
1.450909 -0.258837 0.175473 -0.000000 -0.590432 -0.807087
0.007853 0.648412 0.471944 -0.058285 0.617420 -0.784472
0.056448 -0.207657 -0.163436 0.058321 0.589427 -0.805713
-0.374891 -0.128219 -0.090962 -0.058285 -0.617420 0.784472
0.035418 0.226059 -0.139884 0.113428 0.586622 0.801879
-1.182809 0.029234 0.077308 -0.000015 0.408902 0.911252
-0.025690 -0.069210 0.045180 -0.000861 -0.834919 0.548271
-0.129797 0.281804 -0.193632 -0.058285 0.617420 0.784472
-0.097178 -0.164147 -0.098606 -0.058285 -0.617420 0.784472
-0.138684 0.196085 -0.126827 -0.058285 0.617420 0.784472
-1.227833 0.006792 -0.082371 0.000190 0.129659 -0.990680
-1.148378 0.029295 -0.077285 -0.000035 0.354382 -0.933812
0.127969 -0.445464 -0.313483 0.113428 -0.586622 0.801879
1.205820 -0.081570 -0.013326 -0.000352 -0.975739 -0.212804
0.239752 0.007601 0.082301 -0.001856 0.152211 0.987339
-0.428177 0.108000 -0.079008 -0.058285 0.617420 0.784472
-0.149335 0.440793 0.320216 -0.058285 0.617420 -0.784472
-0.330864 0.175744 -0.125096 -0.058285 0.617420 0.784472
0.835206 0.064969 -0.051091 0.001252 0.797020 -0.601887
0.095733 0.425503 0.294320 0.113428 0.586622 -0.801879
1.393916 0.109208 0.093774 -0.000000 -0.590432 0.807087
0.025978 -0.653869 0.474892 -0.058285 -0.617420 -0.784472
0.099411 -0.707794 -0.520704 -0.029877 0.575537 -0.817229
-0.009970 -0.079724 -0.021800 -0.000706 -0.965983 -0.253841
-0.117349 0.158572 -0.125988 -0.029877 -0.575537 -0.817229
0.088084 0.386322 -0.291850 0.058321 -0.589427 -0.805713
-0.195138 -0.248597 -0.186544 -0.029877 0.575537 -0.817229
-0.049371 -0.338233 0.254999 -0.029877 0.575537 0.817229
-0.014842 -0.419902 -0.313778 -0.029877 0.575537 -0.817229
0.215633 -0.428022 0.313123 0.113428 -0.586622 -0.801879
-0.266039 -0.158159 -0.120260 -0.029877 0.575537 -0.817229
1.074129 0.071546 -0.041381 0.000156 0.894740 -0.444034
0.015369 0.170973 -0.139573 0.028931 -0.585191 -0.810101
-0.027985 -0.177428 -0.103918 -0.058285 -0.617420 0.784472
1.353364 0.074094 0.068086 0.000000 -0.590432 0.807087
0.181595 -0.346187 -0.248442 0.113428 -0.586622 0.801879
1.486563 0.295941 -0.202617 -0.000000 0.590432 0.807087
1.027420 -0.068325 0.046506 -0.000501 -0.820795 0.569282
0.000234 0.208771 0.126490 -0.058285 0.617420 -0.784472
1.416381 -0.165910 -0.107491 -0.000000 -0.590432 0.807087
0.059454 0.217059 -0.170096 0.058321 -0.589427 -0.805713
