2.918832 0.667206 0.497839 0.000001 0.786159 0.000248
2.985872 0.606297 0.575320 0.000000 0.786165 0.000248
2.903250 0.443517 0.686610 0.000000 -0.999668 0.000000
0.960848 0.524874 0.589079 -0.000001 -0.140952 -0.000191
2.833132 0.533776 0.776427 0.000000 -0.025572 0.000018
3.081808 0.567520 0.767981 0.194028 0.000253 0.000878
0.871337 0.454691 0.727052 -0.000001 -0.862492 0.000004
1.661118 0.393624 0.484205 0.074211 0.001615 -0.001270
1.139871 0.617706 0.731774 0.000000 0.850467 0.000004
0.379023 0.518156 0.774501 -0.000000 -0.214164 0.000008
1.763469 0.631711 0.682672 0.000000 0.999663 0.000000
1.713240 0.633645 0.795562 0.076255 0.007768 -0.006075
2.960658 0.416846 0.816317 0.000000 0.786165 0.000248
1.587429 0.443981 0.692690 -0.000001 -0.992951 0.000003
0.960848 0.616698 0.631361 0.000000 0.831820 -0.000002
1.667075 0.588783 0.602868 0.074210 -0.003041 -0.002389
3.145753 0.822650 1.040119 0.111855 -0.004582 0.002100
3.145753 0.817885 0.320874 0.111855 0.003124 0.003955
2.840591 0.603278 0.749799 -0.000000 0.707303 0.000007
2.819465 0.662268 0.504121 0.000000 0.786165 0.000792
2.079743 0.596409 0.608874 -0.000000 0.630499 -0.000017
1.480360 0.402919 0.498181 -0.072170 0.001604 -0.001358
1.486539 0.307097 0.970012 -0.074159 -0.005365 -0.003893
1.591624 0.804122 1.006341 -0.074157 0.004829 -0.003505
0.647558 0.617169 0.632094 0.000000 0.850627 -0.000017
0.558046 0.618284 0.730840 -0.000000 0.863950 0.000002
2.713958 0.468829 0.789418 0.000000 -0.786165 -0.000248
0.113183 0.461944 0.658229 -0.318853 -0.000094 -0.000027
0.289512 0.629960 0.664299 0.000000 0.981404 -0.000005
3.042260 0.741413 0.922068 0.000002 -0.786160 0.000322
0.826581 0.617567 0.732000 -0.000001 0.849295 0.000008
1.204021 0.443427 0.683127 0.000000 -0.999668 0.000000
1.721697 0.444117 0.670882 0.000000 -0.993301 -0.000002
0.826581 0.519939 0.589885 -0.000000 -0.191945 -0.000069
1.469623 0.658971 0.515019 -0.072170 -0.007805 -0.006569
1.274139 0.576096 0.768271 -0.000000 0.412216 0.000060
2.214010 0.501813 0.769470 0.000000 -0.388620 0.000032
3.081808 0.507606 0.596758 0.197218 -0.000078 -0.000200
2.525549 0.603004 0.579508 0.111854 0.003179 0.004024
0.647558 0.617926 0.731420 -0.000000 0.846185 0.000002
3.120861 0.688607 0.894123 -0.254959 0.001947 -0.001406
0.960848 0.631548 0.687934 -0.000000 0.997595 0.000000
0.334267 0.487127 0.761875 0.000000 -0.525655 0.000011
1.318895 0.462994 0.739843 0.000000 -0.792097 0.000003
0.558046 0.617009 0.631836 0.000000 0.850651 -0.000008
1.702816 0.087196 1.244951 0.076257 -0.010357 -0.008068
2.809262 0.631682 0.680248 -0.000067 0.126640 -0.000003
1.365126 0.640686 0.816419 -0.072175 -0.002775 0.002347
2.939184 0.400384 0.527481 0.000000 0.786166 -0.000124
2.902075 0.341121 0.452093 0.000000 0.786165 -0.000495
1.184627 0.583076 0.599953 -0.000000 0.481196 -0.000012
1.620910 0.728541 0.459886 0.076256 0.005919 0.004639
2.990669 0.314782 0.418588 0.000000 0.786165 -0.000644
1.990232 0.443482 0.679491 0.000000 -0.999663 -0.000000
1.517312 0.537715 0.776521 0.000000 0.025572 0.000018
1.855964 0.505596 0.770924 -0.000002 -0.336202 0.000038
1.762384 0.373705 0.476877 0.076255 -0.001480 0.001163
0.647558 0.468986 0.746876 -0.000001 -0.724424 0.000013
1.595594 0.393458 0.522645 0.076255 -0.004439 0.003484
2.661568 0.449021 0.714372 -0.000000 -0.940179 0.000010
2.366180 0.539835 0.776466 0.000000 0.025955 0.000070
2.968520 0.734700 0.952757 0.111855 0.003179 -0.004024
1.702816 0.097089 0.112011 0.074210 0.005322 -0.004173
1.523178 0.705254 0.454350 -0.072170 -0.006070 -0.005121
1.553383 0.661560 0.502581 -0.072168 -0.006417 -0.005411
1.737067 0.433853 0.820214 0.074210 0.007982 0.006239
2.494589 0.623659 0.782083 0.111853 -0.009324 0.004262
2.796568 0.397091 0.523292 0.000000 0.786165 -0.000347
2.616812 0.511978 0.772975 -0.000000 -0.261911 0.000006
1.855964 0.567383 0.771670 0.000000 0.316228 0.000020
0.516274 0.534231 0.588299 0.000000 -0.025965 -0.000017
0.379023 0.625666 0.649156 0.000000 0.940163 -0.000010
1.139871 0.580198 0.766312 0.000000 0.458508 0.000026
2.974859 0.586098 0.763050 0.000000 0.525783 0.000088
3.159007 0.321420 0.397611 -0.254960 -0.001947 0.001405
3.159007 0.311890 0.959636 -0.254959 0.001826 0.001560
1.643248 0.232524 0.312027 0.076256 -0.004439 0.003484
1.408406 0.448263 0.652549 -0.000000 -0.946319 -0.000002
0.874321 0.631664 0.684490 -0.000000 0.999663 0.000000
1.676941 0.444438 0.696221 -0.000000 -0.989954 0.000004
2.034987 0.590779 0.760035 -0.000001 0.530677 0.000005
2.751080 0.451662 0.643836 0.000001 -0.910320 -0.000006
2.258766 0.443447 0.680854 -0.000000 -0.999668 -0.000000
1.408406 0.630983 0.670656 -0.000000 0.993288 -0.000002
1.519704 0.744398 0.956238 -0.072171 -0.005723 0.004830
3.065157 0.281837 0.366873 0.111854 0.004583 -0.002100
3.137992 0.583640 0.623755 -0.254952 -0.000363 -0.000310
3.196077 0.260598 1.034691 -0.254959 -0.001821 -0.001314
3.196077 0.260598 0.330047 -0.254959 -0.001821 0.001314
1.184627 0.622902 0.642593 0.000000 0.910388 -0.000003
2.974859 0.618360 0.634030 0.000001 0.860689 -0.000004
1.641338 0.127042 0.166788 -0.074159 -0.006438 0.004666
1.632185 0.444529 0.667880 -0.000000 -0.989987 -0.000008
0.191956 0.447964 0.710972 -0.012571 -0.001484 0.000450
2.482545 0.500591 0.768955 -0.000000 -0.388479 0.000016
0.916093 0.482518 0.758751 0.000000 -0.588308 0.000009
3.133152 0.490307 0.624340 0.999263 -0.000002 -0.000002
0.036402 0.569984 0.698574 -0.619175 0.000020 0.000009
2.214010 0.630624 0.668067 0.000000 0.989918 -0.000000
2.889481 0.731531 0.425820 0.111853 0.003179 0.004024
1.528840 0.344811 0.451916 -0.074159 -0.002862 0.002080
2.724886 0.393799 0.845634 -0.000001 0.786165 0.000594
1.811208 0.567203 0.593009 0.000000 0.316228 -0.000020
0.781825 0.459050 0.630410 0.000000 -0.836859 -0.000002
0.414828 0.541501 0.588315 0.000000 0.025572 -0.000035
3.081808 0.625990 0.662186 0.194032 0.000901 -0.000153
2.974859 0.620563 0.726819 0.000000 0.874765 0.000004
1.563606 0.319924 0.942637 -0.074159 -0.005365 -0.003893
2.840591 0.446393 0.658868 0.000000 -0.970166 -0.000007
2.572057 0.454193 0.638623 -0.000000 -0.888312 -0.000007
3.065157 0.793289 0.366873 0.111854 -0.004583 -0.002100
3.065157 0.783759 1.005357 0.111854 0.003124 -0.003955
1.766453 0.616242 0.734075 0.000001 0.818172 0.000002
1.547940 0.493313 0.767349 0.074209 0.006082 0.004765
2.348278 0.620950 0.638657 -0.000001 0.875470 -0.000002
1.591258 0.856298 1.096431 -0.072168 -0.003989 0.003372
2.572057 0.491552 0.600226 0.000000 -0.481195 -0.000025
2.348278 0.457161 0.731355 0.000001 -0.836045 0.000002
0.781825 0.488158 0.762512 -0.000000 -0.525655 0.000011
3.134120 0.568248 0.721403 0.999263 0.000002 0.000002
1.619421 0.310440 0.991370 0.074209 0.005322 0.004173
2.930103 0.500626 0.768969 -0.000000 -0.388623 0.000129
1.607951 0.190353 1.131938 -0.072168 0.007284 0.006136
1.497918 0.584823 0.763796 -0.000002 0.499445 0.000023
0.602802 0.627845 0.709083 -0.000001 0.940041 0.000001
1.095116 0.604564 0.748513 -0.000000 0.707500 0.000003
0.244756 0.589618 0.603919 -0.000002 0.546180 -0.000042
3.087306 0.284782 1.013734 0.111857 -0.003179 -0.004024
1.732600 0.014533 1.341070 0.076255 -0.007398 -0.005789
1.720686 0.222289 1.075314 0.076257 -0.004439 -0.003484
1.900720 0.597232 0.755195 0.000000 0.629079 0.000008
2.658440 0.642513 0.529250 0.111854 0.006357 0.008038
2.616812 0.605254 0.616929 -0.000001 0.724147 -0.000013
1.050360 0.631699 0.683127 0.000000 0.999673 0.000000
2.840591 0.481111 0.757723 0.000000 -0.589948 0.000005
0.781825 0.628007 0.656200 -0.000001 0.960476 -0.000004
1.625378 0.335685 0.445468 0.076256 -0.005919 0.004639
2.124499 0.524461 0.589137 -0.000001 -0.140778 -0.000095
1.453162 0.510958 0.772684 0.000000 -0.291809 0.000022
0.692314 0.454193 0.726115 0.000001 -0.887813 0.000007
3.116719 0.672145 0.491557 -0.254958 0.001947 0.001406
1.388953 0.373483 0.891092 -0.074158 -0.006081 -0.004409
0.334267 0.593404 0.758170 -0.000000 0.589838 0.000074
1.254745 0.443435 0.681309 0.000000 -0.999668 -0.000000
1.641338 0.948085 0.166788 -0.074161 0.003219 0.002340
2.835629 0.695191 0.902499 0.111853 0.003179 -0.004024
2.990669 0.741285 0.403605 0.111854 0.003179 0.004024
2.857778 0.354290 0.468846 0.000000 0.786165 -0.000446
3.120861 0.367460 0.879139 0.000001 0.786163 0.000322
1.373509 0.450036 0.787814 -0.074158 -0.005723 -0.004151
3.123561 0.275273 0.368330 -0.000000 0.786165 -0.000429
0.468535 0.583939 0.600427 0.000000 0.503643 -0.000047
3.019569 0.433308 0.569362 0.000000 0.786165 -0.000784
2.661568 0.531695 0.776334 -0.000000 -0.064357 0.000841
0.468535 0.453447 0.724667 0.000000 -0.888562 0.000003
1.676010 0.825742 0.329420 0.076256 0.004809 0.003773
2.779656 0.426723 0.560986 0.000000 0.786165 -0.000594
2.079743 0.495808 0.597983 -0.000001 -0.382837 -0.000004
1.580702 0.469060 0.570483 0.074211 0.006082 -0.004765
1.738557 0.124780 0.151539 0.074210 0.006082 -0.004765
1.753448 0.858313 0.278404 0.076255 0.008138 0.006361
2.947768 0.713300 0.439204 -0.000002 0.786094 0.000107
0.916093 0.594077 0.607060 0.000000 0.590135 -0.000002
2.618631 0.465537 0.571132 0.000000 -0.786165 0.000594
0.090840 0.592665 0.638758 -0.406025 0.000052 -0.000039
1.741535 0.333078 0.416869 0.074210 0.005702 -0.004469
1.229383 0.612962 0.738760 -0.000001 0.797482 0.000005
3.081808 0.557746 0.593942 0.194028 0.000253 -0.000878
1.456719 0.353107 0.922750 -0.072171 0.006070 0.005121
0.737069 0.444933 0.699249 0.000000 -0.985987 0.000001
1.747492 0.799108 1.010283 0.076257 0.004809 -0.003773
1.855964 0.622576 0.641910 0.000000 0.900134 -0.000007
0.468535 0.489813 0.601228 0.000000 -0.503674 -0.000047
2.482545 0.455092 0.636956 0.000000 -0.876448 -0.000004
0.244756 0.623590 0.644112 0.000000 0.911082 -0.000012
0.334267 0.617328 0.632352 0.000000 0.850626 -0.000034
0.826581 0.619162 0.635404 0.000000 0.863950 -0.000004
1.676941 0.630672 0.696334 0.000001 0.989621 0.000004
1.786211 0.714880 0.456808 0.074210 -0.005702 -0.004469
2.034987 0.622395 0.723204 -0.000001 0.894447 0.000003
2.616812 0.625030 0.717205 0.000001 0.930697 0.000011
0.737069 0.564458 0.592143 -0.000000 0.291844 -0.000044
2.528541 0.466232 0.753494 0.000001 -0.618016 0.000729
2.985872 0.468829 0.789418 0.000000 -0.786165 -0.000248
0.098191 0.543239 0.609049 -0.377326 0.000008 -0.000074
1.587429 0.624865 0.647110 0.000000 0.930778 -0.000005
2.172238 0.443415 0.682066 0.000000 -0.999668 -0.000000
0.602802 0.487707 0.762234 0.000000 -0.525196 0.000011
2.808390 0.397091 0.841446 0.000000 0.786165 0.000347
2.594251 0.664088 0.843319 0.111854 0.003124 -0.003955
2.790184 0.722339 0.917419 0.111853 0.003124 -0.003955
2.768414 0.359259 0.455553 0.111853 -0.003179 0.004024
2.811955 0.346315 0.439086 0.111854 -0.003179 0.004024
2.724873 0.372204 0.892719 0.111853 -0.006357 -0.008038
2.681333 0.689978 0.876252 0.111854 0.006357 -0.008038
2.724873 0.702922 0.472019 0.111853 0.006357 0.008038
3.019614 0.462994 0.624896 -0.000001 -0.792017 -0.000042
1.453162 0.459531 0.735056 0.000000 -0.821210 0.000005
1.496264 0.323864 0.419004 -0.074158 -0.005902 0.004280
1.363650 0.611577 0.740563 0.000000 0.792024 0.000010
0.692314 0.627235 0.653663 0.000000 0.948683 -0.000001
1.744513 0.298176 0.981729 0.076256 -0.005179 -0.004062
1.577724 0.623179 0.599259 0.076255 0.005919 0.004639
1.744513 0.104594 1.227979 0.076253 -0.002959 -0.002325
1.472824 0.747527 0.943562 -0.074157 0.005723 -0.004151
1.945476 0.600423 0.612280 0.000001 0.669539 -0.000030
1.786211 0.744662 0.945815 0.074208 -0.002661 0.002090
1.786211 0.285792 0.362097 0.074209 0.009882 -0.007701
1.786211 0.032647 1.324662 0.074208 0.006082 0.004765
1.786211 0.196447 1.116296 0.074211 0.007602 0.005945
1.786211 0.449592 0.794276 0.074209 0.006082 0.004765
1.786211 0.315574 0.399981 0.074210 0.005322 -0.004173
1.786211 0.345356 0.926872 0.074209 0.011403 0.008860
1.607507 0.734207 0.954033 0.074210 -0.005702 0.004469
2.258766 0.627502 0.710206 -0.000000 0.955834 0.000002
1.184627 0.469820 0.747755 -0.000000 -0.725089 0.000013
3.145709 0.287748 1.019768 -0.000000 -0.786165 -0.000429
2.482545 0.577235 0.767755 0.000000 0.412140 0.000030
1.687924 0.436237 0.799101 0.076256 -0.007768 -0.006075
1.563827 0.251354 0.327872 -0.074158 -0.004650 0.003376
2.079743 0.609518 0.743087 0.000001 0.758844 0.000012
2.751080 0.451896 0.721420 0.000000 -0.911066 0.000003
2.169255 0.493986 0.598913 -0.000000 -0.458388 -0.000026
1.668107 0.029338 1.328871 -0.074157 -0.007154 -0.005180
1.378217 0.688407 0.490484 -0.072169 -0.006244 -0.005266
1.646634 0.055811 0.069542 -0.074159 -0.008584 0.006203
1.657370 1.032552 1.312034 -0.072168 -0.008325 0.007001
1.571477 0.148465 0.187406 -0.074158 -0.007154 0.005180
1.625160 0.992843 0.103218 -0.072170 -0.010406 -0.008719
1.517794 0.214647 0.271594 -0.074158 -0.004292 0.003117
1.388953 0.373483 0.473646 -0.074158 -0.001520 0.001106
1.582214 0.939898 0.170568 -0.072170 -0.003295 -0.002787
1.453374 0.781062 0.372620 -0.072170 -0.005377 -0.004539
1.539267 0.886952 1.126819 -0.072170 -0.003989 0.003372
1.539267 0.886952 0.237919 -0.072170 -0.003989 -0.003372
1.095116 0.582877 0.599844 0.000000 0.481496 -0.000003
2.079743 0.451412 0.720350 0.000000 -0.911066 0.000006
1.461976 0.700005 0.879610 -0.074159 0.003040 -0.002210
2.930103 0.463734 0.623935 -0.000000 -0.775970 -0.000003
1.363650 0.620742 0.638253 0.000000 0.888682 -0.000007
2.348278 0.627790 0.709264 0.000001 0.940041 0.000001
1.542674 0.458656 0.733726 0.000000 -0.836859 0.000004
2.124499 0.625556 0.648873 0.000000 0.931138 -0.000003
2.393034 0.500172 0.595960 0.000000 -0.388398 -0.000032
2.214010 0.579318 0.766755 -0.000000 0.435540 0.000007
2.818863 0.631941 0.782811 0.000000 -0.786165 0.000347
2.986118 0.294536 0.991519 0.111854 -0.003179 -0.004024
1.139871 0.497240 0.597290 -0.000000 -0.435453 -0.000014
2.964348 0.301008 0.381453 0.111854 -0.003124 0.003955
2.437789 0.613141 0.738516 0.000000 0.807305 0.000002
1.721697 0.579591 0.766623 0.000000 0.435849 0.000007
2.751080 0.619238 0.635535 0.000001 0.817863 -0.000002
1.535365 0.613686 0.561148 -0.072170 -0.006244 -0.005266
1.658140 0.752060 0.394091 0.074209 -0.011403 -0.008860
1.050360 0.472864 0.613974 0.000001 -0.688210 -0.000014
2.303522 0.468083 0.745905 -0.000001 -0.729483 0.000003
1.139871 0.454176 0.638657 -0.000000 -0.888692 -0.000007
2.877266 0.748229 0.950352 0.111854 0.003124 -0.003955
2.398318 0.605837 0.769219 0.111852 0.003124 -0.003955
2.513874 0.631652 0.684944 0.000005 0.174331 0.000000
1.587429 0.625445 0.716147 -0.000000 0.930955 0.000011
3.044691 0.711653 0.441298 0.000000 0.786166 0.000644
3.057115 0.314087 0.986263 -0.000001 -0.786160 -0.000215
2.953305 0.341121 0.452093 -0.000000 0.786164 -0.000215
3.070981 0.753760 0.426964 -0.000001 -0.786161 -0.000215
1.658031 0.099273 1.234012 -0.074159 -0.011445 -0.008229
1.363650 0.493582 0.599121 0.000000 -0.458623 -0.000026
2.437789 0.453585 0.724937 0.000000 -0.888693 0.000002
0.289512 0.565618 0.592496 0.000000 0.291874 -0.000044
2.124499 0.459092 0.734392 0.000001 -0.834032 0.000004
1.005604 0.607830 0.619706 -0.000000 0.740778 -0.000006
0.826581 0.516602 0.774155 -0.000000 -0.217048 0.000031
1.619421 0.784472 0.388922 -0.074158 0.005008 0.003635
3.149609 0.629818 0.799725 -0.254960 -0.001826 0.001560
2.572057 0.614540 0.628156 0.000000 0.822288 -0.000009
2.751080 0.584692 0.763872 0.000001 0.503478 0.000047
2.747035 0.687912 0.854010 0.111854 -0.009324 0.004262
0.558046 0.455329 0.636524 0.000001 -0.873073 -0.000004
1.721697 0.629251 0.660965 -0.000000 0.975928 -0.000002
2.847598 0.642513 0.835488 0.000000 0.786165 -0.000396
2.637792 0.677033 0.504953 0.111854 0.006357 0.008038
2.550710 0.423983 0.537886 0.111855 -0.003124 0.003955
2.636292 0.420138 0.812129 -0.000000 0.786165 0.000792
2.614143 0.648403 0.560986 0.111853 -0.004662 -0.002137
1.945476 0.472040 0.614757 0.000001 -0.649856 -0.000004
1.990232 0.622180 0.641091 0.000000 0.898320 -0.000003
3.061248 0.647452 0.841770 0.000000 0.786165 -0.000784
1.766453 0.463063 0.739933 0.000001 -0.790537 0.000010
1.408406 0.446081 0.704620 -0.000000 -0.970166 0.000007
0.871337 0.486079 0.603545 0.000000 -0.547460 -0.000021
2.885347 0.627163 0.653448 0.000000 0.948683 -0.000002
0.692314 0.624163 0.719306 0.000000 0.921304 0.000011
1.453162 0.455256 0.636657 -0.000000 -0.876550 -0.000015
1.410427 0.347010 0.924768 -0.074158 -0.005723 -0.004151
0.916093 0.461539 0.626835 -0.000000 -0.807475 -0.000020
2.437789 0.462809 0.625136 0.000000 -0.791951 -0.000005
2.124499 0.582179 0.765278 0.000001 0.450358 0.000003
1.318895 0.466643 0.620442 0.000001 -0.759048 -0.000012
0.036402 0.508022 0.703371 -0.619176 -0.000016 0.000011
0.468535 0.455850 0.635600 0.000001 -0.818121 -0.000001
3.042078 0.445654 0.779670 0.000001 0.786164 0.000248
2.034987 0.467779 0.745567 -0.000001 -0.739582 0.000006
0.468535 0.621228 0.639196 -0.000001 0.887846 -0.000007
2.258766 0.468464 0.618412 0.000000 -0.742551 -0.000006
0.513291 0.624104 0.719446 0.000000 0.921369 0.000003
3.075122 0.751162 0.973698 0.000000 0.786166 -0.000215
1.855964 0.493885 0.598965 -0.000000 -0.458557 -0.000053
3.120861 0.367460 0.485599 0.000001 0.786163 -0.000322
0.468535 0.578705 0.767052 0.000000 0.435533 0.000056
1.408406 0.577477 0.767646 -0.000000 0.435453 0.000028
1.696859 0.739434 0.949924 0.074208 -0.005702 0.004469
1.665586 0.692932 0.470203 0.074210 -0.001616 -0.001270
1.631335 0.261589 0.350474 0.076256 -0.004809 0.003773
1.005604 0.473496 0.751364 0.000001 -0.684448 0.000007
1.274139 0.452418 0.722556 -0.000001 -0.899309 0.000007
1.050360 0.619906 0.728015 -0.000000 0.876136 0.000004
1.786211 0.744662 0.418924 0.074210 -0.005322 -0.004173
0.647558 0.453690 0.639600 0.000000 -0.888693 -0.000001
2.303522 0.496047 0.597868 0.000000 -0.435526 -0.000112
1.005604 0.597879 0.754669 -0.000000 0.650476 0.000032
1.721697 0.504991 0.594034 -0.000000 -0.340697 -0.000037
0.602802 0.474900 0.612103 0.000001 -0.669740 -0.000060
1.095116 0.564893 0.772463 0.000001 0.283629 0.000011
0.871337 0.548561 0.775872 -0.000002 0.112129 0.000060
1.628356 0.627580 0.777344 0.076258 0.002959 -0.002325
1.421163 0.741353 0.941605 -0.072170 -0.011099 0.009288
2.883292 0.693545 0.900405 0.000000 0.786164 -0.000111
2.482545 0.626440 0.651293 0.000000 0.940183 -0.000002
2.980963 0.688607 0.894123 -0.000003 0.786155 -0.000392
0.737069 0.592119 0.759109 -0.000000 0.590135 0.000009
1.811208 0.606245 0.617972 -0.000000 0.725065 -0.000026
1.676941 0.462209 0.738821 0.000000 -0.807305 0.000002
2.784144 0.628649 0.586115 0.000000 -0.786165 -0.000297
2.572057 0.454801 0.727251 -0.000000 -0.876295 0.000004
1.658031 0.975854 1.234012 -0.074158 0.011445 -0.008229
1.658031 0.099273 0.130726 -0.074159 -0.011445 0.008229
1.637291 0.247056 1.033488 0.076256 -0.009617 -0.007501
0.960848 0.570777 0.770472 -0.000000 0.364735 0.000139
2.547697 0.628649 0.778623 0.111852 -0.004662 0.002137
1.587429 0.577613 0.597158 -0.000001 0.433794 -0.000014
2.079743 0.524199 0.775564 -0.000001 -0.140721 0.000095
2.930103 0.623293 0.643456 -0.000000 0.911088 -0.000006
1.542674 0.575268 0.768645 -0.000000 0.412261 0.000015
1.990232 0.464881 0.622524 -0.000000 -0.775810 -0.000006
3.160281 0.242757 1.057385 0.111853 -0.003124 -0.003955
3.160281 0.242757 0.307353 0.111853 -0.003124 0.003955
2.706324 0.623957 0.644943 -0.000000 0.918696 -0.000001
2.258766 0.603546 0.749531 0.000001 0.705408 0.000014
1.900720 0.576787 0.596780 0.000000 0.412261 -0.000007
0.468535 0.483568 0.759497 -0.000000 -0.568907 0.000020
0.244756 0.461159 0.737384 0.000000 -0.807465 0.000020
0.289512 0.571200 0.770306 0.000001 0.363931 0.000035
2.930103 0.452649 0.723033 0.000000 -0.900173 0.000026
0.244756 0.601905 0.751103 -0.000000 0.688659 0.000029
0.289512 0.446053 0.704510 0.000000 -0.970219 0.000003
2.572057 0.582843 0.764913 -0.000000 0.481327 0.000049
2.930103 0.579012 0.597835 0.000000 0.435526 -0.000112
3.133285 0.737993 0.956945 -0.254961 0.001947 -0.001405
1.497918 0.577750 0.597224 0.000000 0.435211 -0.000007
1.741535 0.734603 0.938398 0.074210 -0.011403 0.008860
2.795835 0.507060 0.771442 0.000000 -0.306903 0.000005
2.034987 0.577477 0.597092 0.000000 0.435211 -0.000007
2.947768 0.732359 0.910551 0.000002 -0.786094 0.000107
2.437789 0.574221 0.595651 -0.000000 0.388580 -0.000032
0.916093 0.601070 0.751875 0.000001 0.643245 0.000004
1.619421 0.784472 0.975816 -0.074158 0.005008 -0.003635
1.589637 0.711808 0.879696 -0.074157 0.006259 -0.004538
1.547134 0.786110 1.008582 -0.072171 -0.004856 0.004102
2.169255 0.581814 0.599260 0.000000 0.481496 -0.000003
1.786211 0.256010 1.040527 0.074209 0.009122 0.007118
1.786211 0.285792 1.002642 0.074208 0.009883 0.007701
1.747492 0.791662 0.363927 0.076256 0.004809 0.003773
1.747492 0.268573 0.344984 0.076257 -0.004809 0.003773
1.702816 0.320453 0.396146 0.074208 0.002661 -0.002090
1.050360 0.452600 0.722931 -0.000000 -0.900117 0.000013
2.795835 0.614346 0.627876 0.000000 0.822486 -0.000005
3.070981 0.321366 0.937774 -0.000000 0.786164 0.000215
2.124499 0.451287 0.644664 0.000000 -0.921398 -0.000006
1.530074 0.828889 1.048168 -0.074157 0.004650 -0.003376
0.647558 0.574291 0.595681 -0.000000 0.388602 -0.000032
1.726643 0.192865 0.251258 0.076256 -0.008138 0.006361
2.706324 0.500137 0.595975 0.000000 -0.388408 -0.000008
1.497918 0.443787 0.674009 -0.000000 -0.995882 -0.000002
2.761523 0.541350 0.776427 0.000000 0.025572 0.000018
0.090840 0.514476 0.748740 -0.406025 -0.000023 0.000061
1.497918 0.498340 0.596780 0.000000 -0.412187 -0.000015
0.558046 0.458781 0.733916 0.000000 -0.836741 0.000004
0.781825 0.626182 0.714158 0.000000 0.940183 0.000001
3.037704 0.400384 0.837258 0.000000 0.786165 0.000392
1.595594 0.659056 0.859869 0.074216 -0.002281 0.001792
0.960848 0.443681 0.689522 -0.000000 -0.995471 0.000000
1.453162 0.618742 0.634684 0.000001 0.856873 -0.000004
2.636292 0.654988 0.812129 0.111855 -0.004662 0.002137
1.005604 0.448419 0.652082 0.000000 -0.948637 -0.000009
1.542674 0.618856 0.634880 0.000000 0.863950 -0.000002
1.318895 0.619276 0.729138 0.000001 0.862274 0.000008
1.318895 0.624046 0.645153 0.000000 0.921388 -0.000011
1.732600 0.154910 0.189150 0.074210 0.006842 -0.005356
1.631335 0.795165 1.028707 0.074209 -0.004942 0.003876
0.144110 0.471314 0.624145 -0.198406 -0.000139 -0.000116
0.960848 0.479041 0.608612 0.000001 -0.628399 -0.000008
2.706324 0.621645 0.724735 -0.000001 0.875470 0.000002
1.229383 0.495467 0.766590 0.000000 -0.458545 0.000053
1.632185 0.499858 0.596093 0.000000 -0.412221 -0.000120
1.738557 0.950346 0.151539 0.074210 -0.003041 -0.002389
1.580521 0.851541 0.291810 -0.074158 0.008584 0.006204
0.781825 0.492449 0.599734 0.000000 -0.481256 -0.000049
2.769183 0.399689 0.487368 -0.000000 -0.786165 0.000693
0.334267 0.577028 0.596889 0.000000 0.412261 -0.000015
0.647558 0.576511 0.768083 0.000000 0.412223 0.000060
0.423779 0.456289 0.729891 -0.000000 -0.863860 0.000032
0.677395 0.540744 0.776443 -0.000000 0.025965 0.000009
0.781825 0.443886 0.672914 -0.000000 -0.995935 -0.000000
1.520695 0.424255 0.845871 -0.072170 0.007804 0.006569
1.811208 0.453829 0.725408 0.000000 -0.888684 0.000002
1.607507 0.409065 0.823714 0.076256 -0.004439 -0.003484
1.786211 0.196447 0.248442 0.074210 0.007602 -0.005945
1.759405 0.902628 0.221296 0.076256 0.003699 0.002905
2.034987 0.491453 0.600281 0.000000 -0.481330 -0.000006
1.721697 0.608631 0.620615 -0.000001 0.759393 -0.000023
1.766453 0.575268 0.768645 -0.000000 0.412261 0.000015
2.751080 0.617149 0.732677 -0.000001 0.820875 0.000002
1.674725 0.998676 1.273962 -0.072169 -0.009019 0.007576
1.714729 1.008516 0.074674 0.074210 -0.009122 -0.007118
1.184627 0.451943 0.643215 -0.000000 -0.911088 -0.000006
2.808390 0.678035 0.841446 0.000000 -0.786165 0.000347
0.513291 0.500103 0.768749 -0.000000 -0.388407 0.000016
1.637513 0.896640 0.237021 -0.074158 0.007511 0.005437
2.751080 0.583441 0.600154 -0.000000 0.481297 -0.000049
1.559837 0.288624 0.378600 -0.074158 -0.002504 0.001820
1.548915 0.672389 0.830658 -0.074157 0.001610 -0.001171
1.446772 0.408796 0.855853 -0.072170 0.003122 0.002640
1.318895 0.557710 0.590402 0.000000 0.217139 -0.000061
1.720686 0.859955 1.100367 0.074208 -0.008362 0.006533
1.680682 0.061211 1.292630 -0.072170 0.009018 0.007576
1.139871 0.453846 0.725442 -0.000001 -0.885207 0.000007
3.080705 0.710959 0.883328 -0.000001 -0.786162 0.000215
3.125002 0.705069 0.449675 -0.254959 0.001947 0.001406
2.303522 0.623543 0.644008 -0.000000 0.910994 -0.000006
1.363650 0.443832 0.673518 -0.000000 -0.994747 -0.000001
2.437789 0.575682 0.768458 0.000000 0.412261 0.000007
1.900720 0.453447 0.640071 0.000001 -0.836150 -0.000001
1.229383 0.483568 0.605242 0.000000 -0.568780 -0.000010
1.408406 0.576269 0.596546 0.000000 0.412261 -0.000015
0.916093 0.453342 0.724465 0.000001 -0.899964 0.000013
2.840591 0.626983 0.711830 -0.000000 0.948275 0.000005
2.840591 0.593189 0.606412 -0.000000 0.589835 -0.000074
2.527301 0.503362 0.594653 0.000001 -0.364496 -0.000035
0.334267 0.622081 0.723852 -0.000000 0.900173 0.000013
2.835629 0.360875 0.887516 0.000000 0.786165 0.000396
2.962829 0.655683 0.852241 0.000000 0.786165 -0.000124
2.974859 0.452517 0.641978 0.000000 -0.899957 -0.000007
2.437789 0.497513 0.597158 0.000000 -0.435672 -0.000014
1.766453 0.500870 0.769072 0.000000 -0.388592 0.000064
0.200000 0.614303 0.736925 -0.012574 0.001276 0.000878
3.050794 0.598066 0.778948 0.000000 0.786165 -0.000248
1.632185 0.562710 0.773096 0.000000 0.264246 0.000012
1.702816 0.779458 0.979758 0.076256 0.005179 -0.004062
3.052865 0.606297 0.575320 0.000000 0.786165 0.000248
3.080651 0.433308 0.569362 0.000000 0.786165 -0.000248
1.583277 0.284889 0.988310 -0.074158 -0.005008 -0.003635
3.161226 0.675996 0.506272 -0.254962 -0.001707 -0.001459
0.379023 0.469403 0.617423 0.000000 -0.725043 -0.000013
1.649205 0.633772 0.576938 0.076258 0.002219 0.001744
3.134120 0.506878 0.721403 0.999263 -0.000002 0.000002
1.738557 0.689756 0.881708 0.074206 -0.001521 0.001195
2.258766 0.519642 0.774796 -0.000001 -0.183957 0.000009
2.930103 0.571447 0.770209 -0.000001 0.364765 0.000138
3.062698 0.354290 0.895892 -0.000001 0.786159 0.000215
1.605928 0.256013 0.310588 -0.072169 0.004336 -0.003664
1.676941 0.477018 0.610266 0.000000 -0.650039 -0.000016
1.766453 0.579760 0.598200 0.000001 0.458079 -0.000026
1.708773 0.290322 0.358535 0.074209 0.004942 -0.003876
1.557871 0.799346 0.339319 -0.072170 -0.009365 -0.007863
2.527301 0.621159 0.725677 0.000000 0.888145 0.000007
1.324533 0.622225 0.574672 -0.072169 -0.005550 -0.004685
1.408406 0.489387 0.763262 0.000001 -0.503121 0.000023
1.705794 0.920742 1.159851 0.076255 0.003699 -0.002905
0.916093 0.553248 0.589537 0.000000 0.166823 -0.000020
1.766453 0.494861 0.598461 -0.000000 -0.458621 -0.000053
1.542674 0.622345 0.723306 0.000001 0.886568 0.000002
1.710262 0.404075 0.521961 0.076255 -0.003144 0.002470
1.184627 0.625058 0.717135 -0.000001 0.908876 0.000001
1.318895 0.496933 0.767300 -0.000000 -0.435158 0.000014
1.716219 0.352315 0.455381 0.076258 -0.001480 0.001163
1.530440 0.757634 0.391663 -0.072170 -0.010752 -0.009004
2.706324 0.508354 0.771873 0.000000 -0.316228 0.000020
1.900720 0.623621 0.720557 -0.000000 0.910994 0.000006
1.549157 0.219116 1.083036 -0.074159 -0.004292 -0.003117
1.571477 0.926661 1.177333 -0.072171 -0.006937 0.005846
1.786211 0.774443 0.983699 0.074210 -0.004941 0.003876
2.463151 0.539229 0.776482 0.000000 0.025572 0.000018
1.108542 0.443451 0.680703 0.000000 -0.999668 -0.000000
1.786211 0.640425 0.813218 0.074210 -0.006082 0.004765
1.139871 0.576200 0.596515 0.000000 0.412261 -0.000030
1.619421 0.480651 0.757396 0.000001 0.618016 -0.000654
1.432276 0.538018 0.588225 0.000000 0.025975 -0.000009
3.019614 0.452319 0.722351 0.000001 -0.848563 0.000001
2.885347 0.482885 0.605719 0.000000 -0.589818 -0.000037
2.661568 0.587677 0.602664 -0.000000 0.525819 -0.000022
3.019614 0.497615 0.597109 0.000001 -0.435506 -0.000224
1.673032 0.915266 0.215907 -0.074158 0.006796 0.004923
1.530440 0.317492 0.391663 -0.072171 0.005377 -0.004539
1.631335 0.795165 0.336032 0.074209 -0.004942 -0.003876
1.786211 0.804225 0.343154 0.074209 -0.009122 -0.007118
1.750470 0.075171 0.098593 0.076256 -0.010357 0.008068
1.786211 0.834007 0.305270 0.074209 -0.008362 -0.006533
1.750470 0.999956 1.266146 0.076256 0.010357 -0.008068
1.485342 0.619130 0.804418 -0.072170 -0.007805 0.006569
1.229383 0.579794 0.766521 -0.000001 0.456657 0.000013
1.574564 0.238118 1.053704 -0.074160 -0.004650 -0.003376
1.708773 0.290322 1.006203 0.074211 0.009882 0.007701
2.571352 0.636951 0.546133 0.111856 0.001589 0.002012
1.708773 0.799695 0.339593 0.074210 -0.004942 -0.003876
2.718300 0.435906 0.831300 0.000000 -0.786166 -0.000248
2.258766 0.452583 0.722897 0.000000 -0.900020 0.000001
3.041945 0.394751 0.883652 -0.000000 -0.786165 -0.000429
0.423779 0.582080 0.599406 -0.000001 0.481226 -0.000049
1.634313 0.406360 0.867560 0.074209 0.003231 0.002538
3.000266 0.655683 0.512497 0.000000 0.786165 0.000784
3.100154 0.449770 0.774435 0.000000 0.786165 0.000495
2.889049 0.635234 0.577739 0.000000 -0.786165 -0.000396
1.510599 0.631717 0.682293 0.000000 0.999683 -0.000000
2.926313 0.440844 0.539721 0.000000 -0.786165 0.000111
2.659001 0.402587 0.844262 0.111856 0.002291 0.001051
2.923768 0.619466 0.806171 0.000000 0.786166 -0.000223
2.911945 0.455660 0.806171 0.000000 -0.786165 -0.000223
1.721697 0.458781 0.630822 -0.000000 -0.831820 -0.000002
0.626672 0.443493 0.685701 0.000000 -0.999668 0.000000
1.459806 0.451946 0.806343 -0.072170 0.007805 0.006569
1.900720 0.453144 0.724056 0.000000 -0.900171 0.000003
1.620231 0.848590 0.274167 -0.072168 -0.007978 -0.006713
0.871337 0.621263 0.725475 0.000000 0.888693 0.000002
2.527301 0.449151 0.714728 0.000000 -0.940173 0.000005
0.602802 0.564530 0.772574 0.000000 0.291815 0.000178
1.095116 0.494928 0.598426 -0.000001 -0.458436 -0.000053
2.616812 0.569779 0.593905 0.000000 0.340601 -0.000075
1.990232 0.451662 0.720902 0.000000 -0.911066 0.000001
1.373509 0.455689 0.572480 -0.072171 0.002775 -0.002348
1.005604 0.573453 0.595327 -0.000000 0.388615 -0.000064
1.229383 0.567347 0.593057 0.000000 0.316228 -0.000005
0.289512 0.628594 0.706421 0.000000 0.963777 0.000001
1.738557 0.139671 1.194257 0.074208 0.006082 0.004765
0.519258 0.541047 0.776435 0.000000 0.025572 0.000018
2.014101 0.538775 0.588245 0.000000 0.025975 -0.000035
1.434270 0.627230 0.808267 -0.072168 -0.007805 0.006569
0.076460 0.575411 0.732805 -0.462213 0.000031 0.000039
2.930103 0.508821 0.592709 0.000000 -0.316343 -0.000081
2.661568 0.573104 0.769558 0.000000 0.388690 0.000008
2.258766 0.599889 0.611798 0.000000 0.669346 -0.000008
1.655162 0.871668 0.273579 -0.074159 0.003934 0.002858
2.907758 0.411213 0.502027 0.000000 -0.786165 0.000223
2.889204 0.381581 0.464333 0.000000 -0.786165 0.000111
0.578932 0.443493 0.685701 0.000000 -0.999668 0.000000
2.702737 0.674743 0.837258 0.111853 -0.009324 0.004262
2.618631 0.609589 0.793606 0.000000 0.786165 -0.000594
3.058557 0.685314 0.474804 0.000000 0.786166 0.000215
1.619421 0.424673 0.559404 0.076257 -0.004439 0.003484
0.069446 0.515292 0.627608 -0.489660 -0.000017 -0.000040
1.302484 0.631707 0.682824 0.000000 0.999673 0.000000
1.274139 0.451287 0.644664 0.000000 -0.921369 -0.000003
1.966362 0.538623 0.588241 0.000000 0.025189 -0.000009
1.786211 0.953134 0.153731 0.074211 -0.005322 -0.004173
1.786211 0.997807 0.096903 0.074211 -0.009122 -0.007118
1.587429 0.502092 0.595151 0.000000 -0.388690 -0.000016
1.050360 0.622774 0.642319 0.000001 0.896899 -0.000003
1.464110 0.280828 0.355782 -0.074159 -0.005008 0.003635
0.289512 0.502022 0.769558 -0.000001 -0.371968 0.000004
1.395700 0.397516 0.857202 -0.074159 -0.003219 -0.002340
2.807040 0.462245 0.566944 0.000000 -0.786165 0.000347
2.724886 0.681327 0.519104 0.111854 -0.004662 -0.002137
1.546324 0.719518 0.895770 -0.074158 0.006259 -0.004538
1.551894 0.395471 0.840270 -0.074160 -0.003309 -0.002404
0.244756 0.495535 0.598115 0.000001 -0.409176 -0.000004
3.066839 0.356888 0.432922 0.000000 -0.786165 0.000322
1.714729 0.260192 1.043814 0.074211 0.009122 0.007118
1.516026 0.690516 0.892178 -0.072172 -0.002948 0.002494
2.840591 0.465337 0.621967 0.000000 -0.758979 -0.000001
1.274139 0.513000 0.591480 0.000001 -0.234502 -0.000007
1.542674 0.547846 0.588783 0.000000 0.115632 -0.000117
1.708773 0.799695 1.025145 0.074211 -0.009882 0.007701
1.661118 0.767125 0.989452 0.074209 -0.005322 0.004173
2.930103 0.627911 0.708865 -0.000001 0.940041 0.000001
1.546231 0.428305 0.520791 -0.072170 0.007804 -0.006569
2.079743 0.628614 0.706348 -0.000000 0.970212 0.000003
1.491907 0.774648 0.386308 -0.074157 0.005365 0.003893
2.348278 0.570207 0.594060 -0.000000 0.340722 -0.000075
0.159926 0.606025 0.622200 -0.136908 0.000210 -0.000175
1.753448 0.843422 1.067392 0.076257 0.004439 -0.003484
1.370495 0.424996 0.542123 -0.074157 -0.005723 0.004151
2.995745 0.533019 0.588331 -0.000000 -0.025572 -0.000018
3.028754 0.326305 0.931492 0.000000 0.786165 0.000644
0.136279 0.530899 0.596270 -0.228881 -0.000016 -0.000151
2.034987 0.552501 0.775327 0.000000 0.166758 0.000040
2.885347 0.612962 0.738760 0.000000 0.807305 0.000001
0.379023 0.444529 0.696859 -0.000000 -0.989886 0.000001
2.616812 0.500626 0.595769 0.000000 -0.387562 -0.000008
2.664425 0.458952 0.801983 -0.000001 -0.786164 -0.000396
1.565810 0.421449 0.802801 0.076255 -0.005919 -0.004639
2.661568 0.624531 0.718434 0.000000 0.921304 0.000006
0.334267 0.458057 0.732805 -0.000000 -0.850342 0.000002
2.437789 0.498892 0.768208 -0.000000 -0.412219 0.000030
2.303522 0.578261 0.767267 0.000000 0.435424 0.000028
1.480433 0.454813 0.767732 -0.074159 -0.003219 -0.002340
2.124499 0.631438 0.689636 -0.000000 0.997930 0.000001
1.662608 0.685313 0.885201 0.074210 -0.001616 0.001270
2.825449 0.420138 0.812129 0.000000 0.786165 0.000173
1.658031 0.975854 0.130726 -0.074158 0.011445 0.008229
1.587429 0.448454 0.651974 0.000000 -0.948637 -0.000009
1.646634 1.019316 0.069542 -0.072169 -0.009019 -0.007576
1.674725 0.071503 0.094665 -0.074157 -0.010015 0.007220
1.523178 0.369872 0.910389 -0.072170 0.006070 0.005121
2.924370 0.387214 0.854010 -0.000001 0.786155 0.000124
2.695403 0.439198 0.537627 -0.000001 -0.786162 0.000248
0.513291 0.494861 0.598461 -0.000000 -0.458467 -0.000013
1.643248 0.842603 0.312027 -0.074157 0.004292 0.003117
1.540810 0.233000 0.299733 -0.074158 -0.009299 0.006713
3.145709 0.787378 1.019768 -0.254960 0.000910 -0.000657
3.145709 0.806438 0.359953 -0.254962 -0.000853 -0.000729
1.439179 0.430001 0.534783 -0.072169 0.007805 -0.006569
1.649205 0.457607 0.564162 0.074209 0.004561 -0.003579
0.513291 0.624311 0.645781 0.000000 0.921369 -0.000003
1.437635 0.700551 0.481301 -0.074158 0.001520 0.001106
0.737069 0.498063 0.767833 0.000000 -0.412261 0.000015
1.721697 0.503715 0.770223 0.000000 -0.364749 0.000069
3.111136 0.324659 0.933586 -0.000000 0.786164 0.000215
1.429361 0.622054 0.588159 -0.074160 0.008584 0.006203
1.619421 0.630668 0.820889 0.074210 -0.002281 0.001792
1.611884 0.240774 1.072819 -0.072170 0.004336 0.003664
1.684946 0.854986 1.073625 0.076255 0.008878 -0.006932
1.714729 0.838305 0.308648 0.076257 0.008878 0.006932
1.436257 0.731203 0.438992 -0.074158 0.005723 0.004151
1.587429 0.502127 0.769602 -0.000001 -0.294560 0.000005
1.676010 0.812669 1.045595 0.074211 -0.004941 0.003876
1.520695 0.669950 0.533866 -0.074159 0.003219 0.002340
1.632185 0.569637 0.593853 0.000001 0.330377 -0.000010
2.756011 0.648403 0.560986 -0.000000 -0.786165 -0.000594
0.113183 0.615263 0.698606 -0.318845 0.000096 0.000018
2.974859 0.502233 0.769643 -0.000000 -0.364205 0.000009
2.527301 0.503503 0.770140 -0.000000 -0.364832 0.000035
0.916093 0.520088 0.774883 0.000000 -0.191880 0.000009
2.079743 0.464355 0.623171 -0.000000 -0.774282 -0.000006
2.228929 0.536048 0.588253 -0.000000 -0.025572 -0.000035
1.945476 0.473606 0.751469 0.000000 -0.688731 0.000014
2.994856 0.359229 0.889610 -0.000000 0.786162 0.000107
3.134120 0.577352 0.676852 1.000000 0.000000 -0.000000
3.134120 0.499570 0.669326 1.000000 0.000000 -0.000000
3.134120 0.538670 0.642215 1.000000 0.000000 0.000000
0.334267 0.494861 0.598461 -0.000000 -0.458621 -0.000053
2.420088 0.612309 0.587286 0.111852 0.003124 0.003955
2.572057 0.567383 0.593069 0.000000 0.316324 -0.000081
3.075141 0.419444 0.852241 -0.000001 -0.786165 -0.000392
2.924223 0.334536 0.921021 0.000000 0.786165 0.000124
3.099245 0.450865 0.692138 0.194026 -0.000808 0.000045
1.453162 0.617408 0.732258 0.000001 0.850245 0.000017
0.423779 0.451140 0.645013 -0.000000 -0.921388 -0.000011
2.895936 0.682974 0.847728 0.000000 -0.786164 0.000111
2.303522 0.500801 0.769043 -0.000000 -0.388615 0.000032
1.413643 0.656595 0.826047 -0.074160 0.008047 -0.005820
3.099245 0.469351 0.627972 0.194028 -0.000630 -0.000563
1.583680 0.401877 0.485379 0.074210 0.001616 -0.001270
3.019614 0.625756 0.649405 0.000000 0.939776 -0.000005
0.159926 0.463277 0.735181 -0.136912 -0.000227 0.000153
1.184627 0.503150 0.770002 -0.000000 -0.364761 0.000035
2.527301 0.447381 0.655329 0.000000 -0.956474 -0.000004
2.840591 0.512088 0.591733 -0.000000 -0.266895 -0.000049
3.019614 0.569566 0.593827 -0.000000 0.340668 -0.000150
1.635802 0.650240 0.520925 0.074209 -0.007982 -0.006239
1.594603 0.811388 0.348785 -0.074157 0.009657 0.006967
0.055803 0.583919 0.662110 -0.543079 0.000030 -0.000012
1.737067 0.647103 0.549107 0.076256 0.007768 0.006075
1.603687 0.966370 1.227845 -0.072169 -0.005897 0.004976
2.348278 0.457798 0.632352 -0.000001 -0.806791 -0.000001
2.883211 0.485291 0.768477 0.000000 -0.618018 0.000365
1.557871 0.275780 1.025419 -0.072170 0.009365 0.007863
2.847598 0.642513 0.529250 -0.000000 0.786165 0.000396
1.619421 0.370004 0.915600 0.074209 0.001521 0.001195
0.390958 0.631613 0.686459 0.000000 0.999673 0.000000
1.363650 0.566772 0.592865 0.000000 0.316228 -0.000020
1.388953 0.701644 0.891092 -0.072167 -0.001604 0.001358
1.690902 0.198162 1.102320 0.076256 -0.008138 -0.006361
3.134120 0.609245 0.718645 0.194656 0.000178 0.000087
1.945476 0.505525 0.593840 0.000001 -0.339997 -0.000038
2.222961 0.539532 0.776474 -0.000010 0.001246 0.000362
1.760894 0.392229 0.864113 0.076256 -0.003144 -0.002470
3.022542 0.350998 0.464658 -0.000000 0.786162 -0.000107
3.022542 0.705069 0.915064 0.000001 0.786161 -0.000215
2.813480 0.688607 0.470616 0.111855 0.003179 0.004024
2.169255 0.619505 0.728745 -0.000000 0.876448 0.000004
0.159926 0.563037 0.594856 -0.136916 0.000083 -0.000260
1.050360 0.506344 0.593544 -0.000001 -0.339226 -0.000038
1.634535 0.889374 1.118105 -0.074156 0.003756 -0.002729
2.303522 0.445057 0.664857 0.000000 -0.981408 -0.000011
2.885347 0.561980 0.591440 0.000000 0.267016 -0.000024
1.750470 0.064520 1.288421 0.074209 0.009122 0.007118
1.750470 0.243210 1.061113 0.074209 0.004561 0.003579
2.751080 0.499064 0.596452 -0.000000 -0.412219 -0.000060
1.583680 0.613686 0.803590 0.074208 -0.003041 0.002389
2.974859 0.575198 0.596063 0.000000 0.388690 -0.000008
2.905815 0.357583 0.891704 -0.000001 0.786163 0.000248
1.726643 1.038994 0.037337 0.074211 -0.007602 -0.005945
3.065490 0.383922 0.506540 0.000001 0.786158 -0.000215
1.388107 0.657465 0.534267 -0.074158 0.008584 0.006204
2.998729 0.631602 0.686913 0.000000 0.999663 0.000000
1.439179 0.645125 0.534783 -0.072170 -0.007805 -0.006569
1.060803 0.537109 0.776513 0.000000 -0.025562 0.000009
1.844029 0.631705 0.682899 -0.000000 0.999683 0.000000
2.287112 0.536806 0.588233 0.000000 -0.025572 -0.000035
2.169255 0.499858 0.768645 0.000000 -0.412224 0.000030
2.214010 0.616926 0.631709 0.000000 0.836741 -0.000004
0.030244 0.530427 0.652131 -0.643371 -0.000004 -0.000015
2.393034 0.567311 0.771694 0.000000 0.316343 0.000081
0.144110 0.586799 0.755545 -0.198403 0.000105 0.000147
1.464110 0.794298 1.008956 -0.072170 -0.009712 0.008149
1.485584 0.254356 1.042631 -0.074157 -0.010015 -0.007220
3.162879 0.769099 0.378030 -0.254961 0.001947 0.001405
3.162879 0.778629 0.979217 -0.254960 -0.001826 0.001560
2.877226 0.458952 0.562756 0.000000 -0.786165 0.000396
3.116682 0.613058 0.646013 0.187277 0.000808 -0.000335
1.453162 0.505917 0.593698 -0.000001 -0.340501 -0.000075
1.714729 0.957432 1.207629 0.076257 0.002959 -0.002325
1.578977 0.182645 0.226941 -0.072170 0.003816 -0.003226
2.927963 0.370058 0.449675 0.000000 -0.786165 0.000124
0.871337 0.577443 0.597077 0.000000 0.412261 -0.000004
3.064370 0.443532 0.677522 0.207135 -0.000204 -0.000008
1.095116 0.483257 0.759281 0.000000 -0.568771 0.000020
0.423779 0.622543 0.722897 -0.000000 0.900173 0.000013
2.994856 0.696838 0.460145 -0.000003 0.786124 0.000215
2.214010 0.469899 0.747837 -0.000000 -0.724791 0.000013
2.998729 0.533019 0.776408 0.000000 -0.025572 0.000018
1.050360 0.450904 0.645572 0.000000 -0.921369 -0.000001
1.577724 0.623179 0.765479 0.076255 0.005919 -0.004639
1.786211 1.042479 0.040076 0.074208 -0.006082 -0.004765
1.786211 0.908461 1.154181 0.074212 -0.006842 0.005356
1.972329 0.631691 0.683429 -0.000000 0.999663 0.000000
2.840591 0.570953 0.770403 -0.000000 0.364836 0.000035
1.589637 0.431310 0.523538 0.074208 0.004562 -0.003579
1.589637 0.643816 0.523538 0.074209 -0.004561 -0.003579
2.393034 0.443859 0.673216 0.000001 -0.927533 -0.000000
0.826581 0.450124 0.717276 0.000000 -0.931105 0.000005
1.559894 0.869247 0.264865 -0.074157 0.004292 0.003117
1.559894 0.205880 0.264865 -0.074158 -0.008584 0.006204
2.569846 0.458952 0.801983 0.000001 -0.786165 -0.000792
1.529409 0.623179 0.599259 -0.074159 0.003219 0.002340
1.637291 0.425747 0.806179 0.076255 -0.007768 -0.006075
3.134120 0.561545 0.759044 0.193855 0.000062 0.000189
2.774419 0.652390 0.848053 -0.000003 0.786147 -0.000347
0.692314 0.491918 0.600026 0.000000 -0.479358 -0.000006
1.611884 0.834352 1.072819 -0.072171 -0.004336 0.003664
1.229383 0.624664 0.646619 0.000000 0.921487 -0.000001
2.124499 0.605045 0.616709 0.000001 0.697276 -0.000003
0.647558 0.500207 0.768793 -0.000000 -0.388619 0.000032
0.364105 0.541653 0.588319 0.000000 0.025965 -0.000035
2.795835 0.450963 0.645432 0.000000 -0.921333 -0.000011
1.184627 0.449460 0.715583 0.000000 -0.940206 0.000005
3.160237 0.258969 0.342687 -0.254963 0.000853 -0.000729
1.661118 0.203765 0.242689 0.074209 0.008362 -0.006533
1.540367 0.370141 0.876546 -0.074158 -0.003040 -0.002210
1.540367 0.704985 0.488192 -0.074158 0.003040 0.002210
1.676941 0.554555 0.589761 -0.000000 0.191935 -0.000069
1.587429 0.455640 0.728778 0.000000 -0.863950 0.000001
2.616812 0.448203 0.652729 -0.000000 -0.948284 -0.000005
2.034987 0.444775 0.666423 0.000001 -0.982829 -0.000001
1.686435 0.657593 0.822709 0.076256 0.007768 -0.006075
1.515786 0.653115 0.808351 -0.074158 0.008048 -0.005821
1.634313 0.388341 0.511344 0.076258 -0.003144 0.002470
1.611975 0.682350 0.887529 0.074209 -0.003231 0.002538
1.643248 0.368610 0.450234 0.074210 0.003041 -0.002389
1.625378 0.739441 0.919271 0.076257 0.005919 -0.004639
1.520695 0.650871 0.845871 -0.072171 -0.007804 0.006569
1.510877 0.438847 0.785829 -0.074158 -0.006438 -0.004666
1.855964 0.444801 0.698465 -0.000000 -0.985738 0.000002
2.698865 0.540744 0.588296 0.000000 0.025572 -0.000035
1.559340 0.377305 0.500438 -0.074158 -0.003040 0.002210
1.595594 0.703728 0.916696 0.074208 -0.001521 0.001195
0.826581 0.451630 0.643905 0.000000 -0.911066 -0.000006
0.271609 0.535366 0.776496 0.000000 -0.012588 0.000018
1.741535 0.342669 0.924761 0.076256 -0.005549 -0.004350
1.184627 0.567419 0.771658 0.000000 0.316426 0.000041
0.655017 0.536427 0.588228 -0.000000 -0.012578 -0.000009
1.634313 0.676212 0.487707 0.074209 -0.001616 -0.001270
1.811208 0.450124 0.647463 0.000000 -0.931190 -0.000003
3.064370 0.477248 0.610069 0.196897 -0.000140 -0.000163
3.112578 0.419444 0.852241 0.000000 -0.786162 -0.000107
1.684946 0.395952 0.874702 0.074211 0.001615 0.001270
1.654795 0.932324 1.174584 -0.074158 0.003219 -0.002340
1.126445 0.539229 0.776482 0.000000 0.025572 0.000018
2.682454 0.443419 0.683278 0.000000 -0.999916 0.000000
1.681967 0.239772 0.291004 0.074209 0.004561 -0.003579
3.064370 0.615682 0.629807 0.198675 0.000175 -0.000121
1.648838 0.167582 1.163415 -0.072169 0.006591 0.005556
1.480016 0.537866 0.776517 -0.000000 0.025562 0.000018
3.116682 0.492983 0.753318 0.193472 -0.000102 0.000171
3.009917 0.639221 0.831300 0.000000 0.786165 -0.000392
3.047355 0.435906 0.831300 -0.000001 -0.786165 -0.000392
2.941355 0.691204 0.858199 0.000000 -0.786165 0.000124
3.037704 0.655683 0.512497 0.000000 0.786165 0.000784
3.168971 0.368345 0.897627 -0.254960 -0.001821 -0.001314
3.150993 0.731382 0.919115 -0.254961 -0.001826 0.001560
3.168971 0.368345 0.467111 -0.254960 -0.001821 0.001314
2.886658 0.697789 0.498163 -0.000000 -0.786166 -0.000223
2.779656 0.426723 0.803752 0.000000 0.786165 0.000297
2.710218 0.622759 0.810359 0.000000 0.786165 -0.000495
3.112578 0.400384 0.527481 -0.000000 0.786162 -0.000107
1.568974 0.745921 0.401184 -0.072170 -0.005377 -0.004539
3.150993 0.731382 0.445624 -0.254961 -0.001826 -0.001560
0.580424 0.534079 0.588303 0.000010 -0.001332 -0.000340
0.083593 0.481219 0.646530 -0.434334 -0.000049 -0.000030
1.673032 0.736576 0.921523 0.076255 0.002959 -0.002325
0.737069 0.468362 0.618524 -0.000000 -0.742592 -0.000012
1.696859 0.176184 0.233723 0.076255 -0.003699 0.002905
1.408406 0.461852 0.738332 -0.000001 -0.806578 0.000010
1.920114 0.631699 0.683127 -0.000000 0.999663 0.000000
1.274139 0.523974 0.775531 0.000001 -0.140245 0.000048
1.443004 0.373963 0.468160 -0.072170 0.002949 -0.002494
2.855510 0.631613 0.678280 0.000000 0.999673 -0.000000
2.909400 0.623710 0.772341 0.000000 -0.786165 0.000111
2.902668 0.653342 0.810035 0.000000 -0.786165 0.000111
0.334267 0.446947 0.656821 0.000000 -0.963650 -0.000008
1.601551 0.334253 0.918144 0.076257 -0.005919 -0.004639
2.931704 0.688607 0.470616 -0.000000 0.786165 0.000124
2.921152 0.536048 0.776505 0.000000 -0.012981 0.000279
2.769183 0.675437 0.487368 0.111854 0.003179 0.004024
2.769183 0.399689 0.877370 -0.000000 -0.786165 -0.000693
3.029659 0.793535 1.007985 0.111854 0.003179 -0.004024
3.029659 0.793535 0.356753 0.111853 0.003179 0.004024
3.019614 0.625238 0.716676 -0.000001 0.930915 0.000021
1.613464 0.706653 0.488651 0.076257 0.006288 0.004927
1.480360 0.390200 0.856559 -0.074157 -0.001610 -0.001171
0.647558 0.449460 0.715583 0.000000 -0.940183 0.000002
1.520695 0.405176 0.533866 -0.074157 -0.001610 0.001171
1.744513 0.762060 0.401952 0.076256 0.005179 0.004062
1.554526 0.862629 1.091455 -0.074158 0.004292 -0.003117
1.945476 0.568497 0.593440 0.000000 0.316228 -0.000041
0.289512 0.526828 0.588835 -0.000000 -0.115642 -0.000233
1.500254 0.291540 1.000350 -0.072171 0.004856 0.004102
1.486539 0.762730 0.974178 -0.072170 -0.005203 0.004394
1.491907 0.305778 0.382141 -0.072170 0.005377 -0.004539
2.939184 0.674743 0.527481 -0.000000 -0.786165 -0.000495
2.909400 0.604651 0.577414 -0.000000 0.786165 0.000111
2.930103 0.446998 0.656638 0.000000 -0.963667 -0.000015
0.558046 0.593587 0.758036 -0.000000 0.589751 0.000019
3.019614 0.574745 0.768866 0.000000 0.388610 0.000064
0.244756 0.446846 0.657186 -0.000000 -0.963660 -0.000015
0.423779 0.506273 0.593569 -0.000000 -0.340722 -0.000075
1.753448 0.209368 1.095805 0.076257 -0.004069 -0.003194
1.676941 0.618264 0.730872 0.000000 0.850901 0.000001
1.750470 0.250656 0.313097 0.074210 0.009122 -0.007118
2.706324 0.586291 0.762931 -0.000000 0.525840 0.000022
1.527095 0.258450 0.322294 -0.072170 0.004683 -0.003956
0.289512 0.463410 0.624355 0.000000 -0.791824 -0.000010
1.456719 0.722019 0.922750 -0.072171 -0.006070 0.005121
1.667075 0.292762 0.356618 0.074210 0.005322 -0.004173
1.318895 0.572893 0.769643 0.000000 0.364666 0.000017
1.617253 0.234156 0.283501 -0.072172 0.003989 -0.003372
1.563606 0.739303 0.955136 -0.072172 -0.002862 0.002421
1.632185 0.457480 0.632867 0.000001 -0.681846 -0.000001
2.048414 0.631684 0.683732 0.000000 0.999673 0.000000
1.756427 0.183298 1.136608 0.074211 0.003801 0.002984
1.602949 0.825273 1.033984 -0.074160 0.004650 -0.003376
1.535442 0.244212 1.060197 -0.072169 0.004509 0.003810
1.516359 0.803440 1.025607 -0.072173 -0.004856 0.004102
1.557850 0.402137 0.876159 -0.072168 0.001604 0.001358
1.765362 0.961833 1.219494 0.076255 0.002959 -0.002325
1.691418 0.047974 0.055270 -0.072169 0.007631 -0.006425
1.586659 0.644978 0.570423 0.076259 0.002959 0.002325
