3.696707 0.274689 0.333649 0.029157 -0.024231 0.016730
1.803271 0.161614 1.006604 0.130293 -0.008200 -0.006669
3.418012 0.559836 0.689992 -0.000001 0.631734 0.000261
1.660335 0.729813 0.897768 -0.014879 -0.014197 0.008575
1.500405 0.414803 0.720382 -0.014877 0.026406 0.010826
1.428596 0.672480 0.404135 -0.044150 0.009246 0.006862
3.787585 0.298994 0.363473 -0.054653 -0.006581 0.005447
1.762500 0.206063 0.243281 -0.014877 0.023108 -0.010446
1.261462 0.571796 0.573629 0.000000 0.890953 -0.000002
1.619180 0.678125 0.410630 -0.044149 0.011788 0.008636
0.535198 0.441761 0.665808 0.000000 -0.717604 0.000017
1.615136 0.407769 0.695706 -0.044149 -0.019874 -0.013743
2.043591 0.429044 0.648465 -0.000000 -0.878018 0.000005
1.351029 0.577490 0.696058 -0.044150 0.009246 -0.006862
1.569628 0.500808 0.690480 -0.000000 0.029767 0.000018
3.656352 0.419278 0.723273 -0.054651 -0.006581 -0.005448
0.173484 0.504681 0.529523 -0.045992 0.000014 -0.000467
1.510521 0.767619 0.284645 -0.044149 0.010171 0.007515
1.491883 0.246863 0.916943 -0.044150 -0.005085 -0.003830
1.508931 0.276464 0.343148 -0.044149 -0.011095 0.008159
1.457801 0.722310 0.879255 -0.044149 0.011095 -0.008159
2.845544 0.419271 0.607924 0.000000 -0.999545 -0.000000
3.177139 0.419307 0.606708 -0.000000 -0.999545 -0.000000
3.484631 0.414042 0.707907 0.029161 0.015029 0.009869
2.490522 0.565408 0.656746 0.000000 0.813749 0.000006
2.490522 0.435077 0.657918 -0.000000 -0.796323 0.000013
2.769855 0.498146 0.529344 0.000000 -0.029779 -0.000018
1.652526 0.571641 0.646480 0.000000 0.892203 0.000009
3.105053 0.429244 0.648833 -0.000000 -0.878332 0.000009
1.485878 0.585003 0.720246 -0.014877 -0.022009 0.010293
0.344171 0.500124 0.529298 -0.000000 0.015077 -0.000291
3.328518 0.578359 0.628006 0.000000 0.974490 0.000002
3.590446 0.619311 0.456006 0.029157 0.053351 0.023014
1.763967 0.810044 0.247230 -0.044149 0.016178 0.011519
2.769855 0.433099 0.655123 0.000000 -0.831416 0.000023
1.583234 0.297000 0.375668 -0.044150 -0.005548 0.004174
0.926263 0.453502 0.543938 -0.000000 -0.580146 -0.000012
2.349955 0.499667 0.690506 0.000000 -0.030159 0.000018
0.255866 0.491276 0.690047 -0.000000 -0.105504 0.000641
1.779808 0.418989 0.685904 0.130292 -0.005125 -0.004173
1.564721 0.720563 0.884467 -0.014875 -0.031024 0.011205
2.762646 0.580382 0.611423 0.000000 0.999545 0.000000
1.412150 0.391197 0.746611 -0.014878 0.011007 0.007387
1.688977 0.787835 0.967939 -0.014878 -0.025744 0.010759
2.881587 0.580143 0.603214 -0.000001 0.988191 -0.000000
0.783894 0.419310 0.606632 0.000000 -0.999545 -0.000000
1.402419 0.559613 0.531911 -0.014877 -0.013209 -0.008246
1.679559 0.499059 0.529316 -0.000000 -0.030159 -0.000073
2.378790 0.568561 0.567813 0.000001 0.846417 -0.000011
1.525346 0.430149 0.517226 -0.014877 0.056649 -0.012044
1.707355 0.186604 0.998553 -0.014874 0.023113 0.010445
0.591065 0.460955 0.539290 0.000000 -0.478015 -0.000062
2.378790 0.430356 0.569021 -0.000000 -0.862846 -0.000005
1.838465 0.760221 0.301350 0.130289 0.002563 0.002088
1.838465 0.239418 0.301350 0.130291 -0.005125 0.004173
1.838465 0.220863 0.941222 0.130293 -0.009224 -0.007499
0.702798 0.507114 0.690179 -0.000000 0.105551 0.000320
1.471956 0.302590 0.844902 -0.044149 -0.019874 -0.013743
3.274454 0.500276 0.529300 0.000000 0.015274 -0.000072
1.412974 0.308384 0.373969 -0.014876 0.013210 -0.008246
1.660335 0.269826 0.322036 -0.014878 0.014198 -0.008575
1.744614 0.658454 0.774054 -0.044149 0.023569 -0.015769
1.543546 0.644459 0.449500 -0.044149 0.019874 0.013743
1.708393 0.435906 0.659008 0.000000 -0.796377 0.000026
2.993320 0.469043 0.535401 0.000000 -0.368824 -0.000011
1.484927 0.575578 0.582391 0.000001 0.937286 -0.000003
1.766899 0.807642 0.993475 -0.014877 -0.023109 0.010446
1.744614 0.361150 0.429479 0.044177 0.019644 -0.014631
3.804639 0.545461 0.556804 0.094261 0.000843 -0.001034
1.693885 0.876248 0.145838 -0.014876 -0.036949 -0.011532
2.267057 0.431744 0.653055 -0.000000 -0.847690 0.000011
1.623047 0.198865 0.249148 -0.044149 -0.009015 0.006697
2.267057 0.567915 0.653023 0.000000 0.847905 0.000021
1.719193 0.310975 0.369963 -0.014876 0.061890 -0.012113
1.429061 0.553441 0.670084 -0.000000 0.674249 0.000009
2.993320 0.580327 0.613248 0.000000 0.999545 0.000000
1.875992 0.537882 0.680950 0.000000 0.478023 0.000062
1.728252 0.706442 0.871347 -0.014877 -0.028382 0.011007
0.173484 0.568731 0.651560 -0.037422 0.001004 0.000566
3.440251 0.471593 0.685401 -0.000000 -0.340267 0.000023
1.708393 0.534832 0.682505 0.000000 0.424043 0.000036
3.600093 0.661735 0.811493 0.029157 0.012120 -0.010044
3.724798 0.587660 0.708965 -0.054652 -0.013403 0.010369
2.463490 0.499667 0.529298 0.000000 -0.030159 -0.000018
1.552646 0.334465 0.817834 -0.014877 0.056650 0.012044
2.975299 0.497994 0.690455 0.000000 -0.030165 0.000036
1.891256 0.847617 1.036676 0.044176 -0.018134 0.013674
2.658122 0.435169 0.561764 0.000001 -0.762544 -0.000002
1.632874 0.878350 1.072253 -0.044151 0.006472 -0.004855
1.448878 0.649430 0.796564 -0.014879 -0.013207 0.008246
3.775450 0.432127 0.653668 -0.366243 -0.000088 0.000059
1.592991 0.663910 0.792341 -0.044150 0.019874 -0.013743
0.173484 0.433549 0.655645 -0.037421 -0.000964 0.000623
1.734478 0.949305 1.158406 -0.044148 0.018489 -0.012932
1.803271 0.723996 0.891142 0.044176 -0.007557 0.006071
3.551984 0.464396 0.682307 0.000000 -0.451283 0.000008
1.347193 0.651933 0.794524 -0.044151 0.012327 -0.009003
3.607851 0.427431 0.574444 0.000000 -0.890953 -0.000002
3.452868 0.559047 0.529168 -0.000001 0.631734 -0.000261
1.494101 0.374631 0.471537 -0.044149 -0.009246 0.006862
1.592417 0.246454 0.924188 -0.014877 0.028384 0.011006
2.821215 0.497614 0.690444 0.000000 -0.029779 0.000018
3.838862 0.418474 0.542461 -0.367117 -0.000095 -0.000076
3.440251 0.430876 0.568135 0.000000 -0.848130 -0.000003
1.093862 0.452046 0.544975 0.000000 -0.604815 -0.000006
1.725159 0.941884 0.070505 -0.044149 0.018488 0.012932
1.725159 0.057755 0.070505 -0.044149 -0.009246 0.006862
3.663717 0.571122 0.572307 0.000000 0.876797 -0.000002
0.423466 0.565982 0.563863 0.000000 0.814421 -0.000003
2.043591 0.577603 0.631032 -0.000001 0.966599 0.000009
1.261462 0.453905 0.676153 -0.000000 -0.580075 0.000012
0.765873 0.580412 0.610967 0.000000 0.999877 0.000000
1.097467 0.580426 0.610054 0.000000 0.999889 0.000000
1.861928 0.449902 0.673208 0.044178 0.015112 0.011654
0.056159 0.458859 0.591467 -0.494608 -0.000039 -0.000016
0.479332 0.450410 0.546218 0.000000 -0.598141 -0.000003
1.702802 0.352197 0.800079 -0.014878 0.067113 0.012171
1.317328 0.580097 0.617197 0.000000 0.994434 0.000001
0.639723 0.580327 0.613248 -0.000000 0.999545 0.000000
1.734118 0.274441 0.893951 -0.014877 0.028382 0.011007
1.604940 0.564807 0.698816 -0.014877 -0.022009 0.010292
1.820868 0.107743 1.076369 0.130292 -0.006150 -0.005006
1.694293 0.731304 0.345984 -0.044149 0.005086 0.003831
3.626455 0.347787 0.429162 0.029158 0.026187 -0.014397
2.825721 0.457118 0.541544 0.000001 -0.530132 -0.000054
0.423466 0.551308 0.671921 -0.000000 0.626374 0.000005
3.667747 0.448838 0.544436 0.094262 -0.002528 -0.003101
1.312657 0.430567 0.532041 -0.044149 -0.012327 0.009003
3.258235 0.503242 0.690407 -0.000009 0.002122 0.000258
1.684578 0.225870 0.268818 -0.014877 0.025747 -0.010758
2.937454 0.426056 0.642391 0.000000 -0.918088 0.000002
1.398995 0.319517 0.832174 -0.014877 0.052719 0.011979
1.553923 0.805507 0.981954 -0.044150 0.009246 -0.006862
0.311733 0.532902 0.683409 -0.000000 0.424514 0.000009
1.192334 0.550743 0.547415 0.000000 -0.631709 0.000061
3.160919 0.561321 0.557804 -0.000000 0.756183 -0.000004
2.602255 0.555808 0.551923 -0.000000 0.696217 -0.000018
3.713423 0.332693 0.822249 -0.054653 -0.019737 -0.015480
1.708393 0.433395 0.564237 -0.000000 -0.830348 -0.000006
0.702798 0.572891 0.575889 -0.000000 0.905598 -0.000032
1.681645 0.774373 0.288255 -0.044149 0.009246 0.006862
1.809136 0.844802 1.038970 0.044178 -0.021153 0.015552
3.303181 0.427119 0.699110 0.029158 -0.026848 -0.017733
0.982130 0.556924 0.666791 0.000000 0.717799 0.000008
3.775450 0.478173 0.532254 -0.362536 -0.000030 -0.000102
1.429061 0.476276 0.532814 0.000000 -0.282781 -0.000014
3.816072 0.387136 0.748173 -0.054653 -0.006581 -0.005447
2.713988 0.558514 0.665153 -0.000000 0.738405 0.000016
1.806203 0.568684 0.676711 0.130294 0.002562 -0.002088
3.328518 0.540996 0.540611 0.000000 0.504432 -0.000029
3.606048 0.580403 0.608228 0.000000 0.999883 -0.000000
1.931858 0.430203 0.650519 0.000000 -0.863381 0.000002
2.211190 0.452046 0.544975 0.000000 -0.604815 -0.000006
3.049186 0.572294 0.574614 0.000000 0.905682 -0.000008
0.200000 0.444568 0.551207 0.031142 -0.000481 -0.000496
2.211190 0.547957 0.545251 -0.000000 0.604705 -0.000045
3.496668 0.620724 0.754871 0.029158 -0.015031 0.009870
3.521263 0.630251 0.453242 0.029159 -0.015266 -0.009991
1.744614 0.658454 0.445749 -0.044149 0.023569 0.015769
2.602255 0.558169 0.665508 0.000000 0.716877 0.000008
3.551984 0.556054 0.667642 0.000001 0.695073 0.000018
1.596660 0.579722 0.599318 -0.000001 0.957681 -0.000001
2.434656 0.580391 0.611118 -0.000000 0.999545 0.000000
2.324725 0.419216 0.609750 0.000000 -0.999545 -0.000000
2.432854 0.419216 0.609750 -0.000000 -0.999545 -0.000000
2.602255 0.443776 0.667828 -0.000000 -0.696341 0.000018
1.093862 0.543070 0.541887 0.000000 0.529648 -0.000007
3.216786 0.439740 0.556167 -0.000000 -0.738289 -0.000016
1.931858 0.556791 0.552876 -0.000000 0.696031 -0.000002
2.099458 0.553722 0.669828 0.000000 0.674358 0.000019
1.931858 0.442821 0.552903 0.000000 -0.717604 -0.000008
2.323824 0.580412 0.610434 -0.000000 0.999533 0.000000
1.312657 0.564413 0.528245 -0.014879 -0.035188 -0.011451
2.881587 0.526687 0.685894 0.000001 0.339685 0.000024
1.858995 0.297173 0.851854 0.130291 -0.002819 -0.002297
1.858995 0.702466 0.851854 0.130293 0.002819 -0.002297
0.423466 0.450470 0.673631 0.000000 -0.604706 0.000011
1.820868 0.650686 0.780385 0.130292 0.006662 -0.005422
1.759278 0.389065 0.501451 0.130293 -0.005125 0.004173
2.713988 0.462868 0.538269 0.000001 -0.450631 -0.000017
3.636986 0.323613 0.829028 0.029157 -0.018177 -0.013845
1.615136 0.574101 0.509617 -0.014878 -0.056648 -0.012044
3.759021 0.578492 0.507548 -0.054654 0.013160 0.010668
0.353182 0.419344 0.614312 0.000000 -0.999545 0.000000
1.093862 0.483498 0.688834 -0.000001 -0.193600 0.000022
1.776875 0.378599 0.766655 0.044177 0.009824 0.007816
1.987725 0.454029 0.676241 -0.000001 -0.580376 0.000095
0.872199 0.497538 0.529362 -0.000000 -0.030165 -0.000009
1.588006 0.835973 0.200160 -0.044147 0.004161 0.003141
0.646931 0.443257 0.667324 0.000000 -0.696452 0.000004
2.937454 0.570031 0.570302 0.000000 0.878299 -0.000005
1.037996 0.575617 0.637305 -0.000000 0.940240 0.000012
1.622113 0.312535 0.820801 -0.044151 -0.011788 -0.008636
3.216786 0.579929 0.601018 0.000000 0.989636 -0.000000
1.592991 0.335729 0.427462 -0.044150 -0.019874 0.013743
1.797901 0.022944 1.196707 -0.014876 0.078848 0.012267
1.826733 0.098570 0.113021 0.044176 0.018134 -0.013673
1.826733 0.901069 0.113021 0.044176 -0.018134 -0.013673
1.751579 0.156283 0.202388 -0.044150 -0.014330 0.010335
1.037996 0.517405 0.688561 0.000001 0.224557 0.000148
1.809136 0.844802 0.180833 0.044177 -0.021153 -0.015552
1.097467 0.419217 0.609521 0.000000 -0.999883 -0.000000
0.549616 0.580407 0.611271 0.000000 0.999889 0.000000
1.748894 0.090143 1.115070 -0.014877 0.060579 0.012097
1.629173 0.808974 0.981023 -0.044148 0.004161 -0.003141
2.717592 0.419234 0.610662 0.000000 -0.999545 0.000000
1.670848 0.147509 1.034893 -0.044146 -0.007397 -0.005532
2.212993 0.580423 0.610054 0.000000 0.999545 0.000000
0.982130 0.579747 0.599507 0.000001 0.988314 -0.000001
0.479332 0.424477 0.638557 0.000000 -0.923244 0.000002
1.569368 0.180307 1.002893 -0.014876 0.023769 0.010531
0.870397 0.562604 0.660443 -0.000001 0.777369 0.000014
2.212993 0.419216 0.609750 0.000000 -0.999545 -0.000000
3.521263 0.369388 0.766562 0.029157 0.015267 0.009992
3.736251 0.705852 0.361446 0.029156 -0.013099 -0.008827
3.770474 0.298682 0.858167 -0.054654 -0.013160 -0.010668
1.596660 0.428238 0.572848 -0.000000 -0.892381 -0.000004
0.870397 0.559643 0.555886 0.000000 0.738306 -0.000016
0.646931 0.436748 0.559715 0.000000 -0.777466 -0.000014
0.255866 0.578878 0.594215 -0.000000 0.980757 -0.000014
0.556824 0.498222 0.690486 0.000000 -0.015666 0.000070
3.730524 0.646756 0.783661 -0.054654 -0.006702 0.005299
2.099458 0.448923 0.672399 -0.000000 -0.627496 0.000011
0.926263 0.441761 0.665808 0.000000 -0.717604 0.000004
3.838862 0.598231 0.571422 -0.368347 0.000113 -0.000043
1.399131 0.627415 0.450765 -0.014877 -0.022008 -0.010293
3.472690 0.580308 0.613856 0.000000 0.999545 0.000000
1.931858 0.571727 0.646310 0.000000 0.890811 0.000004
2.211190 0.547593 0.674828 0.000000 0.580645 0.000006
3.047384 0.501493 0.529344 0.000000 0.030159 -0.000036
0.048629 0.494964 0.649889 -0.524114 -0.000005 0.000035
0.646931 0.553498 0.670033 -0.000000 0.671444 0.000005
0.758664 0.442291 0.553449 -0.000000 -0.717649 -0.000033
2.993320 0.442450 0.666518 0.000000 -0.717656 0.000008
2.211190 0.451440 0.674368 0.000000 -0.604758 0.000045
0.479332 0.545452 0.543456 0.000001 0.555087 -0.000025
1.484927 0.441973 0.666027 0.000000 -0.717604 0.000002
1.820126 0.423181 0.634859 -0.000000 -0.949435 0.000001
2.546389 0.443094 0.552638 0.000001 -0.614529 -0.000002
3.551984 0.534969 0.537363 0.000000 0.423510 -0.000018
1.518250 0.725805 0.330136 -0.014877 -0.031679 -0.011250
1.867793 0.939586 0.068632 0.044176 -0.012091 -0.009505
1.867793 0.060053 0.068632 0.044177 0.012091 -0.009505
1.812917 0.580414 0.610358 -0.000004 0.256448 0.000000
1.664581 0.407285 0.733200 -0.014877 0.056649 0.012044
2.434656 0.447751 0.548375 0.000000 -0.651590 -0.000010
3.644938 0.563044 0.703478 0.029157 0.025474 -0.017223
2.322923 0.447520 0.548573 0.000000 -0.651726 -0.000020
3.559193 0.419238 0.611728 0.000000 -0.999889 0.000000
1.229610 0.580430 0.708817 -0.014876 -0.070168 0.012198
2.434656 0.551426 0.547978 0.000000 0.651823 -0.000010
1.867793 0.942780 1.148568 0.130292 0.005125 -0.004173
2.322923 0.551657 0.548177 0.000000 0.651726 -0.000020
1.809136 0.154837 0.180833 0.044176 0.021154 -0.015552
2.713988 0.450682 0.673792 0.000000 -0.602894 0.000006
0.814530 0.434805 0.657551 -0.000000 -0.814024 0.000012
2.322923 0.551426 0.671825 -0.000000 0.651823 0.000010
1.317328 0.435814 0.658887 -0.000000 -0.796402 0.000013
1.648958 0.384517 0.459691 -0.014877 0.056650 -0.012044
2.322923 0.448097 0.671726 0.000000 -0.651726 0.000010
1.812069 0.772187 0.927646 0.130289 0.002563 -0.002088
0.982130 0.435721 0.561037 -0.000000 -0.796356 -0.000013
1.663379 0.120243 0.148403 -0.044149 -0.012944 0.009418
3.719583 0.532343 0.683650 -0.000000 0.396546 0.000079
3.663717 0.443749 0.667801 -0.000000 -0.696349 0.000035
0.758664 0.557030 0.666682 0.000000 0.717797 0.000016
1.373194 0.521465 0.687549 -0.000000 0.282988 0.000115
1.891256 0.773398 0.274199 0.044177 -0.024173 -0.017287
1.891256 0.226241 0.274199 0.044177 0.024173 -0.017287
3.387989 0.503318 0.690404 0.000000 0.030159 0.000018
3.562003 0.625503 0.769455 0.029160 0.013369 -0.010907
1.708393 0.549710 0.546591 0.000000 0.628319 -0.000005
3.502856 0.584983 0.706181 0.029158 -0.015031 0.009870
3.456941 0.410433 0.495383 0.029158 -0.040239 0.021215
1.478479 0.637794 0.436490 -0.014878 -0.056647 -0.012044
3.667321 0.501341 0.690487 -0.000002 0.013863 0.000317
0.728028 0.496625 0.529390 -0.000000 -0.030165 -0.000036
1.820868 0.659657 0.408841 0.044176 -0.009069 -0.007240
3.384385 0.558976 0.555156 0.000000 0.737647 -0.000008
2.658122 0.569877 0.570040 -0.000001 0.862722 -0.000010
1.623171 0.162104 0.193856 -0.014878 0.023107 -0.010446
0.814530 0.526508 0.533845 -0.000000 0.340277 -0.000023
1.652526 0.448450 0.547787 0.000000 -0.628485 -0.000021
0.367599 0.448069 0.548102 0.000000 -0.649653 -0.000005
1.559168 0.375951 0.741765 -0.044150 -0.019874 -0.013743
1.540794 0.537815 0.538817 0.000001 0.477817 -0.000031
0.048629 0.539807 0.605046 -0.505437 0.000018 -0.000002
1.397351 0.714023 0.347057 -0.014875 -0.052724 -0.011978
1.285524 0.374678 0.763460 -0.044149 -0.018488 -0.012932
1.304162 0.639805 0.438129 -0.014877 -0.035192 -0.011450
1.285524 0.374678 0.456343 -0.044149 -0.018488 0.012932
1.484927 0.435606 0.561189 0.000001 -0.795826 -0.000013
3.384385 0.422269 0.587927 -0.000000 -0.957314 -0.000001
0.646931 0.550716 0.547404 0.000001 0.624607 -0.000011
3.049186 0.445551 0.550309 -0.000000 -0.673936 -0.000009
0.591065 0.568016 0.652862 0.000001 0.844103 0.000005
2.881587 0.440715 0.555100 -0.000001 -0.699104 -0.000002
0.367599 0.551974 0.548449 0.000000 0.651726 -0.000079
3.496118 0.444213 0.551552 0.000000 -0.696328 -0.000035
1.714026 0.610607 0.756214 -0.014877 -0.056651 0.012044
3.272652 0.571401 0.646955 -0.000000 0.892295 0.000017
1.484927 0.566645 0.654965 -0.000000 0.831066 0.000006
3.838862 0.513844 0.714633 -0.369985 0.000018 0.000119
2.043591 0.445046 0.550771 0.000000 -0.674358 -0.000037
2.043591 0.555071 0.551207 0.000000 0.696452 -0.000009
0.982130 0.551012 0.547644 -0.000000 0.628485 -0.000011
1.149729 0.562149 0.661005 0.000001 0.777771 0.000055
3.663717 0.507039 0.529618 0.000000 0.075199 -0.000056
3.105053 0.547221 0.675093 -0.000000 0.577269 0.000006
1.205595 0.439483 0.663355 0.000000 -0.738356 0.000016
3.160919 0.570813 0.648064 0.000000 0.876797 0.000002
1.751579 0.834172 0.194904 -0.014877 -0.040895 -0.011686
3.216786 0.547775 0.545113 0.000000 0.604192 -0.000011
1.724390 0.875897 1.074252 -0.014879 -0.035625 0.011473
1.891256 0.773398 0.945604 0.044177 -0.024173 0.017287
1.891256 0.847617 0.183127 0.044177 -0.018134 -0.013673
1.891256 0.152022 1.036676 0.044176 0.018134 0.013674
1.891256 0.152022 0.183127 0.044177 0.018134 -0.013673
1.891256 0.374678 0.456343 0.044176 0.009069 -0.007240
1.891256 0.624961 0.456343 0.044177 -0.018133 -0.013673
3.679180 0.373251 0.466225 -0.054653 0.006702 -0.005299
1.832599 0.283915 0.340865 0.044178 0.007557 -0.006071
1.380082 0.428474 0.518591 -0.014876 0.026406 -0.010825
3.440251 0.422152 0.631474 0.000000 -0.966796 0.000002
3.838862 0.571494 0.687543 -0.368821 0.000083 0.000088
1.149729 0.439483 0.556448 0.000000 -0.758454 -0.000058
3.551984 0.469962 0.535036 -0.000001 -0.368404 -0.000043
3.328518 0.478468 0.532176 0.000000 -0.253980 -0.000065
1.261462 0.514387 0.689182 0.000001 0.175687 0.000012
3.724817 0.631689 0.440817 -0.054654 0.006581 0.005447
1.891256 0.624961 0.763460 0.044175 -0.009069 0.007240
2.434656 0.446366 0.670238 0.000000 -0.651726 0.000010
0.702798 0.432761 0.654617 -0.000000 -0.831445 0.000006
1.861928 0.553730 0.549850 0.000001 -0.631720 0.000185
1.287716 0.582422 0.707194 -0.044150 0.024646 -0.016322
1.668911 0.602591 0.513891 -0.044146 0.003853 0.002910
0.423466 0.579634 0.621126 -0.000000 0.990772 0.000002
2.434656 0.554846 0.668801 -0.000000 0.674260 0.000019
2.155324 0.424828 0.580363 0.000000 -0.924594 -0.000002
2.155324 0.574825 0.580398 0.000001 0.928094 -0.000007
3.160919 0.438169 0.661826 -0.000000 -0.758444 0.000015
3.724837 0.309680 0.382401 -0.054654 0.013402 -0.010369
3.747626 0.380193 0.468927 -0.054653 0.013402 -0.010369
3.724798 0.411979 0.708965 -0.054652 0.013403 0.010369
1.426358 0.498375 0.690467 0.000016 -0.000612 0.000449
1.861928 0.445909 0.549850 0.130292 -0.005125 0.004173
0.311733 0.579531 0.621880 0.000000 0.990778 0.000001
0.870397 0.441761 0.553995 0.000000 -0.717604 -0.000002
1.261462 0.438045 0.558122 0.000000 -0.758371 -0.000004
0.423466 0.437322 0.559005 0.000000 -0.777798 -0.000014
2.602255 0.454946 0.542949 -0.000000 -0.555088 -0.000013
3.328518 0.427757 0.573799 0.000000 -0.892036 -0.000004
3.160919 0.450864 0.545873 0.000000 -0.604684 -0.000022
1.583234 0.693056 0.367858 -0.014877 -0.016840 -0.009309
3.622921 0.696369 0.368720 0.029158 0.018177 0.013845
3.573730 0.322324 0.392100 0.029160 -0.012119 0.010044
3.696707 0.724950 0.886154 0.029156 0.024232 -0.016730
3.499944 0.350904 0.427171 0.029158 -0.028237 0.018213
3.401563 0.610627 0.473932 0.029157 0.026848 0.017733
3.721303 0.265162 0.897844 0.029158 -0.024230 -0.016730
3.376967 0.601100 0.734181 0.029157 0.026848 -0.017733
0.286503 0.419349 0.614464 0.000000 -0.999545 0.000000
3.198764 0.502253 0.690437 0.000000 0.030159 0.000009
0.535198 0.556327 0.552426 -0.000001 0.695828 -0.000018
2.825721 0.441946 0.665999 0.000000 -0.717629 0.000033
1.672698 0.115617 1.082786 -0.014878 0.073631 0.012230
3.676529 0.659776 0.798911 0.029158 -0.019645 0.012037
1.639024 0.304403 0.363952 -0.014877 0.015519 -0.008967
2.099458 0.420229 0.622631 0.000000 -0.986229 0.000006
1.540794 0.423146 0.585053 0.000000 -0.950093 -0.000003
1.596660 0.421775 0.630039 -0.000000 -0.966777 0.000001
0.112674 0.499819 0.679698 -0.282093 0.000002 0.000063
0.591065 0.452820 0.675380 0.000001 -0.579071 0.000012
2.238223 0.499972 0.529298 0.000000 0.030165 -0.000018
0.591065 0.517590 0.531285 0.000001 0.224564 -0.000148
2.546389 0.563779 0.560855 0.000000 0.795220 -0.000003
2.769855 0.549710 0.673212 -0.000001 0.605962 0.000005
2.993320 0.549472 0.673401 0.000000 0.604626 0.000006
0.479332 0.562580 0.660473 -0.000001 0.777742 0.000055
1.412150 0.391197 0.473192 -0.014876 0.011008 -0.007387
3.793244 0.418921 0.706262 -0.054654 0.013402 0.010369
0.926263 0.543457 0.677675 0.000000 0.530245 0.000014
3.810375 0.630132 0.449998 -0.054654 0.009871 0.008099
3.781888 0.718274 0.877962 -0.054654 0.013160 -0.010668
3.798980 0.334251 0.406736 -0.054653 -0.013161 0.010668
2.686956 0.497994 0.690455 0.000000 -0.030550 0.000018
3.775450 0.482901 0.688715 -0.366244 -0.000021 0.000103
0.200000 0.551426 0.547978 0.031132 0.000451 -0.000524
2.106666 0.499895 0.529295 0.000000 0.029767 -0.000018
1.205595 0.569609 0.650224 -0.000001 0.861655 0.000005
0.173484 0.420613 0.595387 -0.037419 -0.001140 -0.000173
0.982130 0.435537 0.658524 -0.000000 -0.795793 0.000006
2.546389 0.551308 0.671921 0.000000 0.628556 0.000011
0.702798 0.449101 0.547261 0.000001 -0.627997 -0.000042
3.719583 0.469502 0.535219 0.000000 -0.368632 -0.000086
2.769855 0.561886 0.558473 -0.000000 0.777677 -0.000007
3.440251 0.475260 0.533133 -0.000000 -0.311838 -0.000104
0.255866 0.438739 0.557314 -0.000001 -0.758432 -0.000058
2.546389 0.449633 0.672973 0.000000 -0.628556 0.000011
0.367599 0.444709 0.668724 -0.000000 -0.674248 0.000005
3.496118 0.566370 0.564427 -0.000001 0.831381 -0.000023
0.814530 0.481752 0.688450 0.000000 -0.224625 0.000148
1.376794 0.360672 0.437446 -0.014877 0.022008 -0.010293
0.255866 0.435629 0.658645 0.000000 -0.796408 0.000052
3.838862 0.540905 0.512550 -0.373179 0.000045 -0.000111
1.693976 0.580421 0.609674 0.000000 0.999557 -0.000000
1.540794 0.482308 0.531225 0.000002 -0.161263 -0.000013
3.607851 0.561743 0.661508 0.000000 0.777774 0.000027
2.881587 0.552349 0.548772 0.000000 0.651707 -0.000040
3.496118 0.467365 0.683680 -0.000001 -0.396517 0.000079
1.652526 0.434363 0.656932 0.000000 -0.814220 0.000012
3.328518 0.429463 0.649234 0.000000 -0.872446 0.000002
2.825721 0.580285 0.605187 0.000000 0.999545 -0.000000
1.540794 0.575078 0.581035 0.000001 0.929040 -0.000007
1.063226 0.497538 0.529362 0.000008 -0.002198 -0.000249
1.447506 0.411740 0.702730 -0.044150 -0.012327 -0.009003
0.104258 0.565805 0.597809 -0.306651 0.000114 -0.000017
1.544604 0.201554 0.246956 -0.044149 -0.018488 0.012932
1.471956 0.307182 0.371159 -0.014878 0.056648 -0.012044
1.373194 0.422398 0.632314 -0.000000 -0.958923 0.000005
2.099458 0.579706 0.620598 0.000001 0.988591 0.000001
0.758664 0.506735 0.690208 0.000000 0.075204 0.000028
1.149729 0.469573 0.684613 -0.000001 -0.368681 0.000171
1.844330 0.035914 1.169389 0.130292 -0.008200 -0.006669
2.658122 0.546354 0.675711 -0.000000 0.580364 0.000024
3.793244 0.421770 0.511220 -0.054654 -0.013160 0.010668
0.926263 0.573213 0.576578 0.000000 0.905550 -0.000008
3.679161 0.562421 0.519998 -0.054653 0.006581 0.005447
1.797901 0.019750 0.025699 -0.044148 -0.014792 0.010636
1.797901 0.979889 0.025699 -0.044148 0.014792 0.010636
1.641809 0.855573 0.178245 -0.044151 0.007397 0.005531
1.751472 0.003585 1.218820 0.000001 -0.631711 0.000198
3.791303 0.578089 0.647594 -0.360545 0.000396 0.000164
1.764259 0.562508 0.559242 0.000000 0.777601 -0.000007
1.820868 0.348953 0.780385 0.130291 -0.003331 -0.002714
1.858995 0.693189 0.379333 0.130292 0.005637 0.004590
1.762211 0.304883 0.858137 0.044176 0.008313 0.006658
1.754511 0.852334 1.029043 -0.044147 0.014331 -0.010336
3.623399 0.599836 0.743535 0.029158 0.026727 -0.017689
1.429061 0.432465 0.565629 0.000000 -0.831477 -0.000006
1.764259 0.448213 0.547978 0.000000 -0.651630 -0.000005
3.804658 0.595186 0.728378 -0.054652 0.013161 -0.010668
1.596660 0.455484 0.677213 -0.000000 -0.554257 0.000006
1.358704 0.612823 0.750619 -0.014871 -0.017617 0.009488
1.820126 0.523399 0.532825 0.000001 0.282945 -0.000115
1.093862 0.437131 0.660561 0.000000 -0.777455 0.000003
2.708582 0.580371 0.608000 -0.000017 0.016586 -0.000001
3.231203 0.419213 0.610054 0.000000 -0.999484 0.000000
1.640490 0.699925 0.358301 -0.014877 -0.015519 -0.008967
2.043591 0.546819 0.675380 -0.000000 0.580459 0.000024
1.550068 0.593190 0.702207 -0.044149 0.019874 -0.013743
1.708393 0.481159 0.688313 0.000000 -0.224625 0.000148
1.714026 0.610607 0.463590 -0.014878 -0.056647 -0.012044
1.425033 0.352140 0.782982 -0.044149 -0.007705 -0.005755
0.121178 0.491114 0.538209 -0.240469 -0.000020 -0.000315
3.719583 0.430241 0.650585 0.000000 -0.863488 0.000040
1.714026 0.368867 0.480023 -0.044149 -0.019874 0.013743
1.820868 0.339981 0.408841 0.044176 0.018134 -0.013673
1.987725 0.456053 0.542209 0.000000 -0.555423 -0.000006
1.987725 0.543586 0.542209 -0.000000 0.555532 -0.000102
1.623171 0.837535 1.025948 -0.014877 -0.023108 0.010446
1.457921 0.562738 0.526879 -0.014883 -0.008803 -0.006325
1.500405 0.584836 0.499421 -0.014876 -0.026408 -0.010825
1.596660 0.531226 0.535670 0.000000 0.396376 -0.000010
1.721151 0.586626 0.681035 -0.044149 0.015408 -0.011031
1.400775 0.600502 0.497033 -0.044150 0.006164 0.004629
1.496543 0.243152 0.298306 -0.044150 -0.005085 0.003830
1.891256 0.226241 0.945604 0.044177 0.024173 0.017287
1.447234 0.687324 0.833883 -0.044148 0.004623 -0.003486
3.105053 0.473669 0.533655 -0.000000 -0.311802 -0.000026
3.272652 0.433679 0.563832 0.000000 -0.814280 -0.000024
1.382205 0.501036 0.529330 0.000000 0.030562 -0.000072
1.561391 0.774248 0.271103 -0.014878 -0.014198 -0.008576
3.608488 0.433462 0.705377 0.029158 -0.025474 -0.017223
1.776875 0.627336 0.742581 0.130292 0.006662 -0.005422
2.937454 0.462292 0.681241 -0.000001 -0.460804 0.000008
3.838862 0.499819 0.557068 1.000000 0.000000 0.000000
3.838862 0.552653 0.609902 1.000000 0.000000 0.000000
3.838862 0.520362 0.658578 1.000000 0.000000 0.000000
3.838862 0.447285 0.604286 1.000000 0.000000 -0.000000
0.255866 0.551455 0.548003 0.000000 0.651823 -0.000002
1.748894 0.909496 0.104733 -0.014877 -0.060579 -0.012097
1.748894 0.090143 0.104733 -0.014876 0.030362 -0.011160
0.200000 0.580391 0.607467 0.039712 0.000271 -0.000004
2.993320 0.429535 0.570436 -0.000000 -0.877959 -0.000005
3.049186 0.433767 0.656095 0.000000 -0.814154 0.000006
3.481537 0.598733 0.483693 0.029157 0.013908 0.011266
3.641403 0.623227 0.468649 0.029157 -0.026188 -0.014397
1.686044 0.221181 0.956637 -0.014877 0.025746 0.010758
1.987725 0.504686 0.690363 0.000000 0.030159 0.000282
1.646356 0.280958 0.884107 -0.014875 0.015521 0.008967
2.898708 0.419282 0.607544 0.000000 -0.999545 -0.000000
2.658122 0.456053 0.677594 0.000000 -0.530245 0.000014
3.384385 0.569244 0.650848 -0.000000 0.863444 0.000020
1.540794 0.542812 0.678078 0.000000 0.529891 0.000014
3.838862 0.468311 0.652312 1.000000 -0.000000 0.000000
1.803767 0.997846 1.217359 -0.044150 0.027722 -0.017809
3.615041 0.370801 0.775488 0.029158 -0.012120 -0.010044
1.539820 0.754419 0.915604 -0.044149 0.010170 -0.007515
2.937454 0.466772 0.536380 -0.000000 -0.394429 -0.000005
2.043591 0.420286 0.596835 0.000001 -0.985716 -0.000003
1.820126 0.423996 0.582569 0.000000 -0.940240 -0.000012
2.117479 0.500124 0.690501 0.000008 0.001841 0.000297
1.673681 0.357821 0.757301 -0.044148 -0.019875 -0.013744
2.881587 0.567512 0.653668 0.000000 0.847910 0.000005
0.870397 0.518665 0.688270 -0.000001 0.201261 0.000010
2.825721 0.507720 0.529688 0.000000 0.105551 -0.000320
1.931858 0.419881 0.599582 -0.000000 -0.990765 -0.000005
3.662465 0.322368 0.396516 0.029158 0.019645 -0.012037
3.713423 0.674066 0.403357 0.029158 -0.026187 -0.014397
1.503201 0.655506 0.787824 -0.044151 0.019873 -0.013743
1.858995 0.306450 0.379333 0.130292 -0.002819 0.002297
3.328518 0.541258 0.679038 0.000000 0.504553 0.000007
0.121178 0.427732 0.614262 -0.249035 -0.000075 0.000002
1.704269 0.652131 0.805730 -0.014877 -0.067115 0.012170
3.384385 0.451864 0.545113 0.000001 -0.578875 -0.000003
1.785674 0.769779 0.271250 0.044177 -0.013602 -0.010595
1.429061 0.572156 0.574342 0.000000 0.892540 -0.000002
3.787585 0.700645 0.363473 -0.054655 0.006581 0.005447
1.308546 0.549402 0.673481 0.000000 -0.631731 -0.000245
3.076219 0.419289 0.607316 0.000000 -0.999545 -0.000000
3.600093 0.661735 0.408310 0.029159 0.012120 0.010044
1.652526 0.534832 0.682505 0.000000 0.424193 0.000036
1.768077 0.269357 0.352729 0.130292 -0.005637 0.004590
3.719583 0.566793 0.565060 0.000001 0.831428 -0.000045
3.539305 0.415883 0.702730 0.029157 0.015031 0.009870
1.820126 0.472022 0.534246 -0.000000 -0.339994 -0.000024
1.508931 0.718383 0.880560 -0.014877 -0.031678 0.011250
3.105053 0.467016 0.683529 -0.000000 -0.396476 0.000039
3.496118 0.565276 0.656932 0.000000 0.814286 0.000048
1.698296 0.804241 0.250079 -0.044147 0.004161 0.003141
1.791539 0.211104 0.971158 0.044176 0.027191 0.018879
3.753343 0.350945 0.422858 -0.054654 -0.019737 0.015480
3.753343 0.346672 0.793463 -0.054654 0.020100 0.015029
1.037996 0.455009 0.542907 -0.000000 -0.555530 -0.000051
1.624236 0.605995 0.748605 -0.014876 -0.056655 0.012043
3.721303 0.734477 0.321959 0.029158 0.024230 0.016730
0.535198 0.455737 0.542421 0.000000 -0.555169 -0.000013
3.719583 0.570049 0.649468 -0.000000 0.878330 0.000074
3.719583 0.430817 0.568233 0.000000 -0.863491 -0.000079
1.540794 0.460220 0.680113 0.000000 -0.504382 0.000007
3.272652 0.436343 0.659584 0.000000 -0.794227 0.000003
1.550068 0.406449 0.702207 -0.044150 -0.019874 -0.013743
1.673681 0.641818 0.757301 -0.044150 0.019874 -0.013743
1.850196 0.981682 1.192643 -0.044150 0.027722 -0.017809
1.658058 0.647017 0.421273 -0.014878 -0.016838 -0.009309
1.596660 0.570249 0.649100 0.000000 0.878299 0.000005
3.747665 0.277894 0.340490 -0.054654 0.013402 -0.010369
3.798980 0.665388 0.813068 -0.054653 0.013161 -0.010668
1.623171 0.162104 1.025948 -0.014876 0.011558 0.007620
1.764259 0.540076 0.679729 0.000001 0.504281 0.000058
1.832599 0.715724 0.340865 0.044176 -0.015113 -0.011654
0.479332 0.422215 0.588110 0.000000 -0.959153 -0.000001
1.843553 0.499439 0.690499 0.000032 -0.000179 0.000757
0.814530 0.566476 0.564585 -0.000001 0.830911 -0.000011
1.762211 0.601983 0.475506 0.044177 -0.027191 -0.018879
2.937454 0.579835 0.619656 -0.000001 0.862128 0.000000
1.987725 0.423620 0.636196 0.000000 -0.940136 0.000001
0.311733 0.482901 0.688715 0.000000 -0.224144 0.000018
1.931858 0.536160 0.681844 0.000001 0.448773 0.000017
1.232627 0.419271 0.611879 0.000000 -0.999545 0.000000
0.702798 0.538717 0.539308 0.000000 0.477679 -0.000016
3.571024 0.392163 0.486519 0.029158 0.028885 -0.015165
1.639858 0.416412 0.498110 -0.014877 0.056649 -0.012044
1.744614 0.341185 0.774054 0.130293 -0.006662 -0.005422
3.823009 0.402910 0.587783 -0.373658 -0.000118 -0.000021
1.708393 0.419275 0.612031 0.000000 -0.999539 0.000000
0.367599 0.545421 0.676368 0.000001 0.456588 0.000004
2.155324 0.543902 0.677383 0.000000 0.555611 0.000013
1.037996 0.422688 0.633299 0.000001 -0.959002 0.000010
1.931858 0.579403 0.597135 0.000001 0.986121 -0.000006
1.640490 0.699925 0.861503 -0.014879 -0.015518 0.008967
2.937454 0.533522 0.536685 0.000000 0.424111 -0.000073
1.823801 0.423377 0.708425 0.044177 0.013602 0.010595
2.578827 0.498603 0.690473 0.000000 -0.030562 0.000036
3.456941 0.589206 0.724420 0.029156 0.040240 -0.021214
1.494101 0.625008 0.748266 -0.044152 0.009245 -0.006861
1.570710 0.213976 0.954553 -0.044149 -0.009246 -0.006862
1.724390 0.123742 0.145551 -0.014878 0.035629 -0.011472
2.267057 0.460788 0.539381 0.000001 -0.477918 -0.000062
0.138410 0.539231 0.544706 -0.173661 0.000128 -0.000198
3.328518 0.574171 0.578775 0.000000 0.917922 -0.000007
0.200000 0.537280 0.681277 0.031135 0.000330 0.000607
2.713988 0.511571 0.530159 0.000000 0.135524 -0.000124
1.779808 0.233442 0.306219 0.130292 -0.005125 0.004173
1.373194 0.567935 0.652991 -0.000001 0.847722 0.000021
3.673463 0.419589 0.498367 -0.054653 -0.006581 0.005447
2.267057 0.538750 0.539327 0.000000 0.475577 -0.000008
2.522060 0.580389 0.611194 0.000000 0.999533 0.000000
1.559168 0.389128 0.467300 -0.014877 0.056650 -0.012044
2.155324 0.455199 0.677023 -0.000001 -0.555079 0.000025
1.608613 0.643138 0.456001 -0.044149 0.019874 0.013743
1.456334 0.717821 0.346362 -0.044150 0.005894 0.004430
0.814530 0.429934 0.569744 0.000000 -0.861858 -0.000002
3.105053 0.565982 0.563863 0.000000 0.814289 -0.000012
1.149729 0.520950 0.687685 -0.000000 0.254022 0.000032
0.956900 0.497082 0.529376 -0.000000 -0.030159 -0.000073
3.696155 0.580396 0.607771 0.000000 0.999883 -0.000000
1.716260 0.695658 0.825197 -0.044150 0.010864 -0.007999
2.490522 0.460287 0.539654 -0.000001 -0.471932 -0.000008
1.149729 0.566814 0.565091 0.000001 0.831250 -0.000023
3.638487 0.419236 0.611575 0.000000 -0.999886 0.000000
0.475728 0.498070 0.529320 -0.000000 -0.014883 -0.000037
1.850196 0.171984 1.015055 0.044177 0.021154 0.015552
1.666857 0.689525 0.399081 -0.044151 0.011094 0.008159
2.524763 0.419252 0.611270 0.000000 -0.999545 0.000000
1.227221 0.580368 0.607924 0.000000 0.999545 -0.000000
2.479710 0.498755 0.690478 0.000000 -0.029735 0.000018
1.632242 0.239384 0.286221 -0.014877 0.056651 -0.012044
1.682017 0.894239 1.089615 -0.044152 0.012943 -0.009418
2.587838 0.500276 0.529307 0.000000 0.030159 -0.000036
1.395432 0.653811 0.800572 -0.014879 -0.022005 0.010293
1.403927 0.578419 0.710456 -0.014879 -0.035187 0.011451
1.537024 0.311697 0.375057 -0.014877 0.033655 -0.011369
1.715840 0.065177 1.140192 -0.044150 -0.009246 -0.006862
3.128481 0.419280 0.607620 0.000000 -0.999545 -0.000000
0.776685 0.496625 0.529390 0.000000 -0.030165 -0.000009
1.891256 0.374678 0.763460 0.044176 0.018134 0.013674
1.891256 0.411787 0.717924 0.044177 0.019644 0.014631
1.853129 0.389349 0.482276 0.130292 -0.003331 0.002714
1.853129 0.610290 0.482276 0.130292 0.003331 0.002714
2.490522 0.538650 0.539272 0.000000 0.477990 -0.000062
3.551984 0.432381 0.565756 -0.000000 -0.831442 -0.000006
1.178563 0.419214 0.609673 0.000000 -0.999889 -0.000000
1.633336 0.637890 0.787024 -0.014877 -0.056650 0.012044
0.138410 0.543096 0.672599 -0.173660 0.000137 0.000186
3.551984 0.512098 0.689567 0.000001 0.165350 0.000203
3.440251 0.570722 0.648231 -0.000001 0.877610 0.000009
1.695031 0.405031 0.693474 -0.044149 -0.007705 -0.005755
1.205595 0.464328 0.537530 0.000000 -0.451102 -0.000017
2.155324 0.455041 0.542886 0.000000 -0.556145 -0.000003
1.539820 0.249612 0.919184 -0.014877 0.014529 0.008678
0.591065 0.427586 0.574139 0.000000 -0.892381 -0.000002
3.791303 0.584514 0.590571 -0.360700 0.000411 -0.000119
1.331745 0.419257 0.608381 -0.000000 -0.999545 -0.000000
0.367599 0.577651 0.588955 0.000001 0.967154 -0.000018
1.660991 0.328071 0.797467 -0.044150 -0.005894 -0.004430
2.797788 0.419273 0.611955 -0.000008 -0.033151 0.000000
3.144700 0.500504 0.529303 0.000000 0.014877 -0.000074
1.583234 0.702639 0.844135 -0.044148 0.005548 -0.004174
1.564721 0.279076 0.335336 -0.014877 0.031020 -0.011206
1.601872 0.291739 0.870159 -0.014877 0.061886 0.012114
2.378790 0.536771 0.681534 -0.000001 0.451028 0.000034
2.155324 0.544914 0.543097 0.000001 0.550118 -0.000013
1.508931 0.281256 0.880560 -0.014877 0.015849 0.009056
1.772629 0.112947 1.073032 -0.044150 -0.024953 -0.016477
0.885715 0.580338 0.606936 0.000000 0.999557 -0.000000
1.756345 0.694368 0.399239 -0.044150 0.021721 0.014781
3.352372 0.408065 0.497312 0.029157 -0.013431 0.010948
3.422085 0.409644 0.723777 0.029157 -0.040240 -0.021214
0.200000 0.464532 0.682376 0.031134 -0.000312 0.000617
0.814530 0.571195 0.647362 -0.000000 0.892381 0.000002
1.759278 0.407034 0.732995 0.044177 0.015112 0.011654
1.703092 0.746261 0.918464 -0.014878 -0.014198 0.008576
1.429061 0.429244 0.648833 0.000000 -0.878205 0.000009
1.891256 0.810507 0.228663 0.044176 -0.021154 -0.015553
1.891256 0.189132 0.228663 0.044177 0.021154 -0.015552
1.891256 0.810507 0.991140 0.044176 -0.021154 0.015552
1.261462 0.539051 0.539490 0.000001 0.471932 -0.000008
2.378790 0.463208 0.681706 -0.000000 -0.451393 0.000034
0.138410 0.460407 0.675097 -0.173659 -0.000125 0.000194
1.764259 0.463445 0.681826 0.000000 -0.451193 0.000017
2.973496 0.419291 0.612563 0.000000 -0.910723 0.000000
0.870397 0.431320 0.652378 -0.000000 -0.847522 0.000005
0.037644 0.499819 0.577051 -0.591987 0.000001 -0.000013
3.607851 0.533798 0.536814 0.000000 0.424192 -0.000036
3.496668 0.382235 0.462227 0.029157 -0.013908 0.011266
0.427070 0.503926 0.690386 0.000000 0.030159 0.000018
1.462460 0.273618 0.883808 -0.044149 -0.011095 -0.008159
1.707202 0.321160 0.416601 -0.044149 -0.005895 0.004430
1.712411 0.233977 0.917809 -0.044150 -0.004623 -0.003486
1.748646 0.165262 1.005788 -0.044150 -0.007397 -0.005531
3.440251 0.518443 0.688322 -0.000000 0.224610 0.000074
2.220201 0.500276 0.690496 0.000004 0.007399 0.000148
3.687060 0.682526 0.838459 0.029157 0.024231 -0.016730
2.620277 0.419243 0.608837 0.000000 -0.999545 -0.000000
1.552646 0.674956 0.409942 -0.044149 0.019874 0.013743
1.373194 0.568218 0.567264 0.000001 0.845785 -0.000005
1.518824 0.375487 0.767908 -0.014877 0.056649 0.012044
3.747626 0.613749 0.755518 -0.054654 0.006581 -0.005447
3.440251 0.571122 0.572307 0.000000 0.878210 -0.000005
1.328555 0.363880 0.442409 -0.014876 0.035193 -0.011450
1.490417 0.748286 0.911130 -0.044151 0.005548 -0.004173
1.716260 0.303981 0.825197 -0.044149 -0.010864 -0.007999
1.365555 0.421651 0.695652 -0.044149 -0.009246 -0.006862
3.743011 0.419245 0.612184 0.000000 -0.999886 0.000000
1.832599 0.919824 1.129387 0.044178 -0.015112 0.011654
1.037996 0.535379 0.537565 0.000001 0.449843 -0.000034
0.591065 0.533247 0.683247 0.000001 0.422966 0.000036
1.698403 0.366264 0.436678 -0.014878 0.033653 -0.011369
3.049186 0.522816 0.687151 -0.000000 0.283078 0.000115
0.479332 0.452511 0.675159 0.000000 -0.580440 0.000048
1.856062 0.888311 1.079290 0.130293 0.006150 -0.005006
1.856062 0.999639 0.003905 -0.000001 0.631724 -0.000267
1.891256 0.022140 1.196052 0.044174 0.009069 0.007240
1.856062 0.647101 0.436497 0.130292 0.003075 0.002505
1.856062 0.000000 0.003905 -0.000001 -0.631726 -0.000267
1.856062 0.129882 0.163281 0.130292 -0.007175 0.005838
1.856062 0.352538 0.436497 0.130292 -0.003075 0.002505
1.856062 0.129882 1.056522 0.130292 -0.007175 -0.005838
1.856062 0.869756 0.163281 0.130293 0.007175 0.005838
1.287716 0.417217 0.707194 -0.044149 -0.024646 -0.016322
2.341846 0.499743 0.529295 0.000002 -0.021666 -0.000101
3.575535 0.585652 0.494164 0.029157 0.026727 0.017689
1.429061 0.522268 0.532491 0.000000 0.282927 -0.000029
3.049186 0.579804 0.619882 -0.000001 0.990262 0.000002
0.311733 0.531785 0.535912 0.000000 0.396577 -0.000079
0.129760 0.569337 0.636266 -0.207319 0.000181 0.000063
1.987725 0.577467 0.631548 -0.000000 0.967215 0.000018
0.311733 0.468553 0.535610 0.000000 -0.396572 -0.000039
1.682042 0.284735 0.366719 -0.044149 -0.010864 0.007999
1.502048 0.419245 0.608761 0.000002 -0.492791 -0.000000
3.823009 0.422104 0.671878 -0.375114 -0.000351 0.000314
0.569439 0.419317 0.613400 0.000000 -0.999539 0.000000
1.607738 0.735440 0.885605 -0.044148 0.005086 -0.003831
1.564721 0.720563 0.335336 -0.014875 -0.031023 -0.011205
3.397490 0.583625 0.510289 0.029158 -0.029016 -0.015200
3.401563 0.389012 0.473932 0.029158 -0.026848 0.017733
1.698403 0.651543 0.451484 -0.044149 0.023569 0.015769
1.000151 0.419266 0.608077 0.000000 -0.999545 -0.000000
3.615041 0.635959 0.769685 0.029153 -0.013101 0.008827
3.623399 0.389122 0.734831 0.029158 0.028885 0.015165
1.552646 0.674956 0.809861 -0.044150 0.019874 -0.013743
1.512301 0.313636 0.827382 -0.044149 -0.019874 -0.013743
2.043591 0.461022 0.680549 0.000000 -0.478042 0.000031
1.565691 0.443791 0.532631 -0.014877 0.056649 -0.012044
2.618474 0.580377 0.608229 0.000000 0.999557 -0.000000
1.702956 0.191687 0.245525 -0.044150 -0.008321 0.006200
1.317328 0.571332 0.572713 0.000000 0.892349 -0.000017
0.911846 0.500656 0.690498 0.000000 0.014889 0.000018
0.594669 0.580408 0.608608 0.000000 0.999889 -0.000000
0.087730 0.465280 0.559863 -0.371149 -0.000048 -0.000065
1.782741 0.639796 0.430544 0.044177 -0.019644 -0.014631
3.303181 0.572520 0.520693 0.029157 0.026848 0.017733
1.283087 0.499972 0.529298 0.000000 0.030165 -0.000036
1.525966 0.781245 0.956259 -0.014879 -0.014197 0.008575
3.804639 0.454178 0.556804 0.094262 -0.000843 -0.001034
1.694293 0.268334 0.873819 -0.044149 -0.005086 -0.003831
3.348299 0.438224 0.688706 0.000000 -0.631731 0.000174
1.484927 0.471736 0.534350 0.000001 -0.339567 -0.000024
1.779808 0.248616 0.925950 0.044176 0.015113 0.011655
1.465596 0.386261 0.735011 -0.044152 -0.003852 -0.002910
1.758101 0.779509 0.959569 -0.014878 -0.023106 0.010447
1.411039 0.419257 0.608381 -0.000000 -0.999545 -0.000000
1.769696 0.869727 1.067913 -0.014878 -0.035628 0.011472
1.592417 0.753185 0.295615 -0.014878 -0.028382 -0.011007
2.658122 0.537815 0.538817 0.000000 0.478073 -0.000062
1.429061 0.577295 0.632131 -0.000000 0.959184 0.000003
2.919432 0.502101 0.690441 0.000000 0.030159 0.000009
1.650880 0.783084 0.945288 -0.044149 0.018488 -0.012932
1.599513 0.402770 0.737098 -0.014877 0.056649 0.012044
0.908242 0.419298 0.612791 0.000000 -0.999539 0.000000
3.160919 0.579624 0.598602 -0.000000 0.990776 -0.000005
1.820126 0.462732 0.681466 -0.000001 -0.451229 0.000067
1.797405 0.179571 0.236454 0.130292 -0.008200 0.006669
1.634505 0.500732 0.529321 0.000008 0.002192 -0.000250
1.697964 0.582557 0.722239 -0.014876 -0.022011 0.010292
1.638492 0.816396 0.229673 -0.044149 0.008322 0.006200
1.565093 0.152022 1.036676 -0.044149 -0.014792 -0.010636
0.661348 0.419303 0.612944 0.000000 -0.999545 0.000000
3.418012 0.433490 0.684848 0.000000 -0.631730 0.000348
1.762211 0.712325 0.843819 -0.044149 0.005086 -0.003831
2.769855 0.466876 0.683469 0.000000 -0.396447 0.000020
1.661801 0.734502 0.316385 -0.014877 -0.014199 -0.008576
1.826733 0.321226 0.833567 0.044176 0.016623 0.012681
1.703588 0.915666 1.121409 -0.014877 -0.031679 0.011250
2.713988 0.430759 0.568331 -0.000001 -0.857481 -0.000005
1.703588 0.915666 0.098394 -0.014877 -0.063197 -0.012129
1.703588 0.083973 0.098394 -0.014877 0.031679 -0.011250
1.524500 0.220887 0.948819 -0.044149 -0.010170 -0.007515
1.746729 0.035530 0.039361 -0.014877 0.025087 -0.010687
1.746729 0.964109 0.039361 -0.014876 -0.025088 -0.010687
1.415989 0.728867 0.890961 -0.014878 -0.016838 0.009309
1.599513 0.612641 0.495559 -0.044149 0.019874 0.013743
1.736258 0.860701 0.163479 -0.014878 -0.036945 -0.011533
1.803271 0.745252 0.327039 0.130293 0.002562 0.002088
1.682042 0.714904 0.853084 -0.044150 0.010863 -0.007999
1.539820 0.249612 0.300619 -0.014877 0.029043 -0.011060
3.551984 0.567754 0.566522 0.000000 0.847278 -0.000005
3.496118 0.433590 0.655847 0.000000 -0.814421 0.000002
1.663045 0.435502 0.699362 -0.014876 0.022010 0.010292
3.160919 0.540437 0.679518 -0.000001 0.504135 0.000058
1.708393 0.467016 0.536274 0.000000 -0.396577 -0.000039
3.049186 0.543263 0.542008 0.000000 0.530421 -0.000007
1.291827 0.402871 0.493989 -0.044149 -0.009246 0.006862
1.291827 0.596767 0.493989 -0.044149 0.009246 0.006862
3.551984 0.431885 0.653281 -0.000000 -0.847727 0.000005
3.775450 0.523801 0.532943 -0.367144 0.000033 -0.000100
1.457801 0.277329 0.340549 -0.044149 -0.011095 0.008159
1.768077 0.713512 0.339062 0.044175 -0.016624 -0.012681
0.758664 0.425649 0.641448 -0.000000 -0.917791 0.000007
3.636986 0.678874 0.826707 0.029158 -0.019645 0.012037
3.600093 0.335055 0.809172 0.029157 0.013099 0.008827
3.384385 0.460955 0.680513 -0.000000 -0.478015 0.000062
1.620646 0.670036 0.825238 -0.014877 -0.033655 0.011369
1.620646 0.329603 0.394565 -0.014877 0.033655 -0.011369
1.782741 0.345069 0.442584 0.130292 -0.006662 0.005422
1.387073 0.676495 0.392251 -0.014876 -0.022010 -0.010292
3.290673 0.580322 0.606403 0.000000 0.999545 -0.000000
3.366363 0.580331 0.606708 0.000000 0.999545 -0.000000
1.915639 0.499972 0.529298 0.000000 0.030159 -0.000073
2.966288 0.502177 0.529364 0.000000 0.029767 -0.000018
1.612879 0.500732 0.690483 -0.000000 0.030159 0.000036
1.462856 0.339077 0.409578 -0.014877 0.056650 -0.012044
3.348342 0.419230 0.611195 0.000000 -0.999883 0.000000
3.607851 0.568097 0.567071 0.000000 0.847772 -0.000011
1.764259 0.570249 0.649100 -0.000000 0.876797 0.000002
1.619466 0.416499 0.535928 -0.044149 -0.001926 0.001459
3.272652 0.542199 0.678461 -0.000000 0.530173 0.000054
3.440251 0.518072 0.531396 0.000000 0.224637 -0.000148
1.000151 0.497538 0.690441 0.000000 -0.030165 0.000009
2.043591 0.577467 0.588256 0.000000 0.967145 -0.000002
2.769855 0.457150 0.541524 -0.000000 -0.530200 -0.000054
1.352949 0.634375 0.448859 -0.044149 0.012327 0.009003
0.702798 0.465117 0.682650 -0.000000 -0.424102 0.000036
1.534446 0.601384 0.478807 -0.014877 -0.056652 -0.012043
1.426952 0.295255 0.857868 -0.044149 -0.004623 -0.003486
1.632242 0.768241 0.292729 -0.044149 0.018488 0.012932
1.594744 0.573415 0.546947 -0.044149 0.001926 0.001459
1.790746 0.078590 0.102781 -0.044150 -0.010633 0.007838
1.790746 0.921049 0.102781 -0.044150 0.021259 0.014526
1.748894 0.909496 1.115070 -0.014874 -0.030366 0.011159
2.367977 0.419234 0.609141 0.000000 -0.999545 -0.000000
3.607851 0.470599 0.685019 -0.000000 -0.368659 0.000086
1.447506 0.587899 0.702730 -0.044151 0.012327 -0.009003
1.485878 0.414636 0.499558 -0.014877 0.022009 -0.010293
0.255866 0.532867 0.683424 0.000000 0.396376 0.000005
1.764259 0.428808 0.648031 -0.000000 -0.878077 0.000005
2.366175 0.580398 0.608913 -0.000017 0.016586 -0.000001
0.155872 0.467415 0.537902 -0.105790 -0.000174 -0.000356
1.700159 0.250377 0.322729 -0.044150 -0.009939 0.007352
1.608613 0.370875 0.444286 -0.014877 0.056651 -0.012044
1.592991 0.335729 0.792341 -0.044150 -0.019874 -0.013743
3.673463 0.592867 0.710992 -0.054653 -0.006702 0.005299
3.791303 0.413493 0.619628 -0.360890 -0.000422 0.000072
3.838862 0.575525 0.536185 -0.368825 0.000088 -0.000083
1.365555 0.577987 0.524151 -0.044149 0.009246 0.006862
1.644189 0.573766 0.710459 -0.014874 -0.011010 0.007388
1.652526 0.580166 0.603517 0.000001 0.996589 -0.000001
1.592281 0.809485 0.235408 -0.044151 0.004161 0.003141
1.892211 0.499972 0.690506 0.000000 0.030550 0.000018
2.825721 0.428590 0.572174 0.000000 -0.878004 -0.000009
1.526376 0.498603 0.690473 0.000000 -0.029767 0.000037
0.515375 0.503622 0.690395 0.000000 0.030159 0.000073
1.746238 0.500124 0.690501 -0.000000 0.030159 0.000018
1.756345 0.323638 0.384270 0.044177 0.018133 -0.013673
0.926263 0.426732 0.575923 0.000000 -0.905572 -0.000004
1.861928 0.074816 1.125313 0.130292 -0.005125 -0.004173
0.385621 0.495713 0.529417 -0.000000 -0.030550 -0.000018
1.722126 0.713615 0.371351 -0.044149 0.010864 0.007999
2.378790 0.538450 0.539163 -0.000001 0.476068 -0.000016
1.607738 0.272984 0.327040 -0.014878 0.061885 -0.012114
1.803271 0.266366 0.317277 0.044177 0.007557 -0.006071
1.694269 0.088999 1.110350 -0.044150 -0.022183 -0.015033
1.104675 0.499439 0.529299 0.000000 -0.014883 -0.000018
2.308506 0.499059 0.690487 0.000017 -0.000403 0.000680
1.205595 0.540339 0.679576 0.000000 0.504553 0.000004
1.187574 0.501873 0.529355 -0.000008 0.001815 -0.000302
1.539957 0.704707 0.850028 -0.044150 0.011788 -0.008636
3.348299 0.435068 0.533669 0.000000 -0.631731 -0.000174
1.850196 0.851799 1.033267 0.130292 0.007175 -0.005838
2.378790 0.459892 0.539882 0.000001 -0.504052 -0.000029
3.085229 0.502709 0.690423 0.000004 0.007204 0.000152
1.543546 0.644459 0.770304 -0.044149 0.019874 -0.013743
