0.486043 0.611602 0.724444 -0.000000 -0.999661 -0.000000
1.885775 1.424968 0.005639 -0.066481 0.009637 0.008682
1.817554 0.003253 0.002460 -0.000000 -0.698848 -0.000141
1.817554 0.003253 1.454225 -0.000001 -0.698847 0.000141
1.157267 0.628701 0.671970 0.000000 -0.836829 -0.000021
1.853512 0.363258 0.381403 0.085833 -0.004681 0.004567
2.013770 0.674142 0.821758 0.000000 -0.388778 0.000010
2.013770 0.631814 0.667603 -0.000000 -0.790718 -0.000006
3.194557 0.830041 0.625334 0.000000 -0.715263 -0.000176
3.060426 0.716383 0.627461 0.000000 0.026046 -0.000020
1.409180 0.639270 0.797880 -0.000001 -0.724487 0.000016
0.889102 0.712240 0.829321 0.000009 -0.000873 0.000604
0.703825 0.632260 0.789661 -0.000000 -0.790313 0.000003
1.914373 0.421273 0.433278 0.085834 -0.002710 0.002646
2.416830 0.811549 0.747882 -0.000000 0.981388 0.000006
1.436916 0.811072 0.821110 -0.066478 0.003614 -0.003285
3.228937 0.860427 0.559616 -0.000000 0.715264 0.000196
1.675669 0.460319 0.455567 -0.051508 0.002633 -0.002714
0.141874 0.633793 0.778395 -0.227651 -0.000151 0.000091
3.424479 0.740707 0.825300 0.028117 0.000397 0.001432
3.078762 0.525558 0.902348 0.000002 0.715243 0.000314
3.078762 0.525558 0.554337 0.000000 0.715264 -0.000627
0.351148 0.766782 0.643203 -0.000000 0.545527 -0.000006
0.854972 0.616095 0.758431 0.000000 -0.956443 0.000002
1.030499 0.813461 0.728749 -0.000000 0.999922 0.000000
1.894575 0.128900 0.136480 0.085834 -0.005420 0.005285
1.711475 0.806174 0.766007 0.000001 0.925920 0.000003
3.268099 0.953293 0.992115 -0.000001 0.715263 -0.000708
2.618360 0.633302 0.791013 0.000000 -0.792188 0.000003
1.514031 0.602524 0.825970 -0.066484 -0.007228 -0.006541
1.876976 0.206554 1.252027 0.066523 0.004450 0.004338
1.627534 0.943277 0.509215 -0.066483 0.004578 0.004157
1.725179 1.010693 0.407392 -0.051506 -0.009362 -0.009506
1.647443 0.560253 0.597486 -0.066482 -0.006666 0.006038
1.623135 0.510355 0.507827 -0.051507 0.002780 -0.002864
1.771352 0.100358 1.352129 -0.066481 -0.007228 -0.006541
0.150048 0.619324 0.708875 -0.195844 -0.000203 -0.000037
2.013770 0.616143 0.758586 0.000001 -0.956288 0.000010
0.955737 0.643359 0.654737 -0.000001 -0.688587 -0.000034
2.743102 0.773717 0.648362 0.000000 0.715262 0.000314
0.603060 0.795157 0.786319 0.000000 0.821644 0.000006
2.524096 0.714108 0.829283 0.000000 0.025670 0.000041
3.349349 0.638415 0.786841 0.169835 -0.001847 0.001890
2.467212 0.682512 0.631918 0.000000 -0.291920 -0.000054
3.307462 0.611623 0.723632 -0.000000 -0.999661 -0.000000
2.645989 0.714921 0.627423 0.000000 0.025670 -0.000021
2.781017 0.606217 0.837104 0.192968 -0.001724 -0.003773
1.574955 0.813453 0.728830 -0.000000 0.999670 0.000000
1.753788 0.630526 0.667239 0.085832 -0.005584 0.005445
2.971037 0.631595 0.667896 -0.000001 -0.803154 -0.000006
1.530427 0.942654 0.969373 -0.051508 -0.005705 0.005852
1.853512 0.353771 1.103592 0.066524 0.006145 0.005979
0.593309 0.715895 0.829237 0.000000 0.025680 0.000082
2.125911 0.611523 0.729155 0.000009 -0.057528 0.000000
1.729578 1.024209 1.062706 -0.051506 -0.004681 0.004811
1.795584 0.538398 0.888889 0.085834 -0.001601 -0.001564
1.557077 0.611523 0.729155 0.000000 -0.999661 0.000000
3.172567 0.805473 0.767696 -0.000001 0.921304 0.000028
1.551512 0.449354 1.002827 -0.051508 0.005413 0.005555
3.386646 0.860856 0.559178 0.000000 0.715263 0.000708
0.401530 0.795619 0.671034 -0.000001 0.821775 -0.000011
1.876976 1.206362 0.230461 0.085834 0.003367 0.003287
2.870272 0.667227 0.818614 0.000000 -0.458426 0.000016
1.171895 0.713946 0.627398 -0.000005 0.005453 -0.000194
3.222950 0.771914 0.646711 0.000000 0.589753 -0.000022
2.819890 0.800758 0.679316 -0.000001 0.875107 -0.000009
3.159049 0.910286 0.508587 0.000000 0.715263 0.000176
3.034603 0.843048 0.844663 0.000000 -0.715263 0.000470
1.614769 0.345505 0.358352 -0.066482 -0.003735 0.003394
1.773927 1.272580 1.294719 -0.066480 0.009155 -0.008257
1.938570 1.027249 0.406187 0.066522 -0.013137 -0.012593
1.661092 0.625051 0.677832 0.000001 -0.856207 -0.000005
0.451913 0.694901 0.628909 0.000000 -0.166599 -0.000194
3.467046 0.817372 0.612338 -0.400871 0.000673 0.000712
1.106885 0.766884 0.643270 -0.000001 0.526988 -0.000007
1.913005 0.789233 0.793957 0.000000 0.758661 0.000007
0.564054 0.813464 0.728505 0.000000 0.999918 0.000000
0.512046 0.713296 0.829314 0.000000 0.012838 0.000082
0.300765 0.623662 0.776372 0.000000 -0.876525 0.000009
1.732136 1.108999 1.119162 -0.066478 0.006746 -0.006110
1.672114 0.833402 0.634325 -0.066481 0.004016 0.003649
1.623712 0.712159 0.829316 0.000000 -0.026037 0.000041
1.721524 0.590171 0.874234 0.066522 0.003603 0.003515
3.293396 0.465556 0.963758 0.000000 0.715263 0.001415
3.293396 0.959411 0.492927 0.000001 -0.715264 -0.001415
3.293396 0.482861 0.476019 0.000000 -0.715264 0.001415
1.157267 0.794427 0.669339 -0.000001 0.797538 -0.000006
0.804590 0.810294 0.703256 -0.000001 0.969289 -0.000004
3.172567 0.803129 0.683853 -0.000000 0.900158 -0.000008
2.618360 0.811455 0.708325 -0.000001 0.971777 -0.000001
1.812240 0.790026 0.793031 0.000000 0.776064 0.000053
1.794470 0.171072 0.184524 -0.066481 -0.004578 0.004158
1.637170 0.887309 0.885035 -0.066482 0.004939 -0.004484
0.804590 0.801149 0.776657 0.000001 0.844788 0.000001
1.749668 0.712565 0.829322 -0.000000 0.025670 0.000082
3.172567 0.620287 0.687164 0.000000 -0.911069 -0.000015
1.857178 0.921620 0.950154 0.066522 -0.001960 0.001914
1.812240 0.722867 0.627896 0.000000 0.115905 -0.000035
0.711951 0.711428 0.829311 0.000009 -0.000897 0.000589
0.854972 0.639410 0.658658 0.000000 -0.725050 -0.000031
2.265682 0.627107 0.674423 0.000001 -0.850043 -0.000010
3.440545 0.679249 0.823324 0.031738 -0.002186 0.005265
1.157267 0.627086 0.782228 -0.000000 -0.849489 0.000003
1.721524 0.486613 0.932760 0.085834 -0.005666 -0.005524
2.265682 0.737058 0.630405 0.000000 0.242135 -0.000066
3.162214 0.460693 0.986045 0.192966 -0.001644 -0.003597
3.162214 0.460693 0.470640 0.192969 -0.001644 0.003597
1.700992 0.653242 0.811641 0.066524 0.007205 0.006999
0.235755 0.707448 0.829195 0.000000 -0.025680 0.000021
3.472169 0.777995 0.804046 -0.400871 0.000673 -0.000712
3.336240 0.996611 1.001832 0.000001 -0.715265 0.000662
3.423567 0.664659 0.662085 0.169835 -0.003694 -0.003780
1.584890 0.980999 0.993129 -0.066481 0.004457 -0.004049
2.467212 0.795457 0.785885 0.000000 0.822377 0.000011
1.694197 0.478084 0.511852 -0.066482 -0.002229 0.002028
1.006120 0.769926 0.645300 0.000000 0.569172 -0.000006
3.345474 0.816339 0.817327 -0.000001 -0.715262 0.001014
1.963387 0.771684 0.646543 0.000001 0.589300 -0.000022
0.653442 0.797490 0.673840 0.000000 0.836778 -0.000005
1.006120 0.768856 0.812125 -0.000000 0.568676 0.000006
1.661092 0.623237 0.775585 -0.000000 -0.888586 0.000008
1.898974 1.109521 0.326865 0.085833 0.008868 0.008619
1.646876 0.439303 0.992119 -0.066483 -0.004216 -0.003831
1.854978 0.581719 0.870152 0.066524 0.009853 0.009524
1.781652 0.937324 0.973432 0.066522 -0.003656 0.003566
1.857178 0.820656 0.609866 0.066525 -0.009853 -0.009523
1.545461 0.457337 0.462029 -0.051507 0.005413 -0.005555
0.955737 0.611627 0.723469 0.000000 -0.999670 -0.000000
1.726645 0.391895 0.420385 -0.066482 -0.003855 0.003503
0.250383 0.774124 0.648367 0.000001 0.610444 -0.000085
3.069942 0.817035 0.638646 0.000000 -0.715263 -0.000470
1.912906 0.952389 0.970717 0.085833 0.001437 -0.001404
3.065301 0.709072 0.829237 0.000000 -0.026046 0.000010
2.995416 0.716220 0.627457 0.000000 0.025670 -0.000010
2.519220 0.714271 0.627407 0.000000 0.025670 -0.000010
3.131770 0.860390 0.862412 0.000000 -0.715264 0.000627
2.215300 0.803236 0.772613 -0.000001 0.856487 0.000002
2.467212 0.685396 0.825615 0.000000 -0.267164 0.000059
3.107788 0.873434 0.546304 -0.000002 0.715242 0.000314
3.409547 0.982909 0.468878 -0.000001 -0.715261 -0.000331
3.273332 0.810481 0.752680 0.000001 0.967423 0.000004
0.287763 0.813340 0.733216 0.000000 0.999661 0.000000
0.451913 0.673355 0.821427 0.000000 -0.388627 0.000155
1.509945 0.663030 0.640303 0.000000 -0.481356 -0.000030
1.751588 0.925977 0.491999 0.066523 -0.003655 -0.003566
1.640445 0.348983 1.091972 -0.066484 -0.001867 -0.001699
1.664463 1.110501 1.141651 -0.051507 -0.004096 0.004214
0.804590 0.631427 0.788560 0.000000 -0.804677 0.000003
1.799983 0.825755 0.857494 0.066523 -0.009853 0.009524
3.424479 0.615526 0.700120 0.026627 -0.001501 -0.000457
2.944059 0.599224 0.861571 0.000000 -0.715263 -0.000627
0.183235 0.802050 0.773111 -0.066871 0.000588 0.000275
3.415817 0.819882 0.855572 -0.000001 0.715261 -0.000507
0.109929 0.650149 0.673558 -0.352147 -0.000076 -0.000063
0.736330 0.611590 0.724931 -0.000000 -0.493085 -0.000000
1.235279 0.713946 0.627398 0.000000 0.026046 -0.000020
3.021420 0.797861 0.782263 -0.000001 0.763232 0.000001
3.222950 0.788008 0.795368 0.000000 0.742042 0.000007
2.467212 0.623349 0.680883 0.000000 -0.888633 -0.000008
3.424479 0.764469 0.641769 0.024935 0.000844 -0.001446
1.797783 0.848347 0.575858 0.066524 -0.009853 -0.009524
0.616062 0.611600 0.724525 0.000000 -0.484883 -0.000000
1.610710 0.645579 0.652710 -0.000001 -0.657311 -0.000005
2.709373 0.813403 0.725906 0.000000 0.999670 -0.000000
1.563357 0.865835 0.587933 -0.066482 0.006666 0.006038
0.502295 0.664312 0.639599 0.000000 -0.481215 -0.000030
2.980789 0.708747 0.829228 0.000000 -0.025689 0.000010
3.442594 0.894844 0.524392 0.000001 0.715263 0.000662
2.114535 0.804312 0.770336 0.000000 0.911069 0.000004
2.947791 0.882417 0.902266 0.192969 0.001724 -0.003773
0.905355 0.811611 0.709122 0.000000 0.981363 -0.000002
2.517595 0.775596 0.649519 0.000000 0.630758 -0.000010
0.754207 0.797601 0.674010 0.000000 0.836646 -0.000003
1.857178 0.595415 0.618559 0.085834 -0.007637 0.007432
3.419880 0.521490 0.906511 -0.000001 0.715263 0.000708
3.419880 0.538795 0.533266 0.000000 -0.715263 0.000708
2.316065 0.647922 0.650698 0.000000 -0.630758 -0.000010
3.172567 0.621838 0.772833 0.000000 -0.899921 0.000008
1.938570 0.022037 1.435000 0.066525 0.007628 0.007405
2.316065 0.705582 0.627604 0.000000 -0.064361 -0.000254
2.366447 0.625911 0.780327 0.000000 -0.863865 0.000019
1.459562 0.805963 0.690150 -0.000002 0.905451 -0.000004
1.829314 1.056939 0.389268 0.085834 0.004681 0.004567
0.261759 0.611627 0.733216 0.000068 -0.506200 0.000003
3.220088 0.973114 0.478903 0.000001 -0.715262 -0.000862
0.804590 0.696303 0.828013 0.000000 -0.166615 0.000097
1.625410 1.051329 0.390310 -0.066481 0.003855 0.003504
1.862622 0.664704 0.817301 0.000000 -0.481334 0.000030
3.424479 0.811830 0.746447 0.024564 0.001669 0.000326
3.424479 0.616285 0.759053 0.026626 -0.001501 0.000457
3.456609 0.712484 0.628069 0.021990 0.000921 -0.016388
1.527113 1.038519 0.394652 -0.051507 -0.002487 -0.002563
1.665924 0.263554 0.273392 -0.066481 -0.006023 0.005461
3.071802 0.777635 0.805488 -0.000000 0.650403 0.000038
2.013770 0.803306 0.772467 0.000001 0.893180 0.000002
1.766986 0.591423 0.625591 0.085833 -0.004188 0.004087
3.228937 0.877732 0.880162 0.000000 -0.715263 0.000196
1.618836 0.712971 0.627373 0.000000 0.025670 -0.000021
2.098282 0.713215 0.627380 0.000000 0.025670 -0.000021
1.881376 0.546033 0.565034 0.085835 -0.003203 0.003127
2.215300 0.811642 0.709282 0.000000 0.981363 -0.000000
1.861578 0.480440 0.973179 0.066523 0.001854 0.001811
0.955737 0.795388 0.785985 -0.000000 0.822449 0.000011
1.913005 0.613138 0.746447 0.000000 -0.986045 0.000001
1.578649 1.016557 1.044452 -0.051510 -0.002487 0.002563
1.459562 0.805568 0.767471 0.000000 0.921331 0.000003
2.416830 0.772438 0.809591 0.000000 0.589925 0.000022
2.064152 0.766680 0.643137 0.000000 0.525831 -0.000053
1.656940 0.280227 1.165868 -0.066481 -0.006505 -0.005894
1.797761 1.318495 1.352780 -0.051505 -0.009362 0.009506
3.083807 0.921087 0.924535 0.000000 -0.715262 0.000627
2.754880 0.710534 0.829274 0.000000 -0.025680 0.000041
0.200000 0.794787 0.669832 -0.034379 0.000522 -0.000361
1.546212 0.582287 0.583056 -0.051508 0.016185 -0.015936
1.907773 0.204850 0.212586 0.085833 -0.003449 0.003367
1.790451 0.451221 0.446815 0.066524 0.003444 -0.003360
3.328115 0.846725 0.573640 0.000001 0.715263 0.000708
1.963387 0.663137 0.640244 0.000000 -0.481317 -0.000060
0.502295 0.786920 0.796575 -0.000000 0.742519 0.000015
2.366447 0.625358 0.677306 0.000000 -0.863528 -0.000010
3.188819 0.708098 0.829212 0.000000 -0.026037 0.000041
0.191611 0.647980 0.805663 -0.034378 -0.000413 0.000482
0.117786 0.736504 0.810862 -0.321507 0.000029 0.000109
1.613152 0.578988 0.842013 -0.066481 -0.013330 -0.011899
3.071802 0.613699 0.749276 -0.000000 -0.975673 0.000001
1.308415 0.663101 0.816421 0.000001 -0.463362 0.000004
1.409180 0.619321 0.689401 0.000000 -0.921331 -0.000001
2.215300 0.703072 0.627808 0.000001 -0.089178 -0.000046
2.618360 0.665025 0.639208 0.000000 -0.481281 -0.000060
1.435719 0.579327 0.597483 -0.066482 -0.005421 0.004919
2.919767 0.821408 0.857133 0.000001 0.715263 -0.000627
1.913005 0.791715 0.665737 0.000000 0.792187 -0.000006
1.006120 0.664455 0.817164 0.000001 -0.463362 0.000004
2.719125 0.624601 0.778081 0.000000 -0.876603 0.000002
2.265682 0.668835 0.819395 -0.000001 -0.433917 0.000017
0.905355 0.665530 0.638947 0.000001 -0.450168 -0.000008
0.854972 0.800039 0.678043 0.000000 0.864151 -0.000001
1.737991 1.205889 1.225016 -0.066482 0.011082 -0.009952
0.653442 0.746959 0.823248 0.000000 0.340679 0.000090
1.809863 0.090506 0.087564 -0.051506 0.016381 -0.016111
2.618360 0.763907 0.641442 0.000000 0.503720 -0.000056
1.764786 0.990215 0.991171 0.085835 0.005338 -0.005205
0.044701 0.675482 0.754648 -0.607452 -0.000024 0.000016
0.351148 0.766473 0.813677 0.000001 0.503115 0.000003
0.502295 0.643950 0.802506 0.000000 -0.669491 0.000005
1.596006 0.817136 0.852450 -0.051508 -0.008094 0.008252
3.011890 0.817072 0.603989 -0.000000 0.715263 0.000784
1.503444 0.712971 0.829312 0.000000 0.025680 0.000021
2.719125 0.617135 0.695089 0.000000 -0.940221 -0.000001
1.006120 0.665025 0.639208 0.000000 -0.481215 -0.000007
3.144395 0.599262 0.629772 0.000003 0.715226 -0.000314
3.052273 0.612231 0.848259 -0.000000 -0.715264 -0.000470
3.144395 0.599262 0.826914 0.000000 0.715263 0.000627
2.914723 0.799730 0.621739 -0.000000 0.715264 0.000470
1.661819 0.409949 0.433800 -0.066483 -0.002048 0.001863
1.258032 0.623955 0.679779 -0.000000 -0.874865 -0.000005
3.488739 0.803442 0.687845 0.016807 0.002289 -0.000974
2.114535 0.744350 0.824156 0.000000 0.316427 0.000049
0.955737 0.799221 0.676639 0.000002 0.859758 -0.000010
2.618360 0.791666 0.791013 -0.000000 0.791967 0.000025
2.819890 0.612475 0.742274 0.000000 -0.977083 0.000000
2.164917 0.803023 0.683633 0.000000 0.900076 -0.000004
1.726248 1.247276 1.278629 -0.051505 -0.005852 0.006000
2.114535 0.812412 0.713848 -0.000000 0.989801 -0.000002
3.193908 0.938429 0.942284 -0.000001 -0.715259 0.000392
1.699526 0.807137 0.848023 0.066525 -0.003602 0.003515
0.451913 0.801442 0.776122 0.000000 0.874491 0.000002
1.711475 0.761652 0.816539 0.000000 0.481285 0.000060
0.804590 0.724804 0.628121 -0.000001 0.114879 -0.000071
2.769507 0.793852 0.788133 -0.000001 0.807265 0.000024
3.481122 0.605299 0.618641 -0.400872 -0.001323 0.001400
1.909973 0.863867 0.576930 0.085835 0.006405 0.006241
2.955415 0.577584 0.607585 0.000001 0.715263 -0.000784
1.758920 0.476465 0.987041 0.066523 0.001854 0.001811
1.797783 0.276075 0.268256 0.066523 0.009535 -0.009223
1.814649 0.971770 0.451146 0.066524 -0.006887 -0.006693
1.671986 0.335082 0.352565 -0.066481 -0.003494 0.003176
1.911440 0.512761 0.935343 0.066522 0.007840 0.007608
1.528244 0.823122 0.631378 -0.066482 0.006666 0.006038
2.366447 0.788117 0.661438 0.000000 0.742656 -0.000007
1.766986 0.523330 0.555900 0.085832 -0.001499 0.001464
3.277521 0.886403 0.567649 -0.000001 -0.715261 -0.000216
3.060473 0.581920 0.612022 0.000000 0.715263 -0.000941
2.265682 0.798886 0.676081 -0.000002 0.846484 -0.000010
1.308415 0.757632 0.818670 -0.000000 0.458400 0.000032
1.611825 0.274683 0.280263 -0.066482 -0.006505 0.005894
1.509945 0.656315 0.812258 0.000000 -0.540065 0.000003
3.323715 0.673992 0.821695 -0.000001 -0.387582 0.000039
1.703925 0.886217 0.877229 -0.066482 0.009637 -0.008682
0.502295 0.805521 0.689102 0.000000 0.921254 -0.000007
1.761857 0.762784 0.640787 -0.000000 0.503652 -0.000056
1.528244 0.823122 0.825307 -0.066482 0.006666 -0.006038
0.250383 0.777109 0.805936 0.000000 0.630758 0.000003
0.094526 0.663597 0.786943 -0.412292 -0.000048 0.000055
2.064152 0.653973 0.810646 0.000000 -0.589948 0.000022
2.769507 0.668616 0.637396 -0.000000 -0.435436 -0.000017
0.754207 0.787926 0.795459 -0.000001 0.732745 0.000007
0.684322 0.813395 0.725581 0.000000 0.999661 -0.000000
2.114535 0.625665 0.676779 -0.000000 -0.863847 -0.000010
2.164917 0.623838 0.776692 -0.000000 -0.876486 0.000009
2.164917 0.765955 0.642688 -0.000001 0.524244 -0.000013
3.415817 0.837187 0.618021 -0.000000 -0.715262 -0.000507
1.888708 1.273238 1.307020 0.066522 -0.006993 0.006795
1.735070 0.307280 1.128417 -0.066483 -0.006505 -0.005894
1.258032 0.635391 0.793556 -0.000000 -0.758661 0.000007
3.381667 0.428319 1.036489 0.000002 -0.715260 -0.000662
3.381667 0.428319 0.420197 0.000000 -0.715264 0.000662
3.381667 0.996649 0.420197 -0.000000 0.715265 0.000662
3.336716 0.707610 0.627486 -0.000000 -0.025670 -0.000021
0.502295 0.743811 0.632349 0.000000 0.316305 -0.000098
1.657901 0.617411 0.609072 -0.051508 0.004876 -0.005010
1.451129 0.621634 0.828671 -0.051507 0.003292 0.003390
3.122185 0.742184 0.824850 0.000000 0.291655 0.000054
3.328115 0.578243 0.573640 0.000001 -0.715263 0.000708
3.328115 0.578243 0.883045 -0.000000 -0.715264 -0.000708
1.825648 1.131780 0.313122 0.085834 0.004024 0.003927
1.207650 0.758210 0.818372 0.000001 0.458374 0.000064
1.720024 0.252424 0.266521 -0.066482 -0.012045 0.010790
3.310943 1.007798 0.443404 0.000000 -0.715263 -0.000662
3.310943 0.417170 1.013281 0.000000 0.715265 0.000662
3.310943 0.434474 0.426497 -0.000000 -0.715264 0.000662
1.896041 0.371096 1.072503 0.085835 -0.004681 -0.004567
2.668742 0.648174 0.806192 0.000000 -0.630758 0.000010
0.905355 0.807030 0.763811 0.000000 0.940146 0.000003
0.804590 0.626423 0.675528 -0.000000 -0.844836 -0.000001
0.653442 0.622157 0.683194 0.000000 -0.900182 -0.000016
3.481122 0.605299 0.838045 -0.400872 -0.001323 -0.001400
0.106038 0.793898 0.728343 -0.374882 0.000044 0.000001
1.390337 0.785767 0.658763 0.000001 -0.698843 0.000196
1.758904 1.156711 0.263473 -0.051508 -0.014041 -0.013981
0.754207 0.651744 0.647673 0.000000 -0.610298 -0.000011
2.870272 0.726375 0.828357 -0.000001 0.140944 0.000115
1.770820 0.242254 1.219267 -0.051506 0.006437 0.006591
0.854972 0.789471 0.793679 0.000000 0.759371 0.000007
1.106885 0.759293 0.817813 0.000001 0.408282 0.000004
2.833956 0.825706 0.629772 0.000001 -0.715262 -0.000627
2.833956 0.825706 0.826914 0.000000 -0.715264 0.000627
2.013770 0.739297 0.825691 -0.000001 0.257179 0.000015
1.006120 0.625256 0.677481 -0.000000 -0.863895 -0.000019
0.905355 0.640165 0.798822 -0.000000 -0.724870 0.000016
2.923966 0.873322 0.563728 0.192970 0.001724 0.003773
3.209864 0.442503 1.004663 0.192966 -0.001644 -0.003597
3.209864 0.442503 0.452023 0.192968 -0.001644 0.003597
3.400463 1.055227 0.377552 0.192968 0.001644 0.003597
3.400463 0.369741 1.079133 0.192970 -0.001644 -0.003597
3.400463 0.369741 0.377552 0.192968 -0.001644 0.003597
3.114565 0.946084 0.489258 0.192969 0.001644 0.003597
2.971616 0.533455 0.545111 0.192969 -0.001724 0.003773
2.876316 0.569836 0.582346 0.192968 -0.001724 0.003773
3.233689 0.991560 1.013972 0.192969 0.001724 -0.003773
2.618360 0.611615 0.732729 0.000000 -0.999670 0.000000
2.971616 0.533455 0.911575 0.192969 -0.001724 -0.003773
2.870272 0.724522 0.628089 -0.000001 0.115652 -0.000141
1.228778 0.813434 0.729561 -0.000000 0.993549 0.000000
3.233362 0.594926 0.625334 0.000000 0.715262 -0.000176
3.233362 0.594926 0.831351 0.000000 0.715264 0.000176
0.552677 0.647579 0.650986 0.000000 -0.649737 -0.000010
0.300765 0.637558 0.660653 -0.000000 -0.742527 -0.000030
1.657886 0.938740 0.939482 -0.066481 0.004578 -0.004158
2.013770 0.685357 0.631081 0.000000 -0.266963 -0.000015
3.044173 0.813370 0.724606 0.000000 0.993548 -0.000000
1.711475 0.655777 0.644791 0.000000 -0.568887 -0.000012
1.513564 0.539279 0.895491 -0.066481 -0.006666 -0.006038
1.846179 1.201292 1.237441 0.066524 -0.004450 0.004338
1.409180 0.696303 0.828013 -0.000000 -0.166468 0.000049
2.769507 0.649687 0.807422 -0.000001 -0.626832 0.000010
1.358797 0.806456 0.765288 0.000001 0.925920 0.000003
2.467212 0.791307 0.665231 0.000000 0.775979 -0.000003
1.938570 1.327794 0.098585 0.066523 -0.011018 -0.010621
1.938570 0.285015 1.165849 0.066523 0.010594 0.010223
1.938570 1.252658 0.175486 0.066525 -0.008052 -0.007810
1.938570 1.177521 0.252386 0.066521 -0.009747 -0.009424
1.938570 0.341367 0.348512 0.066523 0.005721 -0.005570
1.938570 0.933328 0.502313 0.066523 -0.007417 -0.007202
1.938570 0.209878 1.242749 0.066522 0.008900 0.008619
1.938570 0.435287 1.012048 0.066521 0.006993 0.006795
2.416830 0.764607 0.641855 0.000001 0.521850 -0.000007
0.854972 0.761083 0.639834 0.000000 0.481778 -0.000007
1.285661 0.611544 0.726718 -0.000019 -0.014186 -0.000000
2.590731 0.714271 0.829279 0.000000 0.025670 0.000021
2.517595 0.616237 0.697788 0.000000 -0.956443 -0.000002
2.316065 0.803059 0.772979 -0.000001 0.892214 0.000002
1.797761 1.323304 0.108604 -0.066483 0.007228 0.006541
0.401530 0.627456 0.673874 0.000000 -0.836659 -0.000005
1.868177 1.365136 0.053651 0.066523 -0.010594 -0.010223
2.215300 0.652660 0.646998 0.000000 -0.589781 -0.000011
1.560327 0.757849 0.638127 -0.000000 0.458223 -0.000016
1.856445 0.095872 1.367267 0.066524 0.012289 0.011808
2.567977 0.633738 0.665136 -0.000000 -0.776068 -0.000053
1.106885 0.655510 0.811709 -0.000000 -0.568537 0.000012
1.812240 0.632508 0.789983 0.000000 -0.792187 0.000002
1.882842 0.163658 1.283184 0.085834 -0.005420 -0.005285
0.955737 0.753589 0.820573 -0.000001 0.411972 0.000072
2.366447 0.663493 0.640049 -0.000000 -0.481224 -0.000060
1.828581 1.149862 1.162431 0.085834 0.003695 -0.003607
2.668742 0.771192 0.810502 0.000002 0.586759 0.000023
1.830047 0.905195 0.520754 0.066524 -0.007840 -0.007608
0.754207 0.622362 0.773888 0.000000 -0.888522 0.000008
1.560327 0.630372 0.669569 0.000002 -0.803509 -0.000012
1.409180 0.612475 0.742274 -0.000000 -0.989153 0.000001
0.300765 0.665169 0.817552 0.000000 -0.458325 0.000008
1.459562 0.614087 0.705664 0.000000 -0.976142 -0.000004
1.874043 1.390210 1.414026 -0.066480 0.010601 -0.009530
0.905355 0.612441 0.742033 -0.000000 -0.989153 0.000001
1.513564 0.876712 0.552424 -0.051506 -0.008095 -0.008252
2.920655 0.802252 0.774574 0.000001 0.888527 0.000017
0.854972 0.614158 0.705347 -0.000000 -0.976033 -0.000002
3.415911 0.885225 0.887831 -0.000001 -0.715263 0.000708
3.314724 0.912668 0.506149 -0.000001 0.715263 0.000708
3.472674 0.627879 0.675182 0.014635 -0.002496 -0.001378
0.955737 0.755584 0.637025 0.000000 0.435513 -0.000034
1.106885 0.654708 0.645531 -0.000001 -0.566395 -0.000012
2.467212 0.639802 0.798439 -0.000001 -0.710539 0.000004
1.938570 1.421714 0.002460 0.066525 -0.007628 -0.007405
0.401530 0.636742 0.795127 0.000000 -0.742333 0.000007
1.687010 1.194053 1.217061 -0.066485 0.005541 -0.005027
1.812240 0.619952 0.687904 0.000000 -0.921387 -0.000028
0.502295 0.626039 0.676151 -0.000001 -0.847784 -0.000005
0.653442 0.643271 0.801864 -0.000000 -0.688625 0.000034
1.938570 0.003253 0.002460 0.066525 0.007628 -0.007405
1.717124 0.861198 0.555011 0.066522 -0.003603 -0.003515
2.517595 0.785306 0.798292 0.000001 0.724380 0.000016
1.715658 0.920975 0.542436 -0.066481 0.009155 0.008257
0.038203 0.734861 0.695085 -0.632988 0.000014 -0.000020
1.729181 0.165636 1.284595 -0.066482 -0.004578 -0.004157
2.819890 0.761795 0.640225 0.000001 0.463362 -0.000004
2.870272 0.626466 0.781226 0.000001 -0.849839 0.000010
1.631119 0.859608 0.560555 -0.051507 -0.005998 -0.006148
0.200000 0.618942 0.690300 -0.034379 -0.000591 -0.000231
1.739122 0.594141 0.824877 0.085835 -0.002792 -0.002727
0.653442 0.802811 0.773491 -0.000000 0.900182 0.000016
1.459562 0.760442 0.639482 0.000000 0.481281 -0.000060
1.509945 0.621768 0.772686 0.000000 -0.899630 0.000004
0.401530 0.666324 0.638537 0.000001 -0.458101 -0.000032
1.793384 0.416949 1.012919 0.085834 -0.002505 -0.002446
3.420392 0.945361 0.949378 0.000002 -0.715231 0.000248
3.409547 0.459364 1.004715 -0.000003 -0.715235 -0.000331
3.409547 0.459364 0.451970 0.000000 -0.715264 0.000331
1.610710 0.761368 0.816695 -0.000001 0.466480 0.000008
3.374097 0.776132 0.649955 0.000001 0.630602 -0.000081
1.810249 0.466774 0.492683 0.085834 -0.002833 0.002767
0.754207 0.742184 0.824850 0.000000 0.291709 0.000054
1.762587 1.060008 0.394354 -0.066482 0.007228 0.006541
1.358797 0.807653 0.694593 -0.000000 0.939979 -0.000006
0.754207 0.759004 0.638724 0.000001 0.452608 -0.000016
0.603060 0.676257 0.634089 -0.000001 -0.363281 -0.000021
1.913005 0.646561 0.804828 0.000000 -0.650338 0.000010
1.074380 0.611560 0.726068 0.000000 -0.999670 -0.000000
2.993910 0.795395 0.830509 0.000000 0.715262 -0.000392
1.963387 0.707123 0.829180 0.000000 -0.064182 0.000127
0.191611 0.689356 0.630341 -0.038356 -0.000289 -0.001097
2.366447 0.666000 0.817980 -0.000000 -0.458562 0.000032
2.819890 0.765436 0.814318 0.000001 0.525513 0.000027
1.178396 0.611544 0.726718 0.000000 -0.999661 -0.000000
1.435719 0.840832 0.592784 -0.051509 -0.006583 -0.006738
1.874043 0.034758 0.042659 0.085835 -0.006898 0.006718
1.809516 1.199040 0.246272 -0.066482 0.010600 0.009530
1.774319 1.076812 1.116894 0.066522 -0.011230 0.010820
0.653442 0.741795 0.631717 -0.000000 0.291788 -0.000215
1.913005 0.745584 0.823745 0.000000 0.316228 0.000012
1.898974 1.118913 1.139433 0.085834 0.004024 -0.003927
1.938570 0.341367 1.108173 0.066525 0.011442 0.011018
1.938570 1.083601 0.348512 0.066524 -0.011442 -0.011018
2.993910 0.612268 0.813602 0.000000 0.715262 0.000392
2.064152 0.620773 0.770595 0.000000 -0.911030 0.000004
1.938570 0.285015 0.290837 0.066523 0.010595 -0.010223
3.122185 0.739219 0.630972 0.000000 0.267003 -0.000059
1.963387 0.797045 0.783525 0.000000 0.836760 0.000011
1.157267 0.666397 0.818185 -0.000000 -0.458543 0.000063
1.358797 0.631067 0.668618 -0.000000 -0.806607 -0.000006
1.762587 0.364960 0.394354 0.085833 -0.004681 0.004567
2.920655 0.659877 0.642154 -0.000000 -0.525709 -0.000053
3.190442 0.512551 0.541025 -0.000001 0.715263 -0.000392
3.221047 0.542863 0.919256 0.000000 -0.715263 -0.000392
1.989391 0.813453 0.727855 0.000000 0.999670 -0.000000
3.244719 0.817072 0.852696 0.000000 0.715263 -0.000196
1.871110 0.235984 1.207714 0.085833 -0.006733 -0.006559
0.158280 0.770595 0.650905 -0.163832 0.000159 -0.000200
1.358797 0.628956 0.785083 0.000001 -0.820336 0.000006
1.575520 0.322583 0.329287 -0.066482 -0.003494 0.003176
1.527113 1.038519 1.062033 -0.051507 -0.002487 0.002563
1.478706 0.974653 0.996668 -0.051508 -0.010824 0.010932
1.672333 0.194851 0.198556 -0.066482 -0.005060 0.004593
1.793350 1.389781 1.421543 -0.051509 -0.014041 0.013981
1.575520 1.102385 1.127398 -0.051507 -0.004389 0.004513
1.357689 0.814988 0.623431 -0.051506 -0.008777 -0.008929
1.490808 0.434348 1.013009 -0.066481 -0.008914 -0.008043
1.744943 1.325916 1.356177 -0.051509 -0.004681 0.004811
2.114535 0.692705 0.827361 0.000000 -0.191692 0.000042
3.021420 0.625092 0.677762 0.000001 -0.862156 -0.000005
3.328988 1.027941 1.051207 0.192970 0.001724 -0.003773
1.645969 0.894622 0.525559 -0.051507 -0.002926 -0.003014
1.409180 0.799876 0.778923 0.000000 0.863786 0.000005
0.603060 0.803519 0.684657 -0.000000 0.900162 -0.000004
1.462948 0.548211 0.556016 -0.051506 0.008095 -0.008252
2.567977 0.623545 0.776158 -0.000001 -0.875539 0.000009
3.222950 0.627278 0.782539 0.000000 -0.850952 0.000003
1.711475 0.752848 0.635780 0.000000 0.388778 -0.000010
3.424511 1.033848 1.074562 -0.000003 0.715257 -0.000662
1.669336 1.027347 0.421002 -0.066482 0.001988 0.001809
1.761857 0.801306 0.776372 -0.000001 0.876087 0.000018
2.719125 0.799999 0.778713 -0.000001 0.857886 0.000005
1.459562 0.739728 0.825572 0.000000 0.267009 0.000059
3.201799 0.916752 0.536588 -0.000001 -0.715263 -0.000392
3.222950 0.625174 0.677621 -0.000000 -0.863528 -0.000010
1.358797 0.731904 0.629254 -0.000001 0.189562 -0.000021
3.122185 0.800797 0.777298 -0.000001 0.876463 0.000018
1.599734 1.054807 1.072737 -0.066475 0.001988 -0.001809
2.769507 0.623312 0.680956 -0.000002 -0.827781 -0.000002
0.552677 0.800719 0.777440 0.000000 0.876603 0.000004
1.435719 0.845641 0.859202 -0.066485 0.005421 -0.004918
0.351148 0.802864 0.683304 0.000000 0.898297 -0.000002
2.870272 0.623349 0.680883 0.000000 -0.888633 -0.000008
1.006120 0.802811 0.773491 -0.000000 0.900215 0.000002
1.409180 0.690876 0.629708 -0.000000 -0.217120 -0.000147
2.416830 0.621166 0.771443 -0.000000 -0.900056 0.000008
3.165516 0.497377 0.931191 0.000000 0.715263 0.000176
2.897053 0.594926 0.831351 0.000002 0.715259 0.000470
3.273332 0.761474 0.816636 -0.000001 0.481163 0.000060
2.971037 0.671897 0.635878 -0.000000 -0.412140 -0.000036
2.215300 0.759654 0.817626 0.000000 0.458412 0.000032
1.258032 0.677359 0.823013 0.000000 -0.340407 0.000023
1.106885 0.799548 0.779485 -0.000002 0.847353 0.000005
1.106885 0.801693 0.681028 0.000000 0.888130 -0.000004
1.703925 0.538750 0.579456 0.085834 -0.005584 0.005444
1.711475 0.812527 0.714653 -0.000001 0.988124 -0.000002
2.696371 0.710210 0.829266 0.000000 -0.025680 0.000021
2.064152 0.801462 0.680599 0.000000 0.876525 -0.000009
1.207650 0.802140 0.774791 0.000001 0.881550 0.000002
1.006120 0.803660 0.684950 0.000000 0.898297 -0.000002
0.451913 0.800080 0.678113 -0.000000 0.863606 -0.000005
1.758904 1.168413 1.181779 -0.066482 0.005782 -0.005244
3.323715 0.802882 0.683340 0.000000 0.899700 -0.000004
1.006120 0.623349 0.775802 -0.000000 -0.888633 0.000017
3.374097 0.759979 0.817458 -0.000000 0.481302 0.000239
1.258032 0.669237 0.637095 -0.000000 -0.435293 -0.000017
3.314724 0.494995 0.523057 0.000000 0.715264 -0.000708
1.258032 0.758427 0.638425 0.000000 0.458512 -0.000063
1.106885 0.621555 0.684438 -0.000000 -0.899630 -0.000004
2.971037 0.619952 0.768781 0.000000 -0.911069 0.000004
2.567977 0.758174 0.638295 0.000000 0.457741 -0.000008
2.668742 0.615190 0.701333 -0.000000 -0.963602 -0.000009
1.207650 0.800523 0.678889 0.000000 0.876502 -0.000018
1.308415 0.801032 0.776870 0.000000 0.876486 0.000009
3.071802 0.667957 0.637715 0.000000 -0.435510 -0.000034
3.273332 0.619794 0.768407 0.000000 -0.921331 0.000003
1.635855 0.312866 1.132101 -0.066483 -0.006987 -0.006326
3.273332 0.754588 0.636565 -0.000000 0.412235 -0.000145
2.114535 0.661692 0.641074 -0.000000 -0.503484 -0.000028
1.207650 0.621307 0.684950 0.000000 -0.900076 -0.000002
3.374097 0.807182 0.693294 0.000001 0.939374 -0.000012
2.316065 0.617412 0.762360 -0.000001 -0.907409 0.000002
1.489439 0.483146 0.497146 -0.066482 -0.002349 0.002137
1.578860 0.808650 0.613689 -0.051506 -0.008094 -0.008252
1.890175 0.444828 0.996317 0.085833 -0.002669 -0.002606
2.971037 0.661026 0.815223 -0.000001 -0.502239 0.000014
1.610710 0.625911 0.780327 0.000000 -0.863832 0.000002
1.850579 0.113893 0.107302 0.066522 0.006357 -0.006183
1.157267 0.666649 0.638370 -0.000000 -0.458540 -0.000063
3.122185 0.800719 0.679245 -0.000000 0.876470 -0.000009
1.841779 0.427380 0.427311 0.066523 0.006993 -0.006795
1.812240 0.803943 0.685535 0.000000 0.911069 -0.000002
1.963387 0.803943 0.685535 0.000000 0.911131 -0.000004
2.316065 0.803271 0.684145 -0.000000 0.899145 -0.000004
3.049426 0.568876 0.892632 0.000000 -0.715264 -0.001098
3.049426 0.568876 0.564053 -0.000002 -0.715257 0.000549
3.157330 0.825706 0.826914 0.000000 -0.715263 0.000314
0.552677 0.624444 0.777796 0.000000 -0.876525 0.000018
1.648130 1.198184 0.231239 -0.051505 -0.007022 -0.007180
0.603060 0.662745 0.816226 0.000001 -0.503515 0.000028
1.056502 0.757010 0.637715 -0.000000 0.435518 -0.000017
2.215300 0.620756 0.686127 0.000000 -0.911069 -0.000004
0.703825 0.803943 0.771150 -0.000000 0.911069 0.000007
1.358797 0.666830 0.818409 -0.000000 -0.458223 0.000016
1.560327 0.763240 0.815632 -0.000002 0.500849 0.000028
2.819890 0.666758 0.638314 -0.000001 -0.458384 -0.000032
1.862622 0.641602 0.656426 0.000000 -0.707107 -0.000033
2.517595 0.805836 0.689851 0.000000 0.921331 -0.000003
1.462948 0.881565 0.895971 -0.066481 0.006666 -0.006038
1.462948 0.881565 0.560715 -0.066481 0.013330 0.011899
1.611125 0.531340 0.927661 -0.051505 0.005852 0.006000
1.613152 0.599346 0.594781 -0.051507 0.016186 -0.015937
1.578860 0.616318 0.842996 -0.051508 0.008094 0.008252
0.079590 0.761650 0.776259 -0.470687 0.000041 0.000042
1.716287 0.417611 1.009077 -0.066481 -0.004096 -0.003722
1.847646 1.015608 1.047258 0.066523 -0.006569 0.006387
3.157640 0.564578 0.862412 0.000000 0.715264 0.000157
3.157640 0.564578 0.594273 0.000000 0.715263 -0.000627
0.250383 0.804999 0.687867 0.000000 0.911069 -0.000001
0.854972 0.748332 0.822744 0.000000 0.364676 0.000010
3.071802 0.615811 0.699187 0.000001 -0.955343 -0.000005
3.374097 0.622734 0.682075 0.000000 -0.888643 -0.000034
3.151018 0.825743 0.595115 0.000000 0.715264 0.000627
1.663767 0.599391 0.865497 -0.051508 0.009752 0.009888
1.576281 0.905779 0.911352 -0.066483 0.009877 -0.008895
2.618360 0.673243 0.821379 -0.000001 -0.388526 0.000078
2.428206 0.713296 0.627382 0.000000 0.025680 -0.000041
1.056502 0.756316 0.819307 -0.000000 0.435585 0.000034
1.812240 0.769926 0.645300 -0.000000 0.568890 -0.000095
1.661092 0.798822 0.675978 -0.000000 0.850563 -0.000020
3.488739 0.692235 0.682863 1.000000 -0.000000 0.000000
3.488739 0.741746 0.688067 1.000000 0.000000 0.000000
3.488739 0.662973 0.723139 1.000000 0.000000 -0.000000
3.488739 0.709878 0.778058 1.000000 -0.000000 0.000000
3.488739 0.760571 0.741227 1.000000 0.000000 0.000000
1.610710 0.760513 0.639521 0.000000 0.481215 -0.000015
3.222950 0.675500 0.634386 0.000000 -0.364653 -0.000042
0.703825 0.677550 0.633603 0.000001 -0.340668 -0.000090
3.083187 0.851719 0.853538 0.000000 -0.715264 0.000549
0.250383 0.728024 0.628564 0.000000 0.140805 -0.000014
1.894575 1.310043 0.112556 0.066524 -0.006357 -0.006183
1.890175 0.998924 1.015542 0.085834 0.005420 -0.005285
1.106885 0.622790 0.774719 -0.000001 -0.888451 0.000017
1.709579 1.100629 0.321360 -0.051506 -0.008192 -0.008349
1.448735 0.544080 0.896633 -0.066485 -0.005421 -0.004918
1.881376 0.546033 0.891651 0.085834 -0.001601 -0.001564
1.711475 0.622641 0.774430 0.000001 -0.885823 0.000004
1.938570 1.046033 1.069723 0.066523 -0.006145 0.005979
2.941783 0.813378 0.724931 0.000000 0.999661 -0.000000
1.207650 0.620890 0.770854 -0.000001 -0.910972 0.000015
3.320177 0.810221 0.611001 0.000003 0.715257 0.000708
3.362737 0.618239 0.614576 0.000000 -0.715262 0.000507
1.819781 0.319959 1.115440 0.085835 -0.004352 -0.004247
3.323715 0.801656 0.775730 0.000001 0.790784 0.000001
1.893108 0.394147 0.398195 0.066523 0.013136 -0.012593
1.553262 0.932040 0.514207 -0.066483 0.002349 0.002137
2.870272 0.804948 0.687756 0.000000 0.911069 -0.000004
2.517595 0.666686 0.818334 0.000001 -0.458434 0.000063
2.769507 0.756206 0.819360 0.000000 0.435490 0.000068
1.761857 0.668469 0.637467 -0.000001 -0.427252 -0.000009
1.689954 0.310393 0.309256 -0.051507 0.008192 -0.008349
1.779793 0.135009 1.313230 -0.066483 -0.008191 -0.007401
3.131150 0.642598 0.799869 0.000000 -0.698855 0.000641
3.131150 0.642598 0.656816 -0.000002 -0.698853 -0.000641
1.853512 1.052412 1.084367 0.066520 -0.006146 0.005979
3.071802 0.803960 0.685572 -0.000000 0.904671 -0.000002
1.715658 0.920975 0.914250 -0.066482 0.009155 -0.008257
3.222950 0.674142 0.821758 0.000000 -0.388778 0.000019
1.661819 0.423334 1.035964 -0.051507 0.002487 0.002563
1.650890 1.136758 0.298988 -0.066482 0.006505 0.005894
1.909973 0.865438 0.887616 0.066522 -0.002066 0.002018
3.148189 0.813442 0.726474 0.000000 0.999922 -0.000000
1.900441 1.332231 1.357940 0.085834 0.009525 -0.009250
0.351148 0.800244 0.778292 -0.000001 0.772743 0.000001
2.920655 0.621343 0.684877 -0.000000 -0.899891 -0.000008
2.971037 0.756864 0.637644 -0.000001 0.435295 -0.000068
2.668742 0.809347 0.699809 0.000001 0.954168 -0.000005
2.971037 0.802010 0.775044 0.000001 0.888527 0.000017
3.251482 0.484333 0.979160 0.000002 -0.715263 -0.000862
3.251482 0.467028 0.494433 0.000000 0.715263 -0.000862
3.352669 0.913192 0.916454 0.000002 -0.715255 0.000354
1.534728 1.006394 0.430696 -0.066483 0.004216 0.003831
3.021420 0.623051 0.775224 0.000000 -0.888220 0.000004
1.704463 0.957659 0.460272 -0.051508 -0.005266 -0.005406
0.401530 0.676711 0.822774 0.000001 -0.320330 0.000006
3.323715 0.623975 0.679744 0.000000 -0.876564 -0.000018
1.687010 0.234602 1.220663 -0.051507 0.007022 0.007180
2.719125 0.801188 0.680100 -0.000000 0.876470 -0.000009
2.265682 0.741523 0.825051 0.000001 0.281373 0.000014
1.755959 1.232502 0.190239 -0.051506 -0.011702 -0.011777
0.038203 0.678661 0.706829 -0.632986 -0.000021 -0.000012
1.623927 1.166251 0.263921 -0.051508 -0.007607 -0.007766
3.071802 0.805915 0.766647 0.000000 0.920571 0.000003
0.552677 0.757340 0.637874 0.000000 0.436021 -0.000004
1.459562 0.667774 0.637803 0.000001 -0.435007 -0.000034
1.675294 1.027124 1.061633 -0.051509 -0.004681 0.004811
1.828581 0.284498 0.303867 0.085835 -0.004024 0.003927
1.913005 0.754033 0.636314 0.000000 0.412255 -0.000018
1.862622 0.711022 0.829287 0.000000 -0.025680 0.000319
2.920655 0.754625 0.636582 0.000000 0.412255 -0.000072
1.687096 0.712646 0.627365 0.000000 0.025670 -0.000021
3.172567 0.675463 0.634400 -0.000000 -0.364793 -0.000021
1.764770 0.239176 0.256396 -0.066482 -0.005541 0.005027
0.038203 0.734861 0.761600 -0.632988 0.000014 0.000020
1.358797 0.753367 0.820673 -0.000001 0.411365 0.000036
1.157267 0.757993 0.638202 -0.000000 0.458620 -0.000032
0.300765 0.676939 0.633824 0.000000 -0.340329 -0.000011
1.812240 0.751724 0.821379 0.000000 0.388778 0.000010
1.913005 0.615905 0.698876 0.000000 -0.956443 -0.000001
2.366447 0.756864 0.819041 0.000000 0.435513 0.000068
1.640103 0.528969 0.562395 -0.066481 -0.004819 0.004375
3.383875 0.640332 0.819498 -0.000000 -0.715264 -0.001014
3.294460 0.710696 0.829302 0.000000 -0.012838 0.000165
1.861578 0.958615 0.469087 0.066523 -0.001854 -0.001811
2.013770 0.612976 0.711200 -0.000000 -0.985350 -0.000001
1.795584 0.870940 0.904160 0.066522 -0.004132 0.004030
1.475871 0.503458 0.938571 -0.066482 -0.004939 -0.004484
3.190445 0.611526 0.730211 0.000018 -0.014381 0.000000
1.702056 0.294426 1.163771 -0.051508 0.015211 0.015056
3.044072 0.625238 0.621739 0.000000 -0.715263 0.000470
1.907773 1.229510 1.253712 0.085833 0.003038 -0.002967
1.557373 0.386288 1.059214 -0.066482 -0.003975 -0.003613
1.865244 0.298947 1.158584 0.066523 0.010595 0.010223
1.546212 0.856467 0.860159 -0.066482 0.006666 -0.006038
3.071802 0.663814 0.816812 0.000000 -0.481242 0.000060
2.992952 0.886403 0.889036 0.000001 -0.715263 0.000941
3.374097 0.807431 0.762704 -0.000000 0.940173 0.000024
1.575520 0.322583 1.127398 -0.066480 -0.006987 -0.006326
1.963387 0.628479 0.672310 -0.000001 -0.832550 -0.000005
2.842643 0.813403 0.725906 0.000000 0.999670 -0.000000
1.528244 0.616273 0.617281 -0.051508 0.008094 -0.008252
2.719125 0.669530 0.636954 0.000000 -0.435733 -0.000017
2.618360 0.753515 0.820606 0.000001 0.409956 0.000018
1.610710 0.808683 0.759053 -0.000000 0.956443 0.000002
3.423567 0.656007 0.786146 0.169836 -0.001847 0.001890
2.833956 0.599262 0.826914 -0.000001 0.715263 0.000627
1.815729 1.356650 1.382933 -0.066480 0.012527 -0.011208
1.742870 1.076167 1.082034 -0.066484 0.003614 -0.003285
1.774319 0.348156 1.116894 0.066523 0.011230 0.010820
1.896041 1.072655 1.091728 0.085834 0.004763 -0.004646
1.896041 0.352312 0.364957 0.085834 -0.004763 0.004646
3.071802 0.760548 0.639540 0.000000 0.481334 -0.000030
3.172567 0.756572 0.637502 -0.000001 0.435537 -0.000135
1.780185 1.112145 0.338823 -0.066484 0.006505 0.005894
1.738389 0.876039 0.914836 0.066523 -0.002066 0.002018
1.887242 0.487304 0.492979 0.066523 0.001854 -0.001811
0.703825 0.803129 0.683853 0.000000 0.900141 -0.000016
0.187420 0.712484 0.828789 -0.058770 0.000002 0.000185
3.021420 0.803660 0.684950 -0.000000 0.899994 -0.000008
1.786051 0.295444 0.320313 0.085833 -0.008047 0.007828
0.603060 0.759943 0.817477 -0.000000 0.481215 0.000007
1.157267 0.804697 0.769485 0.000000 0.911093 0.000007
1.509945 0.804580 0.769744 0.000001 0.908649 0.000007
1.847646 0.390576 1.066483 0.066524 0.006569 0.006387
1.749920 0.285251 1.176100 -0.051507 0.007607 0.007766
1.711475 0.621555 0.684438 0.000000 -0.900096 -0.000016
0.401530 0.761083 0.639834 0.000000 0.481356 -0.000030
1.677881 0.516481 0.904270 -0.066481 -0.002349 -0.002137
1.669803 0.964102 0.490523 -0.066482 0.002168 0.001973
1.661092 0.674857 0.822048 -0.000001 -0.364679 0.000084
1.595340 0.431367 0.433280 -0.051508 0.002560 -0.002639
1.620918 0.381975 1.057662 -0.066483 -0.001988 -0.001809
0.754207 0.622086 0.683340 0.000001 -0.898196 -0.000004
0.351148 0.622567 0.682400 0.000000 -0.888651 -0.000034
0.346272 0.707773 0.627482 -0.000000 -0.026046 -0.000041
1.881376 0.891467 0.539700 0.066523 -0.003867 -0.003772
1.727390 0.492318 0.482861 0.066523 0.007311 -0.007100
1.485605 0.810268 0.837866 -0.051506 -0.008777 0.008929
1.485605 0.810268 0.618819 -0.051509 -0.008777 -0.008929
0.351148 0.620354 0.769670 0.000000 -0.911059 0.000015
2.051150 0.712321 0.627365 -0.000000 -0.025689 -0.000041
1.666870 0.469555 0.956907 -0.066479 -0.002229 -0.002028
1.694197 0.926124 0.965117 -0.051510 -0.005266 0.005406
2.888853 0.817035 0.818039 0.000002 -0.715259 0.000470
0.094526 0.730012 0.654068 -0.412296 0.000019 -0.000074
1.748655 0.912271 0.950938 0.066523 -0.001960 0.001914
2.431457 0.714271 0.829279 0.000000 0.025689 0.000010
2.316065 0.773674 0.808665 0.000000 0.610307 0.000011
1.500193 0.611504 0.728424 0.000000 -0.999670 0.000000
1.810982 0.369366 0.364997 0.066523 0.006145 -0.005979
1.560327 0.668469 0.819218 -0.000001 -0.430157 0.000017
1.893108 1.026398 0.412663 0.085833 0.005091 0.004966
0.250383 0.804982 0.768855 0.000000 0.911069 0.000001
1.398217 0.592657 0.848271 -0.066482 -0.003614 -0.003285
1.386115 0.816344 0.831930 -0.066482 0.007228 -0.006541
1.662991 1.148396 1.178267 -0.051509 -0.007607 0.007766
0.401530 0.809394 0.756721 0.000000 0.956443 0.000002
0.703825 0.667555 0.818776 0.000001 -0.422294 0.000004
1.816848 1.096319 1.106185 0.085832 0.008704 -0.008461
3.432261 0.974275 1.013590 0.000000 0.715264 -0.000662
3.132080 0.895074 0.897911 0.000000 -0.715264 0.000314
1.664589 0.851078 0.890268 -0.051508 -0.005998 0.006148
1.846179 0.223676 0.219244 0.066523 0.004450 -0.004338
2.517595 0.612613 0.743239 0.000000 -0.989993 0.000005
1.274285 0.813428 0.726881 0.000000 0.999670 -0.000000
2.811243 0.625238 0.621739 0.000001 -0.715263 0.000627
2.064152 0.631839 0.667571 0.000000 -0.792187 -0.000002
1.726248 0.174326 0.181345 -0.066482 -0.005060 0.004593
1.715658 0.503992 0.542436 0.085833 -0.005995 0.005843
0.300765 0.615396 0.700589 0.000000 -0.963593 -0.000005
1.693170 0.346896 1.089045 -0.066482 -0.007228 -0.006541
2.870272 0.804195 0.770595 -0.000000 0.911043 0.000007
2.316065 0.686219 0.825843 0.000000 -0.267009 0.000059
3.011890 0.590591 0.620897 0.000000 0.715263 -0.000784
3.044072 0.799730 0.834947 0.000000 0.715263 -0.000470
3.025135 0.851756 0.888195 0.000000 0.715263 -0.000470
1.731045 0.378861 1.050183 -0.066483 -0.001867 -0.001699
1.504566 0.958654 0.473665 -0.051509 -0.005705 -0.005852
1.750267 0.132997 0.138323 -0.066482 -0.004096 0.003722
3.038379 0.903745 0.549900 -0.000000 -0.715264 -0.001098
1.827831 0.056519 0.053339 -0.051507 0.014041 -0.013981
1.802916 0.907553 0.940934 0.066522 -0.003920 0.003824
1.716287 0.436286 0.429361 -0.051508 0.004974 -0.005109
3.124979 0.914584 0.538806 0.000000 -0.715264 -0.000176
3.246128 0.884273 0.921474 0.000001 0.715259 -0.000216
3.233982 0.542863 0.537429 0.000000 -0.715263 0.000196
2.920655 0.617030 0.761288 0.000000 -0.947028 0.000003
1.866710 1.283147 0.137426 0.066522 -0.006993 -0.006795
1.833697 0.038499 1.421230 -0.051507 0.014041 0.013981
0.905355 0.745044 0.632761 0.000001 0.311073 -0.000012
1.693061 0.222931 0.231454 -0.066481 -0.005542 0.005027
1.693061 1.202036 0.231454 -0.066483 0.011082 0.009951
3.222950 0.801540 0.680741 -0.000001 0.874697 -0.000005
2.819890 0.671897 0.820807 -0.000000 -0.412115 0.000036
1.833697 1.389995 0.038901 -0.066481 0.010600 0.009530
1.589290 0.994034 0.449674 -0.066481 0.004216 0.003831
2.920655 0.662745 0.816226 0.000000 -0.503803 0.000028
3.314724 0.512300 0.950536 -0.000001 -0.715262 -0.000708
2.769507 0.798245 0.675045 -0.000000 0.850577 -0.000020
2.416830 0.618171 0.692267 -0.000000 -0.910656 -0.000001
3.013778 0.864726 0.589836 0.000002 -0.715255 -0.000470
1.677980 0.825053 0.590676 -0.051508 -0.004876 -0.005010
3.060473 0.825743 0.595115 -0.000000 0.715264 0.000941
1.739856 0.518006 0.902890 0.085834 -0.002997 -0.002927
0.502295 0.618616 0.765553 0.000000 -0.931071 0.000013
1.740589 0.549880 0.870358 0.085833 -0.007637 -0.007432
1.308415 0.804412 0.686571 0.000000 0.911075 -0.000007
2.668742 0.676900 0.633838 0.000000 -0.340329 -0.000006
1.509341 0.515274 0.520766 -0.051509 0.005998 -0.006148
2.164917 0.725852 0.828431 -0.000001 0.141098 0.000115
1.859378 1.097873 0.343667 0.085833 0.004352 0.004247
1.771386 0.846579 0.611709 0.085834 0.007637 0.007432
1.705392 0.599810 0.590778 0.066525 0.003602 -0.003515
2.970238 0.860427 0.559616 0.000000 0.715263 0.000392
3.205265 0.925460 0.493056 0.000000 0.715263 0.000196
2.963306 0.808401 0.612864 -0.000000 0.715263 0.000627
1.815729 1.356650 0.073752 -0.066481 0.012527 0.011208
1.815729 0.068318 1.382933 -0.066481 -0.012527 -0.011208
2.567977 0.668542 0.637432 -0.000000 -0.435512 -0.000068
1.669081 0.565393 0.898824 -0.051505 0.005852 0.006000
1.938570 0.134742 0.137036 0.066523 0.006357 -0.006183
2.114535 0.753589 0.636113 0.000000 0.412255 -0.000036
1.900441 0.096905 1.362013 0.066523 0.011018 0.010621
1.576281 0.519188 0.545333 -0.066481 -0.009878 0.008895
2.164917 0.798566 0.781122 0.000001 0.826332 0.000003
1.056502 0.679615 0.823822 0.000000 -0.316338 0.000049
1.509945 0.801693 0.681028 0.000000 0.888633 -0.000008
0.955737 0.658875 0.813912 -0.000001 -0.521850 0.000007
2.215300 0.747189 0.633520 0.000000 0.340329 -0.000006
1.698059 0.556129 0.858719 0.085835 -0.002792 -0.002727
0.703825 0.733140 0.629496 0.000000 0.217086 -0.000037
1.056502 0.679692 0.632838 -0.000001 -0.315708 -0.000049
1.633649 0.799333 0.837903 -0.051506 -0.004876 0.005010
0.158280 0.770595 0.805780 -0.163827 0.000159 0.000200
0.300765 0.766611 0.643094 0.000001 0.515989 -0.000007
1.560327 0.663173 0.640225 0.000000 -0.481215 -0.000015
3.447760 0.855128 0.891646 -0.000001 0.715264 -0.001014
2.769507 0.621909 0.772979 0.000001 -0.899982 0.000016
0.552677 0.620874 0.685868 0.000001 -0.903539 -0.000002
1.610710 0.810294 0.703256 0.000000 0.970164 -0.000002
1.812240 0.679307 0.632966 0.000000 -0.340329 -0.000011
0.653442 0.649813 0.649161 0.000000 -0.630648 -0.000040
0.300765 0.759799 0.817552 -0.000000 0.457741 0.000008
3.222950 0.752473 0.821064 0.000000 0.388321 0.000019
2.013770 0.638048 0.796575 0.000001 -0.742279 0.000030
0.250383 0.622734 0.774610 -0.000000 -0.888643 0.000034
1.841779 0.446164 1.010149 0.066525 0.006993 0.006795
1.830780 0.624355 0.828824 0.066522 0.009853 0.009524
3.225471 0.851719 0.603148 -0.000001 -0.715262 -0.000392
0.451913 0.616349 0.697440 0.000000 -0.948537 -0.000001
3.289427 0.941159 0.945078 0.000003 -0.715242 0.000354
1.739122 0.830827 0.824877 0.085833 0.002792 -0.002727
1.900441 1.351015 0.079520 0.085833 0.008211 0.007987
3.280522 0.843085 0.577365 0.000001 0.715263 0.000431
1.562338 0.490330 0.963897 -0.051507 0.002853 0.002939
1.698059 0.868838 0.597966 -0.066481 0.002470 0.002247
1.770653 0.412678 0.442198 0.085833 -0.002505 0.002446
1.775785 0.927706 0.528135 0.085835 0.003038 0.002967
3.456609 0.812127 0.717115 0.021993 0.008143 -0.000429
3.366057 0.491599 0.971723 0.000000 -0.715264 -0.000496
3.366057 0.491599 0.484962 -0.000000 -0.715264 0.000248
1.979640 0.712971 0.627373 0.000000 0.026046 -0.000020
1.762587 0.801274 0.620679 0.066521 -0.005404 -0.005263
1.655952 0.997640 1.004375 -0.066482 0.004096 -0.003722
1.761857 0.807030 0.692874 -0.000000 0.939009 -0.000003
