2.858846 0.450878 0.580332 0.000000 -0.949950 -0.000006
3.630084 0.319733 0.352108 -0.198437 -0.002845 0.002777
3.443792 0.520522 0.509406 0.000000 -0.335407 -0.000212
0.306354 0.502563 0.517502 0.000000 -0.496235 -0.000033
1.688954 0.460866 0.672451 0.000000 -0.854952 0.000006
3.496969 0.658252 0.664791 0.000000 0.892000 0.000001
3.255079 0.434262 0.462820 0.000000 -0.742135 0.001309
3.018377 0.511974 0.512789 0.000000 -0.405926 -0.000085
1.476246 0.609453 0.515889 0.000000 0.474100 -0.000009
3.390712 0.767300 0.383054 0.081786 0.005453 0.007161
1.795308 0.609453 0.515889 0.000000 0.474100 -0.000009
3.600745 0.411108 0.793548 -0.000000 -0.742135 -0.000518
3.600745 0.703874 0.793548 -0.000000 0.742135 -0.000518
1.157184 0.497751 0.710369 -0.000000 -0.539697 0.000029
1.157184 0.661937 0.656417 -0.000000 0.933141 0.000004
1.210361 0.581168 0.505670 0.000000 0.213382 -0.000043
1.316715 0.476798 0.693356 -0.000000 -0.715998 0.000037
1.582600 0.468046 0.683140 0.000000 -0.798495 0.000007
3.390615 0.657128 0.563720 -0.000000 0.890889 -0.000005
0.997654 0.453846 0.572338 0.000000 -0.923740 -0.000008
0.891300 0.622869 0.706576 0.000000 0.581437 0.000013
3.284261 0.522965 0.508586 0.000000 -0.311444 -0.000115
3.390615 0.654914 0.671065 0.000000 0.868078 0.000011
1.263538 0.606114 0.514223 -0.000000 0.428925 -0.000040
3.284261 0.448356 0.589219 0.000000 -0.971131 -0.000005
1.369892 0.631061 0.700110 -0.000001 0.660009 0.000021
0.465885 0.514669 0.719095 -0.000000 -0.382692 0.000183
2.965200 0.665671 0.585520 0.000000 0.964689 -0.000005
2.061192 0.509590 0.513880 0.000000 -0.429413 -0.000005
0.838123 0.458773 0.668736 0.000001 -0.880011 0.000010
1.954838 0.612149 0.517347 0.000000 0.496300 -0.000033
1.582600 0.662608 0.654675 0.000000 0.933311 0.000007
1.815662 0.977565 1.090350 0.068173 -0.015520 0.013669
3.550146 0.453829 0.658352 -0.000000 -0.923880 0.000031
1.861318 0.404628 0.776565 0.105254 -0.004941 -0.004457
1.742131 0.525127 0.722819 0.000000 -0.287289 0.000063
0.838123 0.659319 0.662544 0.000000 0.903300 0.000009
1.879223 0.231157 0.971469 0.105255 -0.006414 -0.005782
1.848484 0.534205 0.725146 0.000000 -0.213662 0.000173
1.684736 0.392876 0.415435 -0.044053 0.007443 -0.007029
1.912346 1.000876 1.106304 0.068171 -0.011241 0.010017
1.912346 0.964060 1.065539 0.068174 -0.013380 0.011859
1.593217 0.849412 0.298497 -0.068103 0.002106 0.001734
2.912023 0.483987 0.530562 -0.000001 -0.660871 -0.000043
1.787015 0.196302 0.995501 0.105255 -0.006414 -0.005782
0.359531 0.608066 0.715544 -0.000000 0.451730 0.000037
3.496969 0.656209 0.561995 -0.000000 0.880365 -0.000020
1.573209 0.774222 0.368134 -0.044053 -0.007172 -0.006780
2.539784 0.510313 0.513537 0.000000 -0.428793 -0.000005
3.284261 0.657931 0.665425 -0.000000 0.890889 0.000005
1.868480 0.765016 0.392510 0.105254 0.004247 0.003833
1.736883 0.321221 0.381463 0.105254 -0.004247 0.003833
1.715621 0.703390 0.484884 0.105254 0.002817 0.002543
1.684684 0.883023 0.247436 -0.044054 -0.021102 -0.018233
1.635777 0.596884 0.510281 0.000001 0.359082 -0.000098
2.965200 0.458267 0.667797 0.000000 -0.879756 0.000005
0.784946 0.656441 0.562425 0.000001 0.878517 -0.000010
2.767931 0.669672 0.613411 0.000000 0.999675 -0.000000
1.476246 0.510634 0.513385 0.000000 -0.429009 -0.000020
3.363169 0.556425 0.727582 0.000000 -0.012746 0.000383
1.831776 0.804715 0.876382 0.105255 0.008494 -0.007647
3.100715 0.553761 0.727501 0.000000 -0.025160 0.000048
2.997792 0.554116 0.727510 0.000000 -0.025495 0.000024
0.253177 0.663465 0.578438 -0.000000 0.942072 -0.000013
0.092621 0.494722 0.669251 -0.451936 -0.000055 0.000045
3.071553 0.662033 0.574563 0.000001 0.933097 -0.000015
1.529423 0.668748 0.630072 -0.000000 0.990303 0.000003
2.805669 0.598169 0.510775 0.000000 0.359040 -0.000049
1.516743 0.675656 0.474639 -0.044053 -0.020922 -0.018106
2.965200 0.601257 0.718704 0.000000 0.382233 0.000011
0.997654 0.660660 0.571189 0.000001 0.921138 -0.000004
3.687020 0.523413 0.696003 0.280909 -0.000075 0.000170
0.944477 0.454356 0.659624 0.000000 -0.923614 0.000008
3.592917 0.633507 0.515096 -0.000001 0.742135 0.000691
1.210361 0.660139 0.570010 0.000000 0.913885 -0.000008
3.687020 0.523606 0.587657 1.000000 0.000000 -0.000000
0.944477 0.601421 0.718636 0.000000 0.382697 0.000046
1.668863 0.876558 0.957061 -0.068102 0.003838 -0.003157
3.496969 0.450906 0.650483 0.000000 -0.950220 0.000012
1.655752 0.923096 0.215780 -0.068103 0.013851 0.011185
1.675410 0.387858 0.774989 -0.068105 -0.002668 -0.002196
1.678890 0.456037 0.481750 -0.044051 0.006766 -0.006406
1.838938 0.255605 0.938037 0.105255 -0.007107 -0.006404
0.412708 0.599123 0.511142 0.000001 0.382183 -0.000023
1.912346 0.169330 1.045157 0.068173 0.007762 0.006965
1.901661 0.606917 0.716126 0.000000 0.452036 0.000009
0.944477 0.512420 0.512591 0.000000 -0.405967 -0.000043
3.603323 0.459363 0.669831 0.287098 -0.000182 0.000098
2.327077 0.514217 0.718908 -0.000000 -0.382277 0.000023
1.210361 0.465277 0.679332 0.000001 -0.826072 0.000006
2.965200 0.455510 0.568508 0.000000 -0.913895 -0.000002
2.008015 0.658557 0.664149 0.000000 0.903300 0.000009
1.619601 0.698071 0.485014 -0.068103 0.014475 0.011667
0.465885 0.504825 0.516268 -0.000000 -0.474193 -0.000035
1.824614 0.346520 0.395622 0.105255 -0.009187 0.008266
1.864899 0.740756 0.823123 0.068174 -0.007092 0.006371
1.744045 0.789852 0.340925 0.068173 -0.013113 -0.011631
0.690600 0.669706 0.616609 -0.000000 0.983980 0.000000
3.390615 0.449544 0.584663 0.000000 -0.964815 -0.000010
1.356169 0.445292 0.616609 0.000000 -0.999679 0.000000
3.500776 0.397802 0.454650 -0.000000 0.742135 -0.001501
3.497720 0.683675 0.491749 -0.000000 -0.742135 -0.001501
1.708460 0.429437 0.724956 0.105257 -0.002817 -0.002543
2.699315 0.660626 0.571107 0.000000 0.923874 -0.000031
1.954838 0.668723 0.600482 -0.000001 0.989885 -0.000005
1.635777 0.498125 0.520122 0.000000 -0.539672 -0.000029
1.688954 0.658786 0.567063 -0.000000 0.902065 -0.000002
0.306354 0.659433 0.662303 0.000000 0.903108 0.000002
1.541363 0.824347 0.323352 -0.068103 0.004587 0.003771
3.603323 0.580083 0.725298 0.285170 0.000039 0.000205
3.438360 0.429069 0.741460 0.000000 0.742135 0.000553
2.592961 0.451576 0.652460 -0.000000 -0.941377 0.000002
3.585000 0.774764 0.839841 -0.000000 -0.742136 0.000724
3.124730 0.602115 0.718338 -0.000001 0.405605 0.000043
3.496969 0.504433 0.714252 -0.000000 -0.474171 0.000070
1.824614 0.775530 0.364998 0.068173 -0.006557 -0.005895
1.815662 0.137417 1.090350 0.068174 0.015520 0.013669
1.758368 0.847298 0.911939 -0.068103 0.016097 -0.012909
1.848484 0.570169 0.503862 -0.000001 0.101002 -0.000023
1.688954 0.658481 0.664309 0.000001 0.903088 0.000018
1.770006 0.388242 0.817278 0.068173 0.007093 0.006371
1.770006 0.726740 0.413453 0.068173 -0.007093 -0.006371
0.901592 0.669654 0.612701 0.000000 0.999675 -0.000000
1.744045 0.811607 0.870158 -0.068104 0.008798 -0.007190
1.567463 0.340010 0.386081 -0.068103 -0.005148 0.004230
3.536136 0.390579 0.816279 0.000001 -0.742136 -0.001501
2.249027 0.445290 0.616520 -0.000004 -0.138983 0.000000
3.496969 0.453778 0.572502 0.000001 -0.923784 -0.000016
3.225938 0.445328 0.618385 -0.000066 -0.181427 0.000003
1.742131 0.624840 0.525600 -0.000001 0.563319 -0.000003
3.496969 0.585535 0.506697 0.000000 0.238747 -0.000019
2.912023 0.446089 0.628926 -0.000000 -0.993494 0.000004
2.167546 0.512217 0.512681 -0.000001 -0.393340 -0.000011
2.340800 0.556070 0.503171 0.000000 -0.025495 -0.000048
2.148677 0.445261 0.615365 0.000000 -0.999679 0.000000
1.609758 0.736615 0.437175 -0.068103 0.005335 0.004383
1.263538 0.455510 0.568508 0.000000 -0.913891 -0.000008
1.104008 0.456730 0.664791 0.000000 -0.903362 0.000004
2.699315 0.659319 0.662544 0.000000 0.903300 0.000009
3.071553 0.477078 0.537088 0.000000 -0.715957 -0.000037
2.347661 0.669690 0.614122 0.000000 0.999675 -0.000000
1.563792 0.650676 0.497721 -0.044052 -0.020922 -0.018107
1.872061 0.801551 0.351491 0.105254 0.003901 0.003520
1.765530 0.249838 0.932829 0.105255 -0.007107 -0.006405
1.799597 0.053473 1.167502 -0.068103 -0.015722 -0.012624
3.443792 0.591764 0.722227 0.000000 0.311419 0.000231
2.297915 0.445283 0.616254 0.000002 -0.489483 0.000000
3.336247 0.720816 0.780107 -0.000001 -0.742135 0.000818
3.173911 0.656640 0.489482 0.000000 0.742135 0.000654
1.735540 0.390146 0.457993 0.105255 -0.002470 0.002230
1.802234 0.862260 0.295298 0.105255 0.003554 0.003208
2.965200 0.665765 0.644868 0.000000 0.964799 0.000005
1.369892 0.497153 0.520745 0.000000 -0.539504 -0.000015
1.525503 0.727319 0.420144 -0.044053 -0.010464 -0.009752
3.177907 0.602074 0.718356 0.000001 0.405836 0.000043
3.376945 0.474395 0.507257 0.000000 -0.742135 0.000491
0.615123 0.445355 0.611635 -0.000000 -0.999679 -0.000000
1.530967 0.673762 0.725729 -0.068102 0.008112 -0.006637
1.954838 0.510674 0.513367 0.000001 -0.372978 -0.000006
3.443792 0.514792 0.719146 -0.000000 -0.382607 0.000046
3.516948 0.605317 0.546309 0.143320 0.002909 -0.003220
3.545770 0.496445 0.563872 0.143320 -0.001455 -0.001610
2.965200 0.512258 0.718067 -0.000000 -0.405882 0.000043
1.985715 0.557313 0.727591 0.000000 -0.025495 0.000012
1.765530 0.268816 0.280762 0.068172 0.005487 -0.004939
0.519062 0.468207 0.547378 -0.000000 -0.798416 -0.000014
3.550146 0.598459 0.719844 0.000000 0.359094 0.000098
1.744045 0.303375 0.870158 0.105254 -0.008494 -0.007647
1.507635 0.471971 0.721428 -0.044053 0.011727 0.010855
0.838123 0.453472 0.573241 0.000001 -0.902647 -0.000001
2.532923 0.669670 0.613323 0.000000 0.999675 -0.000000
0.784946 0.577683 0.504971 -0.000001 0.185888 -0.000025
1.714828 0.178462 0.189662 -0.044054 0.018939 -0.016669
0.519062 0.551629 0.503290 0.000000 -0.063380 -0.000149
0.731769 0.470625 0.686425 0.000000 -0.766900 0.000008
3.124730 0.453999 0.571969 0.000001 -0.923715 -0.000016
1.901661 0.540496 0.504429 0.000000 -0.163935 -0.000455
1.901661 0.654208 0.558431 -0.000000 0.868115 -0.000043
1.901661 0.446357 0.630952 -0.000000 -0.990310 0.000011
3.430483 0.629727 0.679249 0.143320 0.001455 0.001610
2.592961 0.593031 0.508918 0.000001 0.297991 -0.000008
3.525640 0.777002 0.842319 0.000001 -0.742134 0.000724
1.837147 0.071382 1.141734 0.105254 -0.007281 -0.006560
0.033440 0.517745 0.615365 -0.690306 -0.000010 0.000000
1.777168 0.772189 0.398988 0.105254 0.004594 0.004145
1.683064 0.955949 0.178837 -0.068102 0.012355 0.010016
1.867585 0.110590 0.127602 0.105255 -0.008667 0.007802
3.603323 0.523893 0.508282 0.283417 -0.000065 -0.000199
3.550146 0.662735 0.654344 0.000000 0.942073 0.000054
0.030368 0.594158 0.613506 -0.702330 0.000008 -0.000000
2.592961 0.518181 0.720482 0.000001 -0.358520 0.000049
2.486608 0.513396 0.718568 0.000000 -0.382245 0.000023
1.912346 0.371820 0.409781 0.068173 0.006557 -0.005895
1.644261 0.208786 0.995673 -0.068104 -0.007675 -0.006284
1.529423 0.446948 0.634727 0.000000 -0.986327 0.000003
3.558847 0.654596 0.738985 -0.000001 0.742134 -0.000518
3.579796 0.679235 0.464464 -0.000002 0.742132 0.000518
2.273900 0.662544 0.575890 -0.000000 0.933202 -0.000007
2.543215 0.557136 0.727587 0.000000 -0.025495 0.000024
1.325292 0.558912 0.503171 0.000000 0.025495 -0.000096
3.124730 0.456730 0.664791 0.000000 -0.903316 0.000018
2.592961 0.661153 0.572379 0.000002 0.865161 -0.000002
3.645171 0.460109 0.637592 0.282500 -0.000818 0.000139
3.666095 0.588443 0.703821 0.276722 0.000220 0.000764
0.200000 0.599123 0.719588 -0.067174 0.000140 0.000337
3.420011 0.659219 0.518828 0.000000 -0.742135 -0.001106
1.369892 0.590152 0.508001 0.000000 0.287248 -0.000063
1.824614 0.357860 0.845351 0.068173 0.013113 0.011631
3.645171 0.610634 0.530789 0.282499 0.000480 -0.000677
1.787910 0.322905 0.887796 0.068173 0.013113 0.011631
1.808500 0.958794 0.160435 0.068172 -0.007762 -0.006965
3.603323 0.526617 0.723266 0.287099 -0.000060 0.000198
2.433430 0.457412 0.666139 -0.000001 -0.872926 0.000002
3.603323 0.453268 0.573734 0.284646 -0.000195 -0.000075
1.954838 0.634260 0.697222 -0.000000 0.679721 0.000041
0.678592 0.524276 0.722564 0.000000 -0.287201 0.000126
1.690108 0.757881 0.419990 -0.068102 0.005148 0.004230
0.174240 0.551938 0.505879 -0.142043 -0.000004 -0.000167
2.805669 0.468127 0.547484 0.000000 -0.798342 -0.000014
1.693912 0.658453 0.481306 0.068173 -0.004349 -0.003920
2.220723 0.649399 0.550963 0.000000 0.813439 -0.000014
1.865794 1.114982 1.225296 0.000000 0.670253 0.000418
1.635777 0.669518 0.608750 0.000000 0.998011 -0.000000
0.359531 0.667244 0.638782 0.000000 0.976893 0.000017
1.590820 0.311145 0.877176 -0.068105 -0.004774 -0.003924
3.352230 0.680684 0.735670 0.000000 -0.742135 0.000491
0.536215 0.669701 0.616965 -0.000000 0.983970 0.000000
0.678592 0.455474 0.662141 -0.000001 -0.908569 0.000002
3.390615 0.513561 0.718636 0.000000 -0.382277 0.000023
1.651394 0.805160 0.358451 -0.068104 0.004587 0.003771
3.018377 0.446203 0.600878 -0.000000 -0.990174 -0.000001
2.008015 0.453172 0.656748 -0.000001 -0.930373 0.000004
3.231084 0.652919 0.674427 0.000000 0.855265 0.000023
1.050831 0.663450 0.652335 -0.000000 0.942055 0.000013
3.177907 0.521867 0.721785 -0.000000 -0.311436 0.000058
2.273900 0.662336 0.655380 -0.000000 0.933141 0.000004
3.124730 0.662225 0.655670 -0.000000 0.933233 0.000004
3.592917 0.633507 0.715635 0.000001 0.742134 -0.000691
3.054400 0.669634 0.618829 -0.000000 0.999675 0.000000
1.544861 0.556425 0.503162 0.000000 -0.025160 -0.000048
0.625415 0.659319 0.662544 0.000001 0.902596 0.000009
1.954838 0.449910 0.583427 0.000000 -0.957637 -0.000006
1.686751 0.639681 0.729370 0.068172 -0.008698 0.007793
1.656807 0.717440 0.765232 -0.068104 0.007238 -0.005931
3.071553 0.445655 0.624684 -0.000000 -0.996066 0.000003
2.167546 0.505059 0.714589 -0.000001 -0.471403 0.000009
1.656706 0.667318 0.704410 -0.068102 0.004680 -0.003847
0.572238 0.643160 0.687856 -0.000001 0.761289 0.000008
1.210361 0.449112 0.586249 0.000000 -0.964053 -0.000003
1.157184 0.602968 0.512771 0.000000 0.405894 -0.000085
1.732268 0.883366 0.244044 -0.044054 -0.010554 -0.009831
1.701074 0.704533 0.744815 -0.068104 0.004680 -0.003847
0.412708 0.531776 0.506125 0.000000 -0.238114 -0.000039
1.282408 0.559090 0.727555 0.000000 0.025495 0.000024
1.780749 0.790315 0.852379 0.105255 0.004247 -0.003833
0.108150 0.642144 0.584013 -0.391242 0.000091 -0.000031
2.008015 0.517766 0.720322 -0.000001 -0.359105 0.000098
0.200000 0.445836 0.604011 -0.067171 -0.000363 -0.000032
1.743760 0.214253 1.005546 -0.044052 0.009472 0.008871
1.743760 0.900728 1.005546 -0.044053 -0.009472 0.008870
1.423069 0.640073 0.539378 -0.000000 0.733342 -0.000018
3.468472 0.711427 0.801912 0.000000 0.742135 -0.001188
1.874747 1.022238 1.124019 0.105255 0.008667 -0.007802
1.645880 0.832344 0.302820 -0.044053 -0.003180 -0.003038
1.615736 0.323868 0.371671 -0.068103 -0.009921 0.008090
1.724875 0.832779 0.332818 -0.068103 0.004212 0.003464
1.825062 0.657978 0.517885 0.105255 0.009881 0.008885
2.167546 0.668085 0.596311 0.000002 0.906459 -0.000001
1.772692 0.864937 0.970023 0.068174 -0.010972 0.009784
0.474462 0.558735 0.727580 0.000000 0.012746 0.000048
1.600998 0.668463 0.753953 -0.044053 -0.010464 0.009752
1.737778 0.623861 0.706651 0.068173 -0.004349 0.003920
0.784946 0.488655 0.526727 0.000001 -0.621142 -0.000012
0.784946 0.626292 0.704032 -0.000001 0.620523 0.000012
1.582600 0.553938 0.727506 0.000000 -0.025160 0.000375
1.647841 0.915119 1.006119 -0.068104 0.006927 -0.005678
2.877715 0.560511 0.503212 0.000000 0.025160 -0.000048
1.691381 0.296722 0.883886 -0.068101 -0.002200 -0.001812
3.602071 0.796065 0.343154 -0.198438 0.002845 0.002777
1.730169 0.436283 0.462584 0.068173 0.015253 -0.013445
3.018377 0.662496 0.575765 -0.000000 0.933214 -0.000004
1.690108 0.736184 0.830336 -0.044053 -0.007443 0.007029
3.405600 0.660617 0.713452 -0.000003 -0.742128 0.000553
1.672728 0.783515 0.843718 -0.068101 0.004774 -0.003924
1.654075 0.729445 0.409728 -0.044053 -0.007443 -0.007029
0.157268 0.480329 0.542017 -0.199755 -0.000169 -0.000153
0.108150 0.469067 0.597194 -0.391244 -0.000091 -0.000016
3.454944 0.407568 0.797468 -0.000002 -0.742131 -0.000594
1.050831 0.445710 0.625303 0.000000 -0.996073 0.000000
1.803129 0.678109 0.731672 0.105254 0.009881 -0.008885
2.061192 0.643644 0.687277 -0.000000 0.766910 0.000016
1.642584 0.402900 0.802143 -0.044053 0.007713 0.007277
1.656706 0.640665 0.502249 -0.044054 -0.013530 -0.012389
3.265392 0.559179 0.727574 -0.000000 0.012571 0.000048
3.124730 0.663659 0.578982 0.000000 0.939074 -0.000002
3.570730 0.554737 0.503170 0.000000 -0.012742 -0.000012
2.668438 0.445301 0.613767 -0.000000 -0.999679 -0.000000
3.687020 0.517172 0.632404 1.000000 0.000000 0.000000
3.250398 0.490466 0.689579 0.000000 -0.670253 0.000361
1.912346 0.982468 0.144809 0.068174 -0.013380 -0.011859
2.433430 0.452311 0.576221 0.000000 -0.933233 -0.000004
1.806759 1.079354 0.042339 -0.068103 0.012729 0.010310
1.806759 0.035628 0.042339 -0.068103 -0.012729 0.010310
1.263538 0.518848 0.720729 0.000000 -0.335380 0.000053
2.592961 0.608938 0.715103 -0.000000 0.451611 0.000019
3.565385 0.434348 0.767815 -0.000000 -0.742135 -0.000518
1.691381 0.818260 0.883886 -0.068102 0.004399 -0.003617
3.618484 0.376118 0.824241 -0.198437 -0.001311 -0.001280
2.273900 0.599451 0.511278 0.000000 0.382697 -0.000046
0.997654 0.591046 0.508269 -0.000001 0.248462 -0.000009
1.316715 0.469488 0.545729 -0.000000 -0.782891 -0.000015
1.263538 0.454717 0.660436 -0.000000 -0.913891 0.000008
0.359531 0.513232 0.718500 0.000000 -0.405952 0.000011
3.071553 0.517684 0.720290 -0.000001 -0.359166 0.000098
3.359738 0.559446 0.503160 0.000000 0.012512 -0.000049
2.646138 0.452534 0.575641 -0.000001 -0.933174 -0.000015
1.050831 0.601750 0.718500 -0.000000 0.405952 0.000011
3.337438 0.668405 0.632492 -0.000000 0.986503 0.000000
1.277261 0.669672 0.613411 0.000000 0.999683 -0.000000
3.124730 0.604830 0.513613 0.000000 0.429009 -0.000020
0.927323 0.555359 0.503189 0.000000 -0.025495 -0.000048
2.080061 0.556958 0.727582 0.000000 -0.025160 0.000024
0.694031 0.553938 0.503225 -0.000000 -0.025160 -0.000048
1.820138 0.904160 0.222116 0.068173 -0.009902 -0.008851
0.132302 0.582456 0.518944 -0.296992 0.000032 -0.000140
2.965200 0.603374 0.512952 0.000001 0.371886 -0.000006
0.157268 0.634653 0.542017 -0.199760 0.000169 -0.000153
0.944477 0.642647 0.542262 0.000000 0.766735 -0.000004
2.635846 0.555182 0.727537 0.000000 -0.025486 0.000012
1.730169 0.436283 0.768146 0.068173 0.015253 0.013445
3.390615 0.598791 0.511015 -0.000000 0.358841 -0.000025
1.868480 0.783424 0.858603 0.105254 0.004247 -0.003833
1.868480 0.331558 0.372128 0.105255 -0.004247 0.003833
1.613713 0.740604 0.797972 -0.068103 0.002668 -0.002196
1.723007 0.659928 0.748092 0.068173 -0.004349 0.003920
2.858846 0.462439 0.675030 0.000000 -0.841875 0.000012
3.550146 0.453523 0.573118 0.000000 -0.923871 -0.000016
1.316715 0.643302 0.543045 -0.000001 0.762798 -0.000004
3.420011 0.455763 0.518828 0.000000 0.742135 -0.000553
3.196777 0.561221 0.727501 0.000000 0.025495 0.000024
2.805669 0.446832 0.634026 0.000000 -0.986327 0.000003
0.359531 0.649680 0.551362 -0.000000 0.826287 -0.000003
2.805669 0.492727 0.707015 0.000001 -0.581575 0.000053
3.189893 0.498474 0.533919 0.000000 -0.670252 -0.000361
3.409539 0.672693 0.759023 -0.000002 0.742134 -0.001106
3.372893 0.426236 0.453933 0.000000 -0.742135 0.000491
3.687020 0.557491 0.615365 1.000000 0.000000 0.000000
3.645171 0.524500 0.521084 0.282499 -0.000215 -0.000748
1.838938 0.283501 0.304506 0.068173 0.005487 -0.004939
2.273900 0.600724 0.718925 -0.000000 0.382351 0.000023
0.253177 0.523893 0.508282 0.000000 -0.311392 -0.000014
1.823719 0.201437 1.018642 0.068173 0.004416 0.003980
3.390615 0.515695 0.511210 -0.000000 -0.382625 -0.000091
3.645171 0.460109 0.593139 0.282500 -0.000797 -0.000230
1.750922 0.931419 0.215895 -0.068103 0.013103 0.010602
3.318038 0.652591 0.526166 0.000000 -0.742135 -0.000409
3.018377 0.610627 0.516521 0.000000 0.473961 -0.000035
0.731769 0.532469 0.505964 0.000000 -0.213377 -0.000022
1.568172 0.693132 0.485487 -0.068101 0.007239 0.005931
0.030368 0.566693 0.579824 -0.696343 0.000005 -0.000016
3.177907 0.446730 0.597319 0.000000 -0.986278 -0.000002
1.615736 0.778848 0.360593 -0.044054 -0.013801 -0.012615
1.771292 0.669717 0.615543 0.000000 0.999675 0.000000
1.476246 0.454084 0.571763 -0.000000 -0.923180 -0.000001
1.954838 0.478896 0.695469 0.000000 -0.698162 0.000019
0.392123 0.445276 0.616609 0.000000 -0.999919 0.000000
2.805669 0.663003 0.577141 0.000000 0.942055 -0.000013
3.443792 0.452965 0.574521 -0.000000 -0.933275 -0.000029
2.327077 0.451293 0.651665 0.000000 -0.950265 0.000003
1.722559 0.356912 0.807486 0.105255 -0.009187 -0.008266
1.715397 0.400215 0.809588 0.068173 0.015253 0.013445
0.752354 0.556158 0.727579 0.000000 -0.012072 0.000013
2.858846 0.521614 0.509029 -0.000000 -0.311279 -0.000029
0.165728 0.658943 0.652939 -0.166853 0.000268 0.000092
0.838123 0.517684 0.510440 -0.000000 -0.359066 -0.000049
3.302912 0.652591 0.704565 0.000000 -0.742135 0.000409
1.502185 0.335454 0.373543 -0.068102 -0.005335 0.004383
3.333165 0.462391 0.704565 0.000000 0.742135 0.000409
1.050831 0.662974 0.577057 0.000000 0.942045 -0.000001
1.868704 0.654550 0.514789 0.105257 0.002817 0.002543
1.581725 0.288139 0.312654 -0.044053 0.006631 -0.006280
3.399949 0.696773 0.445045 0.000002 0.742129 0.000491
3.372893 0.410219 0.762333 0.000000 0.742136 0.000491
0.242885 0.669582 0.620872 0.000000 0.999675 0.000000
0.182796 0.473434 0.687526 -0.100510 -0.000359 0.000324
2.390546 0.445292 0.616609 0.000000 -0.999679 0.000000
1.762413 0.166664 1.034114 -0.068104 -0.006178 -0.005069
1.762413 0.948318 1.034114 -0.068103 0.006178 -0.005069
1.712342 0.801549 0.369376 -0.068102 0.002293 0.001888
3.459230 0.562465 0.503261 0.000000 0.025160 -0.000024
1.455661 0.556958 0.503148 -0.000000 -0.025160 -0.000097
1.671573 0.175932 1.032616 -0.068105 -0.006926 -0.005678
1.671573 0.175932 0.198115 -0.068104 -0.006927 0.005678
1.671573 0.939050 1.032616 -0.068105 0.006926 -0.005678
2.869138 0.669711 0.614566 0.000000 0.999919 -0.000000
3.210556 0.474395 0.723474 0.000000 -0.742135 -0.000982
3.124730 0.519266 0.509853 -0.000000 -0.335400 -0.000106
1.872061 0.322635 0.869048 0.105254 -0.004247 -0.003833
0.253177 0.458057 0.563325 -0.000001 -0.858827 -0.000001
1.688954 0.569198 0.503751 -0.000001 0.113511 -0.000083
1.636350 0.893475 0.239605 -0.044054 -0.022183 -0.018983
2.788515 0.559800 0.503194 0.000000 0.025495 -0.000048
3.102403 0.658598 0.495364 0.081788 0.005824 0.007646
3.077071 0.659092 0.719813 0.081787 -0.008217 0.004991
3.443792 0.668686 0.600218 0.000001 0.990270 -0.000011
1.592753 0.744123 0.398312 -0.044053 -0.014883 -0.013507
1.715845 0.473825 0.502693 0.068172 0.004349 -0.003920
1.679365 0.731113 0.451326 -0.068104 0.002668 0.002196
1.791491 0.313520 0.332907 0.068172 0.006022 -0.005418
3.085277 0.558379 0.503146 0.000000 0.012411 -0.000049
3.284261 0.520689 0.721384 -0.000000 -0.335429 0.000053
1.426611 0.683622 0.481833 -0.068105 0.004056 0.003336
1.808500 0.156188 0.160435 0.068173 0.007762 -0.006965
3.143600 0.669706 0.616609 -0.000000 0.999919 0.000000
1.609758 0.394856 0.422282 -0.044053 0.015424 -0.013945
1.714132 0.328585 0.346440 -0.044055 0.003180 -0.003038
1.901661 0.665391 0.646240 0.000000 0.964841 0.000001
1.157184 0.446481 0.631832 -0.000000 -0.990306 0.000005
0.253177 0.600477 0.511703 0.000001 0.382661 -0.000183
0.337231 0.552517 0.503261 0.000066 -0.003484 -0.001748
1.476246 0.452757 0.655670 0.000000 -0.933126 0.000007
3.568033 0.819905 0.905923 0.081788 0.005453 -0.007161
1.688954 0.598459 0.719844 0.000001 0.359108 0.000098
3.645171 0.479396 0.677644 0.282501 -0.000677 0.000480
1.697644 0.365424 0.385951 -0.044055 0.003451 -0.003295
3.382482 0.680684 0.495060 -0.000000 -0.742135 -0.000491
3.177907 0.646019 0.546390 0.000001 0.757614 -0.000004
1.628440 0.224739 0.252722 -0.068103 -0.007675 0.006284
1.475233 0.682300 0.488657 -0.068103 0.003042 0.002504
3.603323 0.652735 0.556000 0.282714 0.000177 -0.000114
1.728688 0.227231 0.266508 -0.068104 -0.007301 0.005981
1.754502 0.174640 0.205449 -0.068103 -0.006178 0.005069
1.874747 0.079196 0.081940 0.068173 0.011240 -0.010017
1.874747 1.035786 0.081940 0.068173 -0.011240 -0.010017
1.672212 0.288568 0.923398 -0.044055 0.003180 0.003038
3.645171 0.642067 0.668508 0.282500 0.000677 0.000480
1.642441 0.332129 0.846166 -0.068103 -0.004961 -0.004077
3.413477 0.700786 0.790129 -0.000000 0.742135 -0.000553
3.413477 0.414196 0.440601 0.000001 -0.742134 0.000553
3.579796 0.695252 0.751801 0.000000 -0.742135 0.000518
1.691898 0.374105 0.835350 -0.044053 0.007443 0.007029
2.167546 0.451546 0.578354 0.000000 -0.942064 -0.000013
1.872061 0.309434 0.336597 0.068173 0.012043 -0.010711
3.337438 0.520271 0.721235 0.000000 -0.335314 0.000027
1.117731 0.669663 0.617675 0.000000 0.999675 0.000000
1.157184 0.465686 0.550818 0.000000 -0.812955 -0.000007
1.104008 0.564018 0.503332 -0.000001 0.063325 -0.000298
3.687020 0.563720 0.572039 1.000000 0.000000 0.000000
0.268615 0.552162 0.727461 0.000000 -0.025487 0.000024
1.506141 0.334763 0.864582 -0.044055 0.003721 0.003552
2.699315 0.592735 0.721909 -0.000000 0.311443 0.000058
1.619548 0.276707 0.932424 -0.044053 0.006360 0.006030
1.730405 0.067472 1.157940 -0.068102 -0.015723 -0.012624
1.795072 0.835211 0.326379 0.105255 0.007801 0.007026
3.361819 0.640587 0.723474 0.000000 0.742135 -0.000982
3.611242 0.683309 0.492154 -0.000001 -0.742134 -0.000691
3.533081 0.424084 0.451550 0.000001 -0.742135 0.001501
3.533081 0.690898 0.451550 0.000000 0.742135 0.001501
3.465416 0.437060 0.465917 0.000001 -0.742135 0.000594
3.462360 0.660434 0.517481 -0.000001 -0.742134 -0.001188
3.503832 0.734667 0.827644 0.000001 0.742135 -0.001501
3.568441 0.714138 0.425817 -0.000001 0.742135 0.001501
3.533081 0.408067 0.764715 0.000000 0.742135 0.001501
3.557944 0.364261 0.385312 -0.000000 -0.742134 0.000362
0.625415 0.594460 0.721325 0.000000 0.335314 0.000027
1.752102 0.682117 0.728052 0.105254 0.009881 -0.008885
1.429807 0.370592 0.822309 -0.068104 -0.006084 -0.004993
1.477990 0.451482 0.511770 -0.068102 -0.006084 0.004993
1.447946 0.661977 0.720337 -0.068105 0.012167 -0.009869
2.061192 0.593453 0.509057 -0.000001 0.310950 -0.000058
3.284261 0.467298 0.682147 -0.000000 -0.798163 0.000007
0.997654 0.521825 0.508960 0.000000 -0.310545 -0.000014
1.875642 0.851750 0.944926 0.068172 -0.005487 0.004939
3.509076 0.466211 0.700335 0.000001 0.742134 0.000518
1.851471 0.043560 1.190622 0.068173 0.009100 0.008146
1.729721 0.752309 0.849697 0.068172 -0.014183 0.012542
1.635777 0.445781 0.626100 0.000000 -0.996073 0.000001
1.848484 0.459738 0.670487 -0.000001 -0.868024 0.000022
2.114369 0.662416 0.655173 0.000000 0.933141 0.000004
1.369892 0.542080 0.726524 -0.000001 -0.138927 0.000135
1.795308 0.610001 0.714547 -0.000001 0.474060 0.000070
1.690975 0.154874 1.064175 -0.044054 0.017857 0.015854
1.690975 0.960108 1.064175 -0.044051 -0.008931 0.008384
2.580954 0.445315 0.613234 0.000000 -0.999683 -0.000000
1.832224 0.431107 0.763472 0.068173 0.015253 0.013445
1.779853 0.214147 0.256120 0.105255 -0.003207 0.002895
2.114369 0.470625 0.544306 0.000000 -0.766483 -0.000008
2.610115 0.555892 0.503175 -0.000000 -0.024825 -0.000025
1.682946 0.740035 0.789850 -0.068103 0.005148 -0.004230
3.249954 0.553405 0.503239 0.000000 -0.025160 -0.000024
2.273900 0.521656 0.509015 -0.000000 -0.311341 -0.000058
0.092621 0.625390 0.662624 -0.451933 0.000060 0.000039
3.284261 0.662735 0.576387 0.000000 0.942083 -0.000003
2.256746 0.669699 0.614477 0.000000 0.999675 -0.000000
3.659627 0.519509 0.665471 0.143319 -0.001382 0.001531
2.699315 0.471794 0.542909 0.000000 -0.766938 -0.000016
1.559927 0.362815 0.838723 -0.044052 0.003857 0.003680
2.941715 0.488464 0.687771 0.000001 -0.670238 0.000193
1.912346 0.040473 1.187834 0.068172 0.006959 0.006252
1.912346 0.077289 1.147069 0.068173 0.009099 0.008146
1.881908 1.076900 0.045056 0.105252 0.005894 0.005315
1.881908 1.058492 1.165292 0.105255 0.007281 -0.006560
2.721615 0.555182 0.727537 0.000000 -0.025487 0.000012
1.862208 0.669719 0.615277 0.000000 0.999675 -0.000000
0.944477 0.520605 0.721355 0.000000 -0.335486 0.000013
3.496969 0.498050 0.520170 0.000000 -0.539670 -0.000118
3.550146 0.630527 0.530153 0.000002 0.533158 -0.000003
1.773587 0.351716 0.409433 0.105255 -0.004594 0.004145
3.443792 0.453319 0.657120 0.000000 -0.923870 0.000001
1.617668 0.370390 0.802388 -0.068102 -0.002668 -0.002196
1.486364 0.760277 0.388230 -0.044056 -0.007713 -0.007277
1.563792 0.650676 0.733010 -0.044054 -0.010464 0.009752
1.582600 0.540848 0.504380 0.000000 -0.138839 -0.000135
1.803129 0.436873 0.499058 0.105255 -0.009880 0.008885
1.781196 0.681287 0.765809 0.068173 -0.015253 0.013445
1.781196 0.433695 0.765809 0.068173 0.015253 0.013445
1.409192 0.482712 0.699056 0.000000 0.670242 -0.000112
2.486608 0.598418 0.719860 0.000000 0.359107 0.000025
1.742131 0.470455 0.686219 0.000000 -0.781943 0.000008
1.657656 0.357290 0.416735 -0.068102 -0.005148 0.004230
3.124730 0.521571 0.721688 -0.000000 -0.311540 0.000029
2.085207 0.669717 0.615188 0.000000 0.999675 -0.000000
1.535618 0.299085 0.897739 -0.068105 -0.004961 -0.004077
1.592753 0.744123 0.832418 -0.044055 -0.003721 0.003552
1.882804 0.929564 0.208052 0.105254 0.002860 0.002582
1.882804 0.911156 1.002296 0.105253 0.002860 -0.002582
1.882804 0.185418 0.208052 0.105254 -0.002860 0.002582
0.450446 0.669609 0.619806 0.000000 0.999675 0.000000
0.191386 0.540584 0.725728 -0.067177 -0.000060 0.000360
0.597969 0.669712 0.616076 0.000000 0.999919 0.000000
2.008015 0.591003 0.722474 0.000000 0.287286 0.000016
2.752492 0.664132 0.650314 0.000000 0.950347 0.000002
1.157184 0.594962 0.721146 0.000000 0.335486 0.000007
3.318569 0.555536 0.503160 0.000000 -0.012742 -0.000048
1.762844 0.407013 0.433507 0.068172 0.007628 -0.006846
2.486608 0.657570 0.666139 0.000000 0.890889 0.000005
3.659627 0.595473 0.565260 0.143321 0.001382 -0.001531
0.412708 0.589557 0.722908 0.000000 0.287289 0.000063
2.539784 0.637098 0.694470 0.000000 0.716012 0.000037
1.703015 0.330805 0.841270 -0.068104 -0.009547 -0.007790
0.077633 0.490911 0.582706 -0.510612 -0.000050 -0.000023
1.018238 0.555892 0.503175 0.000000 -0.025487 -0.000024
1.838938 0.831480 0.926224 0.068174 -0.005487 0.004939
1.752102 0.432865 0.728052 0.105254 -0.009881 -0.008885
2.114369 0.580951 0.505622 -0.000000 0.213635 -0.000173
1.883251 0.690223 0.757739 0.105254 0.009881 -0.008885
1.883251 0.690223 0.472992 0.105256 0.009880 0.008885
1.883251 0.424759 0.472992 0.105255 -0.009881 0.008885
0.944477 0.451710 0.577894 0.000000 -0.939157 -0.000002
0.704323 0.445272 0.614477 0.000000 -0.999921 -0.000000
1.883251 0.649646 0.720370 0.068172 -0.008698 0.007793
1.912346 0.427044 0.759803 0.068174 0.004349 0.003920
1.912346 0.463860 0.719038 0.068174 0.008698 0.007793
1.781196 0.681287 0.464921 0.068173 -0.015253 -0.013445
0.519062 0.663361 0.652586 0.000000 0.942051 0.000013
2.380254 0.584112 0.724384 0.000001 0.237942 0.000077
1.737811 0.143737 0.151943 -0.044054 0.016776 -0.015019
1.822580 1.095308 1.206057 -0.068104 0.012729 -0.010310
1.447946 0.461781 0.728262 -0.044054 0.008795 0.008262
1.582600 0.619986 0.522155 -0.000001 0.542010 -0.000004
3.496969 0.591003 0.722474 -0.000000 0.287119 0.000016
1.104008 0.636943 0.694629 0.000000 0.715768 0.000009
2.167546 0.450753 0.650018 -0.000000 -0.949565 0.000002
0.977069 0.669663 0.613056 0.000000 0.999675 -0.000000
1.827300 0.171854 0.201798 0.105255 -0.002860 0.002582
1.488297 0.405451 0.789644 -0.044054 0.010464 0.009752
1.535011 0.768187 0.853861 -0.044055 -0.003721 0.003552
0.891300 0.446577 0.632492 0.000000 -0.986503 0.000000
0.200000 0.665391 0.584491 -0.067173 0.000352 -0.000096
2.433430 0.521698 0.721729 -0.000000 -0.310545 0.000014
1.883251 0.461575 0.513757 0.105254 -0.002817 0.002543
0.572238 0.592735 0.508822 -0.000000 0.311540 -0.000029
1.737689 0.093326 0.104952 -0.068102 -0.004680 0.003847
1.753510 1.037610 1.143443 -0.068099 0.004680 -0.003847
3.488392 0.445391 0.610214 -0.000000 -0.999679 -0.000000
3.616490 0.465981 0.497941 0.000001 -0.742134 0.000691
3.018377 0.467726 0.682714 0.000000 -0.798323 0.000014
2.167546 0.588791 0.723138 0.000001 0.287091 0.000063
0.519062 0.446357 0.630952 -0.000000 -0.990303 0.000003
0.085055 0.519362 0.546670 -0.481552 -0.000033 -0.000057
1.656807 0.419837 0.445364 -0.044053 0.020922 -0.018106
3.494665 0.634153 0.716349 0.000002 0.742109 -0.000259
2.965200 0.521191 0.509167 0.000000 -0.335406 -0.000106
1.751206 0.808623 0.909860 0.068172 -0.006022 0.005418
3.317182 0.422258 0.481729 0.000000 0.742135 -0.000409
3.317182 0.692724 0.481729 0.000000 -0.742134 -0.000409
1.912346 0.835203 0.922862 0.068172 -0.010973 0.009785
1.875642 0.847290 0.300281 0.105254 0.007107 0.006405
1.912346 0.298187 0.902480 0.068172 0.010973 0.009785
0.465885 0.451889 0.653339 -0.000000 -0.942080 0.000027
0.056308 0.510460 0.651770 -0.594265 -0.000028 0.000021
1.759487 0.663128 0.522537 0.105255 0.002817 0.002543
3.569343 0.480951 0.684014 -0.000001 0.742134 0.000691
2.220723 0.637222 0.694342 -0.000000 0.715782 0.000018
3.018377 0.521191 0.721563 0.000000 -0.335433 0.000053
1.420299 0.411460 0.779035 -0.044054 0.017587 0.015647
1.834462 0.960974 1.049823 0.105255 0.002860 -0.002582
3.659627 0.595473 0.665471 0.143319 0.001382 0.001531
1.263538 0.519350 0.509823 0.000000 -0.335486 -0.000007
0.891300 0.662432 0.575599 -0.000000 0.931186 -0.000002
1.592753 0.357667 0.410226 -0.068103 -0.010670 0.008686
1.435321 0.411952 0.451251 -0.044053 0.008796 -0.008262
1.714132 0.328585 0.884291 -0.044051 0.006360 0.006030
0.326938 0.669692 0.613055 0.000000 0.999919 -0.000000
2.833115 0.560511 0.727519 -0.000000 0.025495 0.000006
1.525503 0.727319 0.810587 -0.044053 -0.020921 0.018106
3.208784 0.556958 0.503142 0.000000 -0.012746 -0.000096
0.024377 0.565135 0.644889 -0.719978 0.000004 0.000015
3.527846 0.559979 0.503166 0.000000 0.012407 -0.000098
0.609977 0.559179 0.727574 0.000000 0.012742 0.000096
0.519062 0.483320 0.699581 -0.000000 -0.660748 0.000021
2.752492 0.452247 0.576387 0.000001 -0.941926 -0.000013
0.519062 0.612959 0.712920 0.000000 0.496325 0.000033
1.688954 0.451949 0.577224 -0.000000 -0.942069 -0.000013
1.812976 0.889029 0.263962 0.105255 0.003554 0.003208
2.114369 0.538743 0.726010 0.000001 -0.157870 0.000030
3.220146 0.616507 0.533919 -0.000000 0.742135 0.000982
1.530967 0.441220 0.725729 -0.068104 -0.008112 -0.006637
0.925608 0.555182 0.727537 0.000000 -0.025160 0.000024
3.675633 0.636504 0.527878 -0.198435 -0.002814 -0.002348
1.369892 0.654781 0.559434 0.000000 0.868078 -0.000005
3.621108 0.737727 0.806881 -0.198438 -0.002813 0.002348
3.336247 0.720816 0.450623 -0.000001 -0.742135 -0.000818
1.659304 0.798962 0.893914 -0.044058 -0.006630 0.006280
3.430483 0.621718 0.544249 0.143320 0.001455 -0.001610
1.879223 0.226234 0.245204 0.068174 0.004951 -0.004460
1.810291 0.714362 0.457785 0.105255 0.009881 0.008885
2.273900 0.474577 0.690994 -0.000000 -0.733283 0.000018
3.119798 0.458378 0.521722 0.000001 0.742131 -0.000327
1.758368 0.267684 0.318792 0.105255 -0.007801 0.007026
2.433430 0.662735 0.576387 0.000000 0.942083 -0.000007
1.515841 0.792888 0.878428 -0.044054 -0.007172 0.006780
1.194065 0.669665 0.617586 0.000009 0.070000 0.000000
2.539784 0.585622 0.506718 0.000000 0.262805 -0.000069
1.766425 0.717354 0.807251 0.068173 -0.007628 0.006846
0.572238 0.461349 0.673249 -0.000001 -0.853324 0.000006
1.781066 0.983064 1.074282 -0.068101 0.005429 -0.004459
1.781066 0.131918 1.074282 -0.068102 -0.005429 -0.004459
1.758368 0.287587 0.929914 0.068173 0.012043 0.010711
1.820138 0.904160 1.008615 0.068174 -0.004951 0.004460
1.812976 0.876184 0.978369 0.068172 -0.004952 0.004460
2.592961 0.663003 0.653590 0.000000 0.942036 0.000007
2.098073 0.445272 0.614921 0.000000 -0.999683 -0.000000
1.663868 0.429818 0.505430 -0.068105 -0.004680 0.003847
1.751206 0.306359 0.320871 0.068172 0.006022 -0.005418
0.838123 0.591933 0.722172 0.000000 0.311341 0.000058
0.077633 0.564993 0.689143 -0.510613 0.000007 0.000057
1.651394 0.323997 0.345649 -0.044052 0.006901 -0.006531
1.456655 0.429837 0.747522 -0.068102 -0.006084 -0.004993
3.610611 0.348681 0.376111 -0.198438 -0.005244 0.005119
2.486608 0.641560 0.541028 0.000000 0.750250 -0.000017
1.667121 0.131286 0.143450 -0.068103 -0.005429 0.004459
1.050831 0.472335 0.542262 0.000000 -0.766735 -0.000004
1.901661 0.467886 0.547804 0.000000 -0.798548 -0.000002
2.752492 0.501174 0.518296 0.000000 -0.496428 -0.000008
0.997654 0.575231 0.726178 0.000000 0.163515 0.000029
2.464308 0.558912 0.503171 0.000000 0.025495 -0.000048
1.730649 0.960111 0.178895 -0.068102 0.006178 0.005069
1.635777 0.634064 0.533327 0.000001 0.678216 -0.000010
2.380254 0.536688 0.725642 -0.000000 -0.188803 0.000098
1.670421 0.293261 0.312346 -0.044055 0.003180 -0.003038
1.537678 0.472954 0.508414 -0.044054 0.011727 -0.010855
0.891300 0.483587 0.699816 0.000000 -0.660924 0.000043
1.461449 0.338685 0.373092 -0.068104 -0.010670 0.008686
0.124149 0.624157 0.685498 -0.328790 0.000086 0.000086
3.371409 0.624516 0.541152 0.000000 0.670249 -0.000361
1.605378 0.402481 0.465973 -0.068103 -0.014475 0.011667
0.253177 0.448494 0.642072 -0.000000 -0.971165 0.000019
0.429862 0.445378 0.619984 0.000000 -0.999679 0.000000
1.772692 0.250045 0.970023 0.068172 0.010973 0.009785
3.565584 0.445294 0.618031 0.000000 -0.999921 0.000000
0.891300 0.479309 0.534859 -0.000000 -0.698053 -0.000039
2.539784 0.479532 0.696089 0.000000 -0.698097 0.000019
1.794177 0.921251 0.200544 0.068173 -0.004416 -0.003980
1.443231 0.714767 0.445815 -0.068103 0.012167 0.009869
1.539726 0.392990 0.447406 -0.068103 -0.014475 0.011667
1.568172 0.421850 0.485487 -0.068103 -0.014475 0.011667
1.559413 0.470080 0.543083 -0.068104 -0.008112 0.006637
1.638204 0.407227 0.755474 -0.068103 -0.007239 -0.005931
2.114369 0.538568 0.504750 -0.000001 -0.163319 -0.000057
2.253315 0.556958 0.503148 -0.000000 -0.024825 -0.000025
1.875642 0.276896 0.310472 0.105255 -0.003554 0.003208
1.443231 0.711007 0.788312 -0.044053 -0.004398 0.004192
2.041465 0.669715 0.615632 -0.000000 0.999692 0.000000
1.239523 0.556247 0.503166 0.000000 -0.025160 -0.000024
2.678730 0.669672 0.617319 0.000000 0.999675 0.000000
2.390546 0.669699 0.614477 -0.000000 0.995565 -0.000000
0.157268 0.461910 0.662250 -0.199757 -0.000208 0.000095
3.071553 0.630458 0.530096 0.000000 0.641767 -0.000011
2.858846 0.592777 0.721895 0.000000 0.311292 0.000029
0.731769 0.465893 0.550529 -0.000001 -0.783984 -0.000002
0.731769 0.648727 0.680708 0.000000 0.813397 0.000027
3.231084 0.481765 0.532542 0.000001 -0.679631 -0.000041
1.496831 0.556780 0.727578 0.000000 -0.025160 0.000048
0.612550 0.561665 0.503241 0.000000 0.025495 -0.000012
3.092742 0.466404 0.700121 0.000000 0.742136 0.000654
0.157268 0.520516 0.715199 -0.199756 -0.000086 0.000216
3.294921 0.656640 0.741249 0.000000 0.742134 -0.000818
3.166776 0.478408 0.511701 0.000000 -0.742135 0.000327
0.157268 0.451576 0.626136 -0.199757 -0.000228 0.000017
3.524415 0.562909 0.727458 0.000001 0.004367 0.000035
1.529423 0.501444 0.712590 0.000000 -0.496428 0.000008
0.963346 0.445339 0.612257 0.000000 -0.999675 -0.000000
3.687020 0.596771 0.634678 1.000000 0.000000 0.000000
2.858846 0.592608 0.508780 -0.000001 0.298884 -0.000015
0.784946 0.493124 0.707299 -0.000000 -0.580536 0.000007
3.309992 0.445286 0.617409 0.000000 -0.999919 0.000000
1.050831 0.537691 0.504895 0.000000 -0.189146 -0.000025
2.699315 0.523893 0.722449 0.000000 -0.311431 0.000231
3.284261 0.612111 0.517325 0.000000 0.496428 -0.000017
0.359531 0.478228 0.535913 0.000000 -0.698341 -0.000002
3.302912 0.462391 0.526166 0.000000 0.742135 -0.000409
1.832224 0.683875 0.763472 0.068173 -0.015253 0.013445
1.832224 0.431107 0.467258 0.068173 0.015253 -0.013445
3.231084 0.621894 0.707273 0.000000 0.581589 0.000053
3.687020 0.489720 0.559950 0.283278 -0.000145 -0.000115
0.136413 0.658409 0.615365 -0.288991 0.000074 0.000002
1.529423 0.574661 0.726272 0.000000 0.164018 0.000057
2.912023 0.627370 0.527556 -0.000001 0.621788 -0.000024
1.611640 0.472842 0.727149 -0.044053 0.006766 0.006406
3.310904 0.498474 0.533919 0.000000 -0.670252 -0.000361
3.382482 0.434298 0.735670 0.000000 0.742135 0.000491
0.572238 0.516813 0.510775 0.000000 -0.359109 -0.000098
3.632050 0.415389 0.764657 -0.198438 0.005627 0.004695
3.632050 0.699593 0.764657 -0.198438 -0.005627 0.004695
0.754069 0.445277 0.614033 0.000000 -0.999919 -0.000000
1.679365 0.383869 0.451326 -0.068104 -0.002668 0.002196
1.637754 0.464194 0.492888 -0.044054 0.006766 -0.006406
3.687020 0.642759 0.595537 0.283082 0.000181 -0.000039
1.582600 0.630595 0.700521 -0.000000 0.660734 0.000011
1.772692 0.882989 0.277011 -0.068104 0.014600 0.011763
1.875642 0.258488 0.940641 0.105255 -0.003554 -0.003208
0.465885 0.588365 0.507465 0.000000 0.287102 -0.000032
1.718287 0.118202 0.133063 -0.068104 -0.010857 0.008834
3.284261 0.590408 0.722653 0.000001 0.286947 0.000032
2.752492 0.616857 0.710609 0.000000 0.539672 0.000015
2.646138 0.640885 0.690470 0.000001 0.747663 0.000008
0.625415 0.665484 0.584834 0.000001 0.963734 -0.000005
0.678592 0.449194 0.585949 0.000001 -0.964716 -0.000010
2.114369 0.473392 0.689669 0.000000 -0.750364 0.000008
1.337300 0.559090 0.727555 0.000000 0.025160 0.000048
0.754069 0.669704 0.616698 -0.000000 0.999927 0.000000
3.530025 0.457589 0.488648 -0.000000 -0.742135 0.001036
0.132302 0.587308 0.710399 -0.296991 0.000045 0.000133
1.795308 0.665438 0.584663 0.000000 0.964701 -0.000003
1.858633 1.090193 0.020054 0.068173 -0.009099 -0.008146
1.334881 0.648667 0.716320 -0.044054 -0.011726 0.010855
1.753632 0.987198 0.134278 -0.044054 -0.014612 -0.013286
0.100322 0.644009 0.619753 -0.429403 0.000040 0.000001
3.146854 0.664631 0.512835 0.000000 -0.742135 -0.001309
3.417415 0.370086 0.806769 0.000000 0.742135 0.000553
3.275000 0.446302 0.754580 0.000001 -0.742134 -0.000654
3.146854 0.466368 0.732361 0.000001 -0.742136 -0.001309
3.146854 0.648614 0.732361 0.000001 0.742135 -0.001309
3.468472 0.711427 0.428819 -0.000000 0.742135 0.001188
3.417415 0.728879 0.821235 -0.000000 0.742135 -0.000553
3.267865 0.664631 0.717896 0.000000 -0.742135 0.001309
3.267865 0.664631 0.512835 0.000000 -0.742135 -0.001309
3.200967 0.680684 0.495060 0.000000 -0.742135 -0.000982
3.465416 0.437060 0.764813 -0.000002 -0.742130 -0.000594
3.417415 0.386103 0.409496 0.000001 -0.742134 0.000553
3.417415 0.728879 0.409496 -0.000000 0.742134 0.000553
3.200967 0.664667 0.750136 0.000000 0.742135 -0.000982
3.210556 0.656604 0.709008 0.000000 -0.742135 0.000982
3.228023 0.426272 0.486173 0.000000 0.742135 -0.000982
3.363303 0.712826 0.803460 0.000000 0.742135 -0.000491
3.536136 0.740420 0.801813 -0.000000 -0.742136 0.001501
3.309191 0.696773 0.785686 0.000000 0.742135 -0.000409
3.498584 0.362023 0.382833 -0.000000 -0.742135 0.000724
3.200967 0.450315 0.480595 0.000000 -0.742135 0.000982
3.471528 0.354033 0.824544 0.000001 0.742135 0.001188
3.309191 0.696773 0.445045 0.000000 0.742135 0.000409
3.552696 0.345970 0.865672 -0.000000 -0.742134 -0.000724
3.525640 0.337980 0.842319 0.000001 0.742134 0.000724
3.282135 0.410219 0.468398 -0.000000 0.742135 -0.000654
0.891300 0.546137 0.503711 0.000000 -0.114038 -0.000082
3.237612 0.648614 0.498370 0.000000 0.742135 0.001309
1.545319 0.289482 0.316376 -0.044055 0.006630 -0.006280
0.412708 0.519685 0.721027 -0.000000 -0.335343 0.000053
1.742131 0.649037 0.680274 -0.000000 0.812955 0.000007
1.457377 0.556603 0.727573 0.000000 -0.025495 0.000024
2.402554 0.556247 0.503166 -0.000000 -0.025160 -0.000024
2.380254 0.647176 0.682821 -0.000000 0.798153 0.000007
2.776507 0.554738 0.727526 0.000000 -0.025495 0.000024
1.865794 0.006017 1.230731 -0.000000 -0.670256 0.000418
0.625415 0.526960 0.507372 0.000000 -0.263004 -0.000017
1.104008 0.450101 0.582789 -0.000000 -0.957854 -0.000006
3.361819 0.474395 0.723474 0.000000 -0.742135 -0.000491
0.349238 0.445391 0.610214 0.000000 -0.999679 -0.000000
3.363303 0.712826 0.427270 0.000000 0.742135 0.000491
3.352230 0.664667 0.480595 -0.000000 0.742135 0.000491
0.085055 0.619621 0.567273 -0.481548 0.000050 -0.000037
3.077071 0.463899 0.503685 0.081788 -0.005824 0.007646
2.912023 0.633836 0.697615 0.000001 0.677395 0.000010
1.774034 0.470874 0.505358 0.068173 0.015253 -0.013445
3.457124 0.675180 0.729577 -0.000001 -0.742133 0.000594
3.452369 0.556780 0.727587 0.000000 -0.012661 0.000770
1.569253 0.779433 0.849872 -0.068103 0.002481 -0.002042
3.530025 0.657393 0.488648 0.000001 0.742128 0.000259
3.545770 0.618537 0.666858 0.143320 0.001455 0.001610
3.530025 0.457589 0.742082 -0.000002 -0.742123 -0.000259
3.438360 0.429069 0.489271 0.000000 0.742135 -0.001106
3.564095 0.478677 0.511999 0.000000 -0.742135 0.000691
3.530025 0.673410 0.727617 0.000001 -0.742133 0.000259
3.603413 0.612942 0.660663 0.143321 0.001455 0.001610
3.574592 0.599722 0.552504 0.143320 0.002909 -0.003220
3.409539 0.442289 0.759023 0.000001 -0.742133 -0.000553
2.713038 0.445319 0.613056 -0.000000 -0.999679 -0.000000
1.507931 0.787978 0.363905 -0.068103 0.002481 0.002042
1.825062 0.468287 0.723035 0.068174 0.008698 0.007793
1.718287 0.996780 1.097668 -0.068105 0.010857 -0.008834
1.718287 0.118202 1.097668 -0.068102 -0.005429 -0.004459
2.459161 0.555892 0.727555 0.000000 -0.025160 0.000097
3.430483 0.501272 0.537017 0.143320 -0.002909 -0.003220
1.934254 0.445263 0.615277 0.000000 -0.999683 -0.000000
1.591155 0.711232 0.797977 -0.044052 -0.010464 0.009752
1.184631 0.555270 0.503191 0.000000 -0.025495 -0.000048
0.200000 0.577291 0.504895 -0.067169 0.000069 -0.000358
3.585044 0.454038 0.484717 -0.000001 -0.742135 0.000691
3.603323 0.599123 0.511142 0.289548 0.000079 -0.000190
0.731769 0.589301 0.722985 -0.000001 0.279965 0.000016
1.793689 0.003657 1.228599 -0.000001 -0.670232 0.000162
1.793689 1.111325 0.002132 -0.044053 -0.016235 -0.014593
1.829742 0.001828 0.003783 0.000002 -0.670187 -0.000162
1.448385 0.739663 0.818559 -0.044060 -0.004397 0.004191
1.724977 0.669708 0.615898 0.000000 0.999675 0.000000
1.443654 0.445292 0.616609 0.000000 -0.999679 0.000000
2.908592 0.560511 0.727519 0.000002 0.018368 0.000133
1.448385 0.373438 0.413870 -0.068104 -0.006084 0.004993
1.889070 0.020236 1.206565 0.105253 -0.005894 -0.005315
1.889070 1.094745 1.206565 0.105252 0.005894 -0.005315
2.858846 0.525085 0.722806 -0.000001 -0.280570 0.000016
3.545770 0.618537 0.563872 0.143320 0.001455 -0.001610
1.860423 0.943019 0.183196 0.068173 -0.007762 -0.006965
2.699315 0.465376 0.679479 0.000000 -0.827928 0.000051
1.104008 0.665414 0.584577 -0.000000 0.962973 -0.000001
2.061192 0.451155 0.579488 0.000000 -0.950220 -0.000003
1.846100 0.237759 0.271803 0.105255 -0.007107 0.006404
1.912346 0.224554 0.984010 0.068173 0.008832 0.007911
1.912346 0.242963 0.267104 0.068173 0.009902 -0.008851
1.846100 0.219351 0.979310 0.105253 -0.006414 -0.005782
1.879223 0.883825 0.971469 0.105253 0.003207 -0.002895
3.443785 0.355108 0.383227 0.081788 -0.005824 0.007646
3.471528 0.760949 0.406186 -0.000001 -0.742135 -0.001188
1.780749 0.773305 0.362989 0.068173 -0.006557 -0.005895
1.742131 0.543665 0.503994 -0.000001 -0.113553 -0.000165
2.486608 0.524319 0.508154 -0.000001 -0.261377 -0.000009
1.600998 0.668463 0.476778 -0.044053 -0.020922 -0.018106
3.050015 0.463917 0.710925 0.081787 0.008217 0.004991
2.985405 0.467921 0.516189 0.081787 -0.002727 0.003586
2.752492 0.450850 0.650314 -0.000000 -0.950269 0.000012
1.619501 0.647949 0.684895 0.000001 -0.670249 -0.001124
1.649545 0.465509 0.547211 -0.068103 -0.009360 0.007640
1.656706 0.447664 0.704410 -0.068101 -0.004680 -0.003847
1.633824 0.683640 0.726676 -0.068103 0.007239 -0.005931
1.626662 0.641648 0.727593 -0.044053 -0.013530 0.012390
1.596618 0.472350 0.504026 -0.044053 0.013530 -0.012390
3.500776 0.717180 0.776080 -0.000001 -0.742135 0.001501
3.568441 0.400843 0.425817 -0.000001 -0.742135 0.001501
3.568441 0.400843 0.804914 -0.000000 -0.742135 -0.001501
3.465416 0.693939 0.480383 -0.000001 -0.742135 -0.000594
1.688954 0.637966 0.693579 0.000000 0.713406 0.000005
1.742131 0.649655 0.551325 -0.000001 0.820889 -0.000003
1.589030 0.799375 0.871953 -0.068103 0.004961 -0.004077
3.498584 0.752959 0.382833 0.000000 0.742137 0.000724
3.536136 0.724403 0.414452 0.000000 0.742135 0.001501
