1.858627 0.330999 0.880961 0.059533 0.003921 0.003308
2.940442 0.428830 0.771690 0.000001 -0.763578 -0.000915
0.111509 0.588841 0.693504 -0.348914 0.000063 0.000070
0.678199 0.535184 0.527747 0.000000 0.012564 -0.000010
1.670975 0.343352 0.837525 -0.059480 -0.002663 -0.002067
2.052826 0.548241 0.528744 -0.000000 0.138932 -0.000055
1.460140 0.432127 0.630076 0.000000 -0.999680 0.000000
1.805182 0.079748 1.163731 -0.059482 -0.009130 -0.007012
1.981466 0.036492 1.217879 0.059532 0.008712 0.007290
0.437542 0.468677 0.551425 -0.000000 -0.641713 -0.000073
3.131829 0.412386 0.791135 0.000000 -0.763578 -0.000366
1.067612 0.531395 0.527797 0.000000 -0.025500 -0.000300
2.400961 0.432117 0.629834 0.000000 -0.999921 0.000000
2.955485 0.613319 0.693457 0.000001 0.782659 0.000024
1.007642 0.600838 0.706426 0.000000 0.660906 0.000070
1.102659 0.433933 0.610474 0.000000 -0.981576 -0.000003
3.080747 0.647341 0.477771 0.000000 0.763578 0.000320
3.320546 0.615313 0.533407 -0.147402 -0.004829 -0.004310
1.741826 0.331673 0.413509 -0.059482 -0.002578 0.002002
1.533128 0.304113 0.357774 -0.059481 -0.002494 0.001936
1.712675 0.660172 0.750566 -0.059481 0.015939 -0.011965
0.485050 0.547642 0.730524 0.000000 0.138938 0.000109
1.856519 1.064665 1.257149 -0.043632 -0.014753 0.012566
3.251507 0.766097 0.355100 0.047214 0.013411 0.014533
2.612303 0.438939 0.741974 0.047216 -0.010059 -0.011082
1.559945 0.421865 0.486998 -0.043634 0.005812 -0.005179
1.898693 0.804084 0.302535 0.059532 -0.013648 -0.011251
3.240535 0.510949 0.728816 0.314263 -0.000033 0.000133
3.240535 0.448924 0.573539 0.313808 -0.000115 -0.000074
3.212705 0.400209 0.453649 -0.000001 -0.763572 0.000249
1.957810 0.632977 0.653518 0.000000 0.970411 0.000002
1.387709 0.561373 0.727692 -0.000000 0.263086 0.000028
0.722592 0.453978 0.692636 -0.000000 -0.782898 0.000012
0.437542 0.587337 0.542836 -0.000001 0.518045 -0.000051
2.700031 0.635765 0.626851 0.000000 0.999684 -0.000000
0.088937 0.526474 0.555832 -0.437063 -0.000008 -0.000066
1.586641 0.642728 0.518827 -0.059482 0.007971 0.006139
2.786967 0.612785 0.705026 0.000000 -0.763577 0.000183
1.713521 0.726655 0.387346 -0.043632 -0.003309 -0.002967
1.679876 0.424009 0.732861 -0.059482 -0.015939 -0.011965
0.960134 0.580560 0.539016 -0.000000 0.450473 -0.000008
1.344874 0.432220 0.625400 0.000000 -0.999680 -0.000000
0.088937 0.477720 0.677885 -0.437061 -0.000050 0.000045
1.696878 0.798033 0.950145 -0.043634 -0.011499 0.009997
2.527910 0.571421 0.724315 -0.000000 0.359168 0.000040
2.052826 0.440631 0.670351 0.000000 -0.913895 0.000003
1.981466 0.418389 0.492909 0.059529 0.004357 -0.003674
1.155619 0.529944 0.731350 0.000000 -0.025131 0.000305
1.489029 0.345135 0.852900 -0.059480 -0.007246 -0.005590
0.200000 0.518550 0.528906 -0.036719 -0.000095 -0.000571
3.029665 0.639119 0.771690 0.000000 0.763578 -0.000274
0.722592 0.597871 0.708911 -0.000000 0.621823 0.000019
0.912625 0.552618 0.729725 -0.000000 0.187654 0.000020
2.527910 0.561685 0.531577 -0.000002 0.261642 -0.000057
3.347455 0.356543 0.839410 -0.147402 -0.005055 -0.004044
1.964040 0.530105 0.731354 0.000000 -0.025131 0.000305
1.489029 0.722814 0.406284 -0.043631 -0.009299 -0.008177
1.893409 0.992652 1.160891 -0.059480 0.008454 -0.006504
1.631646 0.346444 0.421818 -0.059481 -0.002663 0.002067
2.290368 0.442524 0.584733 0.000000 -0.903263 -0.000004
2.385385 0.601231 0.553104 -0.000000 0.657122 -0.000004
0.817609 0.626565 0.672046 0.000001 0.901506 0.000002
1.919826 0.891385 1.044470 0.081130 0.008098 -0.006814
3.193027 0.625389 0.584661 -0.000002 0.670240 -0.000001
2.965673 0.634709 0.528232 0.000000 -0.763578 -0.000915
2.556726 0.432186 0.632413 0.000000 -0.999674 0.000000
1.851582 0.346817 0.396277 0.059533 0.004284 -0.003613
1.981466 0.649560 0.766275 0.059535 -0.004356 0.003674
1.955489 0.351465 0.842141 0.081131 -0.001572 -0.001329
2.734270 0.633792 0.520435 0.047213 -0.018486 -0.010774
1.203128 0.635794 0.627980 0.000000 0.999675 -0.000000
2.592553 0.635759 0.626609 0.000000 0.999684 -0.000000
3.231610 0.649466 0.783926 -0.000001 0.763576 -0.000249
0.532559 0.443362 0.583079 0.000000 -0.892200 -0.000004
1.738922 0.955272 0.131394 -0.043633 -0.007160 -0.006353
1.709523 0.927924 1.095450 -0.043634 -0.008028 0.007099
1.591926 0.818532 0.966090 -0.043632 -0.002875 0.002579
2.147843 0.617985 0.687181 -0.000000 0.827629 0.000010
2.823085 0.533491 0.527738 0.000000 -0.012564 -0.000080
1.981466 0.682768 0.453639 0.059531 -0.009148 -0.007647
1.694298 0.838799 0.276953 -0.059481 0.003973 0.003081
3.144053 0.438721 0.534713 0.000000 0.763578 -0.000732
1.910301 0.486814 0.539307 0.000000 -0.473923 -0.000007
3.042215 0.427758 0.737434 0.000000 0.763577 0.000274
2.052826 0.635179 0.618125 -0.000000 0.993235 -0.000001
1.197676 0.584212 0.540991 0.000003 0.411964 -0.000008
1.530234 0.632159 0.602504 0.000000 0.964468 -0.000002
3.351939 0.727421 0.858349 -0.147403 -0.003220 0.002874
3.351939 0.340528 0.400835 -0.147402 -0.003370 0.002697
3.316061 0.599297 0.706838 -0.147403 -0.004775 0.004262
1.007642 0.433210 0.644457 0.000000 -0.990304 0.000004
1.741186 0.248967 0.282843 -0.043630 0.002658 -0.002385
0.532559 0.463334 0.702969 0.000000 -0.698040 0.000031
0.200000 0.628567 0.667377 -0.036723 0.000540 0.000208
3.143961 0.538811 0.731330 -0.000001 0.003219 0.000039
1.884604 0.755844 0.900905 0.059535 -0.007986 0.006694
2.659652 0.428784 0.505202 0.047215 -0.013411 0.014532
3.275182 0.296775 0.910088 0.047214 -0.013411 -0.014533
1.292692 0.519269 0.528806 -0.000001 -0.136941 -0.000055
0.817609 0.436392 0.658772 0.000000 -0.957101 0.000002
2.195351 0.432637 0.639897 0.000000 -0.996055 0.000000
1.833531 0.632188 0.532100 0.081131 0.004475 0.003779
3.320546 0.452636 0.725777 -0.147402 -0.005055 -0.004044
1.340201 0.627187 0.670646 0.000001 0.883256 0.000001
1.494678 0.442413 0.727162 -0.059481 -0.005435 -0.004206
1.672759 0.449625 0.572504 -0.000000 -0.827925 -0.000042
1.872276 0.132234 1.114746 0.059533 0.004501 0.003796
1.862793 0.433342 0.645335 0.000000 -0.986479 0.000003
0.191761 0.450620 0.687608 -0.036723 -0.000479 0.000325
2.907977 0.634008 0.610434 0.000000 0.981893 -0.000006
2.620590 0.531234 0.527801 -0.000000 -0.025121 -0.000040
0.865117 0.484825 0.540378 0.000000 -0.474133 -0.000028
2.889066 0.444202 0.541195 0.000000 0.763578 -0.000549
2.242860 0.613419 0.565854 -0.000001 0.774265 -0.000003
1.863572 0.635822 0.629108 0.000000 0.999684 -0.000000
2.052826 0.448924 0.573539 0.000000 -0.841922 -0.000005
1.784219 0.446189 0.507566 0.059533 0.004066 -0.003430
2.730675 0.654396 0.771994 0.047215 0.013411 -0.014532
1.518489 0.704648 0.826661 -0.059486 0.001811 -0.001407
1.102659 0.612323 0.694673 -0.000000 0.766965 0.000006
1.785188 0.848912 0.246678 -0.043632 -0.009764 -0.008567
3.014765 0.352625 0.415141 0.047216 -0.013411 0.014532
1.853784 0.269231 0.954452 0.059533 0.013358 0.011023
1.838937 0.127345 0.141177 -0.043632 0.007160 -0.006353
1.886365 0.977592 0.116989 -0.059480 0.004565 0.003537
3.050502 0.432133 0.628141 -0.000000 -0.999919 -0.000000
1.007642 0.634176 0.611305 -0.000000 0.981893 -0.000003
1.625251 0.584808 0.717853 -0.000001 0.494550 0.000013
1.292692 0.511855 0.729014 0.000001 -0.213632 0.000140
3.098011 0.613319 0.693457 0.000001 0.782861 0.000049
1.981466 0.169326 0.198384 0.059533 0.004502 -0.003796
3.050502 0.574438 0.536118 -0.000000 0.405754 -0.000017
1.588524 0.475935 0.713910 -0.043632 0.011623 0.010098
3.240535 0.439382 0.667377 0.315950 -0.000127 0.000049
1.767776 0.468646 0.707733 0.000000 -0.641883 0.000009
1.468923 0.443586 0.531030 -0.059482 -0.010869 0.008308
3.273814 0.533974 0.538739 0.313582 0.000061 -0.001080
0.342525 0.452406 0.568595 -0.000000 -0.798458 -0.000046
2.480402 0.444913 0.580159 0.000000 -0.880413 -0.000017
2.147843 0.550155 0.529032 -0.000000 0.163218 -0.000012
2.786967 0.455164 0.705026 0.000000 0.763579 0.000183
1.900454 0.060238 1.179587 0.081133 -0.009376 -0.007877
0.247508 0.451169 0.570287 0.000000 -0.813452 -0.000044
1.740367 0.865173 1.011697 -0.059478 0.003636 -0.002820
1.387709 0.582520 0.540053 0.000000 0.474204 -0.000057
3.273814 0.624828 0.629592 0.313582 0.001080 0.000061
1.150167 0.449829 0.686980 0.000000 -0.827786 0.000010
2.955485 0.507976 0.728073 -0.000000 -0.262904 0.000056
1.874917 0.862776 0.230933 0.059532 -0.011035 -0.009176
0.067436 0.593929 0.614069 -0.521192 0.000044 -0.000010
1.836172 0.742569 0.369504 0.059532 -0.007986 -0.006694
1.643460 0.774495 0.354771 -0.059480 0.004819 0.003732
1.757828 0.747604 0.898034 -0.043633 -0.006184 0.005505
1.481800 0.624949 0.727658 -0.059481 0.005435 -0.004206
2.622927 0.527729 0.731252 -0.000000 -0.063282 0.000483
0.627575 0.604034 0.555655 -0.000002 0.662492 -0.000008
1.773652 0.353687 0.861981 0.059532 0.002142 0.001810
1.650657 0.282505 0.917804 -0.059486 -0.002325 -0.001805
2.872720 0.383089 0.808019 0.047215 -0.013411 -0.014532
1.778143 0.234855 0.994451 -0.043632 0.009764 0.008567
1.926871 0.923048 0.176383 0.081130 0.003623 0.003061
1.892576 1.066307 0.003423 -0.059482 0.011496 0.008771
1.606626 0.235743 0.276924 -0.059481 -0.008623 0.006631
0.247508 0.591129 0.545288 -0.000000 0.560836 -0.000090
1.682793 0.636703 0.535919 -0.059481 0.002053 0.001594
2.385385 0.469172 0.708173 0.000000 -0.641528 0.000009
1.871835 0.413419 0.782278 0.059532 0.010890 0.009059
2.889328 0.628157 0.758727 0.000001 0.763577 -0.000732
0.532559 0.612323 0.694673 -0.000001 0.766534 0.000026
1.575037 0.332115 0.861303 -0.059482 -0.005326 -0.004122
0.295017 0.593148 0.712492 0.000001 0.581309 0.000043
0.342525 0.613796 0.566327 0.000000 0.782848 -0.000012
3.109462 0.332316 0.391125 0.047215 -0.013411 0.014532
3.016919 0.411315 0.502305 0.000000 0.763578 -0.000274
0.627575 0.613595 0.693109 -0.000000 0.782922 0.000049
1.981466 0.069701 0.080574 0.059533 0.011035 -0.009176
3.133136 0.740710 0.874063 0.047217 0.014477 -0.015592
1.867873 0.838656 1.000379 0.059532 -0.006244 0.005252
0.295017 0.483421 0.718013 0.000000 -0.496318 0.000054
1.981466 0.185930 1.041165 0.059532 0.011326 0.009409
2.052826 0.504679 0.727140 0.000002 -0.285775 0.000051
1.910301 0.593345 0.712351 0.000001 0.576773 0.000005
2.717943 0.453702 0.566895 0.000001 -0.782348 -0.000012
1.936557 0.286085 0.342117 0.081132 -0.005434 0.004585
1.762111 0.174043 0.212620 -0.059482 -0.006594 0.005093
1.197676 0.433933 0.610474 0.000000 -0.980878 -0.000001
2.432893 0.614523 0.691941 0.000000 0.782947 0.000024
2.242860 0.631186 0.660008 -0.000001 0.913898 0.000001
2.863770 0.427758 0.737434 0.000000 0.763579 0.000549
1.694824 0.153698 1.079280 -0.059483 -0.013186 -0.010004
1.957810 0.455031 0.693962 0.000000 -0.766947 0.000026
0.627575 0.471915 0.548825 0.000000 -0.601891 -0.000003
0.532559 0.608871 0.560567 0.000001 0.727987 -0.000007
1.588524 0.467807 0.552148 -0.000000 0.645714 0.000324
0.627575 0.461611 0.701272 -0.000000 -0.715939 0.000030
1.898252 0.672337 0.800896 0.059532 -0.002287 0.001933
1.720268 0.624842 0.675602 0.000000 0.892148 0.000031
1.981466 0.765789 0.903720 0.059531 -0.003703 0.003125
2.863574 0.606232 0.526384 0.000000 0.763578 0.000549
1.511169 0.675054 0.469897 -0.059483 0.003623 0.002810
1.948004 1.018039 0.061389 0.081131 0.009376 0.007877
1.914543 0.030119 0.042204 0.081131 -0.007672 0.006459
1.563194 0.757639 0.362703 -0.043633 -0.003309 -0.002966
1.597906 0.721486 0.840618 -0.059482 0.005495 -0.004252
3.268254 0.712053 0.822414 0.000000 -0.763578 0.000498
1.482726 0.594392 0.547587 0.000000 0.601949 -0.000010
3.188777 0.429588 0.735270 0.000001 0.763577 0.000618
2.905639 0.670545 0.476974 0.047213 -0.018486 -0.010774
0.142911 0.519704 0.722747 -0.226546 -0.000030 0.000167
1.672759 0.434734 0.652538 0.000000 -0.976763 0.000002
0.817609 0.628151 0.590801 -0.000000 0.923874 -0.000013
3.272689 0.340059 0.418043 0.000000 0.763578 -0.000498
1.792585 0.696582 0.419858 0.059533 -0.002106 -0.001779
2.860469 0.625279 0.674738 0.000000 0.892080 0.000008
2.965347 0.460645 0.560640 -0.000001 -0.645716 -0.000691
1.898693 0.247261 0.282900 0.059532 0.013648 -0.011251
1.974165 0.533491 0.527744 -0.000000 -0.025509 -0.000010
3.307092 0.454421 0.622759 0.310783 -0.000122 -0.000009
0.912625 0.434449 0.607945 -0.000000 -0.976586 -0.000002
2.309060 0.532523 0.731415 0.000000 -0.025131 0.000080
2.710425 0.589788 0.713355 0.000000 0.763577 -0.000183
3.118299 0.607303 0.560640 0.000000 0.645718 -0.000346
1.468863 0.401120 0.789310 -0.043629 0.006975 0.006192
1.292692 0.451778 0.569435 0.000001 -0.803179 -0.000006
1.815284 0.555739 0.729091 0.000000 0.214270 0.000017
0.722592 0.522548 0.730801 -0.000001 -0.113484 0.000134
3.126240 0.350093 0.838157 0.047216 0.018485 0.010773
2.787098 0.461717 0.526384 -0.000000 -0.763578 0.000732
1.775414 0.660102 0.797772 0.059537 -0.004066 0.003430
2.118248 0.432151 0.628141 -0.000000 -0.999680 -0.000000
1.435218 0.499586 0.725463 0.000000 -0.335530 0.000043
2.358905 0.532523 0.527769 0.000000 -0.025131 -0.000020
1.743713 0.588920 0.542658 0.059531 -0.008132 -0.006814
1.752519 0.401141 0.451367 0.059532 0.004066 -0.003430
1.715256 0.406272 0.799675 -0.043632 0.003526 0.003160
3.098011 0.475985 0.713331 0.000001 -0.492634 0.000003
1.925990 0.366789 0.438883 0.081133 -0.001545 0.001306
2.460931 0.531637 0.731393 0.000000 -0.025121 0.000040
1.805599 0.951373 1.116296 -0.059482 0.005241 -0.004057
1.783021 0.071654 0.082884 -0.059482 -0.009130 0.007012
1.738922 0.112676 1.127789 -0.059481 -0.010482 -0.008022
2.147843 0.553489 0.729557 -0.000000 0.189058 0.000020
1.981466 0.798998 0.316194 0.059533 -0.013648 -0.011250
1.981466 1.014852 1.198244 0.059530 -0.011036 0.009176
1.981466 0.235743 0.982260 0.059532 0.012487 0.010335
1.652239 0.657405 0.468376 -0.043632 -0.020452 -0.016653
2.337877 0.607520 0.700059 -0.000000 0.715926 0.000004
1.899573 0.934744 1.111077 0.059533 -0.004502 0.003796
3.272689 0.710374 0.403232 0.000000 0.763578 0.000498
3.272689 0.340059 0.841141 0.000000 0.763578 0.000498
3.246082 0.615357 0.515593 0.000002 0.763576 0.000854
1.055151 0.462064 0.557453 0.000000 -0.698088 -0.000008
0.988172 0.531556 0.731391 0.000000 -0.025131 0.000040
0.390034 0.603088 0.704406 0.000000 0.679285 0.000017
2.397846 0.635790 0.627819 0.000000 0.999684 -0.000000
2.670435 0.587027 0.542648 -0.000000 0.514382 -0.000003
0.376015 0.432225 0.633945 0.000000 -0.999680 0.000000
3.144314 0.633638 0.765209 0.000000 0.763578 -0.000366
1.851142 0.165653 1.048714 0.081132 -0.008098 -0.006814
3.196017 0.693931 0.836507 -0.000000 0.763578 -0.000498
1.867726 0.074733 0.095072 -0.059482 -0.004227 0.003276
3.356424 0.743437 0.381897 -0.147403 -0.003220 -0.002874
3.334000 0.404590 0.782593 -0.147403 -0.004998 -0.003998
3.320546 0.452636 0.533407 -0.147403 -0.005055 0.004044
3.201029 0.733896 0.402060 0.047215 -0.018485 -0.010773
1.415531 0.413506 0.487134 -0.059482 -0.007246 0.005589
3.144902 0.682969 0.435640 0.000000 0.763578 0.000823
2.385385 0.458612 0.561070 0.000000 -0.733392 -0.000014
0.053794 0.485571 0.608821 -0.574664 -0.000032 -0.000013
3.134615 0.635808 0.631689 0.000000 0.999921 0.000000
1.607959 0.770711 0.902991 -0.059480 0.004988 -0.003862
2.788817 0.537521 0.731362 0.000010 0.001171 0.000430
0.770100 0.511895 0.530162 0.000001 -0.180513 -0.000010
2.670435 0.460147 0.699770 0.000000 -0.733477 0.000007
1.142379 0.535425 0.527769 0.000000 0.025131 -0.000020
2.849046 0.388166 0.457169 0.047215 -0.014477 0.015592
3.275182 0.296775 0.349096 0.047214 -0.013411 0.014533
2.707000 0.418630 0.765990 0.047215 -0.014477 -0.015592
3.298856 0.776251 0.916092 0.047215 0.008942 -0.009896
2.967417 0.362780 0.832035 0.047215 -0.013411 -0.014532
3.038440 0.720401 0.850047 0.047215 0.014477 -0.015592
3.038440 0.720401 0.409137 0.047215 0.014477 0.015592
2.896394 0.689937 0.814023 0.047215 0.014477 -0.015592
1.738788 0.303892 0.344094 -0.043633 0.002875 -0.002579
2.480402 0.610409 0.562275 -0.000000 0.750315 -0.000027
2.242860 0.498750 0.725166 -0.000001 -0.330157 0.000022
1.055151 0.600323 0.552305 0.000000 0.660986 -0.000009
1.448458 0.531556 0.527793 0.000000 -0.025131 -0.000305
1.530234 0.440762 0.588538 0.000001 -0.879618 -0.000002
3.196017 0.374018 0.836507 0.000000 -0.763577 -0.000498
0.053794 0.544577 0.681185 -0.574662 0.000008 0.000033
2.742087 0.432202 0.633058 0.000009 -0.027342 0.000000
3.294476 0.663952 0.484771 -0.147402 -0.004775 -0.004262
1.720268 0.493805 0.535987 -0.000001 -0.405955 -0.000138
0.722592 0.591062 0.545243 0.000001 0.560686 -0.000045
1.907058 0.741633 0.393409 0.081131 0.002877 0.002431
1.555389 0.625049 0.720640 -0.059480 0.003623 -0.002810
1.914543 1.037830 1.216980 -0.059482 0.012849 -0.009760
2.978850 0.635814 0.627979 0.000000 0.999921 -0.000000
0.505300 0.635732 0.625561 0.000000 0.999684 -0.000000
2.622927 0.448794 0.573743 -0.000000 -0.841713 -0.000010
0.653277 0.635819 0.628382 0.000000 0.999921 -0.000000
1.276337 0.635790 0.631365 0.000000 0.999684 0.000000
0.701564 0.432192 0.626529 0.000000 -0.999680 -0.000000
0.368226 0.635814 0.631205 0.000000 0.999921 0.000000
1.531366 0.362714 0.433018 -0.059483 -0.007971 0.006139
2.883833 0.432130 0.628382 0.000000 -0.999921 -0.000000
1.530234 0.438022 0.663753 -0.000000 -0.941563 0.000003
0.865117 0.490864 0.721873 0.000000 -0.429051 0.000032
1.928632 -0.000000 1.254372 0.081132 -0.007671 -0.006459
2.005318 0.615057 0.567951 -0.000001 0.792591 -0.000006
1.763966 0.605340 0.734072 0.059532 -0.008132 0.006813
1.862793 0.447771 0.575338 0.000001 -0.841746 -0.000020
3.307092 0.527142 0.709145 0.314115 -0.000012 0.000120
1.892529 0.147747 0.184078 0.081132 -0.003623 0.003061
1.727584 0.710269 0.813589 -0.059480 0.002663 -0.002067
3.144314 0.651153 0.508787 -0.000000 -0.763577 -0.000366
1.919826 0.166598 1.069718 0.059531 0.004937 0.004161
1.055151 0.553845 0.729489 -0.000000 0.189149 0.000020
0.437542 0.496189 0.724185 0.000000 -0.359190 0.000020
2.480402 0.434078 0.649463 0.000000 -0.981478 0.000001
1.387709 0.628929 0.592748 0.000000 0.933014 -0.000006
2.242860 0.476219 0.545695 -0.000000 -0.560023 -0.000011
0.134944 0.625973 0.634258 -0.257607 0.000146 0.000005
1.981466 0.468202 0.551814 0.059533 0.008712 -0.007290
0.912625 0.612918 0.693962 0.000000 0.766970 0.000026
0.474147 0.529783 0.527838 -0.000000 -0.025140 -0.000040
2.997542 0.529702 0.527840 0.000010 -0.001175 -0.000428
1.636025 0.859554 0.244584 -0.043632 -0.010198 -0.008928
3.068229 0.383909 0.789287 0.000000 0.763578 0.000320
1.899573 0.652472 0.481901 0.059532 -0.010890 -0.009059
1.605002 0.533652 0.527740 0.000000 -0.025509 -0.000020
1.912782 0.199020 0.227155 0.059532 0.005663 -0.004768
1.714311 0.773136 0.335594 -0.043634 -0.005750 -0.005125
1.815039 0.371516 0.458460 0.081131 -0.003356 0.002836
1.844538 0.360342 0.817656 0.081133 -0.001545 -0.001306
1.797832 0.981364 0.103538 -0.059480 0.004565 0.003537
3.250516 0.419241 0.511678 0.000001 0.763577 -0.000498
2.914362 0.460645 0.698544 0.000000 -0.645715 0.000691
3.103462 0.529460 0.527846 -0.000000 -0.025131 -0.000020
0.402495 0.529621 0.527842 -0.000000 -0.025500 -0.000039
1.625251 0.616733 0.570222 0.000000 0.811947 -0.000003
1.816360 0.676426 0.481952 0.081131 0.007991 0.006725
1.649658 0.631759 0.762113 -0.043632 -0.010229 0.008954
0.907174 0.538005 0.527834 0.000000 0.025131 -0.000305
3.017115 0.673078 0.482860 0.000000 -0.763577 -0.000274
1.910301 0.557783 0.530561 -0.000000 0.238348 -0.000125
0.175333 0.582583 0.717169 -0.100489 0.000210 0.000357
3.016331 0.589788 0.713355 0.000000 0.763578 -0.000915
2.966000 0.662115 0.763361 0.000000 -0.763578 0.000915
1.340201 0.452455 0.690653 0.000001 -0.788158 0.000003
3.002994 0.449037 0.685812 0.000000 -0.827819 0.000001
0.480377 0.432220 0.625400 -0.000000 -0.999680 -0.000000
0.226480 0.432146 0.632092 0.000000 -0.999921 0.000000
3.240535 0.578833 0.721043 0.313679 0.000059 0.000124
1.838104 1.023078 1.205419 -0.059484 0.007777 -0.005992
1.914102 0.278048 0.923741 0.081132 -0.005434 -0.004585
2.765452 0.634705 0.644697 -0.000000 0.990274 0.000004
1.981466 0.599747 0.707370 0.059532 -0.008712 0.007290
2.100335 0.594263 0.547490 0.000000 0.601949 -0.000010
1.822964 0.242961 0.270820 0.059532 0.012196 -0.010105
1.619440 0.408988 0.758061 -0.059482 -0.007971 -0.006139
1.915864 0.801968 0.938233 0.081132 0.002451 -0.002072
2.214043 0.535103 0.527760 0.000000 0.025500 -0.000039
2.560321 0.466119 0.703173 0.000000 -0.645714 0.000102
1.692082 0.361464 0.447018 -0.059482 -0.005495 0.004252
1.386132 0.627095 0.739710 -0.043632 -0.018594 0.015381
1.224156 0.532282 0.731409 -0.000010 -0.001197 0.000419
0.142911 0.488239 0.547192 -0.226549 -0.000086 -0.000146
0.142911 0.562187 0.539673 -0.226548 0.000055 -0.000160
1.661864 0.713995 0.434418 -0.059483 0.002747 0.002133
1.728981 0.196623 1.033765 -0.043634 0.009330 0.008203
2.100335 0.501336 0.533106 0.000000 -0.311242 -0.000047
3.098011 0.443635 0.582539 -0.000000 -0.892071 -0.000016
2.333982 0.432225 0.633945 0.000000 -0.999680 0.000000
2.765452 0.577230 0.537380 0.000000 0.428947 -0.000065
1.633258 0.424615 0.522575 -0.059481 -0.007971 0.006139
1.683456 0.335097 0.382417 -0.043632 0.006618 -0.005883
0.265421 0.529138 0.527854 -0.000000 -0.025131 -0.000020
1.694824 0.153698 0.179904 -0.059482 -0.013187 0.010005
1.600609 0.309670 0.359546 -0.043632 0.006401 -0.005694
0.611220 0.537683 0.527826 0.000000 0.025140 -0.000010
1.654820 0.698936 0.806070 -0.059481 0.005495 -0.004252
1.622021 0.399856 0.458463 -0.043633 0.010229 -0.008954
2.575418 0.617939 0.687247 0.000000 0.827905 0.000010
2.907977 0.577667 0.721596 0.000000 0.428944 0.000016
1.518549 0.651006 0.774957 -0.043631 -0.009299 0.008177
1.007642 0.505914 0.531673 -0.000001 -0.284013 -0.000013
1.820322 0.434940 0.726389 0.081129 -0.004475 -0.003779
2.670435 0.488684 0.538360 0.000001 -0.451405 -0.000061
1.606626 0.235743 0.982260 -0.059481 -0.008623 -0.006631
1.055151 0.632541 0.655279 0.000000 0.964866 0.000002
0.342525 0.450864 0.688470 0.000000 -0.813406 0.000022
0.912625 0.614297 0.566959 0.000000 0.782888 -0.000012
3.272152 0.584233 0.579041 0.487230 0.000531 -0.000628
1.696242 0.320887 0.893408 -0.043634 0.003092 0.002773
2.575418 0.615203 0.568144 0.000000 0.798051 -0.000012
3.193027 0.480060 0.543171 0.000000 -0.539681 -0.000191
1.150167 0.451028 0.570484 -0.000000 -0.813377 -0.000011
1.981466 0.898623 1.060800 0.059533 -0.004502 0.003796
1.728981 0.877442 0.230591 -0.059482 0.007270 0.005608
0.547356 0.532442 0.731433 0.000000 -0.012564 0.000020
1.681665 0.254536 0.966258 -0.043633 0.005533 0.004935
0.580067 0.438455 0.664969 0.000000 -0.942076 0.000005
1.961213 0.077818 1.170881 0.059531 0.006680 0.005614
1.435218 0.449241 0.686112 0.000000 -0.827931 0.000010
3.332997 0.319517 0.889114 -0.147403 -0.003370 -0.002697
1.838104 0.047052 1.207263 -0.043630 0.009981 0.008748
1.281010 0.432127 0.629108 -0.000000 -0.999680 -0.000000
1.387709 0.444569 0.580798 0.000000 -0.880387 -0.000004
0.247508 0.629940 0.595469 0.000000 0.942050 -0.000022
2.186006 0.635753 0.632816 0.000000 0.999675 0.000000
1.910301 0.626859 0.587801 -0.000001 0.913744 -0.000014
1.672759 0.484577 0.718672 0.000001 -0.381715 0.000004
0.960134 0.477922 0.714642 -0.000001 -0.560507 0.000045
1.625251 0.523669 0.730929 0.000001 -0.112969 0.000067
2.527910 0.499244 0.533843 0.000000 -0.335437 -0.000011
0.437542 0.628027 0.590503 -0.000000 0.923881 -0.000025
1.197676 0.478499 0.715012 -0.000001 -0.537000 0.000012
1.727584 0.710269 0.445595 -0.059481 0.002663 0.002067
0.675084 0.562382 0.727406 -0.000000 0.287089 0.000051
1.815284 0.628536 0.667451 0.000000 0.923819 0.000002
1.231165 0.533652 0.527740 0.000000 -0.025509 -0.000020
1.527782 0.622369 0.515477 -0.043637 -0.009298 -0.008176
0.134944 0.444798 0.652681 -0.257565 -0.000144 0.000033
3.193027 0.433948 0.610394 -0.000000 -0.981994 -0.000012
1.150167 0.631302 0.659622 -0.000000 0.957655 0.000005
1.731385 0.421663 0.528306 0.081130 -0.005967 0.005032
1.530234 0.629656 0.664513 0.000000 0.942042 0.000011
1.846739 0.797409 0.335056 0.081132 0.002451 0.002072
1.743167 0.917752 0.180092 -0.059481 0.006594 0.005093
1.577743 0.586717 0.542459 0.000000 0.517990 -0.000013
3.093264 0.439792 0.500457 0.000000 -0.763577 0.000320
0.770100 0.483421 0.718013 -0.000000 -0.496068 0.000027
1.813718 0.770404 0.888031 0.081132 0.002664 -0.002251
3.002994 0.619416 0.574150 0.000000 0.841747 -0.000010
0.762312 0.432204 0.633139 0.000000 -0.999680 0.000000
1.902215 0.446672 0.722840 0.081132 -0.007991 -0.006725
1.150167 0.613419 0.565854 -0.000001 0.778501 -0.000006
0.722592 0.476920 0.545220 -0.000001 -0.560257 -0.000023
3.157387 0.389390 0.476378 0.000000 0.763578 -0.000412
1.731385 0.448595 0.753653 0.059533 0.004066 0.003430
1.780697 0.751701 0.397433 -0.059481 0.009637 0.007392
3.179030 0.605317 0.527465 -0.000003 0.763550 0.000309
3.246082 0.452592 0.743590 -0.000001 -0.763578 -0.000854
1.701525 0.772155 0.895762 -0.059485 0.002409 -0.001871
2.432893 0.569275 0.534045 0.000001 0.328584 -0.000011
2.527910 0.511264 0.728885 0.000001 -0.212923 0.000070
1.884604 0.312105 0.358279 0.059534 0.007986 -0.006694
1.925990 0.389367 0.805718 0.059533 0.004574 0.003857
1.805599 0.122455 1.121268 -0.043634 0.007160 0.006352
1.767776 0.455471 0.564697 0.000000 -0.766907 -0.000026
1.844097 0.671381 0.774763 0.081130 0.007991 -0.006725
1.787741 0.301188 0.378736 0.081132 -0.002664 0.002251
1.666452 0.234319 0.280902 -0.059483 -0.002156 0.001674
0.295017 0.479144 0.543758 0.000000 -0.539710 -0.000048
2.111238 0.635806 0.630721 0.000000 0.999675 0.000000
1.801830 0.290415 0.934199 0.059532 0.007406 0.006215
1.698586 0.604395 0.734871 -0.043632 -0.010539 0.009210
0.675084 0.447705 0.575440 0.000000 -0.841922 -0.000002
1.900894 0.641284 0.746332 0.081132 0.007991 -0.006725
1.902513 0.537521 0.731362 0.000000 0.025500 0.000300
1.501056 0.396606 0.473691 -0.059482 -0.007246 0.005589
0.865117 0.585855 0.717247 -0.000000 0.518138 0.000025
1.530234 0.489844 0.721388 0.000001 -0.425975 0.000016
2.670435 0.624183 0.676895 -0.000001 0.875132 0.000004
2.254542 0.432145 0.630801 -0.000002 -0.405502 0.000000
1.943601 0.838434 0.274333 0.081132 0.004475 0.003779
2.622927 0.440648 0.670388 0.000000 -0.913895 0.000007
1.757802 0.644643 0.526918 0.081134 0.002983 0.002521
1.672759 0.631968 0.601804 -0.000000 0.964780 -0.000004
1.007642 0.441884 0.586081 -0.000000 -0.903292 -0.000007
1.349547 0.534942 0.527756 0.000000 0.025140 -0.000040
0.040773 0.542541 0.587904 -0.625792 0.000005 -0.000022
1.928632 0.431709 0.515321 0.081132 -0.007991 0.006725
0.580067 0.585648 0.717372 -0.000000 0.518011 0.000025
1.774621 0.825185 0.985424 -0.043631 -0.009764 0.008567
2.432893 0.446549 0.681851 0.000000 -0.855069 0.000001
0.960134 0.630143 0.663145 0.000001 0.941948 0.000011
1.435218 0.592492 0.712961 0.000001 0.579330 0.000011
2.860469 0.445714 0.680425 -0.000000 -0.867421 0.000004
0.675084 0.489480 0.721215 0.000000 -0.428845 0.000016
1.846739 0.451091 0.519137 0.059532 0.010890 -0.009059
2.838212 0.634709 0.730952 0.000001 -0.763578 0.000549
2.991557 0.400352 0.769842 -0.000001 0.763578 0.000549
2.290368 0.587855 0.543149 0.000000 0.539646 -0.000024
1.150167 0.586337 0.716954 -0.000001 0.517435 0.000025
0.103879 0.465141 0.586688 -0.378691 -0.000074 -0.000044
2.014664 0.432196 0.626368 -0.000000 -0.999680 -0.000000
1.877559 0.718007 0.834118 0.081131 0.006180 -0.005211
0.776331 0.635777 0.631849 0.000000 0.999684 0.000000
2.195351 0.588126 0.543323 0.000000 0.539646 -0.000024
0.111509 0.597887 0.574725 -0.348915 0.000073 -0.000060
1.773652 0.736642 0.843055 -0.059481 0.002494 -0.001936
1.530234 0.478736 0.544019 0.000000 -0.539599 -0.000006
1.767776 0.522067 0.730746 0.000000 -0.113818 0.000134
0.284113 0.538811 0.731330 0.000000 0.025500 0.000020
2.837886 0.469403 0.553234 0.000000 -0.645718 -0.000346
1.197676 0.616475 0.689323 0.000001 0.805419 0.000006
2.717943 0.619503 0.574286 -0.000000 0.841872 -0.000020
1.638420 0.392377 0.810112 -0.043632 0.010229 0.008954
1.055151 0.443180 0.675746 -0.000001 -0.891925 0.000016
2.783502 0.635593 0.758640 0.047217 0.014477 -0.015592
1.762324 0.534136 0.527736 0.000000 0.025131 -0.000040
3.080747 0.664856 0.766601 0.000000 -0.763579 0.000320
3.175472 0.348292 0.401136 0.047216 -0.014477 0.015592
1.720268 0.446863 0.682369 -0.000000 -0.855259 0.000037
0.817609 0.436091 0.601416 -0.000001 -0.954905 -0.000002
2.734270 0.442914 0.513029 0.047215 -0.014477 0.015592
1.731259 0.354262 0.817631 -0.059481 -0.002663 -0.002067
2.337877 0.621629 0.577712 0.000000 0.855466 -0.000002
1.668879 0.799203 0.309567 -0.043633 -0.002875 -0.002579
0.247508 0.458475 0.697966 -0.000000 -0.732806 0.000007
2.195351 0.454279 0.693015 -0.000000 -0.783018 0.000012
2.195351 0.443070 0.583654 0.000000 -0.891924 -0.000008
1.830009 0.210832 0.992625 0.081131 -0.008098 -0.006814
1.340201 0.590294 0.714461 -0.000001 0.560561 0.000045
3.002994 0.437527 0.596838 -0.000000 -0.950218 -0.000005
1.669974 0.841160 0.987630 -0.059481 0.003973 -0.003081
1.102659 0.487713 0.538852 -0.000001 -0.444118 -0.000008
1.625251 0.446570 0.681886 0.000000 -0.855100 0.000009
1.925990 0.695186 0.433831 0.059532 -0.002287 -0.001933
2.914362 0.607303 0.560640 0.000000 0.645718 -0.000346
3.042215 0.640191 0.521750 -0.000000 -0.763579 -0.000274
3.169284 0.478160 0.713355 0.000000 -0.645715 0.000691
0.722592 0.630397 0.662422 -0.000000 0.949542 0.000003
0.437542 0.577340 0.721752 -0.000000 0.429013 0.000032
0.342525 0.622335 0.680250 0.000001 0.867703 0.000009
3.093264 0.439792 0.758727 0.000000 -0.763578 -0.000640
1.787741 0.301188 0.880448 0.081132 -0.005328 -0.004496
1.749354 0.802293 0.929902 -0.059484 0.002156 -0.001674
1.815920 0.809170 0.288875 0.059532 -0.006825 -0.005734
2.337877 0.482163 0.541895 0.000000 -0.518105 -0.000013
3.050502 0.629031 0.666173 0.000000 0.933327 0.000006
1.102659 0.574696 0.536232 0.000001 0.404110 -0.000017
0.857329 0.635745 0.633139 -0.000000 0.999684 0.000000
0.580067 0.487965 0.720460 0.000000 -0.451937 0.000015
2.005318 0.477387 0.714281 0.000001 -0.558362 0.000011
1.102659 0.511264 0.728885 0.000000 -0.213565 0.000035
2.683326 0.644242 0.499198 0.047216 0.013411 0.014532
1.936557 0.773562 0.351934 0.081131 0.005328 0.004496
1.797868 0.359503 0.406317 0.059531 0.002106 -0.001779
1.548009 0.426980 0.741844 -0.059485 -0.003623 -0.002810
1.862793 0.585368 0.541652 0.000000 0.496338 -0.000027
0.770100 0.612918 0.565222 0.000000 0.783026 -0.000003
3.272152 0.483716 0.680143 0.487230 -0.000531 0.000628
2.991165 0.450754 0.745764 0.000000 -0.763578 -0.000915
3.145519 0.591897 0.713376 0.000000 0.560995 0.000011
1.735902 0.807118 0.296384 -0.043633 -0.002658 -0.002385
0.675084 0.622115 0.578549 -0.000000 0.868045 -0.000018
2.200024 0.533813 0.731448 0.000000 -0.025500 0.000039
2.100335 0.456066 0.695199 -0.000000 -0.766212 0.000006
2.052826 0.626100 0.673030 0.000000 0.902646 0.000004
1.475716 0.537683 0.731358 0.000000 0.025500 0.000300
0.770100 0.573101 0.723629 -0.000001 0.382246 0.000037
1.435218 0.614814 0.567629 0.000001 0.797660 -0.000012
1.387709 0.436861 0.660315 0.000000 -0.950188 0.000001
0.390034 0.470489 0.709238 0.000000 -0.622005 0.000019
2.527910 0.629103 0.593199 0.000000 0.933349 -0.000003
0.532559 0.481129 0.542522 0.000001 -0.517677 -0.000051
2.432893 0.626065 0.586081 0.000001 0.902256 -0.000007
1.623325 0.322703 0.886624 -0.043633 0.006618 0.005883
0.247508 0.614498 0.691973 -0.000002 0.575589 0.000002
0.191761 0.464005 0.555984 -0.036723 -0.000404 -0.000415
1.856854 0.089099 1.146679 -0.059479 -0.004565 -0.003537
1.981466 0.915227 0.178749 0.059532 -0.009003 -0.007528
2.195351 0.598963 0.708018 -0.000000 0.641528 0.000018
3.170165 0.681299 0.786046 0.000000 -0.763578 0.000823
0.865117 0.594263 0.547490 0.000000 0.602007 -0.000005
1.815284 0.441319 0.671898 -0.000000 -0.913893 0.000003
1.640880 0.805589 0.944679 -0.059482 0.002325 -0.001805
1.601704 0.269562 0.319969 -0.059482 -0.004650 0.003602
0.580067 0.581419 0.539460 0.000000 0.474188 -0.000004
3.246082 0.632872 0.728779 -0.000002 -0.763576 0.000854
2.670435 0.555109 0.729229 0.000001 0.213647 0.000070
1.292692 0.612918 0.693962 0.000000 0.766970 0.000026
3.193027 0.635426 0.638612 0.000000 0.996069 0.000005
2.480402 0.595293 0.710917 0.000000 0.602007 0.000005
0.960134 0.578250 0.721319 0.000000 0.428947 0.000065
1.245184 0.626663 0.587359 0.000000 0.913895 -0.000007
3.041823 0.478160 0.713355 0.000000 -0.645715 0.000346
2.481959 0.532523 0.527769 -0.000000 -0.025500 -0.000039
1.292692 0.566307 0.726178 -0.000000 0.311124 0.000023
3.098011 0.568135 0.725544 0.000000 0.335400 0.000043
2.095662 0.538166 0.731346 0.000000 0.025500 0.000300
1.007642 0.458020 0.697454 -0.000001 -0.750280 0.000027
1.870515 0.365001 0.443763 0.081131 -0.001545 0.001306
1.920707 0.077449 0.084125 0.059532 0.006680 -0.005613
1.903536 0.337996 0.851518 0.081133 -0.001572 -0.001329
1.815284 0.624259 0.582431 0.000000 0.892199 -0.000004
1.444931 0.681791 0.454794 -0.043634 -0.006974 -0.006192
1.785188 0.206804 0.257023 -0.059482 -0.007270 0.005608
0.532559 0.432608 0.639576 -0.000000 -0.995999 0.000003
1.344095 0.529621 0.731342 0.000000 -0.025500 0.000300
1.720268 0.438022 0.595431 0.000000 -0.941976 -0.000001
0.295017 0.438976 0.592861 0.000000 -0.933206 -0.000012
0.863559 0.432123 0.630318 0.000000 -0.999916 0.000000
3.289991 0.639179 0.762880 -0.147403 0.004998 -0.003998
2.812655 0.629228 0.534713 0.000000 -0.763578 -0.000732
1.150167 0.432316 0.635878 -0.000000 -0.997615 0.000001
0.865117 0.446114 0.578059 0.000000 -0.868129 -0.000004
1.910301 0.440369 0.669761 0.000000 -0.923819 0.000002
3.221574 0.351022 0.431007 -0.000001 0.763577 -0.000498
3.208270 0.416046 0.786808 0.000000 -0.763578 -0.000618
3.263820 0.389247 0.440686 0.000000 -0.763578 0.000498
1.340201 0.635092 0.617364 -0.000000 0.993496 -0.000002
2.717943 0.445134 0.679410 0.000000 -0.864423 0.000002
1.340201 0.469110 0.551063 0.000003 -0.369412 -0.000004
1.933035 0.749428 0.878267 0.081133 0.002930 -0.002476
3.289991 0.420013 0.755474 -0.147402 0.004775 0.004262
1.720268 0.621755 0.577919 0.000001 0.868064 -0.000035
2.147843 0.441302 0.671862 -0.000000 -0.913893 0.000003
1.698857 0.675799 0.487166 -0.059481 0.015939 0.011965
2.955485 0.580704 0.539089 -0.000000 0.451342 -0.000004
3.303395 0.380903 0.819484 -0.147401 -0.004998 -0.003998
1.874770 1.001732 0.070843 -0.043633 -0.005425 -0.004840
1.955049 0.648357 0.491892 0.059534 -0.008712 -0.007290
0.960134 0.626794 0.587654 0.000001 0.783974 -0.000001
3.263820 0.696217 0.455497 0.000001 -0.763576 -0.000498
1.815284 0.437439 0.597106 0.000000 -0.950264 -0.000005
1.892576 0.004487 0.001017 0.000001 -0.645711 -0.000318
0.675084 0.441417 0.672119 0.000000 -0.903403 0.000004
2.337877 0.489116 0.721043 0.000000 -0.428900 0.000032
0.817609 0.465511 0.554175 -0.000000 -0.679813 -0.000004
2.645513 0.635824 0.630398 0.000000 0.999921 0.000000
1.817498 0.155481 0.194112 -0.059482 -0.006256 0.004835
0.817609 0.464388 0.703968 -0.000001 -0.679105 0.000017
1.531366 0.362714 0.826165 -0.059481 -0.015939 -0.011965
3.098011 0.441746 0.672812 0.000000 -0.903312 0.000029
3.305085 0.330538 0.377181 -0.147403 -0.001685 0.001349
1.903536 0.333845 0.402757 0.081131 -0.002877 0.002431
3.272152 0.492474 0.571635 0.487230 -0.000531 -0.000628
0.485050 0.625316 0.674666 -0.000001 0.770407 0.000001
1.796547 0.591326 0.544693 0.059534 -0.008131 -0.006813
0.437542 0.438211 0.594899 -0.000001 -0.940245 -0.000005
2.290368 0.621588 0.681541 0.000000 0.855267 0.000009
0.960134 0.528815 0.527863 -0.000000 -0.063378 -0.000483
1.007642 0.558840 0.530820 0.000000 0.238357 -0.000250
2.765452 0.441590 0.586700 -0.000000 -0.903058 -0.000007
2.527910 0.628683 0.667076 -0.000002 0.928146 0.000006
1.102659 0.464683 0.704242 0.000001 -0.660604 0.000004
1.846287 0.947441 0.133092 -0.043631 -0.006293 -0.005600
0.770100 0.614814 0.691555 -0.000001 0.792591 0.000006
1.245184 0.440566 0.588981 0.000000 -0.913775 -0.000002
3.273935 0.740774 0.883020 0.047214 0.013411 -0.014533
2.432893 0.488504 0.720733 0.000001 -0.451710 0.000121
0.960134 0.438918 0.666173 0.000000 -0.933193 0.000001
1.864351 0.843360 0.278498 0.081133 0.004475 0.003779
1.853332 0.963259 1.144147 -0.043633 -0.012584 0.010871
1.572291 0.635732 0.633623 0.000000 0.999675 0.000000
2.575418 0.550035 0.730172 0.000000 0.163890 0.000092
3.193027 0.557000 0.728816 0.000000 0.213167 0.000009
0.580067 0.455445 0.564727 -0.000000 -0.766629 -0.000013
0.200000 0.571759 0.534999 -0.036729 0.000222 -0.000535
1.531366 0.700154 0.428722 -0.043632 -0.010229 -0.008954
1.933035 0.315435 0.892495 0.059532 0.007986 0.006694
1.792537 0.867982 1.010246 -0.059481 0.007270 -0.005608
3.240535 0.627580 0.669761 0.315947 0.000124 0.000055
1.721117 0.897241 1.054837 -0.059482 0.006594 -0.005093
1.665787 0.613821 0.695469 -0.000001 -0.645715 -0.000973
1.485062 0.635822 0.629108 0.000000 0.999675 -0.000000
3.067544 0.608973 0.736041 0.000000 0.763579 -0.000320
1.862793 0.618595 0.686279 -0.000001 0.825924 0.000005
3.272152 0.584233 0.680143 0.487230 0.000531 0.000628
0.142911 0.469045 0.697897 -0.226550 -0.000120 0.000120
1.696878 0.269916 0.309039 -0.043633 0.011499 -0.009997
3.305085 0.749087 0.387056 -0.147406 -0.001610 -0.001437
1.387709 0.616850 0.688798 -0.000001 0.812579 0.000011
2.001424 0.635724 0.625239 0.000000 0.999675 -0.000000
2.005318 0.574144 0.535987 0.000000 0.406104 -0.000034
1.953728 0.679511 0.798197 0.081132 0.003356 -0.002836
1.618041 0.733382 0.386101 -0.043631 -0.006618 -0.005883
1.862793 0.575360 0.722657 -0.000001 0.396513 0.000009
1.779267 0.281872 0.316956 -0.043632 0.005316 -0.004744
0.295017 0.573026 0.535524 0.000000 0.382668 -0.000074
1.640033 0.477654 0.543821 -0.043632 0.010539 -0.009210
0.854214 0.533813 0.527734 -0.000000 -0.012564 -0.000320
0.580067 0.624696 0.675890 0.000000 0.891619 0.000004
2.480402 0.480646 0.542815 -0.000001 -0.509613 -0.000006
1.245184 0.626761 0.671604 -0.000001 0.913292 0.000007
0.191761 0.634361 0.614213 -0.040675 0.001034 -0.000132
1.633258 0.624280 0.506462 -0.043631 -0.010229 -0.008954
1.567688 0.344927 0.400914 -0.043633 0.007052 -0.006259
0.485050 0.454530 0.565854 -0.000000 -0.782938 -0.000012
1.910301 0.438744 0.593463 -0.000000 -0.932886 -0.000003
1.862793 0.505644 0.531755 0.000000 -0.287483 -0.000013
1.437641 0.438508 0.737727 -0.059482 -0.007246 -0.005589
1.841820 1.050991 0.018205 -0.043632 -0.016488 -0.013868
1.459630 0.695466 0.820560 -0.043636 -0.006974 0.006191
1.518428 0.317787 0.885240 -0.059481 -0.010651 -0.008147
1.386132 0.440854 0.519474 -0.059481 -0.014491 0.010941
1.503729 0.331461 0.390114 -0.059481 -0.002663 0.002067
1.503729 0.736488 0.869070 -0.043635 -0.003526 0.003160
1.562527 0.791184 0.933750 -0.043634 -0.003092 0.002773
1.738922 0.955272 1.127789 -0.043634 -0.007160 0.006352
1.292692 0.465961 0.705413 0.000000 -0.660961 0.000002
1.857306 0.819998 0.952172 0.081132 0.004901 -0.004137
2.100335 0.605077 0.702519 -0.000000 0.698072 0.000016
2.622927 0.625667 0.585243 -0.000000 0.903296 -0.000015
2.848007 0.635741 0.625884 0.000000 0.999684 -0.000000
1.292692 0.570442 0.534492 0.000000 0.359164 -0.000040
2.874487 0.530589 0.527818 -0.000000 -0.025131 -0.000040
2.837886 0.478160 0.713355 0.000000 -0.645715 0.000691
1.910140 0.101797 1.131664 0.081133 -0.003197 -0.002701
1.981466 0.152722 1.080435 0.059531 0.009003 0.007528
1.981466 0.003284 1.257149 0.059534 0.008712 0.007290
1.981466 0.865414 1.021530 0.059533 -0.005663 0.004768
1.981466 0.798998 0.942990 0.059532 -0.006825 0.005734
1.981466 0.368576 0.434004 0.059532 0.002142 -0.001810
1.981466 0.136118 0.159114 0.059532 0.007841 -0.006574
1.981466 0.102909 0.119844 0.059534 0.006679 -0.005613
1.981466 0.202534 0.237654 0.059532 0.005663 -0.004768
1.981466 0.715977 0.414369 0.059533 -0.008567 -0.007171
1.981466 0.268951 0.316194 0.059532 0.006825 -0.005734
1.981466 0.385181 0.805545 0.059532 0.009148 0.007646
1.981466 0.036492 0.041305 0.059530 0.008713 -0.007290
1.981466 0.981644 1.158975 0.059532 -0.006680 0.005614
1.898693 0.247261 0.976284 0.059532 0.006825 0.005734
0.485050 0.478736 0.715165 0.000000 -0.539599 0.000024
1.197676 0.437414 0.662001 0.000000 -0.950264 0.000005
2.955485 0.559428 0.728220 0.000000 0.238708 0.000016
2.432893 0.573846 0.723321 0.000000 0.382673 0.000037
2.527910 0.455885 0.564202 0.000001 -0.766818 -0.000026
1.577743 0.567186 0.725882 0.000001 0.329332 0.000022
3.224704 0.328976 0.863128 0.047216 0.017123 0.010075
3.131307 0.438721 0.724471 0.000000 0.763578 0.000732
2.978545 0.390525 0.451078 0.047215 -0.014477 0.015592
1.340201 0.598839 0.551063 -0.000001 0.641092 -0.000018
0.580067 0.620417 0.575712 -0.000000 0.855269 -0.000009
2.914885 0.434311 0.493975 0.000000 -0.763578 0.000732
0.096352 0.533974 0.707336 -0.415374 0.000001 0.000036
1.625251 0.440631 0.588833 0.000000 -0.913880 -0.000014
2.754349 0.659474 0.481186 0.047215 0.014477 0.015592
2.757945 0.437837 0.752159 0.047217 -0.014477 -0.015592
2.385385 0.624478 0.676321 0.000000 0.892087 0.000016
1.605621 0.674587 0.479671 -0.059481 0.007971 0.006139
0.191761 0.489249 0.720771 -0.040673 -0.000483 0.000924
1.933915 0.966195 1.145098 0.059533 -0.007841 0.006574
1.739424 0.241400 0.962083 -0.059484 -0.004142 -0.003211
2.005318 0.559662 0.728158 0.000000 0.262878 0.000056
2.812960 0.438090 0.663943 0.000000 -0.942060 0.000022
1.482726 0.494811 0.535570 -0.000000 -0.382242 -0.000019
1.843217 0.286372 0.904962 0.081131 -0.005328 -0.004496
0.040773 0.500320 0.655643 -0.625796 -0.000018 0.000013
1.910301 0.627252 0.670498 -0.000000 0.912419 0.000003
1.928632 1.062259 1.259184 0.059535 -0.008712 0.007290
3.145519 0.496115 0.535030 -0.000000 -0.382672 -0.000148
1.007642 0.612918 0.565222 0.000000 0.782883 -0.000006
3.188777 0.638361 0.735270 0.000001 -0.763577 0.000618
1.933915 0.949591 0.133721 0.059534 -0.007841 -0.006574
1.815284 0.485180 0.540187 -0.000000 -0.474284 -0.000028
1.914543 0.037326 1.223075 0.059532 0.011035 0.009176
0.485050 0.619852 0.574829 0.000001 0.840056 -0.000010
0.390034 0.601413 0.553264 0.000001 0.660348 -0.000017
2.569967 0.531314 0.527799 0.000000 -0.025121 -0.000020
1.867873 0.208757 0.259333 0.081131 -0.004049 0.003420
0.675084 0.623380 0.678386 -0.000001 0.879667 0.000008
1.102659 0.570668 0.724605 0.000000 0.359168 0.000040
3.198524 0.431574 0.490739 -0.000000 -0.763578 0.000618
3.198524 0.653889 0.505551 0.000000 -0.763577 -0.000618
1.862793 0.453353 0.691845 0.000000 -0.798426 0.000012
2.907977 0.491192 0.537156 0.000000 -0.428994 -0.000032
2.527910 0.441815 0.672957 0.000000 -0.903292 0.000007
1.682793 0.455001 0.515830 -0.043632 0.005270 -0.004704
0.580067 0.496490 0.534883 -0.000000 -0.359218 -0.000040
0.390034 0.482581 0.541652 0.000000 -0.495566 -0.000013
2.765452 0.507120 0.531344 -0.000001 -0.262815 -0.000113
3.342970 0.695390 0.820471 -0.147402 -0.004775 0.004262
3.342970 0.372559 0.438713 -0.147402 -0.004998 0.003998
3.360909 0.308497 0.362958 -0.147403 -0.003370 0.002697
3.360909 0.759452 0.896226 -0.147403 -0.003220 0.002874
1.577743 0.625370 0.584625 0.000000 0.892052 -0.000001
2.860469 0.592164 0.713195 0.000000 0.581605 0.000021
0.295017 0.623074 0.580230 0.000000 0.880424 -0.000033
2.052826 0.486139 0.539671 -0.000001 -0.469070 -0.000007
1.435218 0.453627 0.566990 0.000000 -0.783018 -0.000012
1.708998 0.215475 0.260783 -0.059482 -0.003973 0.003081
1.102659 0.436974 0.660660 0.000000 -0.950111 0.000003
1.919826 0.891385 0.214714 0.081130 0.004049 0.003420
1.891648 0.279683 0.320589 0.059532 0.007406 -0.006215
1.562527 0.791184 0.325434 -0.043633 -0.003092 -0.002773
1.718623 0.827525 0.984369 -0.043633 -0.010631 0.009287
2.670435 0.539134 0.527863 0.000000 0.025131 -0.000305
1.746689 0.142667 0.170744 -0.059481 -0.005918 0.004576
1.621326 0.845880 0.998430 -0.043628 -0.002658 0.002386
2.290368 0.628567 0.591807 0.000000 0.933265 -0.000006
1.940960 0.986375 0.099721 0.081131 0.005541 0.004675
3.193027 0.446884 0.682403 0.000001 -0.855205 0.000037
2.195351 0.489626 0.537899 -0.000000 -0.428801 -0.000032
2.907977 0.631075 0.660353 0.000001 0.907279 0.000001
1.858187 0.917355 1.067410 -0.059481 0.005918 -0.004576
2.242860 0.444282 0.677853 0.000000 -0.880398 0.000002
1.803104 0.890571 0.220893 -0.059483 0.006594 0.005093
1.796060 0.204291 1.029619 -0.043632 0.017789 0.014812
3.156811 0.745788 0.379117 0.047215 0.013411 0.014532
3.322530 0.781329 0.337088 0.047216 0.008941 0.009896
2.683326 0.644242 0.759986 0.047214 0.013411 -0.014533
3.322530 0.286620 0.337088 0.047216 -0.008941 0.009896
2.612303 0.438939 0.517210 0.047216 -0.010059 0.011082
2.920068 0.372934 0.820027 0.047216 -0.013411 -0.014532
3.062114 0.342470 0.403133 0.047216 -0.013411 0.014532
2.825372 0.393243 0.796011 0.047217 -0.013410 -0.014532
3.085788 0.730556 0.862055 0.047215 0.014477 -0.015592
2.659652 0.428784 0.753982 0.047215 -0.013411 -0.014532
3.180485 0.750865 0.886071 0.047215 0.014477 -0.015592
2.575418 0.441417 0.587064 0.000000 -0.913888 -0.000002
2.860469 0.620069 0.575168 0.000000 0.841832 -0.000010
2.622927 0.480232 0.716119 -0.000000 -0.517721 0.000013
0.247508 0.575286 0.722690 0.000001 0.405947 0.000138
3.145519 0.437779 0.596115 -0.000000 -0.942070 -0.000005
2.812960 0.630837 0.661081 -0.000001 0.948959 0.000005
0.390034 0.444454 0.581011 0.000000 -0.880412 -0.000008
1.482726 0.623628 0.677924 0.000001 0.873423 0.000004
1.957810 0.631904 0.601571 0.000000 0.964806 -0.000004
2.052826 0.605394 0.556975 -0.000001 0.693605 -0.000008
1.245184 0.470931 0.549595 0.000001 -0.602688 -0.000005
1.387709 0.486246 0.719571 0.000000 -0.474496 0.000007
0.770100 0.445874 0.680705 -0.000000 -0.867953 0.000009
1.718508 0.619783 0.505895 -0.043634 -0.005269 -0.004703
1.197676 0.573548 0.723444 -0.000000 0.382673 0.000037
0.912625 0.456635 0.563305 0.000000 -0.764222 -0.000003
3.002994 0.623035 0.679025 0.000000 0.868129 0.000004
1.054372 0.432169 0.627415 -0.000002 -0.387234 -0.000000
0.034511 0.568855 0.642510 -0.650399 0.000019 0.000008
1.981466 0.302160 0.355464 0.059532 0.003703 -0.003125
1.716374 0.635724 0.625239 0.000000 0.999684 -0.000000
2.432893 0.439049 0.592673 0.000000 -0.933107 -0.000006
1.846739 0.774598 0.926580 0.059533 -0.007406 0.006215
1.245184 0.595615 0.548509 0.000000 0.602007 -0.000020
3.257175 0.438224 0.618803 0.313584 -0.000605 -0.000034
0.150941 0.615537 0.680431 -0.195301 0.000177 0.000104
1.815284 0.505953 0.727522 0.000000 -0.286805 0.000013
3.016527 0.444202 0.541195 0.000000 0.763578 -0.000274
0.912625 0.503328 0.726731 -0.000000 -0.311487 0.000047
2.991165 0.617194 0.745764 0.000000 0.763578 -0.000915
2.242860 0.634077 0.610790 -0.000000 0.980501 -0.000001
2.337877 0.576281 0.536936 0.000000 0.405659 -0.000009
2.290368 0.586889 0.716620 0.000001 0.517685 0.000025
1.765026 0.758932 0.348080 -0.043635 -0.005750 -0.005125
1.981466 0.318764 0.884085 0.059532 0.007986 0.006694
2.955485 0.625771 0.585462 -0.000000 0.902938 -0.000007
0.580067 0.434078 0.609721 0.000000 -0.981886 -0.000001
1.767776 0.618301 0.686713 0.000000 0.828162 0.000001
2.242860 0.574144 0.535987 0.000000 0.406061 -0.000069
1.559003 0.663821 0.467331 -0.043632 -0.010229 -0.008954
1.715256 0.661677 0.799675 -0.043634 -0.007052 0.006259
0.485050 0.593542 0.712210 0.000001 0.581519 0.000043
1.197676 0.620689 0.576160 0.000001 0.849910 -0.000005
1.482726 0.442943 0.675278 0.000001 -0.888391 0.000004
1.386132 0.627095 0.519474 -0.043632 -0.018594 -0.015381
2.907977 0.441711 0.586445 0.000000 -0.903095 -0.000007
1.672759 0.633543 0.651042 -0.000000 0.976912 0.000003
0.342525 0.582733 0.719016 0.000000 0.474184 0.000114
0.675084 0.487461 0.538979 -0.000001 -0.446899 -0.000008
1.245184 0.489116 0.721043 0.000000 -0.428714 0.000016
0.817609 0.595969 0.710408 -0.000002 0.525519 0.000006
2.765452 0.495072 0.723722 -0.000000 -0.382742 0.000074
0.865117 0.620794 0.682852 0.000001 0.851830 0.000005
0.485050 0.576720 0.537138 -0.000001 0.424770 -0.000008
2.337877 0.445934 0.680810 -0.000001 -0.858326 0.000002
2.100335 0.442961 0.583870 0.000000 -0.890766 -0.000004
0.864338 0.538972 0.731326 -0.000000 0.025131 0.000305
1.482726 0.446194 0.577919 0.000000 -0.868129 -0.000009
1.768369 0.400716 0.498874 0.081130 -0.002984 0.002521
3.098011 0.631088 0.598869 0.000001 0.806788 -0.000001
