3.013261 0.538324 0.651411 -0.013616 -0.027869 0.010066
2.551330 0.717028 0.690952 -0.000001 0.590935 -0.000002
1.492046 0.755723 0.778614 -0.000000 0.999734 0.000000
3.132619 0.794082 0.966445 -0.013616 -0.028709 0.010045
3.132619 0.484710 0.966445 -0.013616 -0.028622 -0.010116
0.652179 0.589575 0.882747 0.000000 -0.435006 0.000016
2.731872 0.542885 0.660962 0.005784 0.088782 -0.004639
2.641766 0.583887 0.675360 0.000000 -0.476453 -0.000056
0.536540 0.643258 0.661345 0.000000 0.023068 -0.000022
1.634778 0.321450 1.168986 -0.027554 0.010883 0.008561
2.460894 0.693127 0.880802 0.000001 0.450929 0.000007
2.453482 0.635702 0.893872 0.000000 -0.023068 0.000329
0.191999 0.754018 0.793596 -0.077070 0.000277 0.000035
1.737408 0.707890 0.871653 0.000000 0.593308 0.000021
1.632138 0.463196 0.974403 -0.055510 -0.013742 -0.010240
3.158936 0.559545 0.799777 0.455529 -0.000077 0.000020
3.158936 0.680695 0.780969 1.000000 0.000000 0.000000
2.958291 0.698054 0.878085 0.000000 0.496215 0.000007
1.459058 0.812864 0.990649 -0.027552 -0.008574 0.006924
2.958291 0.529990 0.817199 0.000000 -0.936562 0.000001
1.013922 0.708769 0.871005 0.000000 0.593393 0.000010
2.863417 0.538012 0.903547 0.005782 -0.069770 -0.004862
1.970624 1.228325 0.058651 0.055538 -0.008686 -0.007030
0.426089 0.688342 0.883156 0.000000 0.414445 0.000067
2.180692 0.755669 0.774248 0.000000 0.999734 -0.000000
1.682408 0.860077 1.027762 -0.055510 0.003310 -0.002536
1.918348 0.742100 0.647638 0.055537 -0.004485 -0.003662
0.290436 0.582269 0.676252 -0.000000 -0.496379 -0.000027
2.822637 0.742283 0.831934 0.000000 0.879032 0.000002
1.814346 0.904179 1.073171 -0.055508 0.002975 -0.002280
1.770324 0.518695 0.665732 0.111529 -0.004232 0.003464
1.824802 0.770568 0.643300 0.111531 0.003973 0.003252
1.783531 0.475471 0.944588 0.111531 -0.003855 -0.003156
3.142688 0.630453 0.868409 0.457164 -0.000010 0.000079
0.471307 0.589727 0.882820 -0.000002 -0.395375 0.000009
2.732202 0.747640 0.734952 0.000000 0.928281 -0.000006
3.003509 0.587310 0.881645 -0.000000 -0.455653 0.000015
2.234805 0.691407 0.881683 -0.000001 0.450648 0.000015
1.620885 0.707127 0.872528 -0.000000 -0.633685 -0.000670
1.620885 0.571665 0.872528 -0.027553 0.005686 0.004709
1.906242 1.138598 1.375623 0.111533 0.003197 -0.002618
2.099151 0.532529 0.823599 0.000000 -0.919323 0.000003
1.664134 0.204358 0.246519 -0.055510 -0.008548 0.006485
1.013922 0.621411 0.662660 0.000001 -0.129972 -0.000014
1.104358 0.564938 0.688203 -0.000000 -0.647914 -0.000004
2.732202 0.688838 0.882930 0.000000 0.435394 0.000031
2.144369 0.691781 0.881491 0.000001 0.454023 0.000030
2.478685 0.755675 0.774500 0.000000 0.999726 -0.000000
1.585254 0.944425 0.408691 -0.055508 0.002975 0.002280
3.073285 0.717207 0.874227 -0.013615 0.042865 -0.010686
1.970624 0.503218 0.943851 0.055539 0.007836 0.006356
0.742615 0.539171 0.836700 0.000000 -0.855348 0.000005
2.551330 0.623821 0.892905 0.000001 -0.099776 0.000019
0.114526 0.626121 0.872773 -0.378600 -0.000014 0.000086
1.920549 0.514893 0.634484 0.111533 -0.003973 0.003252
1.624734 0.639564 0.661260 0.000000 0.023068 -0.000329
1.692190 0.744719 0.728164 0.000000 0.910026 -0.000003
0.471307 0.691482 0.673568 0.000000 0.455711 -0.000007
1.608426 0.523134 0.773744 0.000000 -0.999734 -0.000000
0.742615 0.593172 0.884374 -0.000000 -0.393251 0.000036
1.556537 0.730602 0.705364 0.000000 0.791145 -0.000003
1.762363 0.348217 0.412431 -0.027552 0.005280 -0.004385
1.149576 0.591559 0.883661 0.000001 -0.414229 0.000067
1.923469 0.755722 0.776515 -0.000000 0.902977 -0.000000
1.777943 0.903458 0.479656 -0.055510 0.006118 0.004668
2.099151 0.733292 0.846304 -0.000000 0.804959 0.000011
3.003509 0.545051 0.845695 0.000001 -0.796848 0.000003
0.561743 0.752253 0.805876 0.000001 0.963069 0.000002
1.872675 0.754515 0.926739 0.055538 -0.007978 0.006469
1.918280 0.727168 0.701228 0.000000 0.761917 -0.000013
1.420883 0.625571 0.893129 -0.000000 -0.126829 0.000119
2.325241 0.528278 0.812104 -0.000001 -0.903770 0.000001
0.697397 0.735898 0.842592 0.000000 0.831454 0.000020
0.833050 0.531121 0.735030 0.000001 -0.883550 -0.000002
0.152497 0.619380 0.670531 -0.230608 -0.000035 -0.000167
1.569495 0.780908 0.934932 -0.055510 0.005308 -0.004056
2.958291 0.743242 0.830067 0.000000 0.889840 0.000004
1.010216 0.634862 0.893853 0.000000 -0.023060 0.000329
2.641766 0.745346 0.825673 -0.000000 0.910020 0.000007
2.586911 0.523099 0.779957 -0.000069 -0.263065 0.000002
1.252613 0.638220 0.893930 0.000000 -0.023060 0.000022
0.191999 0.565461 0.866643 -0.080892 -0.000347 0.000399
0.652179 0.538333 0.835244 0.000000 -0.867894 0.000009
1.695605 0.720607 0.663556 -0.027556 -0.007580 -0.006181
0.471307 0.738274 0.716285 0.000000 0.844391 -0.000002
2.958291 0.700718 0.678728 0.000001 0.527189 -0.000006
1.836357 0.302572 0.390197 0.111531 -0.005454 0.004462
2.325241 0.561983 0.864457 0.000001 -0.663588 0.000009
2.970068 0.744990 0.903419 0.005786 -0.028693 0.004532
0.736684 0.637213 0.661306 0.000000 -0.023068 -0.000011
1.744484 0.211275 0.251268 -0.027552 0.007960 -0.006468
3.105224 0.488295 0.592541 -0.013616 -0.028620 0.010117
2.641766 0.533342 0.729769 -0.000002 -0.822201 -0.000002
2.053933 0.523720 0.790055 -0.000000 -0.994515 0.000002
0.923486 0.590565 0.672005 -0.000000 -0.414442 -0.000067
1.746171 0.794604 0.618570 -0.055510 0.013742 0.010240
1.945312 1.246956 1.514824 0.111528 0.004138 -0.003387
0.426089 0.530933 0.819715 0.000001 -0.883361 0.000002
1.683497 0.983692 0.366505 -0.055510 0.005280 0.004034
1.916797 0.639732 0.893950 -0.000000 0.023068 0.000022
1.556537 0.529408 0.739679 0.000000 -0.942956 -0.000003
2.686984 0.532959 0.824603 0.000000 -0.919393 0.000013
0.697397 0.747374 0.734289 -0.000000 0.928224 -0.000012
1.890834 1.054391 1.291230 0.055536 -0.004343 0.003547
1.601755 0.546122 0.708064 0.000000 -0.804933 -0.000022
1.963498 0.571992 0.872437 0.000000 -0.574605 0.000011
2.641766 0.620830 0.892465 0.000000 -0.149711 0.000050
2.754033 0.536372 0.902203 0.005781 0.106298 0.004652
1.833606 0.481587 0.572929 0.055538 0.003918 -0.003202
0.471307 0.747171 0.821430 0.000000 0.928188 0.000006
0.833050 0.589953 0.672283 0.000000 -0.435394 -0.000016
1.498279 0.548593 0.660637 -0.027554 0.013716 -0.010385
0.841946 0.755681 0.774752 0.000000 0.999726 -0.000000
1.375665 0.539822 0.717434 -0.000000 -0.856032 -0.000009
1.853966 1.018704 1.250901 0.055540 -0.009441 0.007624
0.742615 0.523305 0.769885 0.000000 -0.998323 -0.000001
2.913073 0.589046 0.882491 -0.000001 -0.434665 0.000031
0.833050 0.590336 0.883104 0.000000 -0.414351 0.000017
1.375665 0.678354 0.667977 0.000001 0.328001 -0.000044
2.732202 0.533934 0.728470 0.000000 -0.910026 -0.000001
0.968704 0.703230 0.680334 0.000001 0.553374 -0.000023
1.844336 0.556310 0.890122 0.055537 0.007978 0.006469
1.149576 0.744719 0.827049 0.000000 0.900240 0.000007
3.003509 0.586338 0.674066 0.000000 -0.455992 -0.000059
1.624636 0.755351 0.896601 -0.055509 0.013742 -0.010240
0.742615 0.566501 0.686930 0.000000 -0.629538 -0.000019
0.388284 0.755642 0.782140 0.000000 0.999734 0.000000
1.104358 0.685929 0.670971 0.000001 0.331344 -0.000005
1.285229 0.714494 0.866466 -0.000000 0.646451 0.000009
2.822637 0.531152 0.734952 0.000001 -0.925163 -0.000003
0.833050 0.533690 0.826208 -0.000000 -0.910050 0.000007
0.335654 0.559230 0.693284 0.000001 -0.616855 -0.000002
0.290436 0.554328 0.856974 0.000000 -0.731167 0.000028
0.923486 0.569279 0.870457 0.000000 -0.611767 0.000039
0.245218 0.559107 0.693398 0.000001 -0.608743 -0.000002
1.059140 0.755591 0.771688 -0.000000 0.997163 -0.000000
0.923486 0.747640 0.820261 -0.000000 0.928238 0.000012
0.927934 0.636877 0.893899 0.000000 -0.023068 0.000022
2.551330 0.611616 0.664629 0.000000 -0.240144 -0.000061
1.963498 0.654679 0.662270 -0.000001 0.125163 -0.000030
2.234805 0.717467 0.691343 -0.000001 0.664427 -0.000017
1.796462 0.757827 0.891340 0.111533 0.002116 -0.001733
2.008715 0.730602 0.849850 0.000000 0.776418 0.000003
1.829204 0.504373 0.954854 0.055538 0.001936 0.001585
1.516008 0.532347 0.894917 -0.055509 -0.003538 -0.002711
1.673791 1.052506 0.275968 -0.055512 0.002305 0.001767
2.325241 0.531168 0.734913 0.000000 -0.928281 -0.000003
1.737408 0.618761 0.663107 0.000000 -0.172189 -0.000087
0.380872 0.712552 0.868071 0.000000 0.629647 0.000019
1.588308 0.900884 0.465695 -0.055510 0.006285 0.004794
2.520196 0.523119 0.780797 0.000000 -0.999734 0.000000
2.144369 0.558115 0.694366 -0.000000 -0.697583 -0.000008
3.122751 0.439181 1.022025 -0.013616 -0.038140 -0.010557
0.652179 0.717965 0.863419 0.000000 0.680822 0.000008
3.122751 0.839610 1.022025 -0.013617 -0.038255 0.010481
2.234805 0.529187 0.740314 0.000000 -0.944377 -0.000003
0.652179 0.540472 0.716356 0.000000 -0.856207 -0.000009
2.234805 0.562422 0.690365 0.000001 -0.664840 -0.000017
2.144369 0.748287 0.736638 0.000000 0.936534 -0.000006
1.534976 0.395098 1.071992 -0.055510 -0.006620 -0.005046
1.873062 0.529850 0.816803 0.000000 -0.944487 0.000003
1.888633 1.046901 0.272934 0.055539 -0.004343 -0.003547
2.370459 0.686392 0.884044 0.000000 0.393576 0.000004
2.506112 0.690615 0.673143 0.000000 0.434665 -0.000016
1.838008 0.812184 0.555028 0.055538 -0.014727 -0.011662
2.325241 0.716715 0.690673 -0.000001 0.590935 -0.000002
2.053933 0.746510 0.823020 -0.000000 0.919365 0.000013
0.335654 0.529601 0.739124 -0.000000 -0.944053 -0.000005
2.686984 0.595221 0.885241 0.000000 -0.371880 0.000005
1.705136 0.902018 1.080328 -0.055509 0.003059 -0.002344
1.194794 0.729385 0.703863 -0.000000 0.775290 -0.000006
1.970624 0.744350 0.649480 0.055538 -0.008969 -0.007253
1.796738 0.454825 1.018191 0.055537 0.007459 0.006056
1.737408 0.684153 0.670211 -0.000001 0.391437 -0.000018
1.059140 0.592554 0.671103 0.000001 -0.388577 -0.000018
1.832031 1.108065 1.337179 -0.055510 0.007207 -0.005486
1.511319 0.532216 0.822866 0.000000 -0.917841 0.000003
1.833033 0.643594 0.661353 0.000000 0.023068 -0.000329
2.460894 0.536086 0.831113 0.000001 -0.889321 0.000008
1.375665 0.552239 0.854675 -0.000000 -0.745180 0.000007
1.330447 0.571820 0.872317 -0.000000 -0.574521 0.000022
1.827084 1.031849 0.316876 -0.055510 0.004442 0.003398
1.511319 0.745998 0.730996 0.000000 0.918922 -0.000003
1.330447 0.620002 0.892324 0.000000 -0.172449 0.000022
3.095256 0.545012 0.891743 -0.013616 0.042994 0.010608
2.826968 0.575912 0.700342 -0.000001 -0.633640 -0.000112
1.873062 0.527244 0.746657 0.000000 -0.964927 -0.000001
3.110193 0.670741 0.674275 0.459550 0.000025 -0.000092
1.601755 0.698849 0.677598 -0.000001 0.516075 -0.000050
0.968704 0.740688 0.720370 -0.000000 0.867924 -0.000035
1.787033 1.059748 0.276872 -0.055514 0.002137 0.001639
1.931555 0.877980 1.061946 0.111531 0.006676 -0.005459
1.233340 0.755727 0.776767 0.000000 0.999734 -0.000000
0.968704 0.551189 0.701740 0.000000 -0.761924 -0.000026
1.285229 0.597994 0.668877 -0.000001 -0.350267 -0.000081
1.827844 0.745965 0.824294 0.000000 0.918922 0.000003
3.142688 0.552083 0.751120 0.455530 -0.000077 -0.000020
0.072271 0.606790 0.712125 -0.543847 -0.000020 -0.000037
1.787033 1.050638 1.285803 -0.027556 -0.008284 0.006709
2.099151 0.542147 0.713738 0.000001 -0.720341 -0.000001
1.849014 0.413546 1.063996 0.055539 0.006609 0.005376
1.194794 0.729067 0.851741 -0.000000 0.775290 0.000006
0.561743 0.534219 0.827351 -0.000000 -0.899862 0.000007
1.807868 0.312042 1.187500 -0.027552 0.009909 0.007886
0.878268 0.744719 0.728164 0.000000 0.910026 -0.000002
1.285229 0.542474 0.713249 -0.000001 -0.827570 -0.000005
2.053933 0.683610 0.669987 0.000001 0.370679 -0.000038
1.149576 0.547291 0.848687 0.000001 -0.788807 0.000012
1.963498 0.713367 0.867410 0.000001 0.629366 0.000019
2.415677 0.530093 0.737739 -0.000001 -0.933982 -0.000006
3.048727 0.525280 0.754950 -0.000001 -0.980702 -0.000012
0.923486 0.717781 0.863591 0.000000 0.682109 0.000033
0.035009 0.597765 0.787398 -0.690181 -0.000016 0.000003
2.008715 0.690351 0.882198 -0.000001 0.430023 0.000008
1.652311 0.405284 0.507204 -0.055511 -0.013239 0.009886
1.822600 0.523234 0.662014 0.111530 -0.002116 0.001733
1.516008 0.746445 0.894917 -0.055509 0.007077 -0.005388
0.652179 0.672444 0.889157 0.000000 0.284752 0.000102
1.849014 0.865246 1.063996 0.055540 -0.006609 0.005376
1.927153 0.818896 1.000554 0.055539 -0.007459 0.006056
1.615008 0.834156 0.555066 -0.055511 0.013742 0.010240
2.732202 0.679539 0.668406 0.000001 0.348142 -0.000020
2.732202 0.593326 0.670773 0.000000 -0.393134 -0.000018
2.558864 0.556487 0.878820 0.005784 -0.034985 -0.004799
1.433671 0.730037 0.881059 -0.055509 0.007077 -0.005388
1.787589 1.001543 0.352753 -0.055511 0.002472 0.001896
1.556537 0.543841 0.843979 -0.000001 -0.817751 0.000011
1.963498 0.524650 0.796835 0.000000 -0.985018 0.000003
1.375665 0.745554 0.825215 -0.000000 0.910087 0.000003
1.827844 0.631339 0.893678 0.000000 -0.080549 0.000094
1.902115 0.798098 0.577851 0.055537 -0.003918 -0.003202
1.692190 0.744701 0.827087 0.000000 0.900033 0.000001
1.375665 0.649043 0.893549 -0.000000 0.080901 0.000094
1.378630 0.523064 0.776767 0.000000 -0.999734 -0.000000
1.420883 0.745032 0.728852 0.000000 0.910020 -0.000007
1.136974 0.641327 0.661300 0.000000 0.022705 -0.000005
1.502632 0.478248 0.966618 -0.055514 -0.002211 -0.001696
1.194794 0.557484 0.694982 -0.000001 -0.679209 -0.000004
2.530574 0.755692 0.775256 0.000000 0.999734 -0.000000
1.194794 0.614807 0.663889 0.000001 -0.217246 -0.000068
0.878268 0.708397 0.683934 -0.000001 0.593185 -0.000041
0.223721 0.639396 0.661256 0.000000 0.011554 -0.005517
0.107197 0.724307 0.740115 -0.407221 0.000071 -0.000030
2.913073 0.533168 0.730151 0.000000 -0.909940 -0.000003
1.214067 0.523080 0.779118 0.000000 -0.999734 0.000000
1.895095 1.244651 1.519825 -0.027554 -0.008122 0.006589
0.923486 0.683298 0.669862 0.000000 0.371880 -0.000009
2.913073 0.677640 0.887484 0.000000 0.328761 0.000044
1.764368 1.139685 0.170662 -0.055509 0.006537 0.004983
1.013922 0.530667 0.736205 0.000000 -0.936588 -0.000011
2.008715 0.523460 0.767876 0.000001 -0.979826 -0.000000
2.370459 0.697179 0.676627 0.000001 0.496604 -0.000053
0.878268 0.611371 0.664689 -0.000002 -0.221134 -0.000017
3.003509 0.726162 0.700100 0.000000 0.746738 -0.000027
2.460894 0.736085 0.842313 0.000000 0.831074 0.000010
1.879279 0.482140 0.953404 0.111529 -0.000964 -0.000790
1.918280 0.631926 0.661501 0.000000 -0.057660 -0.000263
0.245218 0.744116 0.828297 -0.000000 0.900247 0.000029
0.561743 0.530667 0.736205 -0.000000 -0.936085 -0.000003
2.053933 0.599410 0.668347 -0.000000 -0.350501 -0.000020
0.833050 0.639816 0.661261 0.000000 0.011355 -0.000011
1.946962 1.092335 0.228856 0.111532 0.001975 0.001617
1.850653 1.134699 0.167297 -0.027554 -0.012020 -0.009318
3.003509 0.752293 0.749500 -0.000001 0.970530 -0.000008
1.538986 0.435870 0.525611 -0.027555 0.026625 -0.016200
1.762650 0.510625 0.604457 -0.027555 0.011370 -0.008889
2.777420 0.597876 0.886292 -0.000001 -0.343470 0.000010
2.370459 0.753997 0.757551 -0.000001 0.984794 -0.000005
1.556537 0.734178 0.845079 0.000000 0.818396 0.000021
1.823151 0.364946 0.429618 0.055538 0.006326 -0.005149
0.200000 0.523076 0.780294 -0.069310 -0.000155 0.000002
3.126440 0.709832 0.707171 0.457505 0.000257 -0.000233
1.511319 0.746180 0.823792 0.000000 0.919235 0.000007
0.079004 0.688917 0.717971 -0.517467 0.000031 -0.000036
0.290436 0.751680 0.747143 0.000000 0.964914 -0.000008
1.782626 0.532166 0.822750 0.000000 -0.919393 0.000006
1.835807 0.804695 0.991235 0.055539 -0.007364 0.005980
1.692190 0.603060 0.888132 -0.000001 -0.306583 0.000094
0.697397 0.718057 0.691880 0.000000 0.678741 -0.000004
0.561743 0.728473 0.852449 0.000000 0.761575 0.000013
1.560481 0.507920 0.922679 -0.055508 -0.005308 -0.004056
0.742615 0.676051 0.888029 -0.000000 0.306618 0.000047
2.144369 0.721188 0.694865 0.000000 0.698809 -0.000016
0.787833 0.754549 0.794221 -0.000001 0.983931 0.000001
0.742615 0.755024 0.764699 0.000001 0.994207 -0.000003
2.415677 0.554758 0.857435 0.000000 -0.726796 0.000004
0.878268 0.734637 0.844426 -0.000001 0.817852 0.000021
2.867855 0.685080 0.670608 -0.000001 0.393324 -0.000142
0.742615 0.723195 0.858317 -0.000001 0.640441 0.000002
1.905692 0.968342 1.184879 0.055539 -0.005570 0.004540
1.963498 0.617687 0.891911 0.000001 -0.194288 0.000077
1.873062 0.560704 0.691909 -0.000000 -0.682198 -0.000033
0.426089 0.726190 0.700131 -0.000000 0.746749 -0.000054
1.695467 1.040029 1.269351 -0.027554 -0.008934 0.007188
0.085870 0.708832 0.820600 -0.490589 0.000049 0.000029
0.380872 0.743549 0.829469 0.000000 0.890128 0.000002
1.918280 0.589122 0.882527 0.000000 -0.434665 0.000016
1.873062 0.662546 0.891624 0.000001 0.192394 0.000019
2.325241 0.578433 0.678510 -0.000001 -0.515083 -0.000025
1.670149 0.470193 0.593397 -0.055511 -0.013742 0.010240
0.968704 0.553412 0.855992 0.000000 -0.746900 0.000007
1.240011 0.686161 0.671070 0.000001 0.390963 -0.000018
1.013922 0.576302 0.875359 0.000000 -0.533006 0.000006
2.415677 0.744573 0.727862 0.000001 0.899598 -0.000007
1.905692 0.983954 0.351276 0.055537 -0.005571 -0.004540
2.940761 0.809865 0.568746 0.005782 0.056149 0.004846
2.940761 0.468927 0.568746 0.005782 -0.056148 0.004846
1.970624 1.025367 0.306418 0.055539 -0.009630 -0.007773
1.970624 0.456382 1.001028 0.055537 0.014916 0.011801
1.970624 0.791186 0.962910 0.055537 -0.007836 0.006356
1.970624 0.159752 0.192064 0.055538 0.014727 -0.011662
1.970624 0.947307 0.401713 0.055538 -0.011895 -0.009529
1.970624 0.884859 0.477949 0.055539 -0.013405 -0.010675
1.970624 0.237812 0.287359 0.055537 0.009630 -0.007773
1.970624 0.503218 0.611362 0.055537 0.001959 -0.001604
1.970624 0.931695 1.134441 0.055537 -0.005948 0.004845
1.718514 0.442390 1.029556 -0.027556 0.006579 0.005412
1.375665 0.698054 0.878085 0.000000 0.496540 0.000027
3.003509 0.535817 0.724623 0.000001 -0.889634 -0.000016
0.380872 0.548508 0.850241 -0.000000 -0.775290 0.000006
3.122460 0.718352 0.873422 -0.013617 -0.018142 0.008889
1.194794 0.574410 0.874109 -0.000000 -0.555522 0.000023
2.460894 0.590030 0.672249 0.000000 -0.414552 -0.000008
2.296331 0.641747 0.661310 0.000000 0.023060 -0.000022
1.920549 0.763899 0.920729 0.111531 0.003973 -0.003252
0.426089 0.607758 0.889571 0.000000 -0.262590 0.000028
1.910094 0.264246 0.314316 0.055539 0.010385 -0.008362
1.846812 0.849950 0.509697 0.055538 -0.007081 -0.005754
1.823151 0.364946 1.125595 0.055538 0.006326 0.005149
1.918280 0.735852 0.842662 -0.000000 0.816085 0.000001
2.801931 0.749049 0.645153 0.005782 -0.123564 -0.004671
1.901290 0.316427 0.395610 0.111530 -0.002727 0.002233
1.409932 0.716151 0.690077 -0.000001 -0.633635 0.000112
1.104358 0.695422 0.879573 -0.000000 0.476215 0.000007
0.561743 0.684230 0.670245 0.000000 0.393063 -0.000004
1.932105 0.106285 0.133614 0.111531 -0.005642 0.004616
1.556537 0.626656 0.661961 0.000000 -0.103789 -0.000291
1.511319 0.657173 0.662629 0.000000 0.149552 -0.000100
0.652179 0.574619 0.680964 -0.000001 -0.555157 -0.000046
2.802632 0.484840 0.966286 0.005785 -0.061076 -0.004855
2.957757 0.839545 1.021946 0.005780 0.089497 -0.004880
2.647506 0.748358 0.644587 0.005784 0.104079 0.004898
2.713989 0.510894 0.934480 0.005782 -0.043717 -0.004824
2.780471 0.491354 0.596879 0.005784 -0.104093 0.004897
2.625346 0.536947 0.902674 0.005782 -0.104114 -0.004896
2.979918 0.432733 1.029897 0.005784 -0.067273 -0.004861
3.002079 0.852572 0.517365 0.005783 0.133036 0.004930
2.802632 0.793951 0.966286 0.005785 0.061076 -0.004855
3.068561 0.406680 1.061703 0.005782 -0.089462 -0.004882
2.641766 0.674772 0.888441 0.000000 0.306816 0.000094
2.280023 0.549248 0.851154 0.000000 -0.776732 0.000006
1.728926 0.874435 1.042221 -0.055510 0.006453 -0.004920
1.285229 0.547163 0.848521 0.000000 -0.789992 0.000006
1.870191 0.032892 0.034974 -0.027554 0.016241 -0.011835
1.904041 1.123588 0.198304 0.111531 0.003573 0.002926
0.471307 0.531496 0.734095 0.000000 -0.928281 -0.000006
0.107197 0.550120 0.752205 -0.407222 -0.000077 -0.000020
1.363653 0.538903 0.654926 -0.055512 -0.007076 0.005388
1.784326 1.208252 0.083156 -0.027554 -0.020137 -0.013753
1.495865 0.887089 1.079986 -0.027554 -0.025653 0.015885
1.519903 0.364939 0.442554 -0.055510 -0.012569 0.009410
1.592018 0.284649 1.210677 -0.055511 -0.010558 -0.007962
1.375672 0.753271 0.638590 -0.027555 -0.013715 -0.010385
1.748268 0.110685 1.423049 -0.055511 -0.011731 -0.008811
1.640095 0.231121 0.279191 -0.055510 -0.009218 0.006980
1.483845 0.405085 0.491563 -0.055510 -0.003310 0.002536
3.132474 0.545620 0.662840 -0.013617 -0.018086 0.008947
2.234805 0.730602 0.849850 0.000000 0.776575 0.000012
2.234805 0.750488 0.743029 -0.000002 0.929952 -0.000003
1.746885 0.759088 0.664906 -0.055511 0.003911 0.002994
1.449144 0.512711 0.628609 -0.055507 -0.005308 0.004056
1.059140 0.551903 0.854298 0.000000 -0.746743 0.000003
2.731872 0.735907 0.894251 0.005782 -0.088804 0.004638
1.735927 0.183637 1.336260 -0.027552 0.015268 0.011296
1.466101 0.534073 0.728164 0.000000 -0.910026 -0.000003
3.047916 0.745066 0.904553 -0.013616 -0.042994 0.010608
0.606961 0.741903 0.722577 0.000001 0.876417 -0.000004
0.200000 0.751305 0.745766 -0.077066 0.000269 -0.000073
3.139199 0.763730 0.625821 -0.013617 -0.019146 -0.009057
3.119461 0.424005 0.514661 -0.013617 -0.038138 0.010557
1.792060 0.535373 0.872971 0.111532 -0.004231 -0.003464
3.093945 0.537749 0.834223 0.457683 -0.000084 0.000045
1.518105 0.446730 1.015870 -0.027554 0.026626 0.016200
1.963498 0.700215 0.678423 0.000000 0.516634 -0.000025
0.426089 0.597719 0.668980 0.000000 -0.350501 -0.000010
1.918280 0.584034 0.675279 -0.000000 -0.476488 -0.000028
1.784326 0.070540 0.083156 -0.055511 -0.010391 0.007840
2.913073 0.537269 0.833337 -0.000001 -0.878542 0.000008
1.620557 0.936470 1.143699 -0.027557 -0.005604 0.004644
3.046503 0.755739 0.778278 0.000000 0.999933 0.000000
2.506112 0.607394 0.889468 -0.000002 -0.278556 0.000026
0.787833 0.526117 0.751050 0.000002 -0.901915 -0.000001
2.596548 0.732794 0.708233 -0.000001 0.804708 -0.000022
1.922750 0.499883 0.939443 0.111529 -0.001928 -0.001579
1.779129 0.788913 0.926219 -0.055509 0.005866 -0.004478
1.827844 0.755735 0.777103 0.000000 0.999742 -0.000000
1.918898 0.196345 0.245898 0.111531 -0.001975 0.001617
1.640291 0.429955 1.040921 -0.027556 0.006579 0.005412
0.471307 0.538000 0.834661 0.000000 -0.867894 0.000004
1.737408 0.750659 0.743592 -0.000002 0.924533 -0.000002
1.597878 0.852715 1.025890 -0.055511 0.013574 -0.010122
1.692190 0.545350 0.846101 0.000000 -0.804933 0.000022
1.662167 0.333160 0.398904 -0.027556 0.005442 -0.004515
1.919999 0.035390 0.035801 0.055538 0.008308 -0.006731
1.435768 0.458612 0.556908 -0.055511 -0.007076 0.005388
1.883681 0.452120 0.990832 0.111531 -0.003714 -0.003041
1.726725 0.867231 0.522177 -0.055510 0.003227 0.002472
1.754324 0.459843 0.544765 -0.027554 0.026301 -0.016097
1.827844 0.736505 0.713528 0.000000 0.831448 -0.000020
0.561743 0.681112 0.886218 0.000001 0.350149 0.000041
3.093945 0.607555 0.889516 0.457686 -0.000027 0.000091
1.420883 0.580087 0.877701 0.000001 -0.516076 0.000050
1.844644 0.142424 0.182313 -0.055512 -0.006536 0.004983
1.865467 0.100226 1.425974 -0.055512 -0.005531 -0.004225
1.646972 0.575877 0.680124 -0.000001 -0.555553 -0.000091
2.596548 0.539453 0.837167 -0.000000 -0.852884 0.000002
1.750148 0.162766 0.193666 -0.027553 0.013969 -0.010538
2.822637 0.749329 0.739521 0.000000 0.944323 -0.000011
0.833050 0.686851 0.671378 -0.000001 0.410324 -0.000008
1.149576 0.750540 0.743189 0.000000 0.958599 -0.000005
2.551330 0.746890 0.733081 0.000000 0.928281 -0.000003
2.234805 0.570699 0.871503 0.000000 -0.592993 0.000010
1.741539 0.376053 0.477270 -0.055510 -0.006118 0.004668
1.842410 0.427173 1.013978 0.111530 -0.003479 -0.002849
2.731872 0.735907 0.660962 0.005782 -0.044618 -0.004586
2.706135 0.543921 0.895100 0.005782 -0.043716 -0.004824
2.877005 0.727494 0.887856 0.005785 0.069737 -0.004864
2.596548 0.540517 0.716285 0.000002 -0.761548 -0.000003
1.809944 0.389021 0.500411 0.111531 -0.006582 0.005382
1.013922 0.727984 0.702188 -0.000000 0.761831 -0.000026
0.471307 0.701568 0.875944 0.000000 0.536222 0.000024
0.662557 0.523127 0.774080 0.000000 -0.999742 -0.000000
1.548096 0.900678 1.092921 -0.055509 0.003143 -0.002408
1.782626 0.695311 0.879633 0.000001 0.475222 0.000014
3.048727 0.678275 0.887263 -0.000001 0.328617 0.000087
2.904180 0.574185 0.701757 -0.000000 -0.633679 -0.000150
0.742615 0.536315 0.723652 -0.000001 -0.889249 -0.000008
1.739338 0.383258 1.068758 -0.055510 -0.003059 -0.002344
1.782626 0.530755 0.735969 -0.000001 -0.919554 -0.000003
1.801140 0.417838 0.537149 0.111531 -0.003479 0.002849
1.796738 0.846546 0.555518 -0.055509 0.003310 0.002536
0.652179 0.688609 0.672179 0.000001 0.397941 -0.000004
1.458009 0.769678 0.624732 -0.055505 0.003539 0.002711
1.691708 0.281205 0.349153 -0.055510 -0.005112 0.003907
0.697397 0.552574 0.700162 -0.000001 -0.746012 -0.000014
0.742615 0.688380 0.672075 -0.000000 0.414351 -0.000017
2.958291 0.525989 0.751624 -0.000000 -0.976015 -0.000014
0.245218 0.680837 0.668892 -0.000001 0.350339 -0.000081
1.711442 0.903487 0.446635 -0.027555 -0.011532 -0.008997
1.787589 1.001543 1.202460 -0.055512 0.004944 -0.003780
0.029378 0.675462 0.769124 -0.712362 0.000015 -0.000003
1.749922 0.803969 0.562666 -0.027554 -0.006579 -0.005412
1.873062 0.668643 0.664992 0.000000 0.262607 -0.000056
2.596548 0.678235 0.667936 -0.000000 0.326687 -0.000011
2.278540 0.755630 0.772569 0.000000 0.999734 -0.000000
0.652179 0.746328 0.823445 -0.000001 0.919001 0.000013
1.970624 0.347097 0.420772 0.055538 0.005948 -0.004845
1.466101 0.594870 0.885101 0.000000 -0.393063 0.000009
1.723446 0.758079 0.891134 -0.055510 0.003911 -0.002995
3.048727 0.599843 0.668185 -0.000000 -0.350968 -0.000005
1.722399 0.288147 1.212106 -0.027556 0.004954 0.004124
1.285229 0.736878 0.714087 0.000000 0.844187 -0.000002
1.662647 0.530438 0.671198 -0.055509 -0.013742 0.010240
2.777420 0.691632 0.673645 0.000000 0.456048 -0.000030
1.601755 0.530918 0.819676 0.000001 -0.780128 0.000001
0.380872 0.546751 0.707224 0.000000 -0.790816 -0.000006
1.809944 0.389021 1.054802 0.111530 -0.006582 -0.005382
2.596548 0.739426 0.837024 0.000000 0.852884 0.000002
1.375665 0.737148 0.714512 -0.000000 0.844053 -0.000010
2.506112 0.720227 0.861288 0.000000 0.698718 0.000008
1.601755 0.610841 0.890393 -0.000001 -0.239954 0.000123
2.099151 0.680168 0.886571 -0.000000 0.350501 0.000005
2.415677 0.599174 0.886777 0.000001 -0.350174 0.000081
1.411730 0.485375 0.589581 -0.055510 -0.010614 0.008003
3.034269 0.794988 0.965437 -0.013617 -0.028706 0.010046
2.189587 0.532959 0.824603 0.000000 -0.919393 0.000006
2.506112 0.534658 0.726954 0.000000 -0.900446 -0.000002
3.067960 0.833624 0.541704 -0.013618 -0.019143 -0.009058
2.144369 0.531808 0.733315 0.000000 -0.928281 -0.000006
3.068561 0.406680 0.493510 0.005783 -0.089449 0.004882
1.466101 0.596274 0.669550 -0.000000 -0.371884 -0.000019
2.144369 0.679381 0.668347 0.000000 0.350618 -0.000020
3.048727 0.737599 0.839992 0.000000 0.844083 0.000039
1.892485 0.392079 0.489525 0.111531 -0.003338 0.002733
1.601755 0.667991 0.890383 -0.000001 0.239922 0.000123
1.569495 0.769595 0.611014 -0.027554 -0.026626 -0.016200
0.335654 0.598860 0.668553 0.000001 -0.349183 -0.000041
1.646972 0.680168 0.668642 0.000000 0.350501 -0.000005
2.144369 0.599410 0.886866 0.000000 -0.350190 0.000020
1.194794 0.679775 0.886719 -0.000000 0.350557 0.000041
0.833050 0.716840 0.864429 -0.000000 0.664793 0.000017
2.822637 0.540039 0.838138 0.000001 -0.855567 0.000009
1.240011 0.529990 0.817199 0.000000 -0.936562 0.000001
2.867855 0.747015 0.821820 -0.000001 0.927468 0.000012
2.415677 0.554787 0.697748 -0.000000 -0.731166 -0.000028
1.595824 0.755654 0.781637 0.000000 0.999734 0.000000
0.245218 0.598702 0.668612 -0.000001 -0.350443 -0.000162
0.380872 0.589802 0.882856 0.000001 -0.416698 0.000004
0.335654 0.702985 0.680171 0.000002 0.399824 -0.000004
2.777420 0.538917 0.718949 0.000000 -0.867926 -0.000017
1.816847 0.071172 1.468265 -0.055511 -0.005196 -0.003971
0.516525 0.601746 0.667522 -0.000001 -0.328480 -0.000044
0.335654 0.738428 0.838678 -0.000001 0.842656 0.000002
1.818748 0.918587 0.463673 -0.055510 0.011564 0.008690
3.126440 0.619963 0.679909 0.457505 -0.000051 -0.000343
3.126440 0.737093 0.797040 0.457505 0.000337 0.000084
0.516525 0.599292 0.886822 0.000000 -0.350402 0.000081
2.626940 0.755681 0.774752 0.000000 0.999734 -0.000000
0.516525 0.742802 0.830926 0.000001 0.884071 0.000004
1.905692 0.294838 1.203938 0.055538 0.005571 0.004540
2.912985 0.797652 0.969898 0.005782 -0.057313 0.004606
0.831568 0.523113 0.780545 0.000000 -0.999742 0.000000
0.290436 0.680089 0.886601 0.000001 0.350158 0.000081
1.420883 0.741263 0.833817 0.000000 0.878760 0.000008
2.908357 0.542095 0.893604 0.005783 0.121089 0.004669
0.380872 0.747949 0.735733 0.000000 0.936562 -0.000001
1.646972 0.740375 0.835390 0.000000 0.867913 0.000035
3.093945 0.741043 0.720990 0.459552 0.000082 -0.000047
1.737408 0.594175 0.884803 -0.000000 -0.393324 0.000071
0.516525 0.745467 0.729807 0.000000 0.909974 -0.000007
2.867855 0.580920 0.878190 0.000000 -0.496635 0.000053
1.877628 0.993839 1.218469 0.055539 -0.005098 0.004159
1.466101 0.688838 0.882930 -0.000000 0.434967 0.000008
1.285229 0.746626 0.822750 0.000001 0.919210 0.000013
2.144369 0.596819 0.669331 0.000001 -0.371356 -0.000038
2.099151 0.737464 0.715009 -0.000000 0.844053 -0.000005
1.861945 0.457360 0.545841 0.055538 0.003730 -0.003048
0.561743 0.724693 0.698485 -0.000000 0.729791 -0.000007
0.787833 0.739079 0.837599 0.000000 0.855992 0.000005
2.732202 0.529739 0.816486 0.000000 -0.944487 0.000003
2.777420 0.746097 0.823985 0.000000 0.919393 0.000013
2.926648 0.490355 0.960837 0.005786 -0.028113 -0.004765
1.753224 0.463588 1.005973 -0.027555 0.013156 0.010041
2.280023 0.702632 0.875269 0.000000 0.536267 0.000024
0.339360 0.637548 0.893936 0.000000 -0.011355 0.000088
2.325241 0.747593 0.734835 0.000002 0.835648 -0.000002
2.008715 0.745833 0.730610 0.000000 0.919328 -0.000003
0.144750 0.711372 0.856560 -0.260774 0.000101 0.000106
2.551330 0.743319 0.829917 -0.000001 0.879418 0.000002
0.606961 0.599568 0.668288 0.000000 -0.350300 -0.000041
2.779770 0.536256 0.653105 0.005782 0.106271 -0.004653
1.743970 0.491392 0.927459 -0.055510 -0.005866 -0.004478
1.935957 0.331762 1.147022 0.111528 -0.002962 -0.002426
2.189587 0.745485 0.825367 -0.000000 0.909940 0.000003
1.330447 0.685813 0.670922 -0.000000 0.393274 -0.000036
2.596548 0.597209 0.669175 -0.000001 -0.371732 -0.000038
1.963498 0.560366 0.692224 0.000000 -0.681164 -0.000008
2.053933 0.560305 0.692281 -0.000000 -0.676762 -0.000004
1.796058 0.933445 0.407599 -0.027556 -0.021109 -0.014176
1.927153 0.444283 1.019613 0.055537 0.007459 0.006056
2.686984 0.744858 0.728470 0.000001 0.909468 -0.000007
1.737408 0.529712 0.816406 0.000001 -0.943851 0.000011
2.008715 0.592708 0.671037 0.000001 -0.393072 -0.000036
2.325241 0.743549 0.829469 0.000000 0.889948 0.000016
2.913073 0.602900 0.667133 -0.000001 -0.305510 -0.000024
1.782626 0.612024 0.664528 -0.000000 -0.240124 -0.000123
1.692190 0.533968 0.728393 0.000000 -0.910020 -0.000007
2.984332 0.505491 0.943341 0.005786 -0.044932 -0.004830
0.968704 0.596079 0.669628 0.000001 -0.371965 -0.000076
3.060601 0.731935 0.666477 -0.013616 -0.042994 -0.010608
2.913073 0.745763 0.730457 -0.000000 0.907806 -0.000002
2.460894 0.746953 0.733237 0.000000 0.928281 -0.000003
0.456482 0.755728 0.779202 0.000000 0.999936 0.000000
2.551330 0.669292 0.890045 0.000000 0.262607 0.000056
1.104358 0.736412 0.841824 0.000000 0.831260 0.000005
0.426089 0.686469 0.671204 0.000000 0.414552 -0.000004
2.415677 0.717405 0.691287 0.000000 0.665310 -0.000009
2.415677 0.681427 0.886100 0.000000 0.350112 0.000010
2.686984 0.588555 0.672960 -0.000000 -0.435368 -0.000126
0.923486 0.749053 0.738728 0.000000 0.944190 -0.000001
1.646972 0.748832 0.738093 0.000000 0.944419 -0.000021
2.913073 0.748832 0.817120 0.000000 0.944413 0.000011
2.822637 0.602183 0.887843 -0.000000 -0.328080 0.000022
1.580097 0.397447 0.478423 -0.027556 0.006254 -0.005158
2.053933 0.602421 0.887926 0.000000 -0.328548 0.000011
2.506112 0.534146 0.827200 0.000000 -0.900240 0.000004
1.963498 0.540743 0.839283 0.000001 -0.843025 0.000010
0.290436 0.752152 0.806283 -0.000000 0.970712 0.000004
2.189587 0.680168 0.886571 -0.000000 0.350501 0.000005
0.290436 0.731475 0.706493 -0.000000 0.790987 -0.000024
2.415677 0.747874 0.819676 0.000000 0.928281 0.000001
1.646972 0.672525 0.889133 0.000001 0.284743 0.000205
0.606961 0.532083 0.732656 -0.000000 -0.917266 -0.000002
1.420883 0.592863 0.670971 0.000000 -0.393491 -0.000018
0.561743 0.555016 0.697502 -0.000000 -0.731476 -0.000004
3.003509 0.673733 0.888774 0.000001 0.280876 0.000013
1.194794 0.529850 0.738410 0.000000 -0.944468 -0.000005
2.008715 0.559783 0.862445 -0.000002 -0.667331 0.000008
2.008715 0.644769 0.893833 0.000000 0.023068 0.000329
1.556537 0.595884 0.885507 -0.000000 -0.371884 0.000019
1.285229 0.674772 0.888441 -0.000000 0.306391 0.000024
2.325241 0.677680 0.667743 0.000001 0.324547 -0.000022
1.892210 0.543246 0.881097 0.111531 -0.003973 -0.003252
1.059140 0.675612 0.667042 -0.000001 0.306587 -0.000094
1.880379 0.158490 0.206507 0.111531 -0.003573 0.002926
3.001478 0.814084 0.565558 0.005784 -0.068672 -0.004620
1.059140 0.744445 0.727597 -0.000002 0.864503 -0.000004
1.873062 0.736482 0.841720 -0.000000 0.831410 0.000020
1.420883 0.546396 0.847521 0.000000 -0.804913 0.000003
0.923486 0.523541 0.766871 0.000000 -0.996777 -0.000000
1.782626 0.752384 0.805346 0.000000 0.970807 0.000001
3.002079 0.426220 0.517365 0.005783 -0.133036 0.004930
1.640291 0.848837 1.040921 -0.027554 -0.026302 0.016097
3.048727 0.681661 0.669206 0.000001 0.371356 -0.000038
1.860019 0.924864 1.106513 0.111533 0.003103 -0.002541
1.938158 0.293334 0.360889 0.111531 -0.002774 0.002272
2.234805 0.601389 0.667646 0.000000 -0.328677 -0.000087
0.968704 0.530078 0.817435 0.000001 -0.933462 0.000006
2.958291 0.658542 0.662846 0.000000 0.172449 -0.000043
0.035009 0.612074 0.744704 -0.690180 -0.000012 -0.000014
1.924951 0.484873 0.597056 0.111532 -0.001951 0.001598
3.012708 0.452718 1.006407 0.005784 -0.067273 -0.004861
3.034869 0.832587 1.014358 0.005785 0.089426 -0.004883
1.556537 0.683298 0.885351 0.000000 0.372033 0.000076
2.822637 0.683921 0.885101 0.000000 0.371880 0.000009
0.878268 0.536709 0.722910 0.000000 -0.879181 -0.000004
1.883681 0.826672 0.990832 0.111531 0.003714 -0.003041
0.878268 0.527822 0.810575 -0.000002 -0.936962 0.000002
1.458608 0.486375 0.966451 -0.027554 0.006859 0.005629
3.089059 0.800974 0.581260 -0.013616 -0.028709 -0.010045
0.290436 0.590565 0.883208 0.000000 -0.414485 0.000033
1.586625 0.516444 0.646025 -0.055513 -0.005307 0.004055
1.692190 0.601786 0.667508 -0.000002 -0.328261 -0.000087
1.648998 0.296077 0.364628 -0.055509 -0.005280 0.004034
1.938158 0.993264 1.203854 0.111532 0.002539 -0.002079
1.970624 0.112916 1.420326 0.055538 0.013217 0.010533
1.670149 0.486580 0.975239 -0.027555 0.026625 0.016200
2.370459 0.601151 0.667729 0.000000 -0.328548 -0.000011
2.686984 0.746642 0.822711 0.000000 0.919512 0.000002
3.090421 0.858789 0.509171 -0.013616 0.038141 0.010557
1.149576 0.671599 0.889408 -0.000000 0.284579 0.000026
1.918280 0.683376 0.885319 0.000001 0.371562 0.000038
1.982030 0.755720 0.778782 0.000000 0.999734 0.000000
1.633628 1.005413 0.333654 -0.055512 0.002472 0.001896
1.931555 0.901398 0.464678 0.111531 0.003103 0.002541
1.875879 1.199665 1.452512 -0.055513 0.005196 -0.003971
1.929354 0.847357 0.531040 0.111531 0.003479 0.002849
1.716652 0.639564 0.893953 -0.000000 0.022705 0.000005
2.952479 0.541898 0.661770 0.005783 0.121099 -0.004669
2.867855 0.674772 0.888441 0.000001 0.306820 0.000189
1.806767 0.963005 0.372189 -0.027554 -0.019812 -0.013607
1.782626 0.700359 0.678510 0.000001 0.515083 -0.000025
2.777420 0.677799 0.887429 -0.000000 0.328644 0.000044
2.958291 0.601905 0.887746 -0.000001 -0.324547 0.000022
1.240011 0.596663 0.885819 0.000000 -0.371880 0.000038
1.556537 0.584477 0.675039 -0.000001 -0.476353 -0.000056
2.901204 0.747223 0.643658 0.005782 0.118654 0.004912
1.330447 0.595026 0.670050 0.000000 -0.371880 -0.000019
1.783149 0.896395 1.103253 -0.027556 -0.005604 0.004644
1.970624 0.440770 0.535126 0.055538 0.007081 -0.005754
1.733069 0.942684 0.399363 -0.027554 -0.005280 -0.004385
3.003509 0.628660 0.661752 0.000000 -0.103750 -0.000583
1.783682 0.189680 1.331153 -0.027555 0.029219 0.016964
1.521856 0.866710 1.051064 -0.055510 0.006788 -0.005172
1.543941 0.338176 1.145332 -0.055511 -0.011899 -0.008931
1.470549 0.639900 0.661267 0.000010 0.001238 -0.000401
0.606961 0.594060 0.884754 -0.000001 -0.393174 0.000071
1.746885 0.519704 0.890307 -0.055509 -0.003911 -0.002995
0.380872 0.672686 0.666128 -0.000001 0.284114 -0.000051
0.426089 0.524500 0.759290 0.000001 -0.988291 -0.000005
1.750839 0.238544 1.256241 -0.055507 -0.002305 -0.001768
1.731969 0.938939 1.151375 -0.027552 -0.005280 0.004385
3.158936 0.659789 0.741536 1.000000 0.000000 0.000000
0.606961 0.532612 0.823792 0.000001 -0.919001 0.000013
1.839994 0.211179 1.283751 -0.055508 -0.008213 -0.006236
1.420883 0.548190 0.705364 0.000000 -0.790926 -0.000012
1.285229 0.525550 0.753591 0.000000 -0.980839 -0.000002
0.516525 0.681387 0.669098 0.000000 0.340570 -0.000005
1.422850 0.510626 0.931720 -0.055511 -0.005307 -0.004055
1.422850 0.768166 0.931720 -0.055508 0.010615 -0.008003
1.488357 0.466552 0.564053 -0.027554 0.008573 -0.006923
1.832031 0.170727 0.218035 -0.055510 -0.007207 0.005486
1.800104 1.117473 1.365390 -0.027552 -0.013320 0.010143
1.799360 0.318214 0.407197 -0.055511 -0.002724 0.002088
2.864136 0.730084 0.669479 0.005782 -0.140676 -0.004690
2.683974 0.729278 0.668819 0.005782 -0.140679 -0.004690
3.048727 0.594909 0.885116 0.000000 -0.371880 0.000005
0.092862 0.581723 0.840870 -0.463240 -0.000044 0.000046
1.708437 0.365967 1.094105 -0.055509 -0.005950 -0.004541
2.846953 0.471814 0.982188 0.005781 -0.069791 -0.004860
2.822637 0.603460 0.666952 0.000001 -0.306774 -0.000047
0.833050 0.554729 0.697809 -0.000000 -0.729791 -0.000007
0.072271 0.646145 0.850445 -0.543847 0.000005 0.000044
0.923486 0.679539 0.886807 0.000000 0.350501 0.000010
2.926841 0.740496 0.903779 0.005780 0.118695 -0.004910
2.970068 0.536837 0.905905 0.005785 -0.028119 -0.004764
1.739338 0.879743 0.473520 -0.027554 -0.011857 -0.009212
1.563120 0.361387 0.441872 -0.055509 -0.006285 0.004794
0.137072 0.667995 0.677092 -0.290686 0.000039 -0.000125
1.824802 0.508224 0.911913 0.111528 -0.003973 -0.003252
1.616204 0.880249 1.060087 -0.055510 0.006620 -0.005046
1.519903 0.364939 1.112659 -0.055510 -0.012569 -0.009411
0.029378 0.634277 0.814301 -0.712366 -0.000002 0.000013
2.715894 0.755730 0.776179 0.000000 0.999936 -0.000000
2.144369 0.726218 0.855051 -0.000001 0.734133 0.000007
1.729041 0.793109 0.978814 -0.027555 -0.026625 0.016200
1.711911 0.447068 0.567083 -0.055510 -0.006788 0.005172
1.868823 0.969292 1.162310 0.111529 0.002727 -0.002233
1.059140 0.529905 0.816961 0.000000 -0.942916 0.000003
2.827318 0.726713 0.881852 0.005782 -0.123564 0.004671
2.167349 0.637549 0.893915 0.000000 -0.023068 0.000011
1.520955 0.642586 0.893884 0.000000 0.023068 0.000329
0.160305 0.550990 0.710846 -0.200226 -0.000165 -0.000119
1.896887 0.932345 0.433038 0.111530 0.005830 0.004769
2.099151 0.751856 0.807421 0.000000 0.964911 0.000004
1.656713 0.887916 0.488835 -0.055510 0.012569 0.009410
1.635889 0.433074 0.541909 -0.055510 -0.003394 0.002600
1.798545 1.076054 0.238866 -0.027551 -0.015269 -0.011296
1.655762 0.246359 1.254740 -0.055510 -0.002305 -0.001767
0.516525 0.676371 0.887926 0.000000 0.306738 0.000047
1.573246 0.811030 0.581381 -0.055509 0.013742 0.010240
1.470028 0.778535 0.950525 -0.027554 -0.006859 0.005629
1.853416 0.880226 0.473316 0.055538 -0.006703 -0.005452
1.685413 0.415370 1.031846 -0.055507 -0.003310 -0.002537
0.426089 0.751426 0.809002 0.000000 0.964927 0.000001
2.370459 0.721668 0.859879 0.000000 0.715046 0.000007
0.787833 0.578289 0.678596 -0.000001 -0.510762 -0.000013
2.389732 0.641915 0.661314 0.000000 0.023068 -0.000011
2.861260 0.781385 0.605208 0.005782 -0.071209 -0.004621
0.787833 0.660858 0.663253 0.000000 0.195161 -0.000019
1.499627 0.797199 0.592679 -0.055504 0.002212 0.001696
1.576240 0.931852 1.136347 -0.027553 -0.005767 0.004774
1.576997 0.832959 0.535768 -0.027555 -0.026625 -0.016200
1.751951 0.354954 1.104480 -0.055511 -0.002891 -0.002216
1.567980 0.967380 0.377209 -0.027555 -0.021759 -0.014446
3.040848 0.516229 0.930081 -0.013617 -0.038138 -0.010557
2.144369 0.529132 0.814740 -0.000002 -0.922252 0.000003
2.641766 0.580738 0.878085 0.000000 -0.496215 0.000007
3.085770 0.463530 0.562006 -0.013615 -0.038143 0.010556
1.474839 0.540551 0.887988 -0.055510 -0.005308 -0.004056
0.290436 0.531402 0.820885 0.000000 -0.928250 0.000012
1.932105 0.126898 1.406637 0.055538 0.013217 0.010533
1.300055 0.641411 0.661302 0.000000 0.023068 -0.000329
1.942560 1.038897 1.260341 0.111534 0.002398 -0.001964
0.107197 0.732116 0.781893 -0.407274 0.000078 0.000002
3.079191 0.433178 1.030261 -0.013616 -0.019088 -0.009117
1.474839 0.738241 0.667225 -0.055513 0.005307 0.004055
2.686984 0.528909 0.741151 -0.000001 -0.951177 -0.000005
1.556116 0.822100 1.005712 -0.027554 -0.026626 0.016200
1.873062 0.701816 0.875787 0.000001 0.527189 0.000006
2.969410 0.755721 0.775339 0.000000 0.999927 -0.000000
1.375665 0.530460 0.818457 0.000000 -0.936580 0.000006
0.137072 0.536671 0.796809 -0.290686 -0.000126 0.000021
1.384560 0.636037 0.661333 0.000000 -0.023068 -0.000329
1.886613 0.001815 1.552252 0.000001 -0.633680 0.000181
1.886613 1.276976 1.552252 -0.055510 0.014077 -0.010475
1.886613 1.276976 0.002961 -0.055510 0.014077 0.010475
1.886613 0.001815 0.002961 0.000001 -0.633675 -0.000181
2.732202 0.728256 0.852705 -0.000000 0.760509 0.000006
1.646972 0.523820 0.791015 0.000000 -0.994614 0.000000
1.970624 0.378321 0.458890 0.055537 0.006326 -0.005149
1.933756 0.916408 1.109249 0.111530 0.003150 -0.002579
2.953973 0.771784 0.941262 0.005784 0.056126 -0.004847
0.787833 0.731912 0.707058 -0.000001 0.790643 -0.000012
1.104358 0.601627 0.667563 0.000001 -0.328480 -0.000044
1.750839 1.032388 1.262679 -0.027557 -0.004304 0.003597
1.928803 0.000000 1.550765 0.000001 -0.633690 0.000358
1.970624 0.003631 0.001474 0.000000 -0.633684 -0.000358
1.928803 1.278792 1.550765 -0.000000 0.633691 0.000358
1.928803 1.278792 0.004448 -0.000001 0.633678 -0.000358
2.913073 0.681112 0.668995 -0.000000 0.349901 -0.000020
0.245218 0.749287 0.739402 -0.000000 0.944424 -0.000021
1.845288 0.030000 1.519307 -0.055510 -0.007710 -0.005862
1.845288 1.248792 0.035907 -0.055507 0.007710 0.005862
1.842195 0.215872 0.252532 -0.027555 0.007959 -0.006467
1.805542 0.875362 1.036433 -0.055509 0.012234 -0.009171
1.770378 0.135203 1.395002 -0.027558 0.012668 0.009735
1.827844 0.684230 0.670245 0.000002 0.357707 -0.000010
2.686984 0.677085 0.667536 0.000000 0.328704 -0.000175
1.466101 0.751393 0.746090 -0.000000 0.964652 -0.000002
1.703678 0.224582 1.286469 -0.027553 0.004305 0.003597
3.003509 0.737959 0.839424 0.000000 0.844129 0.000010
2.280023 0.529077 0.814582 0.000000 -0.951760 0.000010
1.104358 0.720587 0.694277 -0.000000 0.698818 -0.000031
1.729918 1.088464 1.328092 -0.027557 -0.015266 0.011295
2.927899 0.639060 0.893953 0.000000 -0.011710 0.000681
1.704409 0.750567 0.927459 -0.027554 -0.011370 0.008889
1.712211 0.150831 0.181173 -0.055510 -0.007207 0.005486
2.686984 0.556595 0.859338 0.000000 -0.715221 0.000059
1.929354 0.408016 0.502451 0.111531 -0.003291 0.002695
2.139180 0.755739 0.777271 -0.000000 0.999628 -0.000000
2.460894 0.676530 0.667342 0.000000 0.328658 -0.000022
2.995562 0.492316 0.596091 0.005783 -0.044954 0.004828
1.944761 1.085131 1.317173 0.111531 0.001975 -0.001617
1.944761 0.209273 1.298114 0.111532 -0.002210 -0.001810
1.768335 0.859744 0.495929 -0.027554 -0.012507 -0.009632
2.325241 0.597444 0.886130 0.000002 -0.319467 0.000011
2.122872 0.640235 0.661275 0.000000 0.023068 -0.000043
1.701575 0.321914 1.152125 -0.055511 -0.002724 -0.002088
1.585254 0.334367 1.146522 -0.055509 -0.002975 -0.002280
1.104358 0.600358 0.887208 0.000002 -0.245657 0.000007
1.892485 0.386614 1.093058 0.055538 0.006704 0.005452
0.380872 0.676211 0.887977 0.000000 0.306368 0.000024
3.158936 0.639396 0.777607 1.000000 0.000000 0.000000
1.792757 0.922210 1.134189 -0.027555 -0.010558 0.008338
1.718514 0.836402 1.029556 -0.027554 -0.006579 0.005412
1.624636 0.523441 0.896601 -0.055511 -0.013742 -0.010240
1.688417 0.426136 0.507723 -0.027555 0.006254 -0.005158
1.538986 0.848150 0.529893 -0.055509 0.013742 0.010240
1.722955 0.337921 0.425894 -0.055510 -0.005615 0.004288
1.592018 0.284649 0.344536 -0.055511 -0.010558 0.007962
2.438656 0.642251 0.661322 0.000000 0.023068 -0.000086
1.194794 0.749522 0.740076 0.000000 0.944334 -0.000005
2.875567 0.755792 0.917822 0.005784 -0.140644 0.004691
3.126440 0.677516 0.869635 0.457506 0.000107 0.000299
2.099151 0.555245 0.857957 0.000000 -0.730819 0.000004
0.652179 0.751090 0.745041 -0.000001 0.957726 -0.000005
1.582298 0.389957 1.085740 -0.027554 0.006254 0.005158
2.826231 0.504784 0.612452 0.005785 -0.061078 0.004855
1.866622 0.940778 0.400555 0.055537 -0.005948 -0.004845
1.856442 0.801921 0.955792 0.111530 0.001928 -0.001579
0.878268 0.579619 0.877419 -0.000001 -0.515757 0.000025
2.244442 0.523095 0.779790 0.000000 -0.999726 0.000000
1.410531 0.536885 0.656578 -0.055511 -0.007076 0.005388
2.867855 0.527079 0.747265 0.000000 -0.964544 -0.000002
1.867668 1.178839 0.114377 -0.027551 -0.010722 -0.008451
2.886387 0.755642 0.782140 0.000000 0.999726 0.000000
1.918280 0.748214 0.736441 -0.000001 0.931900 -0.000003
2.234805 0.607555 0.889516 0.000000 -0.284759 0.000102
1.873062 0.720617 0.694307 0.000000 0.698557 -0.000016
2.864136 0.548707 0.669479 0.005785 0.071176 -0.004624
0.878268 0.659493 0.892201 -0.000002 0.172096 0.000174
1.840760 0.288164 1.183385 0.111531 -0.005078 -0.004155
1.804506 1.132453 0.171922 -0.027554 -0.013319 -0.010142
1.850940 0.510422 0.609652 0.055538 0.003871 -0.003163
2.370459 0.525989 0.803589 0.000001 -0.955666 0.000001
0.380872 0.529025 0.814422 0.000002 -0.716088 0.000001
2.370459 0.536789 0.722762 0.000000 -0.876040 -0.000002
1.882030 0.250663 1.236475 0.111530 -0.004702 -0.003848
1.946962 0.163038 1.354946 0.111531 -0.003573 -0.002926
0.065676 0.576661 0.805307 -0.569691 -0.000034 0.000014
1.725290 0.495750 0.631727 -0.055510 -0.013742 0.010240
0.833050 0.557006 0.859759 0.000000 -0.715219 0.000007
1.737408 0.736085 0.842313 -0.000001 0.808184 0.000003
1.674483 0.311889 1.181987 -0.027555 0.005117 0.004255
0.787833 0.600914 0.887401 0.000000 -0.328636 0.000044
1.653019 0.827158 0.567653 -0.055510 0.013742 0.010240
1.573246 0.467761 0.581381 -0.055510 -0.013742 0.010240
1.708160 0.801601 0.605983 -0.055510 0.013742 0.010240
1.741539 0.887233 1.090644 -0.027554 -0.011858 0.009212
1.330447 0.751404 0.809083 0.000000 0.964840 0.000002
1.736249 1.154725 1.406712 -0.027557 -0.025326 0.015776
1.776387 0.125725 0.154326 -0.055509 -0.013072 0.009768
1.831955 0.334987 1.161397 0.055538 0.005948 0.004845
1.607506 0.759632 0.621172 -0.027554 -0.026626 -0.016200
1.420883 0.682713 0.669628 0.000000 0.371880 -0.000019
1.783531 0.779027 0.590724 0.055539 -0.007742 -0.006281
1.802627 1.187034 0.112469 -0.055508 0.005866 0.004478
1.927703 0.141878 0.166477 0.055538 0.014727 -0.011662
2.844876 0.637632 0.893937 0.000000 -0.011355 0.000044
1.194794 0.749135 0.816248 0.000000 0.944035 0.000005
1.787658 0.549781 0.700611 0.111530 -0.004231 0.003464
3.110193 0.563042 0.701252 0.457507 -0.000257 -0.000233
1.940909 0.061856 0.077817 0.111532 -0.004890 0.004002
1.628387 0.493318 0.619711 -0.055509 -0.013742 0.010240
2.732202 0.597994 0.886336 -0.000000 -0.350227 0.000041
1.911195 0.057633 1.477289 0.111531 -0.004890 -0.004002
1.149576 0.528523 0.812863 -0.000000 -0.951728 0.000010
1.240011 0.719746 0.693456 0.000000 0.698943 -0.000031
1.782626 0.741303 0.721470 -0.000000 0.879176 -0.000004
2.826968 0.577524 0.856192 0.000001 -0.633567 0.000065
2.861260 0.780464 0.950760 0.005782 0.069770 -0.004862
2.832490 0.516383 0.929012 0.005782 -0.061107 -0.004852
1.860019 0.353928 0.448701 0.111530 -0.003103 0.002541
1.562068 0.417520 1.052285 -0.027555 0.006579 0.005412
