3.615173 0.825286 0.670209 0.000000 0.915466 -0.000004
1.596581 0.822205 0.793352 -0.030831 -0.018361 0.017068
0.927824 0.675162 0.769408 0.000000 -0.726607 0.000002
3.461433 0.738483 0.798725 0.000000 -0.028591 0.000020
1.927175 0.557508 0.537436 0.093346 -0.005077 0.005310
3.223268 0.786894 0.787130 0.000000 0.479160 0.000017
1.786370 0.146413 0.141662 -0.053682 -0.006628 0.006512
0.854064 0.651182 0.704363 -0.000000 -0.999592 -0.000000
0.367959 0.700489 0.626686 -0.000000 -0.453972 -0.000143
3.391227 0.814089 0.763730 -0.000000 0.782977 0.000007
3.335241 0.796311 0.634355 0.000001 0.597125 -0.000012
1.991566 0.664178 0.660633 -0.000001 -0.863623 -0.000043
1.687860 0.683179 0.637563 -0.030830 0.020655 -0.018567
2.800259 0.651137 0.709484 0.000000 -0.999592 0.000000
1.706092 0.556706 0.549980 -0.053682 -0.007456 0.007311
1.524777 0.969927 0.921883 -0.053681 0.014910 -0.014224
1.585927 0.631709 0.616560 -0.053681 -0.011046 0.010711
2.495444 0.825319 0.745108 0.000000 0.915526 0.000004
1.636023 0.302179 1.127873 -0.053683 -0.009941 -0.009677
3.795900 1.074730 1.030677 0.039516 0.012613 -0.013876
3.795900 0.404236 0.390452 -0.062555 0.008589 -0.008879
2.659849 0.746775 0.616690 0.000000 0.028581 -0.000159
1.799903 1.356738 1.291591 -0.053678 0.006628 -0.006512
3.519109 0.854797 0.611772 0.039512 -0.013008 -0.011742
3.568966 0.520999 0.915092 0.039514 0.012222 0.011097
1.746988 0.213864 0.206788 -0.053681 -0.016566 0.015673
1.991566 0.825122 0.745555 0.000000 0.915479 0.000032
3.279254 0.669004 0.761948 -0.000000 -0.800529 0.000027
1.720109 0.810002 0.646713 0.000000 -0.723243 0.000420
1.649427 0.738158 0.616676 0.000000 -0.028581 -0.000159
0.182352 0.823667 0.747739 -0.038591 0.001078 0.000492
1.784322 0.355200 0.330305 -0.030831 0.017214 -0.016261
1.319729 0.670456 0.651534 0.000000 -0.782796 -0.000004
0.543028 0.651202 0.703631 0.000000 -0.999592 -0.000000
3.756563 0.951546 0.916893 -0.062555 0.005347 -0.005601
0.927824 0.784966 0.788182 0.000000 0.479468 0.000008
2.943336 0.805709 0.773080 0.000001 0.650565 0.000003
1.621674 0.369542 1.064995 -0.030835 0.004821 0.005152
0.703878 0.772848 0.793532 -0.000000 0.349476 0.000098
2.607417 0.818419 0.757679 0.000000 0.833396 0.000012
0.311973 0.657296 0.740761 0.000000 -0.936951 0.000027
1.678753 0.746531 0.798708 0.000000 0.028581 0.000319
1.789322 0.422975 0.392751 -0.030831 0.004994 -0.005332
3.731447 1.018253 0.436997 0.039516 0.012613 0.013876
1.699325 0.918385 0.558910 -0.053682 0.007456 0.007311
0.367959 0.672299 0.766133 0.000000 -0.764987 0.000031
3.055309 0.790113 0.785224 -0.000000 0.528542 0.000059
1.373049 0.833339 0.707045 0.000000 0.999591 -0.000000
3.393893 0.651221 0.702981 0.000000 -0.999592 -0.000000
1.443396 0.825468 0.625457 -0.030831 -0.018361 -0.017068
0.256875 0.651105 0.706395 0.000000 -0.999898 -0.000000
3.557409 0.737345 0.616699 0.000000 -0.028581 -0.000159
3.641363 0.823210 0.804771 0.000001 0.690592 -0.000801
0.535919 0.684914 0.636840 -0.000000 -0.620065 -0.000003
3.688913 0.583843 0.874280 -0.062555 -0.012832 -0.013215
3.688913 0.900601 0.874280 0.039515 0.011038 -0.012276
2.047553 0.793121 0.632106 -0.000001 0.552195 -0.000055
1.852254 0.459873 0.986377 0.053703 0.007787 0.008071
1.431702 0.718740 0.795750 0.000000 -0.267890 0.000065
1.879593 0.819707 0.659736 -0.000000 0.848478 -0.000006
1.846704 0.478641 0.472561 0.093347 -0.009557 0.009957
3.838667 0.881661 0.843308 -0.062556 0.015397 -0.015718
3.838667 0.600318 0.574666 -0.062554 0.015458 -0.015660
1.431702 0.824251 0.747392 -0.000000 0.903279 0.000009
1.847535 0.100907 0.100369 -0.053681 -0.011598 0.011223
2.943336 0.772848 0.621860 0.000000 0.349235 -0.000024
3.868046 0.623592 0.820970 -0.062555 -0.009625 -0.010000
3.863507 0.971787 0.926897 -0.062555 0.010694 -0.011081
3.859876 0.423910 1.011637 -0.062555 -0.012832 -0.013215
3.859876 1.060534 0.403754 -0.062556 0.012832 0.013214
3.857153 0.357349 1.075193 -0.062555 -0.008555 -0.008911
3.167282 0.691900 0.631724 -0.000000 -0.552602 -0.000055
2.128422 0.833226 0.712330 0.000000 0.999590 0.000000
1.539319 0.924957 0.875347 -0.053680 0.005040 -0.004968
1.684531 1.164726 1.106449 -0.053684 0.005385 -0.005304
3.804815 0.775562 0.619786 -0.124431 0.000589 -0.001889
3.804815 0.708882 0.795606 -0.129817 -0.000140 0.000411
3.411240 0.884428 0.840994 0.039515 -0.015835 0.013970
1.955849 0.633021 0.605823 0.093345 -0.003982 0.004167
2.439458 0.695722 0.786068 0.000000 -0.504089 0.000062
0.927824 0.669515 0.652760 0.000001 -0.797992 -0.000007
3.804815 0.654312 0.741036 -0.124193 -0.001808 0.000813
0.983810 0.825613 0.670953 -0.000000 0.915371 -0.000008
1.263742 0.816679 0.760234 -0.000002 0.770187 0.000003
1.319729 0.788723 0.786068 -0.000000 0.504327 0.000008
1.761455 1.145165 0.316547 -0.030829 -0.017216 -0.016262
1.543675 0.671063 0.650770 0.000001 -0.782989 -0.000029
1.745874 0.937180 0.871910 -0.053681 0.007249 -0.007112
1.830055 0.922702 0.861323 0.093347 0.010751 -0.011186
1.880002 0.195782 0.178910 0.053702 0.018683 -0.018483
3.804815 0.825473 0.751389 -0.124193 0.001808 0.000813
3.503200 0.697232 0.628442 -0.000000 -0.504153 -0.000031
2.047553 0.694090 0.630318 0.000001 -0.518963 -0.000007
1.991566 0.658275 0.743172 0.000000 -0.915077 0.000001
0.927824 0.728369 0.617628 0.000000 -0.156311 -0.000058
0.983810 0.766566 0.619881 -0.000001 0.267665 -0.000066
0.734982 0.743117 0.616573 -0.000004 0.003442 -0.000336
1.378897 0.657602 0.626896 -0.053681 -0.011046 0.010711
0.815851 0.670203 0.651853 0.000000 -0.783436 -0.000004
2.770933 0.737832 0.616685 0.000000 -0.028581 -0.000319
0.672774 0.743686 0.616581 0.000000 0.013918 -0.000021
1.932725 0.473688 0.958711 0.093346 -0.008959 -0.009341
1.932725 0.989712 0.476775 0.093346 0.004779 0.004998
1.389045 0.651165 0.710460 0.000000 -0.999592 0.000000
3.123737 0.833270 0.710785 -0.000000 0.999592 0.000000
0.479932 0.666992 0.759137 0.000000 -0.817282 0.000006
1.723119 0.425802 0.419050 -0.053681 -0.006214 0.006111
1.039797 0.686507 0.635576 -0.000001 -0.611302 -0.000006
2.215512 0.693641 0.630598 0.000001 -0.525968 -0.000015
1.863353 0.248226 0.250390 0.093346 -0.005973 0.006243
1.902201 0.103427 1.308299 0.093345 -0.008362 -0.008723
0.585684 0.833242 0.703631 0.000000 0.999591 -0.000000
0.647892 0.816140 0.654393 0.000001 0.788880 -0.000002
3.808716 1.144013 1.091348 0.039513 0.012614 -0.013877
3.412428 0.573803 0.546880 0.039514 -0.014301 0.015530
3.808716 0.340431 0.324044 0.039514 -0.012614 0.013877
3.808716 1.144013 0.324044 0.039513 0.012614 0.013877
3.645538 0.436526 0.999591 0.039515 -0.015766 -0.016911
3.575605 1.006736 0.455124 0.039515 0.009461 0.010625
3.319184 0.628714 0.599312 0.039518 -0.009534 0.010703
3.505672 0.518892 0.494448 0.039515 -0.012614 0.013877
3.412428 0.910641 0.546880 0.039515 0.014301 0.015529
2.271498 0.794827 0.633286 0.000001 0.575457 -0.000013
0.703878 0.694746 0.785482 0.000001 -0.528487 0.000059
2.495444 0.667953 0.760500 -0.000000 -0.817329 0.000013
1.918851 0.047025 0.039758 0.053702 0.010382 -0.010676
1.918851 1.437419 1.375634 0.053704 -0.010382 0.010676
3.679345 0.472875 0.455992 0.039514 0.017458 -0.015177
0.200000 0.658275 0.743172 -0.004384 -0.004856 0.001321
0.367959 0.819277 0.756346 0.000000 0.848856 0.000023
3.826497 0.707860 0.617089 -0.131613 -0.000791 -0.001758
2.775377 0.668351 0.761065 0.000000 -0.816606 0.000006
3.167282 0.793896 0.632630 0.000001 0.575065 -0.000013
1.631824 1.128932 0.337000 -0.030830 -0.009643 -0.009955
2.327485 0.691662 0.631881 -0.000000 -0.552544 -0.000027
3.223268 0.666228 0.657407 0.000000 -0.833397 -0.000024
2.159526 0.663809 0.661266 0.000000 -0.863583 -0.000021
1.267297 0.833228 0.703143 0.000000 0.999592 -0.000000
1.039797 0.804378 0.774337 -0.000002 0.686081 0.000039
1.794907 0.661928 0.797708 0.053703 0.006922 0.007190
3.671160 0.831633 0.690077 -0.000000 0.982694 -0.000003
1.095783 0.664866 0.659529 0.000000 -0.848835 -0.000023
0.815851 0.820094 0.755034 -0.000000 0.849005 0.000006
1.852254 1.194848 1.124060 -0.053681 0.009113 -0.008895
1.841154 0.330968 0.332274 0.093347 -0.003584 0.003751
1.913301 0.293549 0.287193 0.093347 -0.003285 0.003439
0.255986 0.818149 0.758086 -0.000001 0.833352 0.000048
1.733455 0.232571 1.190741 -0.053681 -0.008285 -0.008106
1.458512 0.891628 0.563660 -0.030831 -0.013773 -0.013604
3.111295 0.687482 0.780549 -0.000000 -0.599214 0.000024
3.804815 0.830132 0.674356 -0.129816 0.000411 -0.000140
0.423946 0.828058 0.677070 0.000000 0.946565 -0.000012
2.719390 0.818666 0.658085 -0.000000 0.833366 -0.000012
1.207756 0.793256 0.632196 -0.000001 0.548110 -0.000007
1.785657 0.946622 0.536985 -0.053684 0.003521 0.003478
2.719390 0.659932 0.668550 0.000001 -0.903068 -0.000009
3.615173 0.773839 0.622230 -0.000000 0.349539 -0.000049
0.871837 0.688787 0.781520 -0.000000 -0.575753 0.000013
1.784886 0.096407 1.324355 -0.053681 -0.011598 -0.011223
2.144418 0.739377 0.798750 0.000001 -0.027480 0.000166
1.809370 0.184780 1.243686 -0.030831 0.023406 0.020173
3.055309 0.689285 0.633520 0.000000 -0.574862 -0.000006
1.814920 1.320916 0.151827 -0.030830 -0.011708 -0.011841
3.679345 1.011570 0.959399 0.039513 -0.017458 0.015178
1.885552 0.982243 0.925370 0.093346 0.004779 -0.004998
0.983810 0.769219 0.794731 0.000001 0.295188 0.000059
3.750620 0.542572 0.507187 -0.062555 -0.005347 0.005601
1.500694 0.489244 0.466138 -0.053682 -0.003521 0.003478
1.825485 1.444157 1.377941 -0.030832 -0.030277 0.023384
1.811952 0.058994 0.055313 -0.053681 -0.019877 0.018457
1.500694 0.489244 0.949253 -0.053682 -0.014082 -0.013486
1.392430 0.638896 0.806357 -0.053683 -0.011045 -0.010711
1.529777 0.905261 0.559211 -0.053681 0.011046 0.010711
1.663089 1.219679 0.251795 -0.030831 -0.015838 -0.015241
1.487161 0.976494 0.484000 -0.030830 -0.024781 -0.020902
1.825485 0.040288 1.377941 -0.053682 -0.016566 -0.015673
1.676622 1.238385 1.181459 -0.030830 -0.030278 0.023384
1.541292 1.051320 1.002839 -0.030832 -0.022030 0.019395
3.461277 0.808749 0.632565 0.000000 0.723246 -0.000416
0.759864 0.656955 0.739846 0.000000 -0.936923 0.000014
0.200000 0.716546 0.795140 -0.004379 -0.001550 0.004725
1.974348 1.123808 0.343337 0.053703 -0.012458 -0.012710
1.974348 0.276457 1.152433 0.053703 0.010382 0.010676
1.974348 0.066009 1.353380 0.053703 0.010382 0.010676
1.974348 0.850225 0.810823 0.053703 -0.013841 0.014038
1.974348 0.234368 1.192623 0.053703 0.009344 0.009641
1.974348 0.150188 1.273002 0.053701 0.014534 0.014694
1.974348 0.934405 0.891202 0.053703 -0.008306 0.008597
1.974348 1.376346 1.313191 0.053702 -0.012458 0.012710
1.974348 1.271122 0.202674 0.053704 -0.016608 -0.016619
1.799413 1.170475 1.123836 -0.030832 -0.015838 0.015241
0.871837 0.817812 0.656797 -0.000000 0.833348 -0.000012
3.727146 0.688754 0.633895 -0.000001 -0.573238 -0.000013
2.837584 0.744498 0.798767 -0.000000 0.028581 0.000040
3.167282 0.799849 0.778298 -0.000001 0.615455 0.000006
2.894459 0.740109 0.616620 0.000000 -0.028581 -0.000010
0.703878 0.828727 0.679033 -0.000000 0.945941 -0.000003
1.899427 1.265450 1.197590 0.093344 0.005973 -0.006243
1.798724 0.742873 0.798813 -0.000000 0.028581 0.000319
3.826497 0.651616 0.673333 -0.131611 -0.001786 -0.000556
1.800457 0.622960 0.616360 0.093348 -0.003982 0.004167
0.043195 0.727540 0.669984 -0.581427 -0.000011 -0.000030
1.642443 0.842597 0.601261 -0.030831 -0.016756 -0.015928
2.271498 0.656242 0.737898 -0.000000 -0.946590 0.000006
0.983810 0.661545 0.665311 0.000000 -0.891031 -0.000005
1.799413 0.304075 0.301919 -0.053681 -0.009527 0.009287
3.788551 0.944448 0.508018 -0.062556 0.010694 0.011081
1.095783 0.797353 0.635135 0.000000 0.599531 -0.000006
2.327485 0.687547 0.780598 -0.000000 -0.599294 0.000024
1.263742 0.656282 0.677378 0.000001 -0.945147 -0.000006
1.767620 0.657969 0.672973 -0.000000 -0.926589 -0.000015
0.311973 0.798893 0.636334 0.000000 0.621887 -0.000046
1.817279 0.262115 1.172525 -0.030831 0.014462 0.014164
3.562502 0.627708 0.585712 0.039514 -0.027846 0.026298
2.607417 0.666880 0.758967 -0.000000 -0.833396 0.000012
3.784013 0.429062 1.013299 -0.062555 -0.008555 -0.008911
2.775377 0.793256 0.783195 0.000001 0.548110 0.000007
0.479932 0.713136 0.794056 0.000001 -0.322517 0.000214
2.831363 0.815953 0.654127 0.000000 0.817323 -0.000051
3.632259 0.961338 0.909241 0.039515 -0.010477 0.009624
3.563022 0.534508 0.504972 0.039515 -0.011037 0.012276
3.539711 0.936209 0.518080 0.039513 0.012614 0.013877
2.831363 0.682480 0.638874 0.000000 -0.665637 -0.000005
0.647892 0.682055 0.639253 0.000000 -0.665652 -0.000010
3.410052 0.858214 0.601914 0.039514 -0.007919 -0.007379
1.641157 1.098264 1.042627 -0.053680 0.002900 -0.002867
0.647892 0.811517 0.766879 0.000000 0.764968 0.000008
1.487688 0.661286 0.749574 -0.000001 -0.890518 0.000009
2.495444 0.681782 0.639497 0.000000 -0.665329 -0.000010
2.999322 0.832138 0.692878 0.000000 0.986785 -0.000001
2.103539 0.816046 0.761131 0.000000 0.816230 0.000006
2.383471 0.802510 0.639361 -0.000001 0.657715 -0.000005
2.551431 0.817947 0.657000 0.000000 0.833290 -0.000012
1.879593 0.696776 0.628709 0.000001 -0.504050 -0.000062
2.663404 0.811831 0.766506 0.000001 0.764883 0.000031
1.246858 0.744336 0.616620 0.000000 0.014722 -0.000020
2.887349 0.822514 0.750797 0.000000 0.877728 0.000002
2.103539 0.691934 0.783690 0.000000 -0.552428 0.000014
1.835605 0.530534 0.891841 0.093346 -0.010154 -0.010572
1.935580 0.760321 0.797016 -0.000000 0.212430 0.000021
3.697820 0.651096 0.708346 -0.000000 -0.999897 0.000000
2.663404 0.812565 0.649757 0.000000 0.764867 -0.000015
3.055309 0.798033 0.635652 0.000000 0.621864 -0.000011
0.479932 0.692815 0.631117 0.000001 -0.550152 -0.000014
1.991566 0.712828 0.793951 -0.000000 -0.322582 0.000214
3.653250 0.842558 0.593243 0.039514 0.008470 0.009564
1.798419 1.406744 0.073175 -0.030830 -0.017903 -0.016750
1.207756 0.684532 0.637144 0.000000 -0.643961 -0.000043
3.615173 0.827191 0.740646 0.000001 0.936794 0.000014
0.759864 0.801219 0.638244 -0.000000 0.641509 -0.000005
3.641363 0.661234 0.804771 -0.000001 -0.690593 -0.000801
1.721183 0.953701 0.920150 -0.030833 -0.005682 0.006045
3.489265 0.843897 0.814729 0.039513 0.011747 -0.013003
0.815851 0.706821 0.791674 0.000000 -0.374366 0.000011
2.999322 0.668833 0.761720 0.000001 -0.786694 0.000003
2.887349 0.668117 0.760732 0.000000 -0.817576 0.000003
2.383471 0.812926 0.765195 -0.000001 0.782684 0.000014
1.543675 0.699692 0.788299 -0.000000 -0.479167 0.000067
1.830055 0.561742 0.554069 0.093347 -0.010751 0.011186
0.342188 0.833349 0.708346 -0.000000 0.999893 0.000000
2.495444 0.797353 0.635135 0.000000 0.599120 -0.000012
2.439458 0.827831 0.676460 -0.000000 0.936923 -0.000014
2.943336 0.817452 0.656255 0.000000 0.833063 -0.000003
0.311973 0.690917 0.632376 -0.000001 -0.548038 -0.000007
0.367959 0.776078 0.792301 -0.000000 0.376013 0.000090
2.534546 0.744336 0.798771 0.000000 0.028591 0.000318
1.699142 0.611002 0.570363 -0.030830 0.016756 -0.015928
3.619444 0.600059 0.856603 0.039515 -0.027846 -0.026298
3.461277 0.664101 0.644708 -0.000001 -0.723236 -0.000277
1.733039 1.147186 1.085024 -0.053680 0.010770 -0.010454
3.590973 0.870561 0.572250 0.039516 0.027845 0.026298
1.874453 0.898783 0.571153 0.093347 0.010751 0.011186
3.356452 0.843659 0.614155 0.039516 -0.021109 -0.017698
1.924400 1.253311 0.226156 0.093348 0.005973 0.006243
3.748350 0.997340 0.961167 0.039516 0.012613 -0.013876
0.246211 0.739782 0.616595 -0.000000 -0.014289 -0.000081
1.927175 0.916414 0.867908 0.093346 0.005077 -0.005310
1.974348 0.571085 0.871107 0.053702 0.017646 0.017559
0.759864 0.695160 0.629652 0.000000 -0.528648 -0.000029
1.823607 0.695862 0.629242 0.000000 -0.504167 -0.000016
3.615173 0.664931 0.755966 -0.000000 -0.848658 0.000011
3.671160 0.777773 0.791610 0.000001 0.402348 0.000166
1.776754 1.241001 0.227308 -0.030829 -0.014462 -0.014165
0.927824 0.823620 0.748668 -0.000001 0.888325 0.000005
1.879593 0.694055 0.785052 -0.000000 -0.527742 0.000007
1.487688 0.700526 0.788724 -0.000000 -0.453972 0.000072
1.767620 0.788020 0.628914 -0.000000 0.504153 -0.000031
1.853085 1.404223 1.335493 -0.053683 0.019876 -0.018457
2.860689 0.833216 0.702737 0.000000 0.999591 -0.000000
1.941049 0.347958 1.079844 0.093346 -0.007168 -0.007485
3.447214 0.818351 0.757781 -0.000000 0.833348 0.000012
3.869861 0.792753 0.797072 -0.135916 0.000224 0.000383
3.700800 0.550252 0.538651 -0.062555 0.012882 -0.013166
1.866128 0.396223 1.046122 0.053702 0.006749 0.007013
1.918851 0.651671 0.786965 0.093348 -0.003982 -0.004167
3.559187 0.660511 0.748052 -0.000000 -0.889825 0.000005
1.207756 0.659322 0.745555 0.000000 -0.903611 0.000009
1.207756 0.749534 0.798532 0.000001 0.071290 0.000127
3.562502 0.615082 0.816457 0.039514 0.030835 0.023115
1.595835 0.929332 0.875447 -0.053682 0.005040 -0.004968
3.724575 0.958644 0.488979 0.039515 0.015766 0.016911
1.719736 0.430479 0.991876 -0.053680 -0.003107 -0.003071
0.367959 0.779002 0.624321 0.000001 0.401982 -0.000041
2.337260 0.833260 0.704281 0.000000 0.999592 -0.000000
0.096756 0.692746 0.758606 -0.371729 -0.000064 0.000062
3.391227 0.665016 0.756104 0.000001 -0.846398 0.000006
1.642809 0.901948 0.869014 -0.030828 -0.016757 0.015929
3.223268 0.824147 0.747613 0.000000 0.903611 0.000017
1.814504 1.220751 1.153110 -0.053681 0.008699 -0.008501
1.711634 0.787915 0.786539 -0.000001 0.498961 0.000016
2.409243 0.747019 0.616697 0.000000 0.028581 -0.000319
1.730680 1.241531 1.180506 -0.053686 0.009112 -0.008894
1.785657 0.557048 0.516850 0.053702 0.008825 -0.009120
2.551431 0.718740 0.619641 0.000000 -0.268060 -0.000065
0.535919 0.796442 0.780939 0.000000 0.599200 0.000024
0.367959 0.661736 0.664952 0.000001 -0.856503 -0.000001
3.869861 0.834203 0.753314 -0.134404 0.000405 0.000194
1.599661 0.827532 0.739732 0.000001 0.936421 0.000007
1.763132 0.977738 0.944134 -0.030831 -0.005682 0.006045
1.741824 1.016181 0.436613 -0.030830 -0.010675 -0.010913
1.796757 0.514546 0.938299 0.053702 0.008306 0.008597
1.627246 0.480662 0.962503 -0.030831 0.005682 0.006045
1.809370 0.184780 0.171706 -0.030830 0.011708 -0.011841
1.823607 0.787107 0.628381 -0.000001 0.500855 -0.000008
3.808716 0.340431 1.091348 0.039514 -0.012614 -0.013877
3.692160 0.409070 0.389584 0.039514 -0.025214 0.024555
3.692160 1.075374 1.025807 0.039516 0.025213 -0.024554
3.831519 0.978885 0.478975 -0.062555 0.010694 0.011081
0.423946 0.795921 0.634063 0.000000 0.599531 -0.000003
0.535919 0.784535 0.626981 -0.000000 0.453788 -0.000018
3.580515 0.746612 0.798706 0.000000 0.028591 0.000020
2.607417 0.667859 0.655025 0.000000 -0.817167 -0.000013
1.487688 0.702305 0.625771 0.000001 -0.427907 -0.000038
1.030021 0.738808 0.616657 0.000000 -0.028581 -0.000319
1.718042 0.583568 0.837365 -0.053682 -0.010079 -0.009807
3.279254 0.796051 0.634160 0.000000 0.599238 -0.000024
2.495444 0.789906 0.785353 -0.000001 0.528311 0.000029
2.373696 0.651140 0.709566 0.000000 -0.999591 0.000000
3.811419 0.479114 0.452078 -0.062555 -0.008555 0.008911
1.929950 1.316086 1.249896 0.093346 0.009557 -0.009957
1.974348 0.486905 0.463906 0.053703 0.015571 -0.015664
1.974348 0.528995 0.504095 0.053703 0.016608 -0.016619
1.929950 0.958324 0.908286 0.093346 0.004779 -0.004998
1.549007 0.833237 0.703468 0.000000 0.999591 -0.000000
1.543675 0.661619 0.750226 0.000001 -0.890916 0.000019
1.623544 0.638276 0.789323 -0.053682 -0.005040 -0.004968
1.741594 1.093946 1.050660 -0.030832 -0.004649 0.004973
1.655648 0.657510 0.741288 -0.000000 -0.926456 0.000007
0.800744 0.651175 0.704607 -0.000000 -0.999592 -0.000000
1.520602 0.541978 0.520928 -0.053680 -0.010080 0.009808
1.866618 0.064907 0.058483 -0.030831 0.030278 -0.023384
1.824505 0.597695 0.856841 0.053703 0.018682 0.018483
3.727146 0.819600 0.755828 0.000000 0.848863 0.000045
0.703878 0.658520 0.671661 0.000000 -0.914467 -0.000004
0.927824 0.720633 0.796229 -0.000000 -0.240357 0.000147
1.567577 0.557300 0.875397 -0.053681 -0.010079 -0.009807
1.935580 0.734302 0.616906 -0.000001 -0.099113 -0.000091
1.907751 1.394917 0.079515 0.053702 -0.012458 -0.012711
2.566538 0.651156 0.710135 0.000000 -0.999591 0.000000
1.852254 1.194848 0.291332 -0.053680 0.009113 0.008895
1.778542 1.185759 0.278302 -0.030831 -0.015838 -0.015241
1.896652 0.418740 0.408890 0.093347 -0.004181 0.004375
1.744287 0.152527 1.270769 -0.053682 -0.013254 -0.012740
0.311973 0.689718 0.782176 0.000000 -0.576158 0.000052
2.672290 0.651189 0.704119 0.000000 -0.999591 -0.000000
2.943336 0.666678 0.656729 0.000001 -0.807161 -0.000002
1.825485 1.444157 0.037451 -0.030830 -0.030278 -0.023384
1.553678 0.851537 0.800085 -0.053680 0.011046 -0.010711
1.813406 1.033651 0.997935 0.053703 -0.015571 0.015664
1.661526 0.882554 0.563520 -0.030831 -0.033481 -0.024555
3.827845 0.913744 0.540627 -0.062555 0.006417 0.006710
1.319729 0.696284 0.786396 0.000000 -0.504327 0.000004
1.647924 0.380786 0.359688 -0.030831 0.009642 -0.009955
3.692160 0.409070 1.025807 0.039515 -0.025213 -0.024554
1.879593 0.820307 0.754688 -0.000000 0.863611 0.000005
3.727146 0.780596 0.625040 -0.000000 0.428354 -0.000077
1.456929 0.640270 0.807797 -0.030830 0.009183 0.009521
1.905901 0.868728 0.833580 0.053703 -0.018683 0.018483
1.424679 0.637698 0.610289 -0.053681 -0.011046 0.010711
1.446562 0.564070 0.877805 -0.053685 -0.005523 -0.005439
1.433029 0.901668 0.859943 -0.030831 -0.018361 0.017068
3.674097 1.036608 0.429342 0.039515 -0.008731 -0.008101
0.147340 0.664701 0.669581 -0.174608 -0.000223 -0.000102
1.319729 0.793663 0.632466 0.000000 0.575820 -0.000006
1.767620 0.783738 0.788816 0.000000 0.454233 0.000009
1.946599 1.199261 0.274887 0.093347 0.003285 0.003439
3.810511 1.027517 0.984498 -0.062555 0.012832 -0.013215
3.807788 1.094078 0.367337 0.039515 0.025213 0.024554
1.136662 0.744661 0.616630 0.000000 0.028581 -0.000010
1.487688 0.661775 0.664880 -0.000000 -0.877447 -0.000010
1.879593 0.657296 0.674631 0.000000 -0.937035 -0.000003
1.556613 0.467256 0.448201 -0.053683 -0.007042 0.006912
1.431702 0.695160 0.629652 0.000000 -0.528648 -0.000029
2.719390 0.757923 0.797467 0.000001 0.183480 0.000049
1.885552 0.532293 0.914750 0.053703 0.016608 0.016619
2.622525 0.833288 0.705257 0.000000 0.999592 -0.000000
3.563022 0.954319 0.905830 0.039514 -0.012222 0.011097
2.302602 0.741409 0.616583 0.000000 -0.028591 -0.000020
1.879593 0.657327 0.740836 0.000000 -0.926339 0.000002
3.653250 0.641886 0.593243 -0.062555 -0.009839 0.010217
1.566780 0.737914 0.616683 0.000000 -0.028581 -0.000159
1.655648 0.659322 0.669837 0.000000 -0.915496 -0.000008
1.924400 0.593985 0.852955 0.053703 0.018683 0.018483
3.869861 0.768689 0.663708 1.000000 0.000000 0.000000
3.869861 0.792041 0.720085 1.000000 0.000000 0.000000
3.869861 0.702210 0.675533 1.000000 0.000000 -0.000000
3.869861 0.695064 0.727982 1.000000 0.000000 0.000000
3.869861 0.749153 0.758562 1.000000 0.000000 0.000000
1.487688 0.788758 0.629344 -0.000000 0.504153 -0.000031
1.644095 0.833270 0.710785 0.000000 0.999592 0.000000
1.868903 1.256904 0.229919 -0.053681 0.015738 0.014953
1.745756 1.119214 0.359594 -0.053683 0.002796 0.002764
3.559187 0.821578 0.662881 0.000000 0.877728 -0.000002
1.924400 0.210089 1.209331 0.093346 -0.010751 -0.011186
3.671160 0.703849 0.790352 -0.000000 -0.428354 0.000038
3.447214 0.667086 0.759270 0.000000 -0.817282 0.000006
1.932725 0.463166 0.446633 0.093346 -0.004480 0.004686
2.047553 0.711025 0.793318 0.000000 -0.349461 0.000098
1.974348 1.039629 0.991675 0.053702 -0.014533 0.014694
1.838380 0.950400 0.916585 0.053703 -0.008825 0.009120
2.200405 0.744661 0.616630 0.000000 0.028581 -0.000159
0.104950 0.787577 0.766513 -0.339734 0.000063 0.000087
1.929950 1.295041 0.185590 0.093346 0.010751 0.011186
1.929950 0.189403 0.185590 0.093347 -0.010751 0.011186
3.631099 0.891249 0.863157 0.039511 0.005520 -0.006313
1.707606 1.199736 1.147030 -0.030830 -0.015839 0.015242
2.607417 0.760996 0.618522 0.000000 0.212502 -0.000042
1.974348 0.655264 0.790728 0.053703 0.013841 0.014038
1.623727 0.622454 0.584118 -0.030831 0.033481 -0.024555
1.763296 1.299629 1.236701 -0.053685 0.007456 -0.007311
2.159526 0.821734 0.663167 -0.000001 0.872274 -0.000003
1.461917 0.651100 0.707208 -0.000000 -0.999591 -0.000000
3.760238 0.467757 0.436847 -0.062555 -0.012832 0.013215
1.263742 0.695546 0.785965 0.000001 -0.495349 0.000008
1.711634 0.661508 0.750008 -0.000000 -0.889825 0.000005
0.036194 0.731378 0.741071 -0.608938 -0.000009 0.000025
1.151770 0.831543 0.689597 0.000000 0.982797 -0.000002
1.974348 0.213323 0.202674 0.053704 0.016608 -0.016619
1.949374 1.241171 1.180882 0.093346 0.005973 -0.006243
1.974348 0.276457 0.262958 0.053703 0.010382 -0.010676
3.379763 0.627058 0.814344 0.039515 0.015835 0.013970
1.710380 0.270973 0.261679 -0.053682 -0.009113 0.008895
1.880002 0.553544 0.520520 0.053703 0.017645 -0.017559
3.615173 0.783122 0.789130 0.000001 0.453955 0.000143
1.796757 0.514546 0.477093 0.053703 0.008306 -0.008597
2.999322 0.788090 0.786437 0.000001 0.502927 0.000031
3.789459 0.562183 0.886188 -0.062556 -0.006417 -0.006710
1.991566 0.832597 0.696016 0.000001 0.878175 -0.000000
0.562579 0.737263 0.616702 0.000000 -0.028581 -0.000159
2.439458 0.665210 0.658976 -0.000000 -0.848922 -0.000011
0.479932 0.763101 0.796404 0.000000 0.240294 0.000018
3.433363 0.612502 0.826585 0.039516 0.021109 0.017698
3.615173 0.666206 0.657441 -0.000000 -0.833396 -0.000012
3.727146 0.660315 0.747650 -0.000001 -0.902383 0.000009
1.625859 1.005538 0.465260 -0.053680 0.006835 0.006713
3.435739 0.560076 0.881619 0.039518 -0.009534 -0.010703
0.461270 0.743930 0.616584 -0.000004 0.003442 -0.000336
1.887402 0.637448 0.601187 0.053703 0.018683 -0.018483
2.439458 0.831474 0.726112 0.000000 0.977147 0.000004
1.744487 0.914621 0.530390 -0.030830 -0.024094 -0.020544
1.487688 0.787037 0.787052 -0.000000 0.504030 0.000031
1.838380 0.950400 0.498806 0.053703 -0.017645 -0.017559
1.095783 0.661619 0.750226 0.000000 -0.891031 0.000005
1.847535 1.379580 0.096224 -0.030831 -0.017903 -0.016750
1.747334 0.842736 0.818666 -0.030832 -0.010330 0.010596
2.775377 0.825286 0.745183 -0.000001 0.914612 0.000008
3.499584 0.919642 0.542412 0.039516 -0.013007 -0.011742
1.677765 1.151697 0.314025 -0.030832 -0.008953 -0.009301
3.111295 0.657480 0.741213 0.000001 -0.850018 0.000001
3.468330 0.892534 0.846247 0.039517 -0.010558 0.009693
1.731209 0.621762 0.617614 -0.053681 -0.006214 0.006111
3.167282 0.697232 0.786949 0.000001 -0.497149 0.000008
1.823607 0.701142 0.789038 -0.000000 -0.453969 0.000072
3.503200 0.832707 0.718528 0.000000 0.991844 0.000001
1.924400 1.463759 0.025208 -0.053681 0.014910 0.014224
1.846704 0.310282 1.103588 0.093347 -0.007168 -0.007485
2.271498 0.653100 0.688683 0.000000 -0.977141 -0.000002
1.929950 0.168359 1.249896 0.093346 -0.009557 -0.009957
1.899427 0.218994 0.217802 0.093345 -0.005973 0.006243
3.279254 0.657434 0.674292 -0.000000 -0.926500 -0.000015
3.648930 0.931775 0.538217 0.039514 -0.012222 -0.011096
0.367959 0.712520 0.793846 0.000000 -0.322620 0.000107
3.335241 0.656728 0.676155 -0.000001 -0.934324 -0.000003
1.757909 0.843194 0.639340 -0.053681 0.012426 0.011985
0.423946 0.660437 0.747907 0.000000 -0.890883 0.000001
3.826483 0.950311 0.903100 -0.062554 -0.005368 0.005581
1.375715 0.778294 0.791381 0.000000 0.402395 0.000041
1.863353 0.248226 1.165002 0.093345 -0.005973 -0.006243
1.756195 0.516731 0.901964 -0.053681 -0.006835 -0.006712
1.935500 1.042144 0.426350 0.093346 0.004181 0.004375
1.935500 1.336771 0.145024 0.093345 0.009557 0.009957
1.935500 1.357816 1.290462 0.093348 0.008362 -0.008723
3.810511 1.031900 0.435483 -0.062555 -0.012882 -0.013166
1.935580 0.820922 0.661757 0.000000 0.863885 -0.000001
3.648930 0.552669 0.877174 0.039514 0.012222 0.011096
1.974348 0.108099 0.102201 0.053703 0.012458 -0.012710
3.335241 0.821250 0.753072 0.000000 0.863513 0.000003
2.439458 0.662086 0.751083 0.000000 -0.877728 0.000001
1.879593 0.785109 0.788104 0.000000 0.479267 0.000017
3.704794 0.836567 0.631869 -0.062553 -0.006013 -0.006245
1.470462 0.617794 0.593681 -0.053682 -0.011046 0.010711
1.599661 0.661619 0.665166 0.000000 -0.891012 -0.000019
3.869861 0.686927 0.621187 -0.132496 -0.000250 -0.000380
1.543675 0.785323 0.787987 -0.000001 0.467573 0.000004
3.649831 0.651221 0.712411 0.000000 -0.999592 0.000000
3.608948 0.536834 0.519258 0.039515 0.012222 -0.011096
0.096756 0.810338 0.687695 -0.371724 0.000086 -0.000023
3.219713 0.739133 0.798743 0.000000 -0.028581 0.000040
2.430571 0.743035 0.798808 -0.000004 0.007627 0.000151
1.086896 0.742629 0.798826 0.000000 0.014661 0.000010
1.807189 0.371120 1.071329 -0.030830 0.017215 0.016262
3.317467 0.743361 0.798815 0.000000 0.014289 0.000162
0.591905 0.759442 0.797182 -0.000001 0.184540 0.000194
3.528055 0.555100 0.890758 0.039513 -0.027847 -0.026299
1.637626 0.534219 0.522032 -0.053682 -0.014910 0.014224
2.258168 0.744986 0.798753 0.000000 0.028581 0.000319
1.039797 0.700562 0.788742 -0.000000 -0.453783 0.000036
3.391227 0.699946 0.788429 0.000000 -0.454233 0.000009
3.534031 0.855277 0.803269 0.039515 -0.006504 0.006099
1.855029 1.035197 0.419075 0.053703 -0.015571 -0.015664
1.850236 0.162245 1.252856 -0.053680 -0.006628 -0.006512
1.151770 0.788933 0.785945 -0.000001 0.503846 0.000031
0.759864 0.826843 0.741514 -0.000001 0.791060 0.000001
2.215512 0.695722 0.786068 0.000000 -0.504059 0.000062
1.771205 0.258475 1.161690 -0.053684 -0.009113 -0.008894
1.543023 0.623109 0.827277 -0.030832 0.004592 0.004913
3.621531 1.000027 0.464821 0.039515 -0.010476 -0.009624
3.644842 0.473977 0.967121 0.039515 -0.007885 -0.008929
1.095783 0.821578 0.752510 -0.000000 0.877728 0.000002
1.487688 0.820820 0.753810 -0.000001 0.862219 0.000005
1.891102 0.489997 0.460668 0.053703 0.007787 -0.008071
1.767620 0.699407 0.788143 0.000000 -0.479160 0.000017
3.447214 0.782651 0.789370 -0.000000 0.454011 0.000071
1.818956 0.429542 1.017814 0.053701 0.007268 0.007543
1.814920 1.320916 1.263565 -0.030832 -0.023405 0.020173
0.156031 0.795914 0.777325 -0.140807 0.000197 0.000241
1.974348 0.913360 0.544284 0.053703 -0.017645 -0.017559
2.235951 0.833316 0.706232 0.000000 0.999612 -0.000000
2.159526 0.824565 0.746731 -0.000000 0.903618 0.000001
0.191173 0.809337 0.646098 -0.004377 0.003917 -0.002603
3.737854 1.057277 0.411251 0.039513 -0.020947 -0.017592
3.335241 0.825908 0.671624 -0.000000 0.915236 -0.000008
3.559187 0.818977 0.756829 -0.000001 0.788758 0.000002
1.824505 1.076153 0.377698 0.053702 -0.014533 -0.014693
3.766773 0.856940 0.589382 -0.062556 0.015397 0.015718
3.447214 0.765861 0.619685 -0.000000 0.267999 -0.000065
1.095783 0.699692 0.627092 0.000000 -0.479160 -0.000008
1.834002 0.123571 1.301306 -0.030830 0.010331 0.010597
3.167282 0.824373 0.668256 -0.000000 0.902623 -0.000002
1.872168 1.443615 1.373826 -0.053682 0.016566 -0.015673
1.872168 0.040829 1.373826 -0.053681 -0.016566 -0.015673
3.869861 0.654247 0.654763 -0.135919 -0.000383 -0.000224
1.739049 0.465600 0.954923 -0.053682 -0.003210 -0.003173
3.503200 0.661526 0.665347 0.000000 -0.890956 -0.000009
1.747334 0.621164 0.797150 -0.053678 -0.006214 -0.006111
3.559187 0.705703 0.791185 0.000000 -0.402263 0.000041
3.810511 0.452544 0.979908 -0.062555 0.012882 0.013166
0.255986 0.782941 0.789222 0.000001 0.453930 0.000072
2.103539 0.660880 0.748776 -0.000001 -0.880365 0.000005
1.780107 0.906146 0.878662 0.053703 -0.018682 0.018483
3.552294 0.491437 0.947159 0.039515 -0.022066 -0.022253
0.803410 0.833263 0.711029 0.000000 0.999592 0.000000
2.607417 0.783701 0.788835 -0.000001 0.452969 0.000036
3.535181 0.645499 0.786016 0.039515 0.006504 0.006099
3.727146 0.659306 0.669874 -0.000001 -0.915460 -0.000064
1.938275 0.400391 1.029419 0.093346 -0.003883 -0.004063
1.938275 1.105099 1.049514 0.093347 0.003883 -0.004063
1.974348 0.360637 0.343337 0.053702 0.012458 -0.012710
1.938275 1.105099 0.365878 0.093347 0.003883 0.004063
1.974348 0.402726 0.383527 0.053702 0.013496 -0.013709
3.648930 0.931775 0.877174 0.039515 -0.012222 0.011096
1.763296 0.184815 1.236701 -0.053681 -0.014910 -0.014224
1.817279 0.253350 0.252046 -0.053680 -0.008699 0.008501
1.891102 1.015492 0.440573 0.053703 -0.007787 -0.008071
1.656708 0.980005 0.941759 -0.030829 -0.005683 0.006045
0.239102 0.833214 0.712736 0.000000 0.999592 0.000000
0.591905 0.702011 0.625911 0.000000 -0.453942 -0.000018
3.783539 0.841927 0.795496 -0.062555 -0.015458 0.015660
1.935580 0.657541 0.674028 -0.000001 -0.926462 -0.000015
2.126645 0.746531 0.616683 0.000000 0.028581 -0.000159
3.619444 0.586911 0.572558 0.039515 0.030834 -0.023115
1.566780 0.651100 0.708184 0.000000 -0.999592 0.000000
1.759690 0.416408 1.027467 -0.030829 0.004994 0.005333
1.711582 1.028697 0.989079 -0.030833 -0.005338 0.005689
1.752883 0.620457 0.576847 -0.030830 0.010331 -0.010597
1.863353 0.406848 0.379209 0.053702 0.007268 -0.007543
1.789872 0.323771 1.094306 -0.053683 -0.009941 -0.009677
1.855029 1.047354 0.983585 0.093347 0.008959 -0.009340
0.388399 0.833332 0.705907 0.000000 0.999898 -0.000000
3.831065 0.491727 0.944140 -0.062555 0.008589 0.008878
3.862599 0.490471 0.467310 -0.062555 -0.008555 0.008911
2.271498 0.821394 0.752826 0.000001 0.863033 0.000011
0.871837 0.659531 0.745996 0.000001 -0.892713 0.000002
3.391227 0.829066 0.680077 -0.000000 0.955389 -0.000006
2.047553 0.769413 0.794671 0.000001 0.295188 0.000059
0.036194 0.770613 0.687069 -0.608937 0.000021 -0.000016
3.223268 0.830990 0.687054 0.000000 0.977176 -0.000000
3.794337 0.597639 0.839445 -0.062554 0.015458 0.015660
1.794907 0.822516 0.797708 0.053703 -0.006922 0.007190
1.812481 0.854736 0.588225 0.053702 -0.006922 -0.007190
1.615308 0.434926 0.420028 -0.053682 -0.003314 0.003275
1.871678 0.364450 0.339344 0.053702 0.006749 -0.007013
3.279254 0.701540 0.626151 -0.000000 -0.453904 -0.000036
1.991566 0.697408 0.628340 0.000000 -0.504131 -0.000125
3.727146 0.786501 0.787344 -0.000000 0.479245 0.000067
2.831363 0.656600 0.676498 0.000001 -0.928366 -0.000002
2.831363 0.780669 0.625074 -0.000001 0.428352 -0.000077
1.767620 0.707349 0.623504 0.000000 -0.376092 -0.000090
1.677285 0.644245 0.779188 -0.053684 -0.006213 -0.006110
0.080728 0.733172 0.644748 -0.434352 -0.000011 -0.000066
3.704794 0.647877 0.631869 -0.062553 0.006013 -0.006245
3.528055 0.550717 0.529224 0.039513 0.030836 -0.023115
1.746300 0.903063 0.577977 -0.053682 0.010079 0.009807
1.604644 0.822033 0.621859 -0.030831 -0.016755 -0.015928
3.727146 0.828030 0.676993 -0.000001 0.903534 -0.000001
3.739186 0.573013 0.880234 -0.062555 -0.012832 -0.013215
1.469915 0.744173 0.798776 0.000000 0.028581 0.000159
0.156031 0.830005 0.702676 -0.149267 0.000147 -0.000004
1.859777 1.335393 0.136558 -0.030833 -0.020653 -0.018567
1.319729 0.664014 0.754477 0.000000 -0.863583 0.000021
2.047553 0.823435 0.666361 -0.000000 0.886382 -0.000002
3.055309 0.711101 0.793347 -0.000001 -0.349373 0.000049
0.591905 0.651510 0.699007 0.000000 -0.994926 -0.000004
3.223268 0.660622 0.748269 -0.000000 -0.871453 0.000001
1.805833 0.833302 0.709647 0.000000 0.999592 0.000000
1.885552 1.309913 1.256361 0.053701 -0.016609 0.016620
3.521410 0.807265 0.630705 0.039515 0.023482 0.023319
1.812481 0.629709 0.827166 0.053702 0.006922 0.007190
1.823607 0.660733 0.666905 0.000000 -0.890957 -0.000009
1.534927 0.981412 0.477447 -0.030828 -0.006027 -0.006399
1.726732 0.509493 0.475363 -0.030832 0.011363 -0.011534
1.656708 0.494827 0.483699 -0.053681 -0.014082 0.013486
0.311973 0.826200 0.672295 -0.000000 0.926566 -0.000030
1.823607 0.660788 0.748595 -0.000000 -0.890729 0.000005
1.740325 0.585761 0.545299 -0.030830 0.012053 -0.012144
3.391227 0.705889 0.624125 -0.000000 -0.402393 -0.000083
0.647892 0.780375 0.624935 0.000001 0.363176 -0.000006
1.935500 0.130586 1.294607 0.053703 0.014533 0.014693
2.607417 0.700815 0.788872 -0.000000 -0.453788 0.000018
3.615173 0.697515 0.787110 0.000000 -0.479160 0.000004
3.580621 0.970309 0.493745 0.039514 -0.012222 -0.011097
3.603932 0.500408 0.934754 0.039514 0.010477 0.009624
3.223268 0.699692 0.627092 0.000000 -0.479160 -0.000017
1.078010 0.651156 0.710135 0.000000 -0.999591 0.000000
1.826820 1.242308 0.223996 -0.030829 -0.013086 -0.013031
2.271498 0.824007 0.667485 0.000000 0.903611 -0.000004
3.279254 0.825122 0.745555 -0.000000 0.915526 0.000004
1.802306 0.991149 0.457214 0.053703 -0.016608 -0.016619
1.585067 1.059772 1.008032 -0.053688 0.003314 -0.003274
1.891102 0.489997 0.954724 0.053703 0.015570 0.015664
3.055309 0.821312 0.752967 0.000000 0.863611 0.000005
3.279254 0.783919 0.788724 -0.000000 0.453788 0.000018
1.543675 0.780963 0.625214 -0.000001 0.423550 -0.000010
3.055309 0.660333 0.667705 0.000000 -0.903461 -0.000009
0.647892 0.654874 0.733683 -0.000000 -0.955178 0.000006
1.711634 0.704437 0.790629 0.000000 -0.402395 0.000010
3.503200 0.778183 0.791430 0.000000 0.402397 0.000083
3.678417 0.518427 0.911516 0.039516 0.010476 0.009623
3.462465 0.637887 0.798201 0.039515 0.010558 0.009694
2.887349 0.824286 0.668073 -0.000000 0.902623 -0.000002
1.741712 0.580449 0.875062 -0.030829 0.012053 0.012144
0.345743 0.651117 0.705581 0.000000 -0.999893 -0.000000
1.929950 -0.000000 1.410654 -0.000000 -0.723240 0.000278
1.929950 1.484444 1.410654 0.000001 0.723231 0.000278
1.929950 -0.000000 0.004737 -0.000000 -0.723243 -0.000278
1.935580 0.821910 0.751903 0.000000 0.877620 0.000020
1.895589 0.833293 0.705420 0.000000 0.999592 -0.000000
3.722444 0.616060 0.815548 -0.062556 0.009018 0.009314
2.177299 0.651142 0.709647 0.000000 -0.999592 0.000000
3.559187 0.782139 0.625771 -0.000001 0.427360 -0.000019
1.703688 0.208646 0.198209 -0.053682 -0.016566 0.015673
1.746988 1.270580 0.206788 -0.053682 0.008285 0.008106
1.518010 0.526415 0.915617 -0.030832 0.012396 0.012442
3.733242 0.913262 0.555895 -0.062555 -0.006442 -0.006686
3.733242 0.913262 0.859497 -0.062555 -0.006442 0.006686
3.733242 0.582687 0.543846 -0.062555 -0.006417 0.006710
3.672473 0.946482 0.502237 0.039515 0.018916 0.019706
0.164771 0.653198 0.712786 -0.115358 -0.000193 0.000006
3.848179 0.653865 0.754069 -0.131610 -0.001650 0.000997
1.974348 1.165898 1.112244 0.053702 -0.011420 0.011699
1.974348 1.123808 1.072054 0.053703 -0.012458 0.012710
1.941049 0.084898 1.331028 0.093344 -0.007168 -0.007485
1.924400 0.593985 0.562436 0.053703 0.018683 -0.018483
3.111295 0.709157 0.622770 0.000000 -0.376692 -0.000011
2.327485 0.661892 0.664666 -0.000000 -0.877622 -0.000010
1.929950 0.520122 0.923071 0.053703 0.008306 0.008597
1.929950 0.947802 0.517153 0.093347 0.005077 0.005310
1.638383 0.400765 1.036833 -0.030829 0.009987 0.010278
1.885701 0.022123 0.023703 -0.053682 -0.016566 0.015673
1.578701 0.492035 0.940473 -0.053682 -0.007042 -0.006912
3.201940 0.651175 0.710785 0.000000 -0.999591 0.000000
1.443396 0.825468 0.789935 -0.030831 -0.018361 0.017068
2.495444 0.701468 0.789204 0.000000 -0.453960 0.000036
1.578701 0.987603 0.945506 -0.030830 -0.011708 0.011841
1.676021 0.542247 0.907619 -0.030830 0.012052 0.012143
2.215512 0.783738 0.788816 0.000000 0.454053 0.000018
0.164771 0.742222 0.618526 -0.115379 0.000001 -0.000097
1.887402 0.637448 0.814205 0.053703 0.018682 0.018483
2.831363 0.657197 0.740494 0.000000 -0.936864 0.000007
0.759864 0.758083 0.797437 0.000000 0.184510 0.000097
2.088432 0.651089 0.707614 -0.000000 -0.999592 -0.000000
0.436387 0.651115 0.705663 -0.000000 -0.999893 -0.000000
0.349297 0.740108 0.616590 -0.000000 -0.014289 -0.000162
1.581891 0.377005 0.358966 -0.053681 -0.002900 0.002867
1.665092 0.916906 0.531613 -0.030831 -0.012396 -0.012442
1.826820 1.250790 1.182512 -0.053683 0.008284 -0.008106
1.790287 0.224737 0.209447 -0.030831 0.013085 -0.013030
1.730680 0.246024 0.231629 -0.030831 0.014461 -0.014164
1.717147 0.264730 1.165901 -0.030833 0.015149 0.014710
1.746988 1.267753 1.211564 -0.030831 -0.013773 0.013604
1.932725 0.989712 0.938616 0.093346 0.004779 -0.004998
1.802306 0.991149 0.958178 0.053702 -0.016608 0.016620
3.111295 0.782433 0.625911 0.000000 0.453942 -0.000018
1.166877 0.651119 0.706558 0.000000 -0.999591 -0.000000
3.592277 0.507272 0.487191 0.039515 0.012222 -0.011096
3.592277 0.973338 0.932217 0.039515 0.011037 -0.012276
1.687707 0.373323 1.064273 -0.030832 0.009298 0.009630
3.624779 0.847099 0.625939 0.039515 -0.009379 -0.008672
3.727146 0.703224 0.790056 0.000001 -0.428315 0.000154
2.943336 0.828779 0.736205 0.000001 0.945535 0.000006
2.103539 0.782868 0.789259 -0.000000 0.453931 0.000036
3.671160 0.697338 0.628381 -0.000000 -0.504132 -0.000125
1.913301 0.314594 1.108104 0.093342 -0.003584 -0.003751
1.700423 0.403273 0.378272 -0.030832 0.019966 -0.018133
1.446562 0.564070 0.537586 -0.053681 -0.011046 0.010711
1.494936 0.922171 0.539468 -0.053683 0.008285 0.008106
1.880002 1.162394 1.115913 0.053700 -0.006230 0.006481
3.783133 0.678706 0.773052 -0.130121 -0.000298 0.000315
1.757582 0.956487 0.491137 -0.030831 -0.022718 -0.019791
1.596626 0.944483 0.508995 -0.030832 -0.012396 -0.012442
1.720109 0.663133 0.658556 -0.053681 -0.012426 0.011985
0.967814 0.833274 0.710622 0.000000 0.999592 0.000000
3.602424 0.910014 0.558448 0.039515 -0.013967 -0.012515
3.559187 0.783738 0.788816 0.000001 0.453596 0.000036
2.755826 0.651191 0.704038 -0.000000 -0.999569 -0.000000
2.469673 0.651223 0.712492 0.000000 -0.999591 0.000000
1.614321 0.505317 0.476224 -0.030830 0.005855 -0.006222
1.375715 0.659191 0.670134 0.000001 -0.914189 -0.000008
1.487688 0.823804 0.667086 0.000000 0.890729 -0.000005
3.697820 0.737345 0.798692 0.000000 -0.028581 0.000020
1.585927 0.643018 0.810675 -0.030831 0.016756 0.015928
1.319729 0.704363 0.624796 0.000000 -0.428433 -0.000038
1.918851 0.827119 0.622505 0.053703 -0.006922 -0.007190
3.682085 0.649386 0.812519 -0.062554 -0.009839 -0.010218
3.682085 0.835058 0.812519 -0.062553 0.009839 -0.010218
1.207756 0.826170 0.743172 -0.000000 0.926601 0.000015
3.461351 0.902121 0.551700 0.039515 0.019064 0.019831
1.695883 0.479719 0.943960 -0.053681 -0.006628 -0.006512
2.453677 0.744905 0.616637 0.000000 0.028581 -0.000159
3.314507 0.834310 0.797284 0.039516 0.004768 -0.005466
3.375086 0.832654 0.799019 0.039515 0.007152 -0.008126
3.447214 0.699335 0.788104 0.000000 -0.479160 0.000017
2.719390 0.672142 0.765946 -0.000001 -0.720551 0.000002
1.850404 0.824577 0.619842 0.053705 -0.006921 -0.007189
3.768451 0.513550 0.934270 -0.062554 -0.005347 -0.005601
1.632902 0.647031 0.635627 -0.053682 -0.010079 0.009807
3.055309 0.824826 0.669212 -0.000000 0.903279 -0.000009
1.394377 0.740434 0.798781 0.000000 -0.028581 0.000010
3.535181 0.645499 0.629375 0.039515 0.013007 -0.011742
1.891102 1.023974 0.965936 0.093347 0.004480 -0.004687
2.327485 0.775664 0.622923 -0.000001 0.375140 -0.000022
2.383471 0.711866 0.621768 0.000000 -0.322376 -0.000013
1.838714 0.739377 0.616641 0.000000 -0.028581 -0.000159
1.907751 1.121335 1.074645 0.053700 -0.006230 0.006481
1.431702 0.784390 0.626908 0.000000 0.454233 -0.000004
3.751073 0.940640 0.528107 -0.062555 -0.006442 -0.006686
1.770062 1.308982 0.169760 -0.053682 0.007456 0.007311
3.279254 0.701758 0.789352 0.000001 -0.443945 0.000009
3.677025 0.603191 0.558489 -0.062554 -0.008983 0.009348
2.103539 0.781331 0.625388 0.000001 0.428164 -0.000077
3.409889 0.743930 0.616584 0.000000 0.014661 -0.000010
2.528325 0.833316 0.709159 0.000000 0.999592 0.000000
1.832370 0.212969 1.202983 -0.053682 -0.015738 -0.014953
1.537553 0.633506 0.614679 -0.053683 -0.008284 0.008106
1.823607 0.824234 0.747429 0.000000 0.903312 0.000009
3.707904 0.992042 0.460928 0.039515 0.007884 0.008929
3.111295 0.776493 0.792133 0.000000 0.375979 0.000045
2.383471 0.712558 0.793859 -0.000000 -0.322582 0.000053
1.991566 0.651328 0.701195 -0.000000 -0.996850 -0.000000
1.039797 0.779449 0.624518 -0.000001 0.397701 -0.000010
1.263742 0.784752 0.788299 -0.000000 0.479167 0.000067
2.327485 0.785823 0.787715 -0.000000 0.479234 0.000033
1.623727 0.622454 0.831273 -0.030832 0.016755 0.015928
1.608957 0.339592 1.092149 -0.053681 -0.010770 -0.010454
2.327485 0.660437 0.747907 0.000000 -0.891031 0.000009
1.813406 0.434395 0.434629 0.093346 -0.008959 0.009341
2.551431 0.825122 0.745555 -0.000000 0.915496 0.000008
1.943824 0.295526 1.130269 0.093346 -0.003285 -0.003439
3.699735 0.868519 0.842824 -0.062555 0.008983 -0.009348
1.785160 0.424636 0.992779 -0.053680 -0.012012 -0.011606
1.586293 0.574808 0.559111 -0.053682 -0.010079 0.009807
1.835605 1.118655 0.337941 0.053703 -0.013495 -0.013709
3.608196 0.633179 0.794789 0.039515 0.009379 0.008672
3.608196 0.851266 0.794789 0.039515 -0.009379 0.008672
3.719559 0.485539 0.454374 0.039514 -0.012614 0.013877
3.477609 0.846971 0.617625 0.039515 -0.010558 -0.009694
0.983810 0.668736 0.761590 0.000000 -0.799381 0.000007
1.375715 0.759801 0.618278 -0.000000 0.184676 -0.000048
1.880002 0.312438 0.309545 0.093347 -0.007168 0.007485
2.663404 0.705108 0.624468 -0.000001 -0.402073 -0.000041
0.815851 0.702967 0.625458 -0.000001 -0.428168 -0.000038
1.741594 0.380744 1.040444 -0.053681 -0.005592 -0.005507
3.821901 0.580374 0.866076 -0.062556 -0.006417 -0.006710
3.848179 0.830580 0.661322 -0.131612 0.001650 -0.000997
1.774558 0.579194 0.837465 0.093346 -0.010751 -0.011186
1.714416 0.525678 0.519273 -0.053682 -0.003521 0.003478
3.130846 0.651175 0.704607 0.000000 -0.999591 -0.000000
1.708867 0.923097 0.891340 -0.030831 -0.012052 0.012143
1.095783 0.824007 0.667485 0.000000 0.903611 -0.000004
3.356452 0.644099 0.610686 0.039513 -0.019065 0.019832
1.731209 0.843080 0.597085 -0.030830 -0.010331 -0.010597
1.880002 1.162394 0.299478 0.053703 -0.012458 -0.012710
3.484663 0.915849 0.876800 0.039517 0.011746 -0.013002
3.468330 0.596880 0.851451 0.039515 -0.009535 -0.010704
3.449696 0.589188 0.558254 0.039518 -0.009534 0.010703
3.811103 0.626348 0.592117 -0.062556 -0.015397 0.015718
1.482412 0.839789 0.621728 -0.053681 0.005523 0.005439
3.223268 0.775287 0.622770 0.000000 0.376181 -0.000006
2.999322 0.700779 0.788853 0.000000 -0.453995 0.000036
1.991566 0.778890 0.624272 0.000001 0.341876 -0.000006
1.556116 0.739296 0.798748 -0.000001 -0.028346 0.000321
1.632902 0.837414 0.779765 -0.053680 0.010080 -0.009808
1.935500 0.431778 0.999089 0.093346 -0.008362 -0.008723
1.935500 0.431778 0.416303 0.093347 -0.004181 0.004375
1.935500 1.052666 0.999089 0.093348 0.004181 -0.004375
1.752883 0.883966 0.817621 -0.053684 0.006213 -0.006110
1.668475 0.562862 0.527147 -0.030831 0.012396 -0.012442
0.871837 0.660298 0.667779 0.000000 -0.903611 -0.000009
1.685562 0.974192 0.501486 -0.053680 0.003521 0.003478
1.543675 0.703775 0.625074 0.000002 -0.296883 -0.000007
1.700423 1.081171 1.037120 -0.030833 -0.019966 0.018133
0.113252 0.722578 0.782431 -0.307352 -0.000034 0.000116
1.735628 0.833230 0.712167 0.000000 0.999592 0.000000
3.447320 0.646583 0.608084 0.039516 -0.019063 0.019831
0.479932 0.663973 0.660985 0.000000 -0.863583 -0.000021
3.712688 0.952445 0.895265 0.039516 -0.020946 0.017591
1.899144 0.740596 0.798785 0.000000 -0.028591 0.000318
3.712688 0.545148 0.909035 -0.062554 -0.010694 -0.011081
3.811103 0.863027 0.818111 -0.062555 -0.015458 0.015659
3.868046 0.860853 0.820970 -0.062555 0.009625 -0.010000
3.868046 0.623592 0.594421 -0.062553 -0.009625 0.010000
3.839574 0.861940 0.595851 -0.062554 -0.004831 -0.005026
1.823607 0.775400 0.792576 -0.000001 0.375735 0.000045
1.502711 0.616596 0.820456 -0.053683 -0.008284 -0.008106
1.603393 0.522975 0.907333 -0.053681 -0.003728 -0.003682
0.447051 0.737832 0.798706 0.000000 -0.028581 0.000020
1.797835 0.651223 0.702899 0.000000 -0.999591 -0.000000
1.751365 1.036160 0.997649 -0.030829 -0.004994 0.005333
1.704247 0.651475 0.607564 -0.030830 0.010331 -0.010597
1.375715 0.824304 0.747282 0.000000 0.903610 0.000004
0.255986 0.661065 0.666253 -0.000000 -0.891002 -0.000037
1.766515 0.486198 0.932018 -0.053680 -0.003314 -0.003275
1.635400 1.018449 0.976404 -0.030837 -0.005509 0.005866
1.739049 1.005556 0.968839 -0.030829 -0.010676 0.010913
3.739210 0.651069 0.609415 -0.062554 -0.004492 0.004710
0.399063 0.740108 0.798801 0.000000 -0.014650 0.000020
1.530786 0.833104 0.614727 -0.030832 -0.013773 -0.013604
3.326354 0.738483 0.616667 0.000000 -0.028602 -0.000020
3.503200 0.708140 0.792209 -0.000000 -0.375585 0.000022
1.719736 1.053966 0.423516 -0.053676 0.003107 0.003071
1.860579 1.066970 1.026243 0.053703 -0.007268 0.007543
3.296139 0.651189 0.711273 0.000000 -0.999592 0.000000
1.698959 0.843767 0.817587 -0.030832 -0.010330 0.010596
1.823607 0.826567 0.673199 0.000001 0.850018 -0.000001
