3.329092 0.597534 0.789201 0.000001 0.792138 -0.001143
2.017239 0.638233 0.793558 -0.044178 0.006718 -0.004779
2.923503 0.501015 0.561298 0.000000 -0.014050 -0.000018
3.279172 0.506966 0.735320 0.000000 0.028114 0.000018
2.898574 0.603398 0.499915 -0.000000 0.792137 0.000503
1.646177 0.560451 0.583164 0.000000 -0.610345 0.000181
1.972760 0.629053 0.512557 -0.044178 0.005038 0.003602
1.918240 0.201683 0.266578 -0.044177 -0.008002 0.005667
2.021936 0.287480 0.935024 -0.014980 0.026865 0.010319
1.336165 0.481935 0.733003 0.000000 -0.236164 0.000062
2.158154 0.203322 1.038190 0.044200 0.010835 0.008109
0.842180 0.441166 0.710287 -0.000001 -0.696591 0.000016
2.976593 0.410643 0.750084 0.000000 0.792138 0.000755
1.725623 0.385356 0.493031 -0.014980 0.039397 -0.011051
1.930566 0.237717 0.995938 -0.014981 0.012424 0.007539
1.673325 0.355511 0.834927 -0.044180 -0.005532 -0.003950
1.187970 0.585450 0.622210 0.000000 0.956828 -0.000009
3.213307 0.585749 0.673531 -0.000001 0.954416 0.000005
0.693985 0.453064 0.576604 -0.000000 -0.567113 -0.000044
2.025473 0.800127 0.256545 -0.014978 -0.020789 -0.009583
1.713925 0.586317 0.761418 -0.014980 -0.019718 0.009406
3.335178 0.568980 0.544585 0.000001 0.792137 0.000340
3.247828 0.756564 0.978248 0.172077 0.002310 -0.003613
2.998622 0.336236 0.450073 -0.000001 0.792138 -0.000755
2.669924 0.508414 0.735231 -0.000000 0.070079 0.000215
3.059055 0.697136 0.901118 0.172073 0.002310 -0.003613
0.200000 0.440810 0.709941 0.009711 -0.001525 0.001464
2.181338 0.353730 0.841302 0.044200 0.015396 0.011204
3.048646 0.415411 0.644548 -0.000000 -0.999605 -0.000000
1.696720 0.712846 0.921508 -0.014982 -0.047246 0.011278
1.903278 0.883262 0.154044 -0.014979 -0.034457 -0.010839
1.506050 0.449237 0.717346 -0.044177 -0.011064 -0.007724
1.937289 0.347263 0.439588 -0.014980 0.063024 -0.011525
2.225338 0.526055 0.564561 0.000000 0.263514 -0.000028
3.271425 0.763993 0.308838 0.172075 0.002310 0.003613
3.436601 0.188785 1.055377 0.172074 -0.002310 -0.003613
3.436601 0.815993 1.055377 0.172074 0.002310 -0.003613
3.247828 0.248213 0.978248 0.172076 -0.002310 -0.003613
2.077213 0.421051 0.761477 0.044200 0.012166 0.009038
1.187970 0.419900 0.620470 0.000000 -0.943656 -0.000001
2.324135 0.585771 0.623269 0.000000 0.956934 -0.000005
0.195773 0.589549 0.648363 0.017905 0.000577 0.000008
3.479516 0.319874 0.411485 -0.368407 -0.001610 0.001053
2.181338 1.001241 1.295804 0.000003 0.610297 0.000265
2.181338 0.003536 0.000923 -0.000000 -0.610343 -0.000265
3.163909 0.506509 0.735332 0.000000 0.028114 0.000036
2.422932 0.445282 0.582628 0.000000 -0.655889 -0.000009
1.807943 0.804608 1.040602 -0.014980 -0.046579 0.011261
3.384424 0.438036 0.547490 -0.000001 -0.792138 0.000681
3.111217 0.505441 0.561355 -0.000070 0.011142 -0.001713
1.380624 0.589443 0.649431 -0.000000 0.999605 0.000000
2.115446 0.673785 0.856706 0.129549 0.005643 -0.004344
1.807097 0.502389 0.561278 0.000000 0.027724 -0.000145
2.175939 0.534863 0.729158 0.000000 0.369452 0.000019
2.799492 0.389355 0.501661 0.172076 -0.002310 0.003613
3.059055 0.697136 0.395608 0.172074 0.002310 0.003613
1.863250 0.634854 0.496207 -0.044177 0.022162 0.014259
3.015713 0.584780 0.676546 0.000001 0.948117 0.000010
3.419199 0.704120 0.927535 -0.000000 0.792137 -0.000434
2.104465 0.226390 0.306611 0.129549 -0.002238 0.001724
3.184605 0.609016 0.527329 0.000000 -0.792138 -0.000315
1.830150 0.588243 0.633776 0.000000 0.988109 -0.000001
2.181338 0.603294 0.517402 0.044200 -0.017676 -0.012648
0.298797 0.503915 0.561300 0.000000 0.014056 -0.000286
3.429155 0.302574 0.890342 -0.000002 0.792123 0.000217
2.027744 0.512291 0.561845 0.000000 0.126436 -0.000030
0.611654 0.499032 0.735354 0.000000 -0.028114 0.000036
0.792782 0.580440 0.686967 0.000000 0.894739 0.000001
1.919167 0.108407 1.159696 -0.044175 -0.010670 -0.007464
2.963198 0.410643 0.546643 0.000000 0.792138 -0.000377
1.568338 0.501931 0.561291 0.000000 -0.028114 -0.000018
2.569481 0.500710 0.735401 0.000000 -0.028114 0.000018
1.617274 0.647302 0.460286 -0.014978 -0.047256 -0.011276
1.681955 0.496059 0.735209 0.000000 -0.070276 0.000107
2.729202 0.502389 0.561278 0.000000 0.013665 -0.000294
2.103488 0.589446 0.647371 0.000000 0.999605 -0.000000
3.107002 0.586694 0.740427 0.000000 -0.792138 0.000503
2.098363 0.850650 0.214131 -0.044175 0.006047 0.004311
2.274736 0.438901 0.707965 0.000000 -0.736205 0.000014
1.928947 0.509594 0.735148 -0.000000 0.070249 0.000027
2.122768 0.077064 1.187837 0.129549 -0.005059 -0.003895
0.842180 0.567573 0.590623 -0.000001 0.696570 -0.000002
3.149913 0.659240 0.834582 -0.000002 -0.792121 0.000283
2.571127 0.427699 0.603596 0.000000 -0.854168 -0.000002
0.499684 0.506203 0.561385 0.000000 0.028114 -0.000036
3.436601 0.815993 0.241349 0.172073 0.002310 0.003613
3.404791 0.692308 0.384522 -0.000001 0.792133 0.000217
3.331539 0.242345 0.328216 -0.000000 0.792139 -0.000326
2.071991 0.151690 1.087980 -0.044174 -0.006047 -0.004311
3.187732 0.356736 0.854753 0.000000 -0.792138 -0.000315
0.990376 0.451502 0.577701 0.000000 -0.587913 -0.000005
2.071991 0.843029 1.095730 -0.014981 -0.009382 0.006268
1.935057 0.909479 1.176710 -0.014982 -0.060672 0.011500
1.336165 0.445887 0.582103 -0.000000 -0.654806 -0.000009
3.419130 0.589718 0.658967 -0.041105 0.001137 0.000016
1.820554 0.305522 0.893246 -0.044177 -0.022162 -0.014259
1.982724 0.055971 0.068976 -0.044177 -0.007824 0.005544
1.982724 0.055971 1.227750 -0.044176 -0.015647 -0.010615
2.102024 0.770681 0.979591 0.129549 0.004475 -0.003446
1.079293 0.504067 0.735401 -0.000000 0.027724 0.000036
2.844465 0.415396 0.651644 0.000000 -0.999605 0.000000
3.145194 0.382778 0.475773 0.000000 -0.792138 0.000142
1.965284 0.858986 1.104254 -0.044177 0.006580 -0.004683
2.022120 0.351131 0.482120 -0.044178 -0.002519 0.001810
3.015713 0.487501 0.562564 -0.000000 -0.181350 -0.000164
3.386109 0.619572 0.478923 0.000001 0.792137 0.000571
0.891579 0.516146 0.734347 -0.000001 0.153502 0.000097
1.941762 0.826053 0.225683 -0.014980 -0.010396 -0.006733
3.443486 0.432436 0.739152 -0.368409 -0.000800 -0.000523
3.191662 0.687143 0.425931 0.000001 -0.792133 -0.000315
2.422932 0.538962 0.569340 0.000000 0.421181 -0.000016
2.842641 0.594135 0.750084 0.000000 -0.792138 0.000755
0.595188 0.580304 0.609486 0.000000 0.894739 -0.000004
0.249399 0.557600 0.715698 0.000000 0.634397 0.000074
1.945956 0.737720 0.937204 -0.044178 0.004712 -0.003372
3.093994 0.601575 0.536986 0.000000 -0.792138 -0.000503
2.181338 0.730637 0.352129 0.044201 -0.013116 -0.009689
1.820554 0.692380 0.398184 -0.014980 -0.063026 -0.011525
3.294386 0.308617 0.414228 0.000000 0.792138 -0.001143
0.077477 0.482668 0.704721 -0.434251 -0.000022 0.000058
0.200000 0.425019 0.608393 0.009708 -0.001903 -0.000932
2.926796 0.498879 0.735350 0.000000 -0.028114 0.000009
0.743383 0.425288 0.688838 -0.000000 -0.881914 0.000004
0.420647 0.501015 0.735429 0.000000 -0.014061 0.000071
1.928947 0.479459 0.564360 0.000000 -0.263976 -0.000007
2.091417 0.060231 0.083125 -0.044177 -0.007824 0.005545
2.091417 0.944546 1.213602 -0.044178 0.007824 -0.005544
3.246045 0.653660 0.827339 0.000000 -0.792138 0.000692
1.731353 0.416985 0.665390 0.000001 -0.892731 0.000000
0.545789 0.576800 0.693587 -0.000001 0.853969 0.000018
2.827999 0.589409 0.650652 0.000000 0.999605 0.000000
1.978345 0.575046 0.600366 0.000001 0.800170 -0.000003
0.545789 0.432289 0.700020 -0.000000 -0.807295 0.000022
2.815851 0.410643 0.750084 0.000000 0.792138 0.000755
3.377432 0.364743 0.844360 -0.000000 -0.792138 -0.000571
2.108125 0.133445 0.164219 0.044200 0.017106 -0.012294
0.397594 0.576840 0.603205 0.000000 0.853948 -0.000009
0.792782 0.494917 0.561602 -0.000000 -0.098151 -0.000153
1.569606 0.607976 0.785400 -0.014982 -0.031527 0.010676
3.438339 0.502389 0.648363 1.000000 0.000000 0.000000
1.803131 0.584780 0.735488 -0.044183 0.004149 -0.002973
3.427616 0.614397 0.776382 -0.000001 -0.792137 0.000340
1.984556 0.724152 0.353911 -0.014981 -0.013438 -0.007887
2.373533 0.458143 0.723370 0.000000 -0.520182 0.000025
1.583158 0.588657 0.636492 -0.000001 0.989646 -0.000001
2.181338 0.337812 0.434766 0.044201 0.015396 -0.011204
2.604059 0.502541 0.561281 0.000000 0.014061 -0.000036
3.312104 0.486600 0.562730 -0.000001 -0.181321 -0.000327
2.110565 0.632649 0.474173 0.044200 -0.016536 -0.011935
0.990376 0.577078 0.693130 -0.000000 0.854104 0.000018
0.108601 0.482215 0.578337 -0.312748 -0.000027 -0.000105
0.595188 0.426927 0.604913 0.000000 -0.868387 -0.000004
2.653458 0.589414 0.646227 0.000000 0.999605 -0.000000
1.681708 0.611904 0.514353 -0.044177 0.011064 0.007724
2.852106 0.555033 0.562685 -0.000000 0.792139 0.000755
2.077213 0.421051 0.535250 0.044200 0.012166 -0.009038
3.489782 0.196166 0.268283 -0.000000 0.792138 -0.000434
2.115040 0.594237 0.753378 0.129548 0.006032 -0.004643
1.978345 0.420925 0.617594 0.000000 -0.939154 -0.000003
2.010508 0.455224 0.721959 0.044200 0.013306 0.009818
2.521729 0.576443 0.602553 0.000000 0.854022 -0.000018
2.149612 0.893099 1.148660 0.129550 0.005837 -0.004493
2.098548 0.501626 0.735427 0.000000 -0.028114 0.000071
0.397594 0.426246 0.606106 0.000000 -0.868387 -0.000004
1.962844 0.153498 0.202996 -0.044177 -0.006758 0.004807
1.237368 0.449390 0.717454 -0.000001 -0.611148 0.000010
3.093565 0.339994 0.876481 0.000001 -0.792138 -0.000503
3.159794 0.433003 0.540957 0.000000 -0.792138 0.000142
3.384880 0.258298 0.947806 -0.000000 0.792138 0.000434
1.964218 0.582396 0.762502 -0.014980 -0.019154 0.009304
2.752255 0.499642 0.735371 0.000000 -0.028114 0.000071
2.974987 0.644321 0.849925 0.000000 0.792138 -0.000377
2.951352 0.351117 0.827339 -0.000001 0.792137 0.000629
1.583158 0.474930 0.730997 0.000001 -0.316147 0.000045
2.156180 0.415321 0.647753 -0.000000 -0.999605 -0.000000
2.738635 0.418083 0.556300 -0.000001 0.792137 -0.000503
3.262706 0.574754 0.599919 0.000000 0.823427 -0.000003
1.868755 0.272127 0.345933 -0.014981 0.026863 -0.010320
1.868755 0.739497 0.351209 -0.044179 0.004801 0.003435
1.852803 0.403687 0.754392 -0.044177 -0.022162 -0.014259
3.361503 0.502389 0.735448 0.010106 0.000065 0.004642
2.097143 0.257468 0.948213 0.129550 -0.002432 -0.001874
2.274736 0.579759 0.688334 -0.000000 0.894778 0.000008
1.868755 0.272127 0.950793 -0.014981 0.026864 0.010320
1.823833 0.187060 1.057615 -0.044177 -0.014936 -0.010183
1.785426 0.653195 0.464827 -0.044182 0.004149 0.002973
3.033300 0.649940 0.474216 0.000000 -0.792138 -0.000440
3.114511 0.426208 0.690554 0.000000 -0.868387 0.000002
1.731353 0.529920 0.565754 -0.000000 0.310821 -0.000006
3.510399 0.781385 0.286265 -0.368409 -0.001428 -0.001289
3.515546 0.207312 1.031332 -0.368407 -0.000800 -0.000523
3.515546 0.797466 1.031332 -0.368400 -0.000710 0.000640
2.089822 0.711512 0.926410 0.044200 -0.007129 0.005423
3.262706 0.422446 0.682881 -0.000000 -0.918396 0.000013
1.286767 0.583691 0.617165 0.000000 0.929148 -0.000003
1.728498 0.265713 0.341192 -0.044177 -0.004802 0.003435
1.935057 0.095298 0.120017 -0.044176 -0.010669 0.007464
1.839722 0.173951 0.222098 -0.044177 -0.014936 0.010183
1.998613 0.961915 1.244763 -0.014980 -0.044559 0.011211
1.633163 0.344366 0.443272 -0.044176 -0.008299 0.005869
2.004542 0.318350 0.861491 -0.044178 -0.005068 -0.003623
3.269294 0.700589 0.922952 0.000001 0.792122 -0.000136
1.744387 0.752173 0.972548 -0.014981 -0.054639 0.011416
1.187970 0.571783 0.700970 -0.000001 0.789265 0.000012
1.775106 0.420980 0.560482 -0.044180 -0.003458 0.002481
3.153441 0.277927 0.357044 0.172075 -0.002310 0.003613
1.916394 0.400562 0.542805 -0.044177 -0.022162 0.014259
0.298797 0.430283 0.697185 -0.000000 -0.823583 0.000010
1.751333 0.346501 0.841542 -0.044179 -0.008298 -0.005869
2.001230 0.183941 1.065864 -0.014981 0.010396 0.006733
2.152866 0.558487 0.581650 -0.000000 -0.610341 0.000184
2.007767 0.243383 0.306106 -0.014981 0.011409 -0.007156
3.453780 0.604502 0.515835 -0.368406 -0.000710 -0.000640
1.712609 0.725955 0.358205 -0.014980 -0.047250 -0.011277
1.618152 0.445308 0.582407 -0.044176 -0.011065 0.007724
2.181338 0.778391 1.006575 0.044201 -0.010835 0.008109
2.181338 0.226387 0.290151 0.044202 0.010835 -0.008109
2.181338 0.937570 0.083559 0.044201 -0.010265 -0.007705
2.064197 0.278246 0.348966 0.044201 0.014256 -0.010455
2.120327 0.696663 0.391800 0.044200 -0.014256 -0.010455
2.181338 0.114961 0.145537 0.044200 0.014826 -0.010832
3.408515 0.250857 0.339264 0.000001 0.792135 -0.000326
0.891579 0.436153 0.591833 -0.000001 -0.738489 -0.000003
2.071075 0.049421 1.238197 -0.014979 0.042544 0.011154
1.015075 0.415368 0.646074 0.000005 -0.110424 -0.000000
2.866276 0.403202 0.536986 0.000000 0.792138 -0.001007
3.349427 0.735318 0.933320 0.000001 -0.792136 0.000434
1.763250 0.342586 0.437866 -0.014979 0.023660 -0.009981
1.792054 0.791500 0.273138 -0.014982 -0.012422 -0.007539
1.089173 0.571176 0.594972 0.000000 0.790544 -0.000023
1.089173 0.435029 0.593182 -0.000000 -0.772994 -0.000025
0.711274 0.589381 0.651644 0.000000 0.999605 0.000000
2.245097 0.503762 0.735409 0.000000 0.028114 0.000036
3.082148 0.343677 0.459730 0.000000 0.792138 -0.000503
3.265378 0.592274 0.747669 0.000000 -0.792137 0.000346
1.506050 0.555540 0.717346 0.000001 -0.610265 -0.000060
2.143511 0.394850 0.790675 0.044201 0.008839 0.006679
3.411590 0.340849 0.456060 0.000002 0.792132 -0.000326
1.767410 0.274884 0.939845 -0.044176 -0.005068 -0.003624
1.870380 0.559105 0.714600 0.000001 -0.610343 -0.000845
2.966315 0.573931 0.598724 0.000001 0.821096 -0.000005
2.373533 0.574797 0.696745 -0.000000 0.839423 0.000002
3.015713 0.532549 0.730050 -0.000000 0.343368 0.000021
0.085092 0.554080 0.685040 -0.404489 0.000057 0.000043
2.030789 0.750779 0.948929 -0.044173 0.008714 -0.006153
1.951522 0.634074 0.827750 -0.014979 -0.063029 0.011525
2.034912 0.629998 0.472130 0.044201 -0.017676 -0.012648
3.351045 0.673975 0.443021 0.000000 -0.792137 -0.000163
1.039774 0.445541 0.714324 -0.000000 -0.655777 0.000017
2.878897 0.441354 0.727577 -0.000001 -0.610340 0.000737
1.696440 0.636390 0.824513 -0.014983 -0.019713 0.009406
1.654840 0.409505 0.761295 -0.044171 -0.004150 -0.002973
2.119509 0.008590 1.283236 -0.044177 -0.012092 -0.008393
3.377432 0.640034 0.844360 0.000001 0.792138 -0.000571
2.274736 0.467310 0.568662 -0.000000 -0.395456 -0.000035
2.768721 0.565350 0.708519 -0.000001 0.714400 0.000007
1.754406 0.502389 0.735448 0.000000 0.028114 0.000143
1.658902 0.589465 0.648668 -0.000000 0.999616 0.000000
2.620526 0.557865 0.715480 0.000000 0.634406 0.000018
0.693985 0.543032 0.725373 0.000000 0.471390 0.000056
0.055411 0.461058 0.625521 -0.520599 -0.000036 -0.000018
2.031037 0.589452 0.649126 -0.000000 0.999605 0.000000
1.434962 0.566470 0.589407 0.000001 0.734960 -0.000014
3.246225 0.711519 0.359589 0.000000 0.792138 0.000271
1.434962 0.460634 0.724780 -0.000000 -0.471254 0.000028
0.940977 0.447178 0.715698 0.000001 -0.634271 0.000037
0.249399 0.553768 0.578061 0.000002 0.589846 -0.000083
2.150833 0.310778 0.890517 0.129550 -0.002627 -0.002024
0.693985 0.462555 0.725801 0.000000 -0.446667 0.000015
2.093482 0.169540 0.235179 0.129550 -0.007394 0.005688
1.861310 0.783168 0.289959 -0.044176 0.004090 0.002931
0.990376 0.521767 0.563462 -0.000001 0.236056 -0.000124
1.830150 0.426008 0.690185 -0.000000 -0.881949 0.000008
2.521729 0.450085 0.717990 0.000001 -0.570936 0.000005
1.637794 0.597813 0.766116 -0.044175 0.008299 -0.005870
1.138571 0.443320 0.712342 0.000001 -0.675745 0.000016
3.437331 0.777545 0.988125 0.000001 -0.792136 0.000434
1.828123 0.588794 0.557553 -0.044171 0.004150 0.002973
2.181338 0.682883 0.882620 0.044200 -0.007129 0.005423
3.239022 0.282386 0.916543 -0.000000 0.792138 0.000571
3.246045 0.367897 0.456459 0.000000 -0.792138 0.000173
3.033300 0.371617 0.835439 0.000000 -0.792138 -0.000440
3.227171 0.449744 0.562685 0.000000 -0.610341 -0.000737
1.533759 0.567423 0.590450 0.000000 0.754942 -0.000007
3.346413 0.568828 0.717240 0.074258 0.005716 0.007396
2.959240 0.386498 0.480601 -0.000000 -0.792138 0.000315
2.905687 0.571813 0.721113 -0.000000 0.610340 0.000368
1.237368 0.531151 0.730561 -0.000000 0.343474 0.000082
3.139701 0.433003 0.755769 0.000000 -0.792138 -0.000283
2.134970 0.815025 1.044196 0.129551 0.007394 -0.005688
1.385564 0.491730 0.561941 0.000000 -0.126025 -0.000059
1.434962 0.440624 0.586977 0.000000 -0.716800 -0.000004
2.034844 0.958635 0.055246 -0.014981 -0.044558 -0.011211
2.005762 0.330979 0.417274 -0.014980 0.057663 -0.011460
2.768721 0.436854 0.705700 -0.000000 -0.754894 0.000013
1.978421 0.132107 1.122277 -0.044178 -0.012091 -0.008393
0.174653 0.563553 0.587199 -0.055823 0.000507 -0.000536
1.537828 0.423019 0.545353 -0.044177 -0.022122 0.014239
3.361503 0.417487 0.667741 -0.015786 -0.002888 0.000690
2.669924 0.418245 0.625949 0.000000 -0.964276 -0.000002
0.693985 0.521095 0.563318 -0.000000 0.208853 -0.000071
3.256375 0.340089 0.876359 0.000000 -0.792138 -0.000571
3.394785 0.405667 0.791247 0.000001 -0.792137 -0.000340
2.030031 0.369906 0.787918 0.129549 -0.006032 -0.004643
0.822421 0.505135 0.735371 0.000000 0.028114 0.000071
3.438339 0.478371 0.563428 -0.020132 -0.000662 -0.002223
0.855353 0.415316 0.647524 0.000000 -0.999901 -0.000000
3.065112 0.554569 0.578646 0.000000 0.590212 -0.000003
0.249399 0.483272 0.733320 0.000000 -0.208857 0.000071
3.028596 0.597855 0.754912 0.000000 -0.792138 0.000440
3.484663 0.700984 0.906112 -0.368409 -0.000710 0.000640
3.227931 0.371579 0.800783 -0.000000 0.792138 0.000173
2.113006 0.896888 0.150986 -0.044177 0.020622 0.013450
3.163909 0.561991 0.584876 -0.000000 0.676402 -0.000008
3.256375 0.664689 0.420368 -0.000001 0.792137 0.000571
0.249399 0.457654 0.573654 0.000001 -0.519723 -0.000050
1.672825 0.405736 0.531556 -0.044176 -0.011065 0.007724
3.291080 0.421936 0.770132 -0.000000 -0.792138 -0.000571
1.756962 0.696130 0.893717 -0.044178 0.004149 -0.002973
1.484361 0.416311 0.661517 -0.000000 -0.986021 0.000001
2.114628 0.980774 0.034539 -0.044177 0.006402 0.004559
3.380712 0.574301 0.598726 -0.008376 0.004785 -0.002530
3.310086 0.397811 0.529988 -0.000001 0.792137 -0.001143
2.111786 0.799830 0.257284 0.044200 -0.010835 -0.008109
2.959240 0.635058 0.493530 0.000002 -0.792133 -0.000315
3.041991 0.423702 0.767841 0.000000 -0.792139 -0.000881
0.348195 0.458773 0.572996 0.000001 -0.495913 -0.000106
2.038979 0.434504 0.590732 0.129550 -0.004540 0.003496
1.674202 0.561433 0.712806 -0.000000 -0.610343 -0.000362
2.719323 0.564073 0.586894 -0.000002 0.699506 -0.000008
1.945956 0.267058 0.937204 -0.044179 -0.004712 -0.003372
2.521729 0.563064 0.710819 -0.000000 0.697102 0.000031
3.380712 0.512921 0.561620 -0.013267 0.000543 -0.003492
2.916916 0.439799 0.587825 0.000000 -0.716722 -0.000015
0.545789 0.458905 0.572921 0.000001 -0.495850 -0.000053
3.015713 0.432492 0.700297 -0.000000 -0.807361 0.000011
1.912610 0.345331 0.830957 -0.044177 -0.022162 -0.014259
2.139851 0.158421 1.085904 0.129551 -0.006616 -0.005091
1.877199 0.208500 1.023781 -0.044177 -0.008180 -0.005788
3.215297 0.694584 0.880452 0.000000 -0.792138 0.000173
2.007767 0.773059 0.315094 -0.044179 0.004090 0.002931
3.407058 0.238988 1.007573 -0.000003 -0.792127 -0.000434
2.137410 0.036911 0.041055 0.044201 0.020525 -0.014347
2.137410 0.967866 1.255672 0.044202 -0.020524 0.014346
1.867035 0.441411 0.560717 -0.014981 0.028719 -0.010477
2.084941 0.317313 0.895553 0.044200 0.007699 0.005844
1.668782 0.502083 0.561287 -0.000000 -0.028114 -0.000071
0.693985 0.416839 0.632124 -0.000000 -0.983315 -0.000006
0.545789 0.551273 0.576301 -0.000001 0.567037 -0.000044
3.245285 0.575495 0.536129 0.000000 0.792138 0.000346
1.919740 0.429927 0.751854 -0.014982 0.014366 0.008175
1.999822 0.238273 0.973126 -0.044177 -0.008180 -0.005788
1.286767 0.485325 0.562968 0.000000 -0.208489 -0.000018
2.284616 0.415347 0.646837 -0.000000 -0.999605 -0.000000
1.789119 0.432651 0.745237 -0.014980 0.023658 0.009981
0.446992 0.545574 0.572750 0.000000 0.495887 -0.000013
2.799492 0.615423 0.795065 0.172075 0.002310 -0.003613
1.889026 0.708664 0.920857 -0.014979 -0.057665 0.011459
3.114511 0.439374 0.588263 -0.000000 -0.716706 -0.000015
0.348195 0.545839 0.572902 0.000001 0.495885 -0.000053
0.132929 0.445811 0.704941 -0.217976 -0.000123 0.000117
1.434962 0.581187 0.685421 -0.000000 0.906769 0.000004
1.973139 0.767505 0.997532 -0.014979 -0.023322 0.009939
3.164111 0.395799 0.804054 -0.000002 -0.792127 -0.000283
2.274736 0.563420 0.586253 -0.000000 0.692739 -0.000004
1.935349 0.820057 1.052424 -0.044176 0.003735 -0.002678
3.281678 0.282098 0.345104 0.000001 -0.792126 0.000136
1.925685 0.245354 0.327828 -0.044176 -0.017780 0.011871
3.195620 0.629440 0.466116 -0.000000 0.792138 0.000629
1.873698 0.336160 0.450079 -0.044177 -0.022162 0.014259
2.126541 0.434303 0.702660 0.000000 -0.790520 0.000023
1.834786 0.668941 0.869154 -0.014980 -0.063026 0.011525
3.443968 0.748302 0.311850 -0.000001 0.792138 0.000651
3.355336 0.720399 0.348063 0.000003 0.792103 0.000217
1.237368 0.442425 0.585215 0.000001 -0.696591 -0.000016
3.017553 0.380880 0.508015 0.000000 0.792138 -0.000440
1.237368 0.559812 0.582904 -0.000000 0.655788 -0.000035
2.324135 0.434256 0.594127 -0.000000 -0.788625 -0.000003
2.181338 0.417401 0.538062 0.044201 0.008839 -0.006679
2.225338 0.418557 0.671919 0.000001 -0.963837 0.000004
3.125503 0.605258 0.799226 0.000000 0.792138 -0.000142
1.927938 0.307735 0.389671 -0.014980 0.014452 -0.008200
2.414699 0.415351 0.646685 0.000000 -0.999605 -0.000000
0.446992 0.454135 0.575872 0.000000 -0.544028 -0.000006
3.213307 0.545938 0.723768 0.000000 0.495959 0.000053
0.249399 0.415928 0.658719 -0.000001 -0.991733 0.000004
0.048342 0.522988 0.611091 -0.548309 0.000016 -0.000027
1.336165 0.545043 0.724279 0.000000 0.495887 0.000013
1.336165 0.429690 0.696297 0.000000 -0.838336 0.000005
1.780751 0.572691 0.596984 0.000000 0.807248 -0.000003
2.072739 0.631324 0.823575 0.044201 -0.008839 0.006679
2.662840 0.445549 0.730809 -0.000000 -0.610341 0.000392
3.306609 0.253832 0.953602 0.000000 0.792138 0.000434
2.120327 0.283744 0.377653 0.129550 -0.002432 0.001874
0.348195 0.550959 0.720642 -0.000000 0.566898 0.000022
0.298797 0.581846 0.684002 0.000000 0.907020 0.000002
2.529962 0.415342 0.649737 0.000000 -0.999605 0.000000
2.155714 0.769534 0.299789 0.044201 -0.011975 -0.008907
1.756962 0.696130 0.403009 -0.044182 0.004149 0.002973
1.787742 0.612035 0.795829 -0.014983 -0.023653 0.009982
1.773729 0.383372 0.788609 -0.044178 -0.004149 -0.002973
1.237368 0.588571 0.660839 -0.000000 0.988099 0.000001
2.053564 0.142697 0.194856 -0.044175 -0.006047 0.004311
3.389605 0.599705 0.539413 -0.000001 -0.792137 -0.000340
2.126541 0.433345 0.595304 -0.000000 -0.788764 -0.000003
2.937985 0.573635 0.538543 -0.000000 0.792139 0.000629
2.666631 0.499795 0.561351 0.000000 -0.028114 -0.000036
1.039774 0.550450 0.720979 0.000001 0.543306 0.000023
2.034416 0.913049 0.113084 -0.014980 -0.029396 -0.010528
0.644586 0.555901 0.579670 0.000001 0.611862 -0.000019
0.792782 0.586070 0.624255 -0.000001 0.964565 -0.000008
0.440406 0.589458 0.647295 0.000000 0.999901 -0.000000
3.117200 0.672224 0.886138 0.000000 0.792138 -0.000142
3.441539 0.297263 0.364786 0.000000 -0.792138 0.000434
3.015713 0.433929 0.594549 0.000000 -0.790398 -0.000023
2.472330 0.422718 0.613215 0.000000 -0.918432 -0.000013
2.691365 0.571813 0.721113 -0.000000 0.610340 0.000737
3.129806 0.690863 0.421102 -0.000004 -0.791965 -0.000142
2.823088 0.622851 0.492020 0.172076 0.002310 0.003613
0.940977 0.551336 0.720382 0.000001 0.566495 0.000044
0.354782 0.589454 0.646989 0.000000 0.999901 -0.000000
0.351489 0.415333 0.650424 0.000000 -0.999901 0.000000
1.695282 0.348465 0.453671 -0.044177 -0.003458 0.002481
2.413052 0.504220 0.735397 -0.000000 0.028114 0.000036
3.380712 0.425018 0.607756 -0.007077 -0.026106 -0.003075
0.141180 0.579651 0.675399 -0.185875 0.000199 0.000064
1.187970 0.422114 0.682110 0.000001 -0.881043 0.000001
2.006257 0.581897 0.533840 -0.014977 -0.019158 -0.009304
1.976201 0.645892 0.453389 -0.014980 -0.063025 -0.011525
2.038979 0.570273 0.590732 0.000001 -0.610342 0.000552
1.039774 0.485138 0.563008 -0.000000 -0.208829 -0.000071
2.373533 0.568224 0.591372 0.000000 0.754841 -0.000013
0.446992 0.553707 0.718711 0.000001 0.590055 0.000083
2.013147 0.830668 1.078624 -0.014986 -0.009379 0.006267
1.961969 0.684038 0.861395 -0.044177 0.010136 -0.007110
3.423975 0.686019 0.869337 -0.000002 -0.792132 0.000271
0.940977 0.555237 0.579156 -0.000001 0.612283 -0.000039
1.161624 0.502083 0.561287 -0.000000 -0.028114 -0.000018
0.947564 0.589467 0.648821 0.000000 0.999912 0.000000
1.978345 0.568825 0.704663 -0.000000 0.754943 0.000007
1.869669 0.502236 0.561283 0.000000 -0.027724 -0.000073
0.446992 0.449148 0.717267 -0.000000 -0.612462 0.000078
2.110565 0.346405 0.461068 0.129550 -0.002822 0.002173
1.872416 0.751057 0.961304 -0.044179 0.004446 -0.003183
1.863653 0.818907 1.060088 -0.014977 -0.021298 0.009661
2.571127 0.551273 0.576301 -0.000000 0.564576 -0.000006
0.842180 0.558746 0.714749 0.000000 0.655792 0.000004
1.533759 0.585981 0.672764 0.000000 0.956941 0.000005
1.882842 0.415308 0.648211 -0.000010 -0.026003 -0.000000
1.912610 0.659446 0.465769 -0.044177 0.022162 0.014259
1.583158 0.415321 0.648974 0.000000 -0.999605 0.000000
2.935605 0.610838 0.806468 0.000000 0.792137 -0.000315
1.528819 0.502541 0.735444 -0.000000 0.028114 0.000009
1.031541 0.589435 0.649737 0.000000 0.999605 0.000000
3.129806 0.313914 0.421102 0.000001 0.792135 -0.000283
3.352340 0.343535 0.424841 0.000000 -0.792138 0.000326
0.440406 0.415319 0.649432 0.000000 -0.999901 0.000000
2.108125 0.133445 1.132507 0.044201 0.017105 0.012293
3.213307 0.472694 0.730220 -0.000000 -0.343574 0.000041
3.373952 0.325817 0.894882 0.000001 -0.792135 -0.000271
1.902162 0.394337 0.796574 -0.014979 0.063027 0.011525
0.842180 0.462555 0.570925 0.000001 -0.439687 -0.000015
3.489810 0.287713 0.926982 -0.368408 -0.001610 -0.001053
2.487150 0.589443 0.649431 0.000000 0.999605 0.000000
1.681955 0.441631 0.710740 0.000000 -0.696792 0.000008
0.595188 0.554261 0.718305 -0.000000 0.589912 0.000021
1.138571 0.547254 0.722993 -0.000000 0.520081 0.000050
3.494962 0.808016 0.234349 0.000002 0.792135 0.000434
3.163909 0.570568 0.702539 -0.000001 0.735976 0.000002
2.126541 0.572894 0.699465 0.000000 0.800957 0.000003
2.181338 0.083125 1.192508 0.044200 0.012546 0.009300
2.966315 0.568925 0.704548 -0.000000 0.772631 0.000012
3.414180 0.655241 0.432629 0.000001 0.792122 0.000136
3.106248 0.292784 0.920401 0.172074 -0.002310 -0.003613
1.809573 0.770372 0.992903 -0.044175 0.008892 -0.006273
1.992244 0.401714 0.746578 -0.044176 -0.006718 -0.004780
1.681955 0.416534 0.633776 0.000000 -0.988129 -0.000001
0.174653 0.417111 0.662852 -0.055822 -0.000726 0.000103
2.042789 0.037728 0.048172 -0.044176 -0.007825 0.005545
2.823088 0.381926 0.804706 0.172076 -0.002310 -0.003613
2.422932 0.434690 0.703132 0.000000 -0.773095 0.000006
0.552376 0.415409 0.644625 0.000000 -0.999605 -0.000000
2.225338 0.561007 0.712755 0.000000 0.676789 0.000004
1.756962 0.312592 0.896756 -0.014974 0.011838 0.007321
3.065112 0.569457 0.703899 -0.000000 0.772977 0.000025
2.521729 0.447915 0.580423 -0.000000 -0.634214 -0.000018
2.728702 0.593137 0.530585 0.172075 0.002310 0.003613
0.191546 0.492629 0.734982 0.009705 -0.000268 0.002110
3.312104 0.460198 0.724544 0.000000 -0.495887 0.000013
1.887930 0.647150 0.815738 -0.044177 0.022162 -0.014259
1.926842 0.366799 0.496678 -0.044176 -0.022162 0.014259
1.892679 0.845870 0.201733 -0.014980 -0.019267 -0.009325
2.020269 0.604046 0.745821 -0.044174 0.006718 -0.004780
3.458699 0.711504 0.394314 -0.000000 -0.792138 -0.000434
3.329516 0.755931 0.301948 0.000001 0.792137 0.000651
3.394785 0.388888 0.518408 -0.000001 0.792137 -0.000340
0.348195 0.451410 0.718958 0.000000 -0.590023 0.000083
2.044674 0.681109 0.851063 -0.044177 0.020267 -0.013259
3.220016 0.306511 0.376789 0.000000 -0.792138 0.000173
1.974351 0.896665 0.135321 -0.014979 -0.030410 -0.010600
0.191546 0.570538 0.702711 0.005657 0.005838 0.003057
2.059316 0.710443 0.369493 0.044200 -0.007129 -0.005423
1.731353 0.566703 0.707066 -0.000000 0.736246 0.000014
1.039774 0.549265 0.574979 0.000001 0.543432 -0.000047
3.322068 0.321733 0.865476 -0.000000 0.792138 0.000571
2.867518 0.487501 0.562564 0.000001 -0.181318 -0.000164
1.879548 0.461274 0.725122 -0.000001 -0.458076 0.000007
2.106905 0.221036 1.018915 0.044199 0.011976 0.008907
2.039270 0.503152 0.735427 0.000000 0.028114 0.000018
3.216601 0.415312 0.648974 -0.000002 -0.871515 0.000000
0.891579 0.583042 0.615534 -0.000000 0.928988 -0.000006
2.095923 0.552547 0.577074 0.044201 -0.013306 -0.009818
3.305880 0.765270 0.972193 -0.000001 -0.792136 0.000434
3.442511 0.227827 0.274668 -0.000000 -0.792138 0.000868
3.022258 0.675982 0.856310 0.000000 -0.792137 0.000440
3.211339 0.718728 0.946494 0.000000 0.792138 -0.000173
1.780735 0.383126 0.508306 -0.044176 -0.008299 0.005869
1.780751 0.582361 0.682811 0.000000 0.918579 0.000002
2.083721 0.790887 1.029870 0.044199 -0.011976 0.008907
0.157840 0.453360 0.579263 -0.121109 -0.000198 -0.000263
2.070298 0.381498 0.483415 0.044201 0.008839 -0.006679
2.043179 0.838859 0.206983 -0.014979 -0.018761 -0.009230
2.867518 0.580978 0.610855 0.000000 0.907014 -0.000007
2.620526 0.576125 0.602031 0.000000 0.854168 -0.000005
1.336165 0.417073 0.630926 0.000000 -0.977945 -0.000002
3.373952 0.678961 0.894882 0.000004 0.792093 -0.000271
3.065112 0.461341 0.571569 -0.000001 -0.470979 -0.000028
1.590126 0.554542 0.578611 0.000001 -0.610265 0.000060
2.067451 0.437451 0.708265 0.129550 -0.004540 -0.003496
2.768721 0.541676 0.570652 -0.000000 0.446272 -0.000030
2.966315 0.459734 0.724279 0.000000 -0.495887 0.000013
2.768721 0.428096 0.602944 -0.000001 -0.853116 -0.000009
1.138571 0.551336 0.576344 -0.000000 0.567117 -0.000022
3.163909 0.485399 0.562952 0.000000 -0.208779 -0.000141
0.743383 0.564765 0.709121 0.000000 0.716722 0.000015
1.664941 0.686629 0.409246 -0.014983 -0.009859 -0.006493
2.422932 0.556444 0.716636 -0.000000 0.612480 0.000010
2.966315 0.461341 0.571569 0.000000 -0.471257 -0.000014
1.385564 0.566083 0.707741 0.000000 0.735648 0.000002
1.981992 0.217907 1.022313 -0.014979 0.011411 0.007156
1.632556 0.522768 0.733021 0.000000 0.236167 0.000062
1.617274 0.357475 0.836441 -0.044178 -0.008298 -0.005869
1.609768 0.596831 0.529853 -0.044177 0.011064 0.007724
3.419130 0.424495 0.689245 -0.015338 -0.011347 0.005515
3.138095 0.349257 0.829753 0.000000 0.792138 0.000283
1.950206 0.582563 0.534353 -0.014980 -0.004790 -0.003597
1.388857 0.501473 0.735422 0.000000 -0.027724 0.000009
2.916702 0.412541 0.514400 0.000000 -0.792138 0.000629
3.195620 0.358558 0.479044 0.000000 0.792138 -0.000629
1.512353 0.503152 0.561300 0.000000 0.028114 -0.000009
3.061819 0.589375 0.644854 0.000000 0.999605 -0.000000
2.924590 0.431142 0.758184 0.000000 -0.792138 -0.000315
0.891579 0.425342 0.688939 0.000001 -0.879497 0.000004
3.114511 0.532190 0.730181 0.000001 0.343469 0.000165
2.893878 0.645137 0.463096 0.172075 0.002310 0.003613
2.175939 0.461880 0.571281 0.000001 -0.470088 -0.000014
0.990376 0.428652 0.694695 0.000000 -0.839193 0.000001
3.040695 0.318206 0.417997 0.172073 0.002045 -0.000657
2.719323 0.456611 0.722437 -0.000000 -0.520055 0.000012
0.041428 0.518755 0.682347 -0.575429 0.000012 0.000023
2.472330 0.469985 0.567541 0.000000 -0.369644 -0.000038
1.928947 0.433345 0.595304 -0.000000 -0.790378 -0.000012
1.138571 0.453724 0.576150 0.000000 -0.567110 -0.000022
2.472330 0.560072 0.583129 0.000000 0.655084 -0.000009
1.285120 0.503457 0.735418 0.000000 0.028103 0.000036
2.060886 0.877592 0.157422 -0.014978 -0.033447 -0.010786
1.684084 0.674748 0.869521 -0.044177 0.003458 -0.002481
0.842180 0.519602 0.563000 0.000001 0.208775 -0.000071
1.871500 0.147733 1.108656 -0.044178 -0.013513 -0.009300
3.114511 0.583028 0.681228 0.000001 0.928244 0.000012
1.286767 0.427116 0.604582 0.000001 -0.867732 -0.000009
0.842180 0.589471 0.648516 0.000000 0.999901 0.000000
1.140218 0.589443 0.649431 0.000000 0.999616 0.000000
3.265999 0.589345 0.652941 0.000000 0.999616 0.000000
0.252692 0.589441 0.650653 -0.000000 0.999901 0.000000
1.879548 0.580849 0.610579 0.000000 0.906940 -0.000004
3.132200 0.605258 0.497501 0.000000 0.792138 0.000283
3.280751 0.432965 0.575614 0.074258 -0.002858 -0.003706
2.856811 0.607118 0.801640 -0.000000 0.792138 -0.000755
3.165555 0.589447 0.646455 0.000000 0.999901 -0.000000
1.141864 0.415351 0.650042 0.000000 -0.999605 0.000000
0.644586 0.588056 0.632763 -0.000000 0.983415 -0.000011
2.620526 0.480563 0.732668 -0.000001 -0.252144 0.000014
1.983285 0.501931 0.735435 0.000000 -0.028114 0.000036
0.644586 0.474423 0.565899 0.000000 -0.316828 -0.000045
0.792782 0.460264 0.724582 0.000000 -0.495887 0.000007
0.595188 0.449782 0.717758 0.000001 -0.611698 0.000019
0.743383 0.435489 0.592621 0.000001 -0.770795 -0.000006
0.595188 0.587911 0.664752 0.000000 0.981369 0.000001
2.075956 0.971445 1.258724 -0.014979 -0.042544 0.011154
3.195620 0.629440 0.830611 0.000000 0.792139 -0.000157
1.978345 0.457882 0.573515 0.000000 -0.519971 -0.000012
1.484361 0.548264 0.574349 0.000000 0.520020 -0.000025
2.144732 0.856697 0.185867 0.044200 -0.017106 -0.012294
3.399921 0.568014 0.706503 -0.015337 0.010437 0.006761
1.780751 0.415526 0.642262 0.000001 -0.937547 -0.000000
0.792782 0.417360 0.667144 0.000000 -0.977945 0.000003
2.129276 0.585551 0.536656 0.044200 -0.012166 -0.009038
1.983212 0.205009 0.276120 -0.044176 -0.007469 0.005300
3.329110 0.283132 0.381151 -0.000000 0.792138 -0.000271
2.117887 0.092477 0.129937 0.129550 -0.005059 0.003895
2.818120 0.512858 0.561917 0.000001 0.125289 -0.000060
3.424380 0.737084 0.361115 -0.000000 -0.792138 -0.000434
1.484361 0.458143 0.573356 0.000000 -0.519997 -0.000012
2.790127 0.415377 0.650957 0.000000 -0.999610 0.000000
3.399921 0.461644 0.725996 -0.015335 -0.005442 0.011396
3.213307 0.584547 0.619493 0.000000 0.939246 -0.000001
2.916916 0.427041 0.692012 -0.000000 -0.868343 0.000034
2.472330 0.469063 0.728819 0.000000 -0.395680 0.000070
2.132529 0.053000 1.235144 0.044200 0.012546 0.009300
0.545789 0.589165 0.641044 0.000000 0.997530 -0.000000
0.141180 0.525049 0.569706 -0.185875 0.000062 -0.000196
2.077142 0.465989 0.569260 0.000001 -0.420823 -0.000033
1.692028 0.323475 0.878028 -0.044178 -0.013829 -0.009498
3.163909 0.438901 0.707965 -0.000000 -0.735927 0.000007
2.027744 0.419864 0.676148 -0.000000 -0.948310 0.000005
0.496391 0.585582 0.674078 0.000001 0.954669 0.000005
3.015713 0.583879 0.617665 -0.000001 0.936951 -0.000006
0.496391 0.421848 0.681476 0.000001 -0.920859 0.000002
1.635478 0.629112 0.809785 -0.044177 0.008299 -0.005869
1.234075 0.415321 0.647753 0.000000 -0.999605 -0.000000
3.436197 0.280752 0.953369 0.000002 -0.792131 -0.000326
1.978345 0.532871 0.566795 -0.000001 0.343414 -0.000082
3.474369 0.335954 0.864372 -0.368406 -0.000800 -0.000523
3.448633 0.416356 0.536705 -0.368409 -0.001610 0.001053
3.469222 0.352035 0.453225 -0.368409 -0.001610 0.001053
3.453780 0.400276 0.780892 -0.368405 -0.000800 -0.000523
1.385564 0.443236 0.712264 0.000000 -0.676081 0.000008
2.115446 0.673785 0.440020 0.129549 0.002822 0.002173
2.867518 0.427230 0.604383 0.000000 -0.868363 -0.000017
2.373533 0.589345 0.643785 0.000000 0.999605 -0.000000
1.727938 0.418627 0.535181 -0.014975 0.009865 -0.006494
1.969290 0.707158 0.403759 -0.044177 0.009602 0.006753
0.792782 0.547547 0.573912 0.000000 0.519996 -0.000025
1.336165 0.583997 0.678738 -0.000000 0.917108 0.000001
0.693985 0.576483 0.602618 0.000000 0.854044 -0.000018
1.903278 0.883262 1.142683 -0.014979 -0.034458 0.010839
1.760276 0.239495 0.307165 -0.044177 -0.004446 0.003183
1.537828 0.581758 0.751373 -0.014980 -0.062912 0.011524
1.950946 0.082189 1.193723 -0.044178 -0.018490 -0.012276
1.807943 0.200169 0.256124 -0.044177 -0.016358 0.011040
1.537828 0.423019 0.751373 -0.044177 -0.022122 -0.014239
2.014502 0.029754 1.261777 -0.044177 -0.012802 -0.008850
1.966835 0.935697 1.210737 -0.014980 -0.052630 0.011382
1.385564 0.427858 0.603335 0.000000 -0.854168 -0.000001
2.324135 0.476710 0.731568 -0.000001 -0.287599 0.000025
2.373533 0.462149 0.571137 -0.000000 -0.471353 -0.000056
3.119207 0.399482 0.532157 0.000000 0.792138 -0.000142
1.533759 0.421679 0.681051 -0.000000 -0.928821 0.000006
1.869255 0.218943 0.278456 -0.014980 0.023319 -0.009940
2.851768 0.386073 0.488725 0.172076 -0.001157 0.001810
1.977235 0.291065 0.901474 -0.044176 -0.004802 -0.003435
1.913859 0.170082 0.215395 -0.014981 0.020786 -0.009584
2.867518 0.581235 0.685317 0.000000 0.906940 0.000014
2.571127 0.435853 0.704548 0.000000 -0.773000 0.000003
0.891579 0.463579 0.726313 -0.000001 -0.445535 0.000030
3.200634 0.263070 0.958965 0.172074 -0.002310 -0.003613
2.941072 0.344784 0.443814 0.172075 -0.002310 0.003613
3.342214 0.218499 0.279914 0.172073 -0.002310 0.003613
3.271425 0.240784 0.308838 0.172075 -0.002310 0.003613
3.059055 0.307641 0.901118 0.172073 -0.002310 -0.003613
3.106248 0.711993 0.920401 0.172074 0.002310 -0.003613
3.129845 0.719422 0.366685 0.172075 0.002310 0.003613
3.389408 0.801136 0.260632 0.172074 0.002310 0.003613
3.483794 0.173928 1.074659 0.172077 -0.002310 -0.003613
3.389408 0.801136 1.036095 0.172073 0.002310 -0.003613
3.483794 0.830850 1.074659 0.172077 0.002310 -0.003613
3.011861 0.682279 0.414891 0.172074 0.002310 0.003613
3.224231 0.749136 0.328120 0.172077 0.002310 0.003613
2.775895 0.396783 0.785424 0.172075 -0.002310 -0.003613
2.818120 0.455352 0.721643 -0.000001 -0.543746 0.000047
1.632556 0.457556 0.723013 0.000000 -0.520061 0.000050
2.225338 0.575482 0.601038 0.000001 0.835529 -0.000010
2.995954 0.415323 0.649737 0.000000 -0.999901 0.000000
1.978345 0.589262 0.654312 0.000001 0.990153 0.000001
1.583158 0.431996 0.699619 -0.000000 -0.806396 0.000006
2.966315 0.531724 0.566375 0.000000 0.343498 -0.000021
2.818120 0.550896 0.720685 0.000002 0.553792 0.000011
2.969608 0.589458 0.649432 -0.000000 0.969015 0.000000
1.731353 0.456611 0.722437 -0.000001 -0.519723 0.000050
1.824338 0.644024 0.816210 -0.044177 0.022162 -0.014259
3.408515 0.737141 0.970391 0.000001 0.792135 -0.000326
1.976201 0.358886 0.843337 -0.014980 0.063023 0.011526
1.816707 0.269794 0.353541 -0.044177 -0.009603 0.006753
3.141624 0.326973 0.893381 0.000001 -0.792138 -0.000566
2.091846 0.017181 0.023333 -0.044177 -0.012803 0.008850
1.887584 0.806988 0.251179 -0.014979 -0.011411 -0.007156
2.324135 0.428037 0.693685 0.000001 -0.839047 0.000005
2.167102 0.588849 0.757530 0.129553 0.002270 -0.001749
1.963966 0.119837 0.156305 -0.044177 -0.012091 0.008393
2.916916 0.562435 0.585295 0.000000 0.697081 -0.000016
2.155714 0.231694 0.994202 0.129551 -0.004086 -0.003147
2.324135 0.549842 0.575353 -0.000000 0.543893 -0.000012
2.472330 0.574407 0.697311 -0.000001 0.823080 0.000021
1.954457 0.454559 0.721447 -0.014981 0.038273 0.011010
2.571127 0.584167 0.618454 -0.000000 0.939129 -0.000011
1.814330 0.452896 0.576561 -0.014980 0.047252 -0.011276
2.225338 0.457067 0.722715 -0.000001 -0.518483 0.000025
1.986773 0.375233 0.512936 -0.044178 -0.005038 0.003602
2.050305 0.074224 1.197269 -0.044180 -0.009246 -0.006513
2.181338 0.003536 1.295804 0.000002 -0.610325 0.000265
2.181338 0.194551 0.248833 0.044201 0.019385 -0.013681
2.181338 0.305976 0.393447 0.044200 0.014256 -0.010455
2.181338 0.698801 0.393447 0.044200 -0.014256 -0.010455
2.181338 0.635130 0.476084 0.044200 -0.016536 -0.011935
2.181338 0.651048 0.841302 0.044200 -0.007699 0.005844
3.292733 0.631111 0.832780 0.000001 0.792138 -0.000571
3.339421 0.642121 0.484363 -0.000000 -0.792138 -0.000571
3.292733 0.356887 0.476875 -0.000000 0.792138 -0.001143
3.348098 0.383118 0.785807 -0.000000 0.792137 0.000571
2.129276 0.419226 0.536656 0.044200 0.012166 -0.009038
0.743383 0.479127 0.564451 0.000000 -0.263330 -0.000055
3.100276 0.649940 0.822511 0.000003 -0.792130 0.000503
1.385564 0.554508 0.578601 -0.000000 0.589650 -0.000021
1.919740 0.592901 0.737945 -0.044183 0.002519 -0.001810
2.815851 0.410643 0.546643 0.000000 0.792138 -0.000755
3.094769 0.390219 0.485430 -0.000001 -0.792130 0.000252
3.291080 0.599621 0.539523 -0.000001 -0.792137 -0.001143
2.818120 0.573029 0.597446 0.000000 0.807248 -0.000003
3.262706 0.533941 0.567202 0.000000 0.369644 -0.000038
3.426565 0.310666 0.416887 -0.000000 0.792138 -0.000271
3.436601 0.188785 0.241349 0.172073 -0.002310 0.003613
3.483794 0.173928 0.222067 0.172075 -0.002310 0.003613
1.476128 0.502236 0.735444 0.000000 -0.028114 0.000071
2.324135 0.585361 0.674809 -0.000000 0.956941 0.000005
3.442511 0.793730 0.287597 -0.000001 -0.792138 -0.000868
2.893067 0.584796 0.772669 0.000000 0.792138 -0.001007
2.274736 0.588782 0.637477 0.000001 0.990944 -0.000002
1.286767 0.438643 0.707684 -0.000001 -0.734507 0.000007
2.866276 0.403202 0.759741 0.000000 0.792138 0.001007
0.644586 0.420794 0.617952 -0.000000 -0.939162 -0.000022
2.039386 0.386792 0.528722 0.129554 -0.002270 0.001749
0.367955 0.504373 0.735420 0.000009 0.001818 0.000552
3.114511 0.415698 0.640170 0.000000 -0.994949 -0.000001
1.987995 0.844988 0.213643 -0.044178 0.003379 0.002424
0.940977 0.463477 0.570465 0.000001 -0.446226 -0.000060
2.175939 0.512442 0.561864 0.000000 0.125917 -0.000238
1.619589 0.388774 0.792772 -0.044178 -0.008298 -0.005869
1.730813 0.297012 0.384861 -0.044177 -0.008299 0.005869
0.792782 0.545309 0.724128 0.000000 0.495826 0.000026
3.262706 0.571830 0.700910 -0.000000 0.790466 0.000006
3.139701 0.571775 0.540957 0.000000 0.792138 0.000283
1.336165 0.578134 0.605410 -0.000001 0.860123 -0.000002
2.175939 0.483906 0.733456 -0.000001 -0.177423 0.000010
2.274736 0.544042 0.724834 -0.000000 0.471409 0.000028
2.134970 0.212094 0.268240 0.044200 0.010835 -0.008109
3.015713 0.543503 0.571605 0.000000 0.471390 -0.000056
2.518435 0.500176 0.735386 0.000000 -0.028114 0.000018
3.420089 0.347676 0.866511 0.000002 -0.792077 -0.000136
1.089173 0.455736 0.721892 -0.000000 -0.543717 0.000023
2.046964 0.212189 0.290923 -0.044177 -0.003734 0.002678
0.496391 0.444191 0.583584 -0.000000 -0.676081 -0.000008
3.256375 0.664689 0.876359 -0.000001 0.792137 -0.000571
3.215297 0.310194 0.880452 0.000000 0.792138 0.000346
1.928947 0.585461 0.622246 0.000001 0.954448 -0.000002
0.664346 0.502847 0.735442 0.000000 0.014056 0.000072
1.879548 0.588513 0.661216 0.000001 0.987070 0.000002
2.768721 0.470765 0.567230 0.000000 -0.369707 -0.000038
1.039774 0.427917 0.603237 0.000000 -0.853827 -0.000009
2.620526 0.415933 0.637969 -0.000000 -0.988900 -0.000000
3.312104 0.567271 0.590278 -0.000000 0.735648 -0.000002
2.076152 0.908280 1.178602 -0.014979 -0.029398 0.010528
2.669924 0.420118 0.676908 -0.000000 -0.948310 0.000005
2.175939 0.579327 0.689141 0.000001 0.875218 0.000004
1.731353 0.478870 0.564521 0.000000 -0.263345 -0.000111
1.089173 0.560072 0.713598 -0.000000 0.655084 0.000009
3.159794 0.571775 0.755769 0.000000 0.792138 -0.000142
3.067978 0.614559 0.485430 -0.000000 0.792138 0.000503
0.496391 0.458740 0.723711 -0.000000 -0.496015 0.000026
1.286767 0.550770 0.575955 0.000000 0.567788 -0.000005
1.632556 0.419029 0.623196 0.000000 -0.956939 -0.000009
2.768721 0.578751 0.606508 0.000000 0.881996 -0.000008
1.696440 0.640663 0.475506 -0.044176 0.006916 0.004917
2.571127 0.465158 0.569645 -0.000000 -0.421169 -0.000065
2.096726 1.003009 1.294442 -0.044176 0.012092 -0.008393
2.077142 0.579291 0.689209 0.000000 0.881915 0.000008
3.213307 0.430457 0.697436 -0.000000 -0.823597 0.000042
1.725623 0.385356 0.803695 -0.014978 0.009862 0.006494
3.093994 0.419981 0.772669 0.000001 -0.792137 -0.000503
3.114511 0.466473 0.727692 -0.000001 -0.421191 0.000065
2.571127 0.549233 0.721768 -0.000001 0.513050 0.000003
2.023220 0.150721 1.108537 -0.014978 0.034459 0.010839
2.373533 0.426026 0.606508 0.000000 -0.881753 -0.000001
1.632556 0.578715 0.690286 -0.000002 0.861765 0.000004
3.262706 0.417541 0.628762 -0.000000 -0.971286 -0.000002
3.438339 0.582212 0.610694 -0.022154 0.001920 -0.000870
1.830150 0.578286 0.691051 -0.000000 0.868364 0.000017
1.731353 0.577699 0.604648 -0.000002 0.867014 -0.000017
2.008765 0.137015 0.171152 -0.014981 0.016732 -0.008800
2.274736 0.517276 0.562564 0.000000 0.181376 -0.000082
2.225338 0.475653 0.565488 0.000000 -0.317018 -0.000045
2.935605 0.393939 0.806468 0.000000 -0.792138 -0.000315
3.017553 0.607118 0.495087 -0.000000 0.792138 0.000440
3.017553 0.380880 0.788711 0.000000 0.792138 0.000881
3.033300 0.371617 0.461287 0.000000 -0.792138 0.000440
1.187970 0.543840 0.571785 -0.000000 0.471243 -0.000028
1.978345 0.417487 0.667741 0.000000 -0.977962 0.000001
1.948077 0.871831 0.173319 -0.044178 0.012091 0.008393
1.187970 0.460803 0.571857 0.000000 -0.470953 -0.000007
2.053622 0.598818 0.782773 0.044202 -0.012165 0.009038
0.298797 0.451071 0.578016 -0.000000 -0.590036 -0.000041
0.891579 0.548849 0.574709 -0.000001 0.542532 -0.000012
0.743383 0.415739 0.639752 -0.000000 -0.995179 -0.000001
0.298797 0.544379 0.724654 -0.000000 0.470099 0.000007
0.644586 0.455993 0.722058 0.000001 -0.534903 0.000006
3.312104 0.419429 0.674845 -0.000000 -0.929663 0.000001
0.249399 0.435853 0.704548 0.000000 -0.773191 0.000002
3.080986 0.616457 0.779054 0.000000 -0.792137 0.000503
1.705981 0.579762 0.543815 -0.014982 -0.015774 -0.008565
1.187970 0.455160 0.721519 0.000000 -0.543853 0.000047
3.015713 0.482640 0.733174 0.000000 -0.236090 0.000062
2.005762 0.673798 0.417274 -0.014980 -0.028889 -0.010490
0.693985 0.422356 0.682671 -0.000000 -0.918431 0.000006
2.029569 0.746926 0.353059 -0.044177 0.004357 0.003120
0.560609 0.499184 0.735358 0.000000 -0.028114 0.000009
3.065112 0.525908 0.732205 -0.000000 0.263092 0.000028
2.818120 0.424115 0.610203 -0.000001 -0.894168 -0.000008
3.295021 0.233356 0.997530 0.172075 -0.002310 -0.003613
1.780751 0.429316 0.695720 0.000000 -0.839184 0.000039
2.373533 0.535995 0.728698 -0.000000 0.395593 0.000070
0.595188 0.418064 0.670115 0.000000 -0.964782 0.000001
1.816707 0.274359 0.946702 -0.014981 0.013691 0.007968
2.150833 0.709917 0.911176 0.129550 0.002432 -0.001874
1.992681 0.086959 0.108044 -0.014981 0.029395 -0.010529
2.620526 0.435756 0.592297 0.000000 -0.772955 -0.000012
3.262706 0.455160 0.721519 0.000000 -0.543837 0.000047
3.339421 0.642121 0.812363 -0.000002 -0.792137 0.001143
3.389605 0.582926 0.770242 0.000001 0.792137 -0.000340
3.065112 0.429109 0.695400 0.000000 -0.839188 0.000020
1.484361 0.424303 0.609827 0.000000 -0.894674 -0.000004
0.077477 0.446031 0.668084 -0.434252 -0.000056 0.000018
0.496391 0.557924 0.715432 0.000001 0.634205 0.000037
1.593879 0.423685 0.544841 -0.014981 0.031530 -0.010675
1.760276 0.239495 0.989562 -0.044177 -0.017779 -0.011871
1.879548 0.514562 0.734593 -0.000000 0.153876 0.000024
0.246105 0.507119 0.561411 0.000000 0.028114 -0.000009
0.496391 0.555237 0.579156 0.000000 0.612360 -0.000039
3.114511 0.558367 0.581658 0.000002 0.578222 -0.000005
2.115446 0.340121 0.863740 0.044201 0.015396 0.011204
1.951336 0.803358 0.268718 -0.044176 0.014936 0.010183
2.966315 0.425019 0.688334 -0.000000 -0.894769 0.000008
2.108125 0.871332 1.132507 0.044201 -0.017105 0.012293
1.434962 0.588278 0.634002 -0.000001 0.987172 -0.000002
0.298797 0.556625 0.580231 0.000000 0.609135 -0.000005
2.719323 0.429731 0.600366 0.000000 -0.839138 -0.000020
2.867518 0.540788 0.726517 0.000000 0.446449 0.000060
0.644586 0.546568 0.723408 0.000000 0.495887 0.000007
3.262706 0.484205 0.563207 0.000000 -0.208779 -0.000141
3.489810 0.287713 0.369745 -0.368409 -0.001610 0.001053
0.149486 0.582556 0.625267 -0.153572 0.000250 -0.000065
1.336165 0.491048 0.562028 0.000001 -0.108700 -0.000017
1.562101 0.447273 0.580894 -0.044177 -0.022122 0.014239
1.657436 0.368620 0.478813 -0.044178 -0.005532 0.003950
1.593879 0.421055 0.749860 -0.044176 -0.011065 -0.007724
1.585495 0.621084 0.494313 -0.014982 -0.031528 -0.010676
1.619383 0.501931 0.561291 0.000000 -0.028114 -0.000018
2.274736 0.429565 0.600622 0.000000 -0.839138 -0.000010
2.422932 0.490215 0.562133 0.000000 -0.153627 -0.000097
2.008765 0.867762 1.125574 -0.014986 -0.016726 0.008800
2.866276 0.601575 0.536986 0.000000 -0.792138 -0.001007
3.282974 0.743505 0.352781 -0.000002 -0.792119 -0.000217
2.042083 0.764074 0.994850 -0.014980 -0.022814 0.009875
1.923433 0.199877 1.043767 -0.014979 0.021294 0.009661
1.434962 0.425918 0.690017 -0.000000 -0.881618 0.000008
