1.404377 0.280845 1.034222 -0.055817 -0.010441 -0.008369
3.337117 0.947546 0.268670 -0.063706 -0.005169 -0.004362
0.506994 0.686919 0.681092 -0.000000 0.999642 0.000000
2.929006 0.419724 0.874752 0.036869 -0.019862 -0.016971
3.337117 0.947546 1.085725 -0.063706 -0.005169 0.004362
1.443078 0.946523 1.084550 -0.028143 -0.004432 0.003940
2.024464 0.592860 0.581975 0.000000 0.026387 -0.000291
1.264253 0.713928 0.815120 -0.055819 0.008523 -0.006870
3.014924 0.381044 0.435228 0.036869 -0.011920 0.011006
3.014924 0.802495 0.919167 0.036871 0.011920 -0.011006
1.765588 0.829644 0.404054 0.055847 -0.012260 -0.010430
1.765588 0.353895 0.950341 0.055847 0.012260 0.010430
2.714211 0.667113 0.763713 0.036869 0.015892 -0.014163
1.765588 0.899771 1.030867 0.055845 -0.005255 0.004557
1.455015 0.591925 0.581950 0.000000 0.026387 -0.000038
1.765588 0.231172 0.263135 0.055848 0.009633 -0.008268
3.240014 0.737658 0.493711 -0.063707 0.007567 0.006730
3.359019 0.444153 0.512367 -0.063708 0.009283 -0.007778
3.239190 0.439444 0.835751 -0.063706 0.009283 0.007778
1.724282 0.448503 0.519678 0.110436 -0.003709 0.003229
1.633848 1.009953 0.208931 -0.055820 0.007085 0.005731
0.281123 0.496547 0.674938 0.000000 -0.999910 -0.000000
0.742408 0.544653 0.759974 0.000000 -0.487739 0.000007
1.636278 0.165571 1.155078 -0.055819 -0.014168 -0.011199
1.489063 0.464970 0.833203 -0.028142 0.017975 0.013637
2.778649 0.487415 0.557371 0.036870 -0.015891 0.014163
1.546281 0.120137 0.135637 -0.055818 -0.005966 0.004838
3.158591 0.668177 0.734059 0.000000 0.800936 0.000011
2.221704 0.671416 0.729432 0.000001 0.828987 0.000005
1.237098 0.496554 0.678600 0.000000 -0.999657 0.000000
1.262472 0.741984 0.504710 -0.028141 -0.012155 -0.010043
3.284643 0.797093 0.902839 -0.063707 -0.006461 0.005442
1.505111 0.785670 0.908436 -0.028141 -0.011699 0.009723
1.617059 1.059354 1.207534 -0.055817 0.005967 -0.004838
3.010661 0.503306 0.641905 0.000000 -0.928951 -0.000003
1.827225 0.509598 0.725359 0.000000 -0.859321 0.000018
2.566873 0.633335 0.591501 0.000000 0.440942 -0.000008
1.288273 0.412334 0.471158 -0.055819 -0.006392 0.005179
1.535243 0.782501 0.479153 -0.055818 0.006153 0.004987
1.733191 0.692103 0.567468 0.110437 0.002953 0.002571
1.288273 0.412334 0.883237 -0.055820 -0.003196 -0.002602
1.105074 0.686976 0.675484 0.000000 0.999652 -0.000000
3.143801 0.323023 0.985791 0.036868 -0.015892 -0.014163
0.876022 0.687014 0.676652 0.000000 0.999916 -0.000000
2.912042 0.685966 0.691289 -0.000001 0.989327 0.000004
0.191672 0.686883 0.677198 -0.024650 0.000841 0.000022
3.079362 0.831505 0.401917 0.036870 0.013048 0.011937
0.643789 0.571661 0.584096 -0.000000 -0.220621 -0.000068
3.209864 0.340059 0.394398 0.036869 0.008730 -0.006630
1.629986 0.497394 0.690055 -0.000000 -0.989625 0.000004
3.207901 0.514709 0.621210 0.000000 -0.816310 -0.000003
1.975155 0.627207 0.765603 0.000000 0.370164 0.000019
0.475181 0.496537 0.675717 0.000000 -0.998026 -0.000000
3.378263 0.359753 0.943615 -0.063706 -0.007567 -0.006730
2.172394 0.497849 0.661375 -0.000000 -0.985271 -0.000001
2.404628 0.687017 0.677354 0.000000 0.999662 0.000000
2.566873 0.547422 0.761487 -0.000000 -0.465565 0.000058
1.442532 0.682767 0.761133 -0.055820 0.009455 -0.007602
3.419410 0.483513 0.801505 -0.063707 -0.008166 -0.007255
1.562722 0.338341 0.949702 -0.055820 -0.002797 -0.002278
2.831179 0.522237 0.749250 0.000001 -0.656721 0.000130
2.763380 0.676012 0.578907 0.036870 0.015891 0.014163
3.072033 0.669357 0.569413 0.036869 0.004350 0.004192
3.419410 0.700025 0.552891 -0.063705 -0.008367 -0.007024
1.663539 0.341763 0.381432 0.055848 0.006131 -0.005307
1.521503 0.432386 0.516382 -0.055818 -0.006526 0.005285
1.597883 1.121841 0.068532 -0.028142 -0.009218 -0.007884
3.378263 0.823786 0.410780 -0.063706 -0.007753 -0.006516
0.347930 0.642922 0.757540 0.000001 0.533589 0.000097
1.581321 0.880331 0.337573 -0.028143 -0.009572 -0.008156
1.339875 0.829644 0.950341 -0.028139 -0.005850 0.005155
0.988958 0.595975 0.772339 0.000000 0.026005 0.000295
2.294873 0.591925 0.581950 0.000000 0.026387 -0.000019
3.068088 0.496102 0.803406 0.036868 -0.006525 -0.006235
1.597883 0.061697 1.285863 -0.055818 -0.008949 -0.007206
1.726712 0.118340 0.140151 0.110436 -0.005979 0.005200
1.580676 0.683564 0.651795 -0.000001 0.958874 -0.000002
0.347930 0.626483 0.588504 0.000000 0.370536 -0.000154
3.165281 0.870185 0.996894 0.036866 0.007948 -0.007539
0.142190 0.547439 0.753981 -0.208815 -0.000095 0.000154
3.442922 0.514118 0.637902 0.094391 -0.000398 -0.000194
2.864567 0.734804 0.841440 0.036872 0.007947 -0.007538
1.608799 0.944864 1.089682 -0.028143 -0.032586 0.019184
0.710595 0.686933 0.680547 0.000000 0.999662 0.000000
1.876535 0.681933 0.646509 0.000000 0.946987 -0.000003
3.295386 0.587096 0.772327 -0.000065 -0.002811 0.001673
1.726712 0.790749 0.908991 0.055847 -0.007007 0.006055
1.284817 0.684561 0.655722 0.000001 0.974465 -0.000003
1.682977 0.437919 0.839882 0.110436 -0.003709 -0.003229
1.488164 0.217532 0.249939 -0.055818 -0.004475 0.003637
1.765588 0.248704 1.071129 0.055847 0.009634 0.008268
1.765588 0.934835 0.283266 0.055848 -0.009633 -0.008268
1.765588 1.075090 0.122216 0.055849 -0.012260 -0.010429
1.765588 0.108449 1.232180 0.055846 0.012261 0.010430
1.765588 1.004962 1.151654 0.055848 -0.015762 0.013212
0.150336 0.555000 0.594612 -0.177132 -0.000094 -0.000198
3.372385 0.342073 0.390479 -0.063706 -0.015131 0.013187
0.791718 0.523002 0.611296 -0.000000 -0.716224 -0.000007
0.589707 0.588186 0.772356 0.000000 -0.026005 0.000019
3.208240 0.889526 0.335293 0.036869 0.011920 0.011006
1.383436 0.511884 0.729075 0.000000 -0.845671 0.000002
1.468879 0.975742 0.236293 -0.028143 -0.016305 -0.012699
1.481779 0.193186 1.134878 -0.055817 -0.016405 -0.012836
1.136887 0.566516 0.585361 -0.000000 -0.271360 -0.000055
3.144405 0.428000 0.503167 0.036868 0.014334 -0.010427
2.686171 0.496579 0.679534 0.000000 -0.999656 0.000000
3.016045 0.690481 0.803787 0.036868 0.022786 -0.018814
3.306520 0.684379 0.654924 0.000000 0.957677 -0.000000
1.975155 0.497168 0.688238 0.000001 -0.981134 0.000000
1.136887 0.565129 0.768643 0.000003 -0.218296 0.000017
3.144405 0.741651 0.863322 0.036868 0.006525 -0.006235
2.340207 0.591691 0.772447 0.000000 -0.026005 0.000076
2.885001 0.588654 0.582028 -0.000000 -0.026005 -0.000076
1.623683 0.032477 0.034980 -0.055818 -0.014914 0.011750
2.084909 0.687009 0.677665 -0.000000 0.999652 0.000000
1.555226 0.591224 0.772435 0.000000 -0.026005 0.000005
1.827225 0.558255 0.588043 0.000001 -0.346040 -0.000083
1.623683 1.151061 1.319415 -0.028142 -0.031174 0.018813
1.348777 0.494177 0.576881 -0.055819 -0.008523 0.006870
2.923051 0.451641 0.520187 0.036869 0.010912 -0.008166
2.123084 0.575985 0.771125 -0.000001 -0.168626 0.000045
0.890338 0.506693 0.720022 0.000001 -0.888297 0.000002
1.385647 0.792014 0.454251 -0.055818 0.003170 0.002580
1.623225 0.266888 1.058941 -0.028141 0.008864 0.007609
1.599767 0.866100 0.972060 -0.055817 0.002610 -0.002126
1.624969 0.188904 0.226933 -0.055819 -0.007458 0.006028
3.407654 0.735385 0.842108 -0.063708 -0.009283 0.007778
2.433259 0.592081 0.581954 0.000000 0.026387 -0.000038
0.988958 0.654568 0.605590 0.000000 0.659316 -0.000004
0.505403 0.592081 0.581950 0.000000 0.013006 -0.000076
1.679296 0.568249 0.584904 -0.000000 -0.246111 -0.000121
2.566873 0.676639 0.720441 0.000001 0.896720 0.000015
2.961352 0.571357 0.770230 0.000001 -0.220049 0.000034
1.765588 1.092622 1.252311 0.055847 -0.012260 0.010430
1.284817 0.589744 0.772396 0.000000 -0.026387 0.000291
1.438774 0.373459 0.917599 -0.055816 -0.006153 -0.004987
1.827225 0.637185 0.760925 -0.000001 0.450050 0.000004
3.068824 0.396490 0.906104 0.036871 -0.013048 -0.011936
2.172394 0.637219 0.593489 0.000000 0.465778 -0.000015
3.366507 0.859146 0.984218 -0.063707 -0.010336 0.008639
2.566873 0.509279 0.629572 -0.000000 -0.859645 -0.000001
0.643789 0.497450 0.690440 0.000000 -0.989450 0.000001
3.320836 0.496644 0.682027 0.000000 -0.999657 0.000000
1.501144 0.496532 0.677743 0.000000 -0.999662 0.000000
1.382809 0.697830 0.569506 -0.055816 0.002131 0.001736
3.355830 0.589276 0.581979 0.107610 -0.000016 -0.000403
3.272306 0.715630 0.805403 -0.063706 -0.004642 0.003920
0.462456 0.587875 0.772347 0.000000 -0.026387 0.000038
3.207901 0.637116 0.593435 0.000000 0.464864 -0.000004
3.187203 0.516837 0.744547 -0.000002 -0.656740 0.000762
1.558206 0.717536 0.793540 -0.055818 0.009455 -0.007602
1.385348 0.758596 0.859187 -0.055818 0.004728 -0.003841
3.034672 0.758761 0.492457 0.036869 -0.007168 -0.005491
1.651390 0.791406 0.438234 0.055849 -0.006459 -0.005588
1.352775 0.339285 0.387278 -0.055818 -0.011932 0.009515
2.468253 0.620683 0.767949 0.000001 0.287557 0.000013
1.507580 1.019572 1.168430 -0.028144 -0.028342 0.017983
1.223771 0.485384 0.555039 -0.055817 -0.008523 0.006871
0.791718 0.644943 0.598179 0.000000 0.555406 -0.000012
1.093940 0.496538 0.676419 0.000000 -0.999657 -0.000000
0.841028 0.615780 0.769367 0.000000 0.246267 0.000030
1.223771 0.485384 0.799357 -0.055820 -0.008523 -0.006870
1.479529 0.874655 0.993188 -0.055818 0.005407 -0.004388
1.679296 0.573952 0.770763 0.000000 -0.195048 0.000077
1.533381 1.048792 0.152413 -0.028140 -0.025514 -0.017019
2.665493 0.683098 0.650145 0.000000 0.962470 -0.000001
1.275273 0.590367 0.581983 0.000000 -0.026005 -0.000019
3.031340 0.686927 0.680781 0.000000 0.999652 0.000000
2.954102 0.687405 0.579066 0.036872 -0.010912 -0.008165
1.592630 0.267630 0.320620 -0.055819 -0.004661 0.003788
2.665493 0.566666 0.585319 0.000001 -0.268527 -0.000014
0.890338 0.581658 0.582486 0.000000 -0.117440 -0.000065
2.271014 0.509279 0.724824 0.000000 -0.872483 0.000009
1.420218 0.399736 0.467380 -0.055818 -0.006526 0.005285
3.254448 0.379109 0.933851 -0.063707 -0.010088 -0.008925
1.618183 0.697416 0.543333 0.055847 -0.015397 -0.012928
3.037192 0.458726 0.536112 0.036867 0.013095 -0.009630
0.249310 0.585501 0.772235 0.000000 -0.065396 0.000938
3.109281 0.562040 0.586708 0.000000 -0.321443 -0.000091
1.765588 0.371427 0.424185 0.055847 0.013136 -0.011137
0.094879 0.648344 0.631384 -0.393236 0.000059 -0.000045
1.576068 0.520772 0.579532 0.055846 0.010947 -0.009356
3.252011 0.297696 1.011758 0.036869 0.026178 0.016663
1.752465 0.687021 0.677198 0.000000 0.999662 0.000000
1.492739 0.835700 0.390891 -0.028142 -0.005495 -0.004854
1.500369 0.700152 0.577059 -0.055818 0.009455 0.007602
0.594479 0.665395 0.616775 0.000000 0.768785 -0.000003
0.397239 0.686499 0.667241 0.000000 0.993035 -0.000000
1.197971 0.668935 0.588591 -0.028141 -0.016205 -0.012641
1.513414 0.259983 1.050162 -0.055823 -0.002424 -0.001974
3.264781 0.833120 0.410967 -0.063706 -0.010337 -0.008639
0.397239 0.529557 0.605076 0.000000 -0.658432 -0.000009
2.862732 0.501856 0.645771 -0.000000 -0.946215 -0.000003
2.714802 0.557489 0.766065 0.000000 -0.369906 0.000019
1.186197 0.659775 0.743881 0.000001 0.652948 0.000002
1.580748 0.390172 0.434225 -0.028141 0.005496 -0.004855
2.802288 0.686937 0.680391 0.000000 0.999642 0.000000
0.347930 0.533877 0.752836 0.000000 -0.597565 0.000010
2.862732 0.624808 0.766527 -0.000001 0.345959 0.000083
1.610084 0.798844 0.888665 -0.055817 0.002983 -0.002429
3.279477 0.405420 0.452314 -0.063706 -0.006306 0.005621
1.765588 0.759516 0.484579 0.055848 -0.014011 -0.011836
1.765588 0.178576 1.151654 0.055847 0.015762 0.013212
1.765588 0.301299 0.343660 0.055846 0.011385 -0.009716
1.765588 1.004962 0.202741 0.055848 -0.015762 -0.013212
2.999527 0.590834 0.581958 -0.000000 -0.013006 -0.000076
3.090193 0.595897 0.772341 0.000010 0.001215 0.000409
0.988958 0.681557 0.708993 -0.000000 0.946754 0.000001
1.728605 0.500387 0.650332 0.000000 -0.962477 -0.000004
1.663539 0.332997 0.983029 0.055848 0.006131 0.005307
1.978336 0.687009 0.676730 -0.000005 0.212917 -0.000000
1.653820 0.943105 0.292681 -0.055818 0.017150 0.013369
0.247719 0.594107 0.581977 -0.000000 0.009273 -0.000027
3.112463 0.496628 0.672992 0.000000 -0.999657 -0.000000
2.073774 0.511094 0.626572 -0.000000 -0.845734 -0.000010
2.271014 0.678101 0.636969 0.000000 0.908080 -0.000007
1.585787 0.464839 0.792527 0.110434 -0.002768 -0.002410
3.251199 0.274673 0.313086 0.036870 -0.015891 0.014163
3.100842 0.342363 0.390813 0.036868 -0.009934 0.009308
3.251199 0.908866 1.041310 0.036869 0.015892 -0.014163
0.110296 0.644699 0.735982 -0.333070 0.000067 0.000071
2.843088 0.458404 0.830336 0.036868 -0.011921 -0.011007
1.346997 0.473117 0.818173 -0.028143 0.008103 0.007008
1.925845 0.531047 0.603821 0.000001 -0.593529 -0.000002
0.079900 0.526616 0.670350 -0.422870 -0.000030 -0.000002
1.432746 0.685190 0.658655 0.000000 0.980639 -0.000001
1.533381 0.134747 1.201983 -0.055819 -0.013423 -0.010643
1.352775 0.339285 0.967118 -0.055818 -0.011932 -0.009515
1.649484 1.180281 0.001428 -0.028142 -0.025512 -0.017019
1.649484 0.003258 1.352967 0.000000 -0.656740 0.000144
3.442922 0.629305 0.634096 0.251324 0.000238 -0.000273
0.295438 0.686992 0.679379 -0.000000 0.999916 0.000000
1.661327 1.065610 0.128341 -0.028141 -0.021265 -0.015274
3.133666 0.736816 0.496625 0.036871 0.006525 0.006234
1.449577 0.483771 0.573037 -0.055819 -0.004728 0.003841
1.569019 0.422947 0.883261 -0.028141 0.011699 0.009723
3.361246 0.752542 0.488693 -0.063706 0.006306 0.005621
3.361246 0.427139 0.862343 -0.063707 0.006461 0.005442
1.417277 0.266236 0.303398 -0.055818 -0.002424 0.001975
1.749390 0.494833 0.789886 0.055848 0.005839 0.005057
0.693099 0.632422 0.763334 0.000001 0.405544 0.000004
3.247989 0.482110 0.534923 -0.063707 -0.004531 0.004048
3.415421 0.550793 0.726772 0.251322 -0.000238 0.000273
1.383436 0.603273 0.771744 0.000001 0.116406 0.000066
0.175050 0.497867 0.672277 -0.089138 -0.000229 -0.000006
2.221704 0.582123 0.771956 0.000001 -0.091065 0.000168
0.988958 0.509279 0.724824 0.000001 -0.872033 0.000017
0.594479 0.674260 0.724824 -0.000000 0.872310 0.000002
3.112800 0.811476 0.924806 0.036867 -0.014334 0.010427
3.144405 0.441887 0.863322 0.036867 -0.013049 -0.011937
2.320323 0.509697 0.628869 0.000000 -0.859220 -0.000009
2.468253 0.525365 0.745475 0.000000 -0.693324 0.000004
2.024464 0.543172 0.759110 -0.000000 -0.511157 0.000026
1.925845 0.542971 0.758991 -0.000000 -0.511262 0.000052
3.351602 0.673641 0.763643 -0.063708 -0.006275 0.005287
2.320323 0.674336 0.724688 0.000000 0.872402 0.000004
1.558920 0.944063 0.267703 -0.028142 -0.032587 -0.019184
2.764112 0.579491 0.582743 0.000001 -0.116951 -0.000065
3.328206 0.879493 0.349929 -0.063706 -0.010336 -0.008639
3.313886 0.702382 0.560532 -0.063709 -0.010770 -0.008991
1.663757 0.102874 1.229537 -0.055818 -0.011186 -0.008944
1.634818 0.093545 0.110858 -0.055818 -0.005221 0.004239
2.861718 0.693809 0.555355 0.036872 0.007947 0.007538
1.925845 0.625100 0.587976 0.000000 0.345756 -0.000021
3.313886 0.481156 0.793863 -0.063707 0.010770 0.008992
1.477099 0.323785 0.989572 -0.028144 0.010280 0.008691
1.580676 0.615667 0.585000 -0.000000 0.246211 -0.000030
1.765588 0.724452 0.829554 0.055849 -0.007444 0.006426
3.181244 0.804282 0.442912 0.036871 -0.010912 -0.008166
1.087577 0.644165 0.756736 0.000000 0.555560 0.000046
1.702415 0.879862 0.357078 0.110436 0.002824 0.002458
1.697555 0.863834 0.978090 0.110436 0.002824 -0.002458
1.673258 1.007220 1.138626 -0.055819 0.014168 -0.011199
0.545169 0.515665 0.734465 0.000000 -0.801272 0.000023
1.348777 0.689362 0.777515 -0.055817 0.008523 -0.006871
0.736046 0.496603 0.680469 0.000000 -0.999656 0.000000
0.545169 0.516756 0.618508 0.000001 -0.784620 -0.000024
1.712134 0.048087 1.292447 0.110435 -0.005093 -0.004431
1.712134 1.135452 0.061948 -0.055820 0.016404 0.012835
1.712134 0.048087 0.061948 0.110437 -0.005093 0.004431
1.391476 0.888083 1.017446 -0.028139 -0.005141 0.004552
1.288273 0.771204 0.883237 -0.028142 -0.016204 0.012640
1.680547 0.246509 0.295134 0.110436 -0.002381 0.002073
1.634382 0.467908 0.523797 0.055848 0.014668 -0.012356
1.651390 0.377746 0.903633 0.110437 -0.006533 -0.005679
2.955271 0.742545 0.854224 0.036870 0.022785 -0.018813
1.087577 0.643054 0.596939 -0.000000 0.533137 -0.000012
0.693099 0.647311 0.599823 0.000000 0.576313 -0.000011
0.791718 0.676204 0.721269 0.000002 0.674882 0.000001
1.482056 0.538920 0.756433 -0.000000 -0.555487 0.000023
3.324100 0.503959 0.586455 -0.063708 0.006275 -0.005287
2.221704 0.539891 0.597313 0.000000 -0.555605 -0.000046
1.479218 0.919037 0.306751 -0.055817 0.004848 0.003938
2.778428 0.496571 0.679223 0.000000 -0.999657 0.000000
1.365144 0.591847 0.581948 -0.000000 0.025988 -0.000076
2.468253 0.517648 0.617376 0.000001 -0.779619 -0.000006
2.369633 0.651468 0.602980 -0.000000 0.618998 -0.000020
2.468253 0.666228 0.617805 -0.000000 0.785278 -0.000024
3.257211 0.671696 0.729010 -0.000001 0.746631 0.000001
3.207901 0.604086 0.771648 0.000000 0.117772 0.000065
2.938577 0.473887 0.804769 0.036869 0.010912 0.008166
1.765588 0.424022 0.869816 0.055847 0.014011 0.011836
1.675067 1.097877 1.262484 -0.028144 -0.009217 0.007884
2.616183 0.620645 0.767961 -0.000000 0.296590 0.000025
0.890338 0.508213 0.631476 0.000000 -0.872529 -0.000009
3.242490 0.838758 0.968596 0.036869 0.007947 -0.007539
2.912042 0.505986 0.718589 0.000001 -0.845489 0.000002
1.603605 0.667898 0.737208 -0.000000 -0.656741 -0.000604
2.073774 0.646675 0.755023 0.000001 0.576874 0.000022
3.010661 0.511884 0.729075 0.000000 -0.845562 0.000005
1.664184 0.687015 0.676964 0.000000 0.999662 -0.000000
0.446549 0.652432 0.603771 0.000000 0.639433 -0.000074
0.175050 0.642982 0.598337 -0.081092 0.000285 -0.000415
1.678117 0.909230 1.049178 0.055848 -0.005255 0.004556
3.158591 0.682498 0.648210 -0.000000 0.953902 -0.000002
3.056252 0.750935 0.850616 0.036869 -0.014334 0.010426
3.156571 0.375746 0.917462 0.036870 0.013094 0.009630
1.454491 0.729535 0.510462 -0.028142 -0.035920 -0.019957
2.926412 0.686633 0.776002 0.036868 -0.010913 0.008166
0.446549 0.664947 0.738160 -0.000000 0.768825 0.000051
1.682977 0.745619 0.514514 0.110437 0.003709 0.003229
2.123084 0.567683 0.585048 0.000001 -0.245024 -0.000061
0.378152 0.496632 0.681560 0.000000 -0.999662 0.000000
1.544559 0.177775 0.199751 -0.028143 0.014179 -0.011398
1.334127 0.497934 0.660876 -0.000000 -0.984529 -0.000001
1.687836 0.386826 0.455023 0.110436 -0.003266 0.002843
1.541160 0.920770 1.044291 -0.055819 0.009695 -0.007789
1.567581 0.322312 0.385466 -0.055819 -0.005407 0.004388
2.172394 0.685893 0.662606 -0.000001 0.989434 -0.000004
3.006805 0.444267 0.853580 0.036871 -0.011920 -0.011006
1.668398 0.650225 0.601797 0.055848 -0.010947 -0.009356
1.038267 0.576254 0.583224 0.000001 -0.169333 -0.000179
1.563779 0.222834 1.105387 -0.028143 0.016305 0.012699
0.191672 0.647676 0.754146 -0.016592 0.000749 0.001002
2.941937 0.526867 0.601114 -0.000001 -0.656736 -0.000325
1.636811 0.723951 0.839946 0.055849 -0.007335 0.006333
1.777915 0.570749 0.770093 -0.000001 -0.200289 0.000009
3.257211 0.570673 0.584320 0.000000 -0.220672 -0.000136
3.095546 0.698459 0.781012 0.036870 -0.014333 0.010426
1.690266 0.215173 1.116046 0.055847 0.008539 0.007351
3.195176 0.795937 0.899953 0.036870 -0.013094 0.009630
1.777915 0.624735 0.587841 -0.000000 0.346114 -0.000167
3.419410 0.483513 0.552891 -0.063707 -0.008166 0.007255
2.812549 0.687997 0.784577 0.036870 -0.026177 0.016663
3.390020 0.788426 0.903012 -0.063706 -0.010337 0.008639
3.390020 0.395113 0.451383 -0.063707 -0.010088 0.008925
3.360629 0.306713 1.004519 -0.063707 -0.010088 -0.008925
3.354751 0.289032 0.329574 -0.063704 -0.005045 0.004504
1.503739 0.276909 0.311618 -0.028142 0.004609 -0.004094
1.470711 0.750768 0.842035 -0.055817 0.009455 -0.007602
0.298620 0.532866 0.602353 0.000000 -0.619025 -0.000039
3.386312 0.683998 0.674624 0.093863 0.002388 -0.000134
2.073774 0.501705 0.708182 0.000000 -0.946987 0.000003
1.876535 0.498007 0.660454 0.000000 -0.985560 -0.000003
1.345216 0.740227 0.503180 -0.028147 -0.004051 -0.003609
1.376172 0.422573 0.875560 -0.028142 0.008990 0.007707
0.742408 0.581503 0.582505 -0.000000 -0.117773 -0.000065
2.787972 0.592782 0.772436 -0.000000 0.013006 0.000010
0.065423 0.576946 0.732520 -0.508417 -0.000012 0.000041
2.073774 0.653391 0.604568 0.000000 0.639507 -0.000018
3.119060 0.493010 0.545102 -0.000000 -0.754116 0.000759
1.186197 0.686499 0.667241 0.000000 0.993085 -0.000001
2.172394 0.519750 0.739527 0.000000 -0.751808 0.000027
1.420328 0.836554 0.951699 -0.055819 0.005966 -0.004838
2.861718 0.489729 0.555355 0.036870 -0.015891 0.014163
1.284817 0.668037 0.734247 0.000001 0.787653 0.000003
1.765588 0.178576 0.202741 0.055848 0.015762 -0.013212
1.765588 0.301299 1.010735 0.055847 0.011385 0.009716
1.765588 0.952367 1.091261 0.055847 -0.009634 0.008268
0.249310 0.665794 0.617254 0.000000 0.769098 -0.000002
2.369633 0.523437 0.743546 0.000000 -0.716177 0.000015
2.517563 0.571091 0.584225 -0.000000 -0.220581 -0.000068
0.693099 0.518193 0.616715 0.000000 -0.768860 -0.000026
1.592477 0.826140 0.397316 -0.028144 -0.010280 -0.008691
1.300955 0.674190 0.578418 -0.028141 -0.012155 -0.010043
0.821940 0.496587 0.679846 0.000000 -0.999657 0.000000
1.186197 0.515175 0.620586 0.000000 -0.801466 -0.000001
3.285449 0.317725 0.370310 -0.063706 0.015503 -0.012755
2.616183 0.504752 0.715940 0.000000 -0.918788 0.000003
1.284817 0.518393 0.737920 -0.000000 -0.767815 0.000006
2.517563 0.497427 0.690286 -0.000000 -0.988916 0.000001
3.195176 0.399175 0.444364 0.036868 -0.011920 0.011007
1.516046 0.668286 0.736870 -0.000001 -0.656740 -0.000881
1.424181 0.497081 0.794794 -0.028142 0.017976 0.013637
2.862732 0.675288 0.631408 -0.000001 0.764796 -0.000001
3.196639 0.701114 0.821448 0.000000 0.754116 -0.001138
3.143801 0.860515 0.368605 0.036869 0.015892 0.014163
2.778649 0.487415 0.797025 0.036870 -0.015891 -0.014163
3.272678 0.918536 0.301982 0.036869 0.015892 0.014163
1.387479 0.459092 0.518936 -0.028143 0.017975 -0.013637
0.890338 0.655734 0.606624 0.000000 0.678836 -0.000017
1.186197 0.515548 0.734309 -0.000000 -0.801199 0.000023
1.339875 0.829644 0.404054 -0.028141 -0.005850 -0.005155
1.505111 0.385166 0.457022 -0.055819 -0.003076 0.002505
1.688098 0.001629 0.002847 -0.000001 -0.656739 -0.000144
1.688098 1.181910 1.351549 -0.055820 0.013422 -0.010642
1.301174 0.785814 0.454382 -0.028142 -0.016204 -0.012640
1.584982 1.107231 1.269087 -0.028142 -0.019848 0.014601
1.443078 0.237016 1.084550 -0.055818 -0.008949 -0.007206
3.109281 0.524667 0.744796 0.000000 -0.697865 0.000004
1.516329 0.971590 1.108812 -0.055819 0.008203 -0.006618
1.357986 0.686986 0.678522 0.000000 0.999642 0.000000
1.580676 0.524416 0.744551 0.000000 -0.716602 0.000004
1.647588 0.150195 0.164771 -0.028142 0.012053 -0.009973
3.079156 0.411694 0.463413 0.036868 -0.006525 0.006235
1.765588 0.494150 0.565104 0.055848 0.011676 -0.009954
0.912607 0.589043 0.772378 0.000000 -0.026769 0.000002
1.208466 0.592237 0.772437 0.000000 0.026005 0.000038
1.728605 0.631927 0.763562 -0.000000 0.418609 0.000033
1.594439 1.006565 1.157634 -0.028140 -0.013472 0.010937
0.643789 0.537436 0.755427 0.000001 -0.576932 0.000044
1.432746 0.502143 0.644963 -0.000000 -0.938122 -0.000006
2.468253 0.677905 0.717851 0.000001 0.906999 0.000007
2.971965 0.783155 0.457436 0.036869 0.023830 0.019427
1.925845 0.671611 0.729140 -0.000001 0.804200 0.000003
2.993444 0.390714 0.908063 0.036867 -0.013049 -0.011937
2.369633 0.552178 0.590572 -0.000001 -0.418291 -0.000033
0.446549 0.521116 0.741077 0.000000 -0.733984 0.000007
1.538109 1.001519 0.210805 -0.055817 0.007458 0.006028
1.600365 0.745972 0.486059 0.055848 -0.007444 -0.006426
3.373249 0.602250 0.770216 0.093862 0.000111 0.001979
3.257211 0.506693 0.720022 0.000000 -0.896861 0.000008
0.058392 0.583508 0.625039 -0.535970 -0.000007 -0.000039
1.689456 0.488866 0.571918 0.110436 -0.007788 0.006765
1.827225 0.683595 0.702488 -0.000001 0.962154 0.000009
1.657059 0.503683 0.759982 0.110437 -0.002768 -0.002410
3.227191 0.709044 0.561228 -0.063707 -0.007077 -0.005955
2.714802 0.519673 0.614956 -0.000000 -0.751640 -0.000013
3.010661 0.626737 0.765791 -0.000001 0.370441 0.000077
1.284817 0.522894 0.611408 0.000000 -0.716320 -0.000015
0.249310 0.518542 0.738100 -0.000000 -0.768842 0.000051
1.493006 0.404138 0.875177 -0.055819 -0.006339 -0.005136
1.482056 0.611573 0.770368 -0.000000 0.220695 0.000068
1.470120 0.787808 0.445056 -0.028141 -0.023389 -0.016195
3.382042 0.658862 0.605200 -0.063707 -0.008367 -0.007024
0.963507 0.589355 0.582009 0.000000 -0.026769 -0.000009
2.566873 0.682159 0.647173 0.000000 0.946863 -0.000010
1.420328 0.836554 0.402697 -0.055818 0.005966 0.004838
0.841028 0.543574 0.759349 0.000001 -0.510882 0.000026
3.046432 0.519089 0.575827 0.036869 -0.004350 0.004192
3.101144 0.788687 0.458094 0.036871 -0.006547 -0.005031
3.425504 0.572038 0.590748 0.090967 -0.000119 -0.000444
1.687836 1.045512 1.204839 0.055849 -0.014011 0.011836
0.890338 0.660968 0.742650 0.000000 0.734290 0.000007
1.728605 0.507806 0.722165 -0.000000 -0.884947 0.000016
1.038267 0.682902 0.649512 0.000000 0.954993 -0.000002
1.546281 1.063402 1.218759 -0.028141 -0.012053 0.009973
2.950485 0.410054 0.468540 0.036869 -0.022786 0.018814
3.306520 0.639897 0.595006 0.000000 0.511300 -0.000052
2.665493 0.638375 0.594136 0.000001 0.487763 -0.000027
1.203694 0.592860 0.581975 0.000000 0.026005 -0.000038
2.813422 0.531706 0.603273 0.000000 -0.639507 -0.000009
1.511580 0.507529 0.607658 -0.055818 -0.004795 0.003895
2.730709 0.686960 0.679534 0.000000 0.999652 0.000000
1.581321 0.290964 1.006159 -0.055817 -0.005034 -0.004088
0.390877 0.587719 0.772343 0.000000 -0.026015 0.000038
3.336461 0.736093 0.835910 -0.063705 -0.004642 0.003920
3.010661 0.664822 0.616086 0.000000 0.767815 -0.000006
1.524505 0.841388 0.948411 -0.055817 0.005594 -0.004538
1.563364 0.748618 0.869719 -0.028143 -0.012407 0.010219
2.271014 0.632776 0.763170 -0.000000 0.442236 0.000031
2.172394 0.632776 0.763170 -0.000000 0.442006 0.000008
1.349860 0.387319 0.445929 -0.055818 -0.006339 0.005136
1.038267 0.545843 0.760640 0.000002 -0.487959 0.000055
1.707274 0.270115 1.036677 0.110437 -0.002602 -0.002265
1.656250 0.816813 0.944921 0.055847 -0.006569 0.005681
0.576982 0.595041 0.582032 0.000000 0.026015 -0.000019
2.418943 0.569913 0.769904 -0.000001 -0.220533 0.000068
0.411555 0.594963 0.582021 0.000067 0.002734 -0.001721
1.087577 0.523111 0.611184 0.000000 -0.716220 -0.000004
0.051509 0.636692 0.694442 -0.562950 0.000032 0.000011
1.765588 0.847175 0.970473 0.055847 -0.012260 0.010430
1.690266 0.968365 0.238349 0.055847 -0.008539 -0.007351
0.640607 0.686927 0.673615 0.000000 0.999652 -0.000000
3.279477 0.778119 0.452314 -0.063706 0.012610 0.011081
3.373249 0.507432 0.636583 0.093863 -0.001768 -0.000732
1.563779 0.216100 0.254873 -0.055819 -0.004102 0.003336
2.813422 0.628471 0.589304 0.000000 0.394564 -0.000018
0.939648 0.682544 0.648359 -0.000002 0.953848 -0.000010
1.594570 0.109999 1.232055 -0.028142 0.022680 0.015899
1.636002 0.518355 0.614823 0.110437 -0.005536 0.004815
1.741290 1.139583 1.302124 0.110436 0.002215 -0.001928
3.354541 0.526231 0.760019 -0.063707 -0.004083 -0.003650
0.545169 0.639864 0.759409 -0.000001 0.510852 0.000026
1.284494 0.461724 0.531394 -0.055818 -0.006393 0.005179
1.876535 0.589900 0.772400 0.000000 -0.026015 0.000295
1.539855 0.715629 0.522320 -0.028143 -0.017975 -0.013636
1.405830 0.705452 0.815126 -0.028146 -0.017973 0.013636
3.133137 0.648185 0.593723 0.000000 0.656742 -0.000762
0.942829 0.496579 0.674861 -0.000000 -0.999662 -0.000000
1.692696 0.198087 0.218936 0.055848 0.008758 -0.007535
2.985658 0.716513 0.525390 0.036869 0.022786 0.018814
0.576982 0.496535 0.675873 0.000000 -0.999915 -0.000000
3.222217 0.686903 0.672680 0.000000 0.999651 -0.000000
0.791718 0.684082 0.653753 0.000001 0.966767 -0.000004
0.249310 0.672278 0.728087 0.000000 0.845728 0.000039
2.665493 0.677938 0.717780 -0.000000 0.905948 0.000002
1.454491 0.454004 0.510462 -0.028143 0.017975 -0.013636
3.240014 0.737658 0.860684 -0.063707 0.003783 -0.003383
1.594570 1.075988 0.124473 -0.055818 0.005966 0.004838
3.099737 0.686919 0.681092 0.000000 0.999662 0.000000
1.413877 0.354290 0.411085 -0.055818 -0.005966 0.004838
1.975155 0.662863 0.613813 -0.000000 0.751823 -0.000027
1.332316 0.725617 0.834439 -0.028144 -0.008103 0.007008
3.179269 0.496543 0.679146 0.000000 -0.999915 0.000000
1.531366 0.570369 0.584389 -0.000001 -0.220049 -0.000034
1.427884 0.787309 0.907008 -0.028139 -0.006028 0.005305
2.764112 0.520367 0.740231 0.000000 -0.751866 0.000013
3.132102 0.377991 0.438343 0.036870 0.006547 -0.005031
3.442922 0.598956 0.763928 0.093853 0.000043 0.000443
1.525765 0.502959 0.792538 -0.028142 0.008990 0.007707
1.661109 0.846616 0.402242 0.110436 0.003045 0.002651
3.077324 0.440659 0.839030 0.036870 0.013094 0.009629
0.823531 0.588809 0.582024 0.000000 -0.026005 -0.000019
1.442532 0.667463 0.579934 -0.028142 -0.017975 -0.013637
3.297513 0.422942 0.880792 -0.063706 -0.006306 -0.005621
1.615936 0.891689 1.030899 -0.028139 -0.004432 0.003940
1.685406 0.961825 1.088555 0.110437 0.004318 -0.003758
1.496372 0.687000 0.676419 0.000000 0.999652 -0.000000
2.024464 0.675659 0.722303 -0.000000 0.884947 0.000016
1.580676 0.501530 0.646730 -0.000001 -0.936432 -0.000001
1.629986 0.616985 0.769045 0.000001 0.270812 0.000027
3.059971 0.666324 0.736468 -0.000000 0.785257 0.000024
0.314526 0.587251 0.772331 0.000000 -0.026015 0.000038
3.079362 0.352033 0.952479 0.036870 -0.013048 -0.011937
1.544559 0.174714 1.151978 -0.055817 -0.014914 -0.011750
1.410342 0.315856 0.358823 -0.028142 0.010635 -0.008954
1.491193 0.691546 0.803268 -0.028142 -0.008990 0.007707
1.160747 0.496522 0.677354 0.000000 -0.999657 0.000000
3.213113 0.432151 0.512607 0.000001 0.754116 -0.000759
1.028724 0.496571 0.675173 0.000000 -0.999657 -0.000000
3.209864 0.340059 0.959998 0.036869 0.017457 0.012314
1.827225 0.659965 0.610710 -0.000000 0.716224 -0.000007
2.887983 0.510998 0.778512 0.036870 -0.015891 -0.014162
0.126089 0.676050 0.681615 -0.279270 0.000063 0.000002
3.252553 0.513300 0.784214 -0.063705 -0.013813 -0.012092
1.670828 0.299270 0.333259 0.055847 0.005693 -0.004932
1.765588 0.882239 0.343660 0.055847 -0.011385 -0.009716
0.200000 0.519339 0.615337 -0.016590 -0.000962 -0.000799
3.186760 0.303683 0.346397 0.036869 -0.011920 0.011006
1.600365 0.416752 0.504185 0.110436 -0.003488 0.003036
2.369633 0.646357 0.755247 0.000000 0.576743 0.000005
3.168135 0.587719 0.582052 -0.000000 -0.026015 -0.000038
3.176645 0.485080 0.573383 0.000001 0.754116 -0.001138
1.334127 0.550273 0.762929 0.000000 -0.442309 0.000004
1.682977 0.763151 0.860013 0.110436 0.003488 -0.003036
3.295782 0.875988 1.009788 -0.063709 0.010088 -0.008925
1.284494 0.461724 0.823001 -0.055817 -0.006393 -0.005179
3.319295 0.372099 0.923207 -0.063707 0.005168 0.004362
1.726712 0.387892 0.904725 0.110437 -0.003266 -0.002843
1.726712 0.795646 0.449670 0.110437 0.003266 0.002843
3.075899 0.724697 0.538581 0.036869 -0.014334 -0.010426
1.567137 0.702089 0.580590 -0.055822 0.004794 0.003895
0.778993 0.594885 0.772368 0.000000 0.026769 0.000037
1.531366 0.651193 0.602763 0.000000 0.619123 -0.000039
2.912042 0.643874 0.597465 0.000001 0.547160 -0.000006
3.329628 0.827786 0.943535 -0.063706 -0.005169 0.004362
2.961352 0.683352 0.651045 -0.000001 0.958874 -0.000002
3.257211 0.498616 0.657318 -0.000000 -0.972527 -0.000001
2.525516 0.593950 0.772392 0.000000 0.026397 0.000019
2.958170 0.496528 0.676419 -0.000000 -0.999913 -0.000000
0.791718 0.514439 0.732803 0.000000 -0.816925 0.000003
2.123084 0.673483 0.726129 0.000001 0.858427 0.000009
3.059971 0.608974 0.583515 0.000000 0.169420 -0.000045
1.448558 0.873788 0.359531 -0.055818 0.002797 0.002278
0.347930 0.674260 0.629572 0.000000 0.859645 -0.000002
0.939648 0.535313 0.753908 -0.000000 -0.597565 0.000010
0.693099 0.510637 0.727098 0.000000 -0.845671 0.000005
2.990443 0.497964 0.557022 0.036869 -0.022786 0.018814
1.087577 0.516490 0.735550 -0.000001 -0.762608 0.000003
1.136887 0.670658 0.623830 -0.000000 0.831380 -0.000010
2.232838 0.496522 0.677042 -0.000002 -0.408803 -0.000000
1.765588 0.073385 0.081953 0.055847 0.008758 -0.007535
2.221704 0.600601 0.582364 -0.000000 0.091380 -0.000168
1.356311 0.382616 0.919121 -0.028143 0.012053 0.009972
1.515206 0.365840 0.920182 -0.055817 -0.002983 -0.002429
2.862732 0.672985 0.726967 -0.000000 0.859377 0.000005
3.196639 0.482425 0.821448 0.000001 -0.754116 -0.001138
3.257211 0.668037 0.620149 -0.000000 0.801162 -0.000023
1.777915 0.666566 0.736162 0.000001 0.704139 0.000002
3.158591 0.566216 0.768950 0.000000 -0.271533 0.000054
2.961352 0.673144 0.726699 0.000001 0.756153 0.000001
3.390667 0.502113 0.697661 0.093863 -0.001853 0.000315
2.517563 0.653391 0.749827 0.000001 0.638700 0.000018
2.320323 0.497310 0.689437 -0.000000 -0.992803 0.000002
2.665493 0.526091 0.746182 0.000000 -0.697870 0.000008
2.512791 0.686996 0.676263 0.000000 0.999662 -0.000000
2.616183 0.533539 0.601822 -0.000001 -0.617953 -0.000020
1.777915 0.497039 0.687154 -0.000000 -0.995782 0.000006
1.546705 0.868973 1.002745 -0.028142 -0.009926 0.008426
2.714802 0.666204 0.617774 0.000000 0.784021 -0.000006
1.383436 0.671481 0.625061 -0.000001 0.830959 -0.000010
2.764112 0.671903 0.728680 0.000000 0.845671 0.000002
1.728605 0.535563 0.600301 -0.000000 -0.598198 -0.000021
0.347930 0.564941 0.585805 -0.000000 -0.266655 -0.000007
1.639241 0.895018 0.350364 -0.055819 0.002424 0.001975
1.827225 0.510907 0.626869 -0.000001 -0.845618 -0.000019
0.347930 0.681261 0.709798 -0.000001 0.938156 0.000023
1.726712 1.047666 0.160283 0.110436 0.006865 0.005967
1.726712 0.135872 1.194113 0.110437 -0.006865 -0.005967
2.609820 0.591224 0.581953 0.000000 -0.013006 -0.000019
1.617679 0.960490 0.246978 -0.028145 -0.007445 -0.006478
1.383436 0.670269 0.731149 -0.000000 0.831403 0.000005
1.235507 0.683606 0.702451 -0.000000 0.962442 0.000004
1.586823 0.814167 0.943538 -0.028143 -0.010989 0.009214
2.024464 0.535157 0.600604 0.000001 -0.598161 -0.000041
1.558206 0.466002 0.560855 -0.055818 -0.009455 0.007602
3.234230 0.669357 0.784983 -0.063705 0.006907 -0.006151
1.348646 0.792212 0.903660 -0.055819 0.006526 -0.005285
2.616183 0.665221 0.616565 0.000000 0.768727 -0.000013
1.728605 0.670615 0.623765 0.000001 0.831047 -0.000021
0.110296 0.600038 0.598529 -0.332824 0.000011 -0.000199
1.405721 0.533899 0.601287 -0.028143 0.020252 -0.014798
2.616183 0.686743 0.684438 -0.000001 0.997189 0.000001
0.126089 0.512978 0.707443 -0.271507 -0.000126 0.000045
2.059458 0.590990 0.772429 0.000000 -0.026015 0.000010
0.150336 0.605911 0.766486 -0.177125 0.000040 0.000215
1.472768 0.907752 1.042722 -0.028143 -0.009572 0.008156
1.251353 0.699318 0.556052 -0.055821 0.004262 0.003465
1.876535 0.591613 0.581950 0.000000 -0.026005 -0.000010
2.123084 0.674888 0.630694 -0.000001 0.871451 -0.000009
1.975155 0.509279 0.629572 -0.000000 -0.859645 -0.000002
1.432746 0.569761 0.769869 0.000000 -0.220331 0.000017
0.347930 0.508422 0.631102 0.000000 -0.872476 -0.000034
1.765588 0.424022 0.484579 0.055848 0.007006 -0.006054
3.142573 0.463908 0.805323 0.000001 0.754116 0.001138
1.523400 0.890131 0.346108 -0.055818 0.002610 0.002126
0.742408 0.670528 0.623635 -0.000001 0.831047 -0.000010
0.565847 0.686931 0.673770 0.000000 0.999652 -0.000000
3.189600 0.740802 0.524762 0.036868 -0.014334 -0.010426
3.209864 0.837307 0.389023 0.036865 0.007948 0.007539
1.731571 0.336800 0.390180 0.110436 -0.003100 0.002699
1.620109 0.204933 1.108234 -0.055818 -0.007831 -0.006324
0.648561 0.594573 0.772376 -0.000000 0.026005 0.000019
2.668674 0.593950 0.772392 0.000000 0.026397 0.000019
3.233780 0.399458 0.882445 -0.063707 0.006461 0.005442
2.864567 0.448734 0.512955 0.036872 -0.007947 0.007538
3.394848 0.694626 0.797827 -0.063708 0.004083 -0.003650
0.200000 0.553027 0.764214 -0.016589 -0.000524 0.001136
1.334127 0.634244 0.762447 0.000000 0.442309 0.000004
3.059971 0.499188 0.699585 0.000000 -0.969236 0.000002
2.024464 0.679871 0.641000 -0.000001 0.914873 -0.000002
0.594479 0.540419 0.596980 -0.000001 -0.533406 -0.000024
1.523291 0.357789 0.400662 -0.028142 0.005495 -0.004854
0.126089 0.518679 0.634999 -0.271505 -0.000118 -0.000064
0.521309 0.587875 0.772347 0.000000 -0.026015 0.000010
1.584982 0.076307 0.085308 -0.055818 -0.010441 0.008369
2.271014 0.685319 0.695091 -0.000000 0.980291 0.000003
1.235507 0.542201 0.758533 0.000000 -0.511228 0.000006
3.176645 0.679942 0.557258 0.000001 0.754116 0.001138
3.013092 0.416952 0.481134 0.036870 0.014334 -0.010426
0.545169 0.641802 0.596149 0.000001 0.533433 -0.000049
3.035996 0.792125 0.444798 0.036870 0.011920 0.011006
1.074852 0.589588 0.772392 0.000000 -0.026005 0.000038
2.271014 0.552319 0.763888 0.000000 -0.418524 0.000008
0.742408 0.657727 0.745910 -0.000001 0.697171 0.000016
1.975155 0.562484 0.586562 0.000000 -0.296026 -0.000025
1.623853 0.707292 0.785868 0.110434 0.002768 -0.002410
2.862732 0.566816 0.769119 0.000000 -0.271537 0.000054
1.679296 0.670658 0.730566 -0.000001 0.831326 0.000021
1.038267 0.666686 0.736009 0.000001 0.784213 0.000012
2.616183 0.498477 0.658005 0.000000 -0.980784 -0.000006
2.714802 0.609854 0.583685 -0.000001 0.192804 -0.000020
3.387920 0.641182 0.728894 0.251324 0.000476 0.000547
2.024464 0.498493 0.657929 -0.000000 -0.980324 -0.000002
3.275115 0.334072 0.963757 -0.063706 0.015503 0.012755
1.634382 0.467908 0.830599 0.055848 0.014668 0.012356
2.221704 0.661153 0.611946 0.000000 0.733984 -0.000007
1.407117 0.317213 0.989379 -0.055818 -0.011186 -0.008944
3.188385 0.833809 0.948894 0.036868 -0.021819 0.014657
0.495859 0.672319 0.626374 0.000000 0.845734 -0.000010
3.442922 0.677972 0.665244 0.094126 0.000440 -0.000055
2.990443 0.497964 0.797374 0.036870 -0.022786 -0.018814
0.446549 0.510374 0.627730 -0.000000 -0.859288 -0.000005
2.320323 0.686284 0.665423 0.000000 0.991440 -0.000001
2.800129 0.705794 0.546267 0.036870 0.015891 0.014162
1.235507 0.546319 0.593489 0.000000 -0.488603 -0.000055
2.942264 0.595196 0.582036 0.000000 0.026015 -0.000038
3.264781 0.361219 0.401560 -0.063707 -0.010088 0.008925
1.432746 0.499879 0.702263 0.000000 -0.962216 0.000004
3.306116 0.289661 1.028772 -0.063707 -0.010088 -0.008925
2.461890 0.496562 0.675484 0.000000 -0.999657 -0.000000
0.495859 0.538012 0.598568 0.000002 -0.419485 -0.000004
0.939648 0.539308 0.597703 0.000001 -0.555438 -0.000046
3.059971 0.548388 0.761995 0.000000 -0.465478 0.000015
1.507414 0.483965 0.541525 -0.028142 0.017975 -0.013637
1.975155 0.570141 0.769955 0.000000 -0.220673 0.000136
1.925845 0.504883 0.716223 0.000001 -0.905788 0.000007
0.939648 0.638103 0.760412 -0.000001 0.487860 0.000027
1.975155 0.520675 0.740582 -0.000000 -0.747855 0.000003
3.442922 0.591769 0.677198 1.000000 0.000000 0.000000
1.556075 0.459882 0.841678 -0.028142 0.006204 0.005453
1.579533 0.789206 0.438899 -0.028141 -0.005496 -0.004854
3.142573 0.719630 0.805323 0.036869 -0.014334 0.010426
1.728605 0.596754 0.582077 0.000000 0.065046 -0.000059
3.158591 0.534783 0.600883 0.000000 -0.598347 -0.000021
1.482056 0.670615 0.623765 0.000001 0.829631 -0.000005
0.643789 0.656478 0.747084 -0.000000 0.678761 0.000033
1.707274 0.923609 0.291190 0.055846 -0.005255 -0.004556
3.310384 0.743386 0.512447 -0.063706 -0.009283 -0.007778
1.692696 0.353266 0.938731 0.110436 -0.006090 -0.005296
1.136887 0.676222 0.721234 -0.000001 0.879952 0.000004
3.102585 0.506251 0.597694 0.000000 0.754117 -0.000379
0.841028 0.673303 0.627965 0.000000 0.859377 -0.000005
0.183352 0.512342 0.728778 -0.048864 -0.000723 0.000443
1.334127 0.546183 0.593565 -0.000001 -0.483960 -0.000014
3.109281 0.646134 0.755405 -0.000001 0.576532 0.000044
1.235507 0.674678 0.630320 0.000000 0.872523 -0.000017
2.912042 0.598348 0.772214 -0.000000 0.065370 0.000117
3.306520 0.640500 0.759031 -0.000000 0.511282 0.000103
3.316449 0.914853 1.045069 -0.063706 -0.010337 0.008639
0.191672 0.591769 0.582084 -0.024664 0.000022 -0.000840
3.319295 0.811440 0.431188 -0.063708 -0.005168 -0.004362
3.319295 0.372099 0.431188 -0.063707 0.010336 -0.008639
1.531366 0.508460 0.723362 0.000000 -0.872636 0.000002
1.612199 1.037816 0.161291 -0.028142 -0.024097 -0.016480
2.271014 0.640667 0.595464 -0.000001 0.509662 -0.000013
1.749390 0.690746 0.788109 0.110434 0.002953 -0.002571
2.886558 0.531496 0.597083 0.000001 -0.656739 -0.000390
1.235507 0.639259 0.759764 0.000000 0.487739 0.000014
1.136887 0.620831 0.767903 0.000000 0.296519 0.000050
1.569325 0.257185 1.048647 -0.055818 -0.004661 -0.003788
0.495859 0.540748 0.757623 -0.000000 -0.533632 0.000024
1.301955 0.715099 0.532921 -0.028144 -0.012153 -0.010043
3.179675 0.757529 0.472840 0.036867 0.006525 0.006235
3.119060 0.690528 0.545102 0.036868 0.013049 0.011937
1.412875 0.460562 0.834895 -0.028142 0.008990 0.007707
1.728605 0.547181 0.761360 -0.000000 -0.465614 0.000029
0.451321 0.686998 0.678912 0.000000 0.999916 0.000000
1.523400 0.301977 1.015751 -0.028144 0.019138 0.014247
1.460883 0.535070 0.600267 -0.028144 0.017974 -0.013636
3.082694 0.438241 0.512590 0.036869 0.013095 -0.009630
1.736431 0.268175 0.310558 0.110435 -0.002657 0.002314
2.418943 0.664573 0.738609 -0.000000 0.767815 0.000006
3.390020 0.788426 0.451383 -0.063706 -0.010337 -0.008639
3.390020 0.395113 0.903012 -0.063706 -0.010089 -0.008925
3.348873 0.912186 0.309273 -0.063706 -0.010336 -0.008639
1.652578 1.120632 0.074854 -0.055815 0.008950 0.007206
1.652578 0.062906 1.279541 -0.055817 -0.008950 -0.007206
2.119903 0.496538 0.677977 -0.000002 -0.389885 0.000000
1.644101 0.425860 0.878054 0.055848 0.006897 0.005961
0.298620 0.647757 0.600137 0.000000 0.576743 -0.000003
3.266915 0.427978 0.502363 -0.063708 0.007752 -0.006516
1.639241 0.288521 1.004032 0.110436 -0.005204 -0.004527
1.136887 0.621351 0.586658 -0.000001 0.318107 -0.000023
3.407654 0.735385 0.512288 -0.063708 -0.009283 -0.007778
3.407654 0.448153 0.842108 -0.063706 -0.009061 -0.008035
1.876535 0.524144 0.744272 -0.000000 -0.716085 0.000007
1.629986 0.591925 0.581950 0.000000 0.026015 -0.000010
0.643789 0.626339 0.588446 0.000001 0.370306 -0.000077
1.474973 0.483579 0.779348 -0.055819 -0.009455 -0.007602
1.629986 0.551152 0.763350 -0.000000 -0.418649 0.000067
3.289585 0.460310 0.839831 -0.063705 -0.009061 -0.008035
1.876535 0.656363 0.747190 -0.000000 0.674143 0.000004
1.624663 0.682570 0.596778 0.110437 0.002768 0.002410
1.619803 0.352636 0.427275 0.110435 -0.003045 0.002651
0.643789 0.505682 0.636438 -0.000001 -0.897499 -0.000002
3.155353 0.344297 0.389918 0.036869 -0.009934 0.009308
1.430178 0.931913 0.286621 -0.028143 -0.018431 -0.013879
3.059971 0.677363 0.635422 0.000000 0.896861 -0.000015
2.172394 0.522253 0.612089 -0.000000 -0.733069 -0.000007
2.764112 0.678329 0.637465 -0.000000 0.907875 -0.000007
1.827225 0.549365 0.762481 0.000000 -0.442311 0.000031
1.921073 0.687017 0.677042 0.000000 0.999662 -0.000000
0.303392 0.596287 0.582064 0.000000 0.026005 -0.000019
3.365877 0.702487 0.545020 -0.063706 0.006125 0.005461
3.365877 0.481052 0.809375 -0.063707 -0.006125 -0.005461
3.306520 0.681557 0.708993 0.000000 0.946987 0.000001
1.777915 0.523546 0.743658 0.000001 -0.655757 0.000002
1.765588 1.127685 0.061822 0.055845 -0.008758 -0.007536
1.765588 0.055853 1.292573 0.055847 0.008758 0.007535
0.841028 0.540023 0.597230 0.000001 -0.531734 -0.000012
2.271014 0.522948 0.611352 0.000000 -0.716230 -0.000002
0.038214 0.555549 0.688966 -0.615129 -0.000023 0.000007
2.418943 0.533478 0.601871 0.000001 -0.618651 -0.000020
0.939648 0.636668 0.593199 0.000000 0.465494 -0.000004
0.693099 0.564567 0.768481 -0.000002 -0.233200 0.000008
3.158591 0.624881 0.766500 0.000001 0.345870 0.000042
1.581963 0.369177 0.910183 -0.055818 -0.005780 -0.004688
3.068824 0.787049 0.906104 0.036869 0.013048 -0.011937
2.517563 0.651285 0.602836 -0.000001 0.614130 -0.000010
2.418943 0.510394 0.726699 -0.000001 -0.857504 0.000009
1.607851 0.312143 0.346385 -0.028142 0.019139 -0.014247
0.249310 0.507516 0.632782 -0.000001 -0.884937 -0.000032
2.616183 0.567041 0.769183 -0.000000 -0.270601 0.000014
1.385027 0.496530 0.677665 0.000000 -0.999656 0.000000
1.682977 0.430794 0.485319 0.055847 0.014887 -0.012528
1.624663 0.336607 0.946349 0.110436 -0.006090 -0.005296
0.298620 0.659231 0.744439 0.000000 0.716230 0.000007
1.876535 0.643841 0.597443 -0.000000 0.555637 -0.000011
2.566873 0.551328 0.590964 -0.000000 -0.418683 -0.000067
2.714802 0.508384 0.723226 0.000001 -0.865528 0.000004
1.552360 0.302592 0.338109 -0.028142 0.009572 -0.008156
1.334127 0.634488 0.592069 0.000000 0.442311 -0.000031
2.862732 0.499081 0.699130 0.000000 -0.975352 0.000003
2.616183 0.664971 0.738130 0.000000 0.768748 0.000026
3.323750 0.840837 0.386527 -0.063706 0.015131 0.013187
1.765588 0.724452 0.524842 0.055848 -0.014886 -0.012528
1.765588 1.040026 1.191917 0.055846 -0.014011 0.011837
1.765588 0.759516 0.869816 0.055847 -0.007007 0.006055
1.765588 0.213640 1.111392 0.055847 0.008758 0.007535
1.765588 0.459086 0.829554 0.055847 0.014887 0.012528
1.765588 0.038321 0.041691 0.055849 0.007006 -0.006054
1.765588 0.969898 0.243004 0.055847 -0.008758 -0.007535
3.306520 0.517770 0.737171 0.000001 -0.712802 0.000002
3.442922 0.509457 0.705456 0.093505 -0.000425 0.000139
2.665493 0.508098 0.631680 0.000000 -0.872493 -0.000002
1.089168 0.591847 0.581947 0.000000 0.013006 -0.000038
2.961352 0.524639 0.744768 0.000000 -0.693324 0.000004
1.679296 0.496796 0.669958 -0.000000 -0.996988 -0.000001
1.432746 0.630512 0.764214 -0.000000 0.418652 0.000067
0.446549 0.555499 0.589124 0.000000 -0.371654 -0.000005
3.277915 0.518601 0.608312 -0.000001 -0.656739 -0.000836
2.320323 0.665320 0.616685 0.000000 0.764925 -0.000003
3.376164 0.511992 0.580548 -0.063707 -0.004083 0.003650
3.153131 0.514182 0.784983 -0.000000 -0.754116 -0.000759
1.507449 0.230941 1.094009 -0.028141 0.008509 0.007331
1.335541 0.449021 0.520332 -0.055819 -0.002131 0.001736
2.813422 0.642032 0.758101 0.000001 0.531979 0.000024
3.098396 0.720937 0.839538 0.036869 0.006525 -0.006235
1.595060 0.923923 0.311006 -0.055819 0.004661 0.003788
0.693099 0.672070 0.728416 -0.000000 0.845675 0.000019
1.925845 0.609012 0.770874 -0.000000 0.169856 0.000011
3.257211 0.623343 0.767061 0.000000 0.321392 0.000023
2.997317 0.534582 0.594395 -0.000000 -0.656742 -0.000651
1.606370 0.246995 0.274061 -0.028142 0.016305 -0.012700
1.697555 0.172875 1.146690 0.110437 -0.003875 -0.003373
1.697555 1.010663 0.207706 0.110436 0.003875 0.003373
3.184842 0.417064 0.891047 0.036870 -0.011920 -0.011006
2.566873 0.637763 0.760602 0.000000 0.488195 0.000014
1.613324 0.483582 0.578732 0.110437 -0.002768 0.002410
2.764112 0.508974 0.630116 -0.000001 -0.871970 -0.000009
2.221704 0.533080 0.752211 -0.000001 -0.618778 0.000020
3.002352 0.761752 0.867710 0.036870 -0.013094 0.009630
2.123084 0.620273 0.586319 0.000000 0.296563 -0.000049
0.691508 0.594729 0.582024 0.000000 0.026015 -0.000019
0.298620 0.508327 0.723124 0.000001 -0.871451 0.000009
0.227041 0.496549 0.679613 0.000000 -0.999916 0.000000
2.073774 0.550623 0.591294 0.000000 -0.442158 -0.000016
1.777915 0.521830 0.612546 0.000000 -0.734308 -0.000057
1.334127 0.503566 0.713142 0.000000 -0.927925 0.000003
2.320323 0.536895 0.755045 -0.000000 -0.577085 0.000022
1.721852 0.157410 0.174712 0.055848 0.015762 -0.013212
3.293816 0.757647 0.857154 -0.063706 -0.007753 0.006516
1.622539 0.986620 1.117848 -0.055819 0.007831 -0.006323
1.470338 0.284107 1.033374 -0.028144 0.009571 0.008156
2.665493 0.643647 0.757083 -0.000000 0.555935 0.000006
3.294158 0.255332 0.290878 0.036869 -0.015892 0.014163
2.886047 0.439064 0.852544 0.036869 -0.015892 -0.014163
3.208240 0.889526 1.019102 0.036866 0.011921 -0.011007
2.864567 0.734804 0.512955 0.036872 0.007947 0.007538
3.186760 0.303683 1.007998 0.036870 -0.011920 -0.011006
3.057883 0.361703 0.413020 0.036869 -0.011920 0.011006
3.122322 0.850845 0.974687 0.036870 0.009934 -0.009307
2.757169 0.686454 0.785921 0.036869 0.007948 -0.007539
1.038267 0.628220 0.589197 0.000000 0.395073 -0.000018
1.645158 1.025023 1.180277 -0.028140 -0.012054 0.009973
1.925845 0.672818 0.627165 0.000001 0.843839 -0.000010
1.235507 0.632986 0.591328 -0.000001 0.441804 -0.000031
1.515206 0.817699 0.434213 -0.055817 0.002983 0.002429
0.397239 0.511136 0.727889 -0.000000 -0.845734 0.000010
2.369633 0.603583 0.582688 0.000000 0.117818 -0.000032
0.397239 0.664199 0.615337 0.000000 0.752198 -0.000002
0.495859 0.653331 0.749877 -0.000001 0.637509 0.000009
