1.631327 0.495737 0.629229 -0.000001 -0.910979 -0.000000
1.656591 0.864801 0.347388 0.104848 0.002860 0.002579
2.834294 0.484017 0.752612 0.028483 0.007435 0.005903
3.135409 0.587468 0.604795 1.000000 0.000000 0.000000
3.110282 0.803583 0.882360 -0.053269 -0.005062 0.004663
1.854972 0.663619 0.594569 0.000001 0.748752 -0.000003
1.989159 0.680585 0.636968 0.000000 0.989985 -0.000004
1.659146 1.108971 1.222989 0.104851 0.005280 -0.004756
1.567190 0.270071 0.285256 0.068050 0.004068 -0.003663
3.135409 0.673328 0.675523 0.057167 0.000724 0.000229
1.562081 0.660412 0.588866 -0.000001 -0.669774 0.000377
2.741629 0.415417 0.458885 0.028483 -0.011712 0.010732
2.481177 0.513407 0.591788 0.000000 -0.792082 -0.000005
0.147690 0.587468 0.560824 -0.191579 0.000001 -0.000048
1.469570 0.324342 0.926479 -0.068004 -0.003490 -0.002921
1.854972 0.604465 0.742063 0.000000 0.191946 0.000035
0.244729 0.503421 0.607582 0.000001 -0.835852 -0.000001
0.378916 0.551784 0.562695 0.000000 -0.388585 -0.000016
1.473402 0.312424 0.358972 -0.068005 -0.001745 0.001462
3.106528 0.908373 0.293853 0.028482 0.023415 0.017925
0.826206 0.576678 0.742985 -0.000000 -0.115401 0.000116
1.500777 0.689714 0.517026 0.068052 -0.003390 -0.003054
2.481177 0.609238 0.558212 -0.000000 0.241359 -0.000027
1.462214 0.874870 0.323714 -0.044070 -0.009502 -0.008784
3.038678 0.476326 0.763280 -0.053271 0.012482 0.011245
1.592733 0.894237 0.974464 0.104848 0.002860 -0.002579
2.212804 0.671272 0.692156 0.000000 0.888373 0.000003
1.585756 0.003200 1.297401 -0.000001 -0.669753 0.000124
1.562227 1.066327 1.174103 -0.068005 0.007702 -0.006413
3.153615 0.495943 0.751106 -0.053275 -0.002443 -0.002146
0.647290 0.659093 0.588799 -0.000001 0.751390 -0.000003
0.423645 0.503750 0.692324 0.000000 -0.888587 0.000014
1.689798 0.959949 1.062597 0.068047 -0.006780 0.006085
1.689798 0.182404 0.200548 0.068050 0.006102 -0.005482
1.689798 0.361609 0.900040 0.068048 0.009491 0.008479
2.168075 0.539741 0.568682 0.000001 -0.503220 -0.000023
0.513103 0.666926 0.599452 -0.000001 0.850425 -0.000017
0.781477 0.515573 0.589115 -0.000001 -0.718557 -0.000003
2.794280 0.536839 0.570460 -0.000000 -0.547446 -0.000041
1.435474 0.191455 0.210582 -0.068005 -0.010590 0.008768
1.318224 0.537029 0.570336 0.000000 -0.547517 -0.000041
0.191900 0.671445 0.691608 -0.015964 0.002222 0.001030
1.503236 0.388248 0.414326 -0.044069 0.002728 -0.002575
1.960350 0.587619 0.743611 -0.000000 0.025612 0.000036
1.689798 0.699288 0.525662 0.068052 -0.003390 -0.003054
1.608059 0.404084 0.459186 0.104848 -0.003740 0.003371
0.334187 0.663953 0.595027 -0.000001 0.769471 -0.000003
0.870935 0.675510 0.616767 0.000000 0.939661 -0.000005
1.676814 0.587241 0.555659 0.000020 -0.000230 -0.000993
3.020669 0.873349 0.966584 0.028483 0.017565 -0.014814
1.300087 0.479700 0.759063 -0.068008 -0.002407 -0.002016
2.391719 0.656515 0.585880 0.000000 0.742131 -0.000006
3.170921 0.240294 0.264729 0.028482 -0.017566 0.014814
2.921051 0.411617 0.462312 0.028483 0.007170 -0.005705
2.928467 0.506957 0.698111 0.000000 -0.851171 0.000001
1.407682 0.615470 0.739340 -0.000000 0.291828 0.000044
0.647290 0.661622 0.707360 -0.000000 0.791947 0.000021
0.647290 0.514205 0.708488 -0.000001 -0.775154 0.000011
1.049850 0.510871 0.595180 0.000000 -0.822476 -0.000002
0.960392 0.675987 0.681186 0.000001 0.899768 0.000001
3.044379 0.496530 0.557377 -0.053270 0.005489 -0.005052
0.602561 0.505849 0.603050 0.000001 -0.860783 -0.000004
0.112599 0.530858 0.704805 -0.320462 -0.000072 0.000066
1.392520 0.681402 0.651448 -0.000000 0.999672 0.000000
1.810243 0.507215 0.698529 0.000001 -0.850425 0.000017
1.049850 0.669010 0.602919 0.000001 0.856777 -0.000004
0.870935 0.506554 0.601841 0.000001 -0.863686 -0.000016
1.765514 0.530011 0.575273 0.000000 -0.610508 -0.000018
2.831217 0.397954 0.441625 0.028482 0.008763 -0.006872
0.781477 0.666497 0.700484 -0.000001 0.836186 0.000009
3.088900 0.390484 0.439265 -0.053271 0.005062 -0.004663
0.068611 0.562653 0.596616 -0.492267 -0.000021 -0.000041
0.736748 0.508169 0.700073 -0.000001 -0.849776 0.000017
2.918946 0.674017 0.538014 0.028482 0.013420 0.012028
2.749551 0.494596 0.664022 0.000000 -0.989997 0.000000
1.765514 0.679512 0.630670 -0.000001 0.978549 -0.000001
2.651515 0.650898 0.572178 0.000001 0.669765 -0.000217
0.244729 0.667721 0.600739 0.000000 0.850611 -0.000017
2.783666 0.681349 0.645779 0.000010 0.047588 -0.000000
1.469346 0.500909 0.535633 -0.044072 0.005279 -0.004957
1.306356 0.720232 0.497238 -0.044072 -0.008563 -0.007949
1.184037 0.563534 0.740516 0.000000 -0.267166 0.000049
1.362953 0.497652 0.677275 0.000001 -0.945552 0.000001
3.183957 0.410451 0.845889 -0.053271 -0.005179 -0.004532
2.849406 0.434970 0.825010 0.028480 -0.004027 -0.003950
3.114233 0.340412 0.368087 -0.053270 -0.013809 0.011754
1.528874 0.679303 0.726119 0.104849 0.002200 -0.001984
1.500660 0.214208 1.054615 -0.068005 -0.010590 -0.008768
2.734915 0.473670 0.529581 0.028482 0.021237 -0.013973
0.503247 0.590794 0.555739 0.000000 0.025612 -0.000036
3.057920 0.677870 0.556893 -0.053270 -0.012482 -0.011245
1.419943 0.277353 0.987824 -0.068001 -0.001685 -0.001411
1.562227 0.108609 0.125166 -0.068005 -0.007702 0.006413
1.618276 0.323427 0.931113 0.104848 -0.006160 -0.005547
1.618276 0.470049 0.530712 0.104849 -0.007920 0.007124
1.425679 0.412545 0.473392 -0.068004 -0.002106 0.001764
0.513103 0.621817 0.737104 0.000000 0.364802 0.000069
0.915663 0.513037 0.707001 0.000000 -0.791891 0.000003
1.452411 0.504586 0.693935 0.000000 -0.876415 0.000004
1.608059 0.787144 0.441124 0.104848 0.007040 0.006336
2.346991 0.507533 0.600224 0.000000 -0.850601 -0.000002
2.801767 0.719285 0.510623 0.028483 -0.014869 -0.010816
1.597842 0.898272 0.295687 0.068050 -0.004068 -0.003663
1.437916 0.679637 0.573449 -0.068006 0.001805 0.001512
1.049850 0.505041 0.694764 0.000001 -0.863642 0.000002
2.391719 0.642106 0.726097 -0.000000 0.589774 0.000019
1.590252 0.101979 1.179041 -0.068006 -0.007221 -0.006017
2.078617 0.514777 0.590076 0.000000 -0.775704 -0.000005
1.353501 0.431172 0.829939 -0.044073 0.008563 0.007949
1.689798 0.198696 1.080658 0.068050 0.006102 0.005482
3.014450 0.435012 0.831649 -0.053270 -0.013809 -0.011754
1.608059 0.760313 0.849588 0.068050 -0.005424 0.004877
1.633602 0.047674 0.060021 0.104847 -0.005280 0.004757
3.017925 0.501146 0.686781 0.000002 -0.919655 0.000011
1.631327 0.568244 0.741627 0.000001 -0.217116 0.000243
1.218911 0.681414 0.648273 0.000000 0.999682 -0.000000
1.654037 0.835953 0.928766 0.068049 -0.009491 0.008479
2.682482 0.499685 0.740335 0.028483 0.016992 0.011975
3.133007 0.444369 0.494040 -0.053271 0.013496 -0.012106
2.953496 0.745328 0.813571 0.028485 -0.014337 0.010509
1.677026 0.490940 0.754643 0.104850 -0.002200 -0.001984
1.495668 0.501772 0.764413 0.068048 0.003390 0.003054
2.087714 0.588224 0.743595 0.000000 0.025623 0.000009
2.507977 0.654952 0.723433 0.000001 0.669549 0.000036
1.602950 0.419975 0.821659 0.104848 -0.007480 -0.006730
2.033888 0.648217 0.577935 -0.000004 0.275898 -0.000005
1.422797 0.853407 0.950328 -0.044071 -0.005103 0.004794
1.468067 0.968482 0.224350 -0.044071 -0.007742 -0.007211
2.659789 0.504316 0.563558 0.028481 0.012746 -0.009546
2.883738 0.520484 0.583720 0.000000 -0.707107 -0.000007
2.168075 0.523191 0.718188 -0.000001 -0.688330 0.000029
2.574829 0.503992 0.744220 0.028481 -0.015615 -0.013567
1.354479 0.795741 0.414303 -0.044071 -0.005983 -0.005606
1.184037 0.513637 0.591488 0.000001 -0.788219 -0.000005
2.246919 0.585956 0.743576 0.000000 -0.025612 0.000009
1.854972 0.593476 0.555853 0.000001 0.063667 -0.000106
2.202948 0.493499 0.650088 0.000000 -0.999667 0.000000
1.689798 0.508231 0.561785 0.068051 0.006779 -0.006085
2.977740 0.319100 0.947169 0.028483 -0.020490 -0.016483
2.809426 0.728148 0.811461 0.028485 0.003416 -0.003360
3.170921 0.934641 1.034539 0.028483 0.017565 -0.014814
2.228724 0.588980 0.555692 0.000000 0.025612 -0.000036
3.006745 0.813773 0.905883 0.028484 0.010248 -0.009553
1.334286 0.358552 0.900012 -0.068005 -0.004092 -0.003423
2.883738 0.668115 0.697884 -0.000001 0.714037 0.000001
2.391719 0.545349 0.733646 0.000000 -0.458566 0.000013
3.171820 0.730288 0.491292 -0.053269 0.006042 0.005279
3.208231 0.342057 0.377552 -0.053271 -0.013809 0.011754
2.704822 0.614024 0.739781 0.000000 0.291739 0.000044
0.244729 0.630494 0.733178 0.000001 0.458533 0.000105
1.499069 0.377563 0.859836 -0.068007 -0.001926 -0.001613
0.781477 0.639109 0.571122 0.000000 0.547438 -0.000021
1.184037 0.634150 0.568073 0.000000 0.503675 -0.000023
3.050079 0.650689 0.727279 -0.053271 0.011230 -0.009662
2.999865 0.781592 0.443583 0.028483 -0.012745 -0.009546
2.538036 0.584898 0.743548 0.000000 -0.026016 0.000035
2.627592 0.657486 0.721148 0.000001 0.669767 0.000145
0.378916 0.637778 0.729012 0.000000 0.525812 0.000011
1.944430 0.547288 0.564680 0.000000 -0.435509 -0.000028
1.273495 0.653703 0.716297 -0.000000 0.707016 0.000027
1.541646 0.496632 0.572247 0.104847 -0.004400 0.003965
0.513103 0.544375 0.733144 0.000000 -0.458372 0.000013
1.512220 0.206972 0.222063 -0.044071 0.007390 -0.006893
1.586598 0.680967 0.659109 0.000001 0.990875 0.000001
1.899701 0.493788 0.642155 0.000001 -0.927182 -0.000000
1.597842 1.016022 1.110289 -0.068001 0.004333 -0.003623
3.134698 0.825563 0.379932 -0.053271 0.004316 0.003782
2.921051 0.411617 0.836956 0.028483 0.028661 0.016585
2.481177 0.669731 0.604206 0.000001 0.876402 -0.000015
1.623385 0.291244 0.331671 0.104848 -0.002860 0.002579
1.517329 0.991101 1.089092 -0.068004 0.004814 -0.004024
1.558257 0.189906 1.098207 -0.044073 0.006686 0.006252
2.570635 0.498369 0.619762 0.000001 -0.947935 -0.000005
3.192386 0.943398 0.255022 0.028484 0.011712 0.010731
2.956275 0.327856 0.361807 0.028483 -0.010248 0.009554
2.806023 0.785787 0.869507 0.028483 0.016102 -0.013889
2.591377 0.476710 0.526839 0.028483 -0.023415 0.017925
2.612842 0.706982 0.517131 0.028485 0.011711 0.010731
2.913346 0.345368 0.918046 0.028482 -0.011712 -0.010732
2.870417 0.812056 0.898630 0.028481 0.013176 -0.011848
2.741629 0.759519 0.458885 0.028485 0.011711 0.010731
2.123346 0.651306 0.580663 0.000000 0.669814 -0.000015
1.228766 0.509817 0.702565 0.000001 -0.821325 0.000009
3.100262 0.741863 0.826922 -0.053270 0.006042 -0.005279
3.062654 0.541178 0.731424 0.061386 -0.000361 0.000619
1.633602 0.047674 1.239247 0.104847 -0.005280 -0.004757
2.977740 0.855836 0.352099 0.028483 0.020491 0.016483
0.054903 0.632109 0.627321 -0.545950 0.000029 -0.000014
2.123346 0.653168 0.716832 -0.000002 0.680987 0.000007
1.455821 0.762181 0.822426 -0.068005 0.004212 -0.003523
1.545558 1.030026 0.154296 -0.044074 -0.011963 -0.010919
1.628494 1.103466 0.071314 0.068048 -0.008135 -0.007286
2.810959 0.591399 0.743513 -0.000000 0.026006 0.000018
1.597842 0.710922 0.795869 0.068050 -0.006102 0.005482
1.308312 0.350748 0.387187 -0.068006 -0.001926 0.001613
1.585756 1.171736 1.297401 -0.044072 -0.012668 0.011514
1.551076 1.128293 0.050032 -0.044073 -0.016888 -0.014915
1.273631 0.780744 0.863916 -0.044071 -0.012668 0.011515
1.238951 0.437635 0.815751 -0.067999 -0.003210 -0.002686
1.585756 0.003200 0.001867 0.000000 -0.669780 -0.000124
2.865344 0.685515 0.770690 0.028482 0.013420 -0.012028
0.175729 0.500518 0.682413 -0.074866 -0.000488 0.000170
3.142742 0.307303 0.954134 -0.053271 0.010123 0.009202
2.935182 0.786506 0.875461 0.028485 0.006588 -0.006359
1.631327 0.641922 0.573037 0.000000 0.568800 -0.000002
1.689798 1.008823 0.182486 0.068049 -0.010847 -0.009662
1.689798 0.394192 0.435352 0.068049 0.005085 -0.004574
1.689798 0.748162 0.471476 0.068049 -0.010847 -0.009662
1.689798 0.650414 0.719421 0.068050 -0.006779 0.006085
1.689798 0.247570 1.026473 0.068049 0.007457 0.006687
2.971025 0.383433 0.417311 0.028483 -0.011712 0.010732
2.973196 0.652129 0.581444 0.000000 0.688639 -0.000028
1.005121 0.611548 0.558793 0.000000 0.267116 -0.000024
2.302262 0.652732 0.717251 -0.000000 0.688749 0.000007
0.915663 0.611402 0.558752 0.000000 0.267217 -0.000024
0.494150 0.493573 0.652960 0.000000 -0.999672 0.000000
1.586598 0.501617 0.687855 -0.000002 -0.909170 0.000012
1.531371 0.920899 1.028667 -0.044069 -0.008094 0.007529
3.020669 0.301587 0.332684 0.028482 -0.017566 0.014814
2.047534 0.493542 0.651751 0.000000 -0.999667 0.000000
1.444932 0.453672 0.812018 -0.044072 0.008563 0.007950
1.389233 0.249380 0.274802 -0.068005 -0.006258 0.005222
2.870417 0.812056 0.400638 0.028482 0.013176 0.011848
1.633602 0.931766 1.022505 0.104848 0.005280 -0.004757
2.004321 0.586334 0.555683 0.000005 -0.004449 -0.000206
1.504835 0.104568 1.185016 -0.068003 -0.007702 -0.006413
1.407682 0.564524 0.558505 0.000001 -0.240639 -0.000027
1.342484 0.586485 0.743589 0.000010 -0.001367 0.000337
3.135409 0.557941 0.683379 1.000000 -0.000000 0.000000
0.378916 0.543167 0.732516 0.000000 -0.480950 0.000003
3.011596 0.699683 0.762312 -0.053272 -0.007318 0.006708
1.785983 0.586712 0.743595 0.000000 -0.025612 0.000264
2.632043 0.584142 0.555739 -0.000000 -0.025623 -0.000009
0.054903 0.539207 0.662344 -0.545953 -0.000033 0.000010
2.298471 0.493503 0.650239 0.000000 -0.999667 0.000000
1.306356 0.726819 0.796088 -0.068005 0.011713 -0.009673
1.283235 0.477079 0.535290 -0.068005 -0.004814 0.004024
1.238951 0.737301 0.483517 -0.044071 -0.007038 -0.006573
3.057214 0.394469 0.874306 -0.053271 -0.010357 -0.008940
1.602950 0.154220 0.160457 0.068050 0.012202 -0.010834
1.546755 0.317828 0.926063 0.104848 -0.006160 -0.005547
0.321299 0.591852 0.555766 0.000000 0.025612 -0.000018
1.452411 0.660492 0.708781 0.000000 0.775987 0.000011
1.521452 0.839958 0.942441 -0.044072 -0.005103 0.004794
3.156997 0.299870 0.325430 -0.053272 -0.010357 0.008940
3.208231 0.832879 0.377552 -0.053271 0.013809 0.011754
3.226437 0.290762 0.978586 -0.053270 -0.010358 -0.008940
1.029381 0.588224 0.743595 0.000000 0.025623 0.000036
1.139308 0.673584 0.687269 -0.000000 0.921413 0.000011
0.200000 0.541178 0.567844 -0.012125 -0.000814 -0.001393
2.784559 0.397905 0.859799 0.028484 -0.006832 -0.006582
1.382071 0.704600 0.537732 -0.068004 0.005857 0.004890
0.615449 0.681363 0.646308 0.000000 0.999672 -0.000000
2.973196 0.674495 0.685109 -0.000000 0.916379 0.000001
1.565371 0.588073 0.743599 0.000000 0.025612 0.000264
1.507068 0.816885 0.416996 -0.068003 0.007461 0.006215
1.301198 0.650493 0.579918 0.000000 -0.669776 0.000518
1.139308 0.615615 0.739296 0.000001 0.286961 0.000023
2.856446 0.583537 0.555755 -0.000000 -0.025623 -0.000036
2.570635 0.617555 0.560607 -0.000001 0.307331 -0.000010
2.302262 0.552345 0.562467 0.000000 -0.364756 -0.000035
1.810243 0.495300 0.631301 -0.000000 -0.980459 -0.000001
0.183807 0.643606 0.574825 -0.043517 0.000556 -0.000702
0.647290 0.542636 0.567043 -0.000001 -0.481139 -0.000049
3.099031 0.509714 0.600778 0.058939 -0.002592 -0.001837
0.892920 0.589736 0.743556 0.000000 0.026016 0.000009
2.634306 0.715738 0.791845 0.028481 0.015615 -0.013567
2.456160 0.493534 0.651448 0.000000 -0.999667 0.000000
1.139308 0.518396 0.713360 0.000002 -0.715270 0.000006
1.526320 0.772464 0.871384 0.068049 -0.005424 0.004877
3.099031 0.670203 0.609791 0.058937 0.002936 -0.001215
1.340365 0.396022 0.444620 -0.068005 -0.002166 0.001814
1.676056 0.501820 0.688302 0.000000 -0.911094 0.000003
1.497140 0.647583 0.577397 0.000000 0.630830 -0.000002
1.386233 0.800777 0.875873 -0.068003 0.004092 -0.003423
1.989159 0.499749 0.683349 0.000000 -0.931051 0.000011
0.362237 0.681343 0.653716 0.000000 0.999672 0.000000
2.481177 0.526288 0.720964 0.000000 -0.650026 0.000016
1.628494 0.275353 0.986020 0.104849 -0.002860 -0.002579
1.256914 0.692132 0.769142 -0.044072 -0.007038 0.006573
1.447034 0.176974 1.104741 -0.068003 -0.009627 -0.007988
0.378916 0.503404 0.607616 0.000000 -0.900030 -0.000002
0.289458 0.536143 0.570915 -0.000001 -0.547232 -0.000041
1.405792 0.340166 0.914364 -0.068005 -0.003731 -0.003122
1.428278 0.912770 1.005063 -0.068006 0.006258 -0.005222
2.794280 0.602900 0.556937 0.000000 0.166611 -0.000080
3.079939 0.711250 0.505522 -0.053272 0.013809 0.011754
1.278433 0.435635 0.485321 -0.068005 -0.002407 0.002016
2.928467 0.626309 0.735205 0.000001 0.411785 0.000030
1.608059 1.047805 0.152134 -0.068006 0.003851 0.003222
1.356391 0.756276 0.473336 -0.068003 0.002166 0.001814
1.541869 0.530700 0.724526 0.000000 -0.610628 0.000018
0.128023 0.662604 0.687189 -0.260362 0.000118 0.000055
1.541869 0.605504 0.557408 -0.000000 0.192187 -0.000017
2.756379 0.710023 0.779395 0.028479 -0.012747 0.009547
2.794280 0.512806 0.706701 0.000000 -0.791991 0.000021
1.826921 0.681437 0.650088 0.000000 0.999672 0.000000
2.704822 0.502481 0.609522 -0.000001 -0.886213 -0.000002
2.168075 0.610375 0.558496 -0.000001 0.242096 -0.000108
0.814076 0.681382 0.647064 0.000000 0.999672 -0.000000
1.460637 0.924830 0.283246 -0.068005 0.006017 0.005023
1.944430 0.646351 0.722873 -0.000000 0.625640 0.000004
3.089081 0.839662 0.935350 0.028485 0.007320 -0.007024
2.749551 0.667701 0.698561 0.000001 0.846693 0.000008
2.973196 0.541244 0.567808 -0.000001 -0.474537 -0.000006
1.435291 0.781550 0.451547 -0.068007 0.002046 0.001714
1.504835 1.070368 0.114252 -0.044071 -0.011260 -0.010318
1.530728 0.310670 0.330527 -0.044071 0.009501 -0.008784
0.679131 0.681367 0.652809 -0.000000 0.874405 0.000000
0.244729 0.567026 0.741357 -0.000001 -0.217048 0.000243
1.413501 0.469360 0.505857 -0.044074 0.008563 -0.007949
0.482020 0.681351 0.653414 -0.000000 0.999662 0.000000
0.770105 0.493534 0.647820 -0.000000 -0.999667 -0.000000
1.648928 0.390992 0.861030 0.104848 -0.003520 -0.003173
2.847348 0.681343 0.645552 0.000000 0.999682 -0.000000
2.698700 0.432929 0.820968 0.028481 -0.009761 -0.009148
2.944401 0.760701 0.466553 0.028481 -0.014339 -0.010509
1.520482 0.897108 0.296457 -0.044071 -0.008798 -0.008159
1.359960 0.853292 0.941333 -0.068006 0.001805 -0.001512
1.478883 0.269035 1.009438 -0.044072 0.017591 0.015453
1.648928 1.174936 0.004753 0.000000 0.669775 -0.000322
1.197683 0.493495 0.649936 0.000000 -0.999672 0.000000
1.552477 0.977790 0.209088 -0.044072 -0.007390 -0.006893
1.318224 0.527940 0.722348 0.000000 -0.625640 0.000004
3.099031 0.617797 0.562958 0.058937 0.001216 -0.002935
0.557832 0.634803 0.568454 0.000000 0.503504 -0.000012
1.533998 0.153463 0.175698 -0.068005 -0.004332 0.003623
1.605505 0.950257 0.260686 0.104848 0.002420 0.002182
1.086998 0.681363 0.652960 0.000000 0.999662 0.000000
0.914905 0.493608 0.644947 0.000000 -0.999672 -0.000000
1.396832 0.691452 0.744279 -0.068005 0.005857 -0.004890
0.097516 0.618472 0.583393 -0.379302 0.000035 -0.000069
1.480853 0.746079 0.498714 -0.068004 0.004212 0.003523
1.618276 0.825996 0.377899 0.068050 -0.009491 -0.008479
2.050566 0.681410 0.648122 0.000000 0.999662 -0.000000
2.615364 0.506211 0.696839 -0.000000 -0.863873 0.000016
2.991641 0.467803 0.530471 -0.053269 0.007318 -0.006708
0.557832 0.535510 0.571329 -0.000000 -0.547629 -0.000021
2.518325 0.681363 0.652960 0.000000 0.999662 0.000000
2.022516 0.587014 0.743603 0.000000 -0.025623 0.000018
1.720785 0.655658 0.584973 0.000001 0.724543 -0.000026
1.287899 0.589433 0.555704 0.000000 0.025623 -0.000264
1.651483 0.358609 0.401934 0.104848 -0.003300 0.002975
1.720785 0.678350 0.673568 -0.000000 0.970281 0.000001
1.005121 0.533573 0.726618 0.000000 -0.568912 0.000039
2.257533 0.680140 0.634053 0.000001 0.985841 -0.000005
2.570635 0.635620 0.730338 0.000001 0.492948 0.000012
0.191900 0.679365 0.630430 -0.012124 0.001587 -0.000308
0.960392 0.637360 0.729271 -0.000000 0.525594 0.000003
1.014219 0.681398 0.651599 -0.000000 0.999662 0.000000
1.574254 0.141002 1.134168 -0.068004 -0.004092 -0.003423
0.439565 0.583537 0.555755 -0.000000 -0.025623 -0.000036
1.689798 0.068365 0.074115 0.068049 0.006780 -0.006085
1.633602 0.226879 0.258702 0.104848 -0.002420 0.002182
3.042711 0.801498 0.404320 0.028485 0.008784 0.008316
3.042464 0.334332 0.925697 0.028484 0.009559 0.007436
1.485451 0.508524 0.594277 0.104847 -0.004400 0.003965
0.781477 0.618345 0.738398 -0.000000 0.340651 0.000037
1.455791 0.351095 0.403253 -0.068005 -0.001865 0.001563
1.350641 0.487561 0.554952 -0.068005 -0.005857 0.004890
2.900417 0.493593 0.645552 -0.000000 -0.999667 -0.000000
1.395918 0.900709 0.305164 -0.068006 0.001685 0.001411
0.781477 0.568023 0.557690 -0.000000 -0.216680 -0.000015
0.636676 0.493550 0.652053 0.000072 -0.057191 0.000003
0.781477 0.537544 0.729251 0.000000 -0.526735 0.000003
2.377315 0.681394 0.647517 0.000000 0.999672 -0.000000
1.383025 0.713076 0.799385 -0.044071 -0.008563 0.007950
1.094579 0.641300 0.572607 -0.000001 0.564359 -0.000010
2.174139 0.681355 0.646006 0.000000 0.999672 -0.000000
3.134840 0.384385 0.870203 -0.053270 0.010123 0.009202
3.099031 0.557139 0.562958 0.058937 -0.000869 -0.003018
1.308312 0.824188 0.387187 -0.044072 -0.002903 -0.002740
3.159683 0.696091 0.770062 -0.053270 0.006905 -0.006021
0.468374 0.656126 0.713802 0.000000 0.724999 0.000002
1.139308 0.545147 0.565726 0.000002 -0.445735 -0.000013
2.772028 0.485142 0.771232 0.028482 -0.011712 -0.010732
1.414163 0.284593 0.319472 -0.068004 -0.003370 0.002820
1.362953 0.665773 0.701592 0.000000 0.836470 0.000004
2.346991 0.514157 0.708429 -0.000000 -0.770319 0.000003
1.407682 0.555418 0.737973 0.000000 -0.338826 0.000009
1.248555 0.520523 0.583455 -0.068003 -0.006419 0.005355
3.099181 0.477585 0.766671 -0.053272 0.012482 0.011245
3.238574 0.918371 0.282769 -0.053271 0.013809 0.011754
3.121195 0.869252 0.342193 0.028481 -0.012746 -0.009546
1.664254 0.970094 0.229444 0.104849 0.004400 0.003965
2.526983 0.502978 0.555962 0.028483 -0.015615 0.013566
1.643820 0.461686 0.793769 0.068050 0.003051 0.002749
1.618276 1.070366 1.192297 0.068049 -0.009491 0.008479
3.171252 0.888581 0.988057 -0.053271 0.006905 -0.006021
2.973196 0.534133 0.727005 -0.000001 -0.568785 0.000039
0.423645 0.676519 0.619618 0.000000 0.948615 -0.000018
0.647290 0.609054 0.558166 0.000000 0.241979 -0.000027
1.513548 0.690361 0.781658 0.068051 -0.003390 0.003054
2.865344 0.697803 0.539661 0.028483 -0.014603 -0.010663
3.168502 0.800885 0.888538 -0.053271 0.004316 -0.003782
2.894716 0.484812 0.748928 0.028482 0.014604 0.010664
1.362953 0.668687 0.602364 -0.000001 0.860783 -0.000004
1.228766 0.606098 0.741744 -0.000000 0.191871 0.000035
2.839009 0.541344 0.731515 0.000001 -0.477266 0.000012
1.504835 1.070368 1.185016 -0.044070 -0.011261 0.010318
2.883694 0.452878 0.510923 0.028482 0.014604 -0.010664
2.704822 0.662453 0.592986 -0.000000 0.786609 -0.000003
1.388489 0.321501 0.360793 -0.068005 -0.003610 0.003021
1.631327 0.525426 0.579042 -0.000000 -0.669782 -0.000060
1.618276 0.186027 1.101988 0.068050 0.006779 0.006085
1.989159 0.670277 0.694068 -0.000000 0.876198 0.000007
1.944430 0.668515 0.602070 0.000001 0.863701 -0.000016
0.960392 0.508998 0.597929 -0.000000 -0.836869 -0.000009
2.302262 0.665938 0.597929 0.000000 0.836779 -0.000009
3.135409 0.616086 0.684153 1.000000 0.000000 0.000000
2.570635 0.665649 0.597486 0.000000 0.837108 -0.000002
0.334187 0.514849 0.709280 -0.000000 -0.776064 0.000044
2.899793 0.728625 0.795626 0.028482 -0.003983 0.003237
3.079939 0.463686 0.505522 -0.053271 -0.006905 0.006021
1.526320 0.483928 0.518193 0.068049 0.012202 -0.010834
1.689798 1.073988 1.189030 0.068053 -0.008135 0.007286
0.289458 0.637650 0.570176 0.000000 0.525921 -0.000011
1.516344 0.334566 0.389954 -0.068005 -0.003490 0.002921
0.120272 0.581167 0.731035 -0.290498 -0.000007 0.000171
2.863537 0.774553 0.446037 0.028479 -0.003984 -0.003237
1.559527 0.441518 0.474556 0.068049 0.005763 -0.005179
1.854972 0.654719 0.715281 0.000000 0.707107 0.000003
1.380154 0.832979 0.373279 -0.044072 -0.005455 -0.005120
0.378916 0.608464 0.558035 0.000000 0.217139 -0.000030
1.854972 0.548042 0.734940 0.000000 -0.412199 0.000015
0.275812 0.493604 0.654170 0.000000 -0.999667 0.000000
1.638711 0.980240 1.077051 0.104846 0.002200 -0.001984
0.870935 0.539120 0.730224 0.000000 -0.504263 0.000003
3.042134 0.882105 0.322976 0.028480 0.007321 0.007025
1.452411 0.494213 0.638018 0.000000 -0.991951 -0.000000
3.140909 0.367287 0.410109 -0.053271 0.008436 -0.007710
2.302262 0.540394 0.730967 0.000000 -0.503589 0.000023
2.078617 0.506402 0.697165 0.000001 -0.860783 0.000004
1.516395 0.090087 0.098197 -0.068006 -0.003370 0.002820
0.191900 0.496681 0.625725 -0.012124 -0.001569 -0.000388
0.660936 0.584293 0.743533 0.000000 -0.026006 0.000018
3.134840 0.790551 0.429065 -0.053271 -0.010123 -0.009202
2.212804 0.632134 0.732316 -0.000000 0.480963 0.000012
2.033888 0.540427 0.568282 0.000001 -0.496536 -0.000006
1.810243 0.560044 0.559752 -0.000000 -0.291377 -0.000022
1.638711 0.686996 0.751937 0.104848 0.007920 -0.007124
0.692019 0.636556 0.729768 0.000000 0.525713 0.000044
0.191900 0.535059 0.727526 -0.012123 -0.000920 0.001326
0.692019 0.539577 0.730491 -0.000000 -0.503475 0.000012
2.689527 0.692003 0.538832 0.028480 -0.008498 -0.006682
1.443978 0.717288 0.529159 -0.068004 0.005857 0.004890
1.367309 0.457188 0.778794 -0.068004 -0.005857 -0.004890
1.077901 0.493530 0.647971 -0.000000 -0.999662 -0.000000
2.883738 0.668267 0.601645 -0.000001 0.860783 -0.000004
0.870935 0.641456 0.572715 0.000000 0.565624 -0.000005
0.557832 0.679396 0.630115 -0.000000 0.976094 -0.000003
1.676056 0.601294 0.742586 0.000002 0.140631 0.000191
1.569744 0.392126 0.420837 0.068051 0.005424 -0.004877
0.911873 0.681343 0.653716 0.000000 0.999662 0.000000
1.496150 0.841252 0.357084 -0.044071 -0.005103 -0.004794
1.531371 0.242181 1.017973 -0.068004 -0.005777 -0.004823
1.646374 0.735270 0.806664 0.104848 0.003740 -0.003371
1.765514 0.528761 0.723016 0.000002 -0.597047 0.000009
1.318224 0.501146 0.612487 0.000000 -0.921413 -0.000006
1.551863 0.466343 0.797970 0.068048 0.012202 0.010834
0.334187 0.661760 0.707181 0.000000 0.791781 0.000010
0.041764 0.586427 0.690052 -0.597016 -0.000001 0.000011
2.793163 0.426778 0.475046 0.028479 0.007436 -0.005904
2.436449 0.537351 0.570137 -0.000000 -0.525543 -0.000011
0.159650 0.638240 0.725093 -0.137320 0.000159 0.000223
3.222202 0.247877 1.024604 -0.053270 0.006749 0.006195
1.510899 0.363423 0.911685 -0.044073 0.005455 0.005119
2.794280 0.501029 0.612766 -0.000000 -0.921391 -0.000011
0.423645 0.494187 0.638243 0.000000 -0.993256 -0.000002
2.635075 0.681367 0.646459 0.000000 0.999672 -0.000000
1.631327 0.520164 0.715227 -0.000000 -0.725091 0.000051
3.062654 0.594721 0.743334 0.064414 0.000044 0.000682
1.453237 0.372214 0.898687 -0.044072 0.005455 0.005119
1.905766 0.583839 0.743521 0.000000 -0.025612 0.000264
3.104244 0.656056 0.722438 -0.000001 0.668956 0.000022
0.557832 0.495068 0.632488 -0.000000 -0.972649 -0.000001
1.899701 0.679650 0.631375 -0.000001 0.978320 -0.000003
2.168075 0.502679 0.609114 0.000000 -0.900095 -0.000007
2.832615 0.498580 0.564331 0.028485 0.014868 -0.010816
1.509622 0.824831 0.891483 -0.068004 0.001865 -0.001563
1.094579 0.643266 0.725249 0.000000 0.589858 0.000002
1.458375 0.404810 0.831638 -0.068004 -0.004092 -0.003423
0.289458 0.538058 0.729569 0.000000 -0.525795 0.000044
3.040067 0.718830 0.805589 -0.053272 0.006905 -0.006021
2.889061 0.450688 0.790772 0.028483 0.008763 0.006872
2.995914 0.648543 0.729214 -0.053271 0.014972 -0.012675
2.525906 0.578709 0.556070 0.000000 -0.089825 -0.000075
0.240938 0.681328 0.654321 -0.000000 0.999662 0.000000
1.468293 0.846621 0.921874 -0.068003 0.003611 -0.003021
2.123346 0.548490 0.735142 -0.000001 -0.410550 0.000015
1.337480 0.674632 0.543459 -0.044072 -0.004692 -0.004413
0.826206 0.538508 0.569421 -0.000001 -0.521044 -0.000011
2.615364 0.512437 0.593046 0.000000 -0.783996 -0.000001
1.720785 0.556449 0.560922 0.000000 -0.340412 -0.000019
0.602561 0.639679 0.727773 -0.000000 0.547589 0.000005
0.602561 0.536364 0.728498 -0.000000 -0.547461 0.000041
2.078617 0.670873 0.692929 -0.000000 0.886567 0.000004
2.799639 0.675393 0.541455 0.028484 0.005856 0.005683
0.692019 0.636492 0.569461 -0.000000 0.525793 -0.000044
0.120272 0.545438 0.579639 -0.290555 -0.000060 -0.000095
2.078617 0.669549 0.603874 0.000000 0.876582 -0.000004
1.586598 0.506573 0.601809 0.000002 -0.860428 -0.000016
2.704822 0.503542 0.691921 -0.000001 -0.887803 0.000007
1.854972 0.496073 0.671514 -0.000001 -0.969130 0.000003
0.468374 0.520859 0.715922 -0.000001 -0.706536 0.000014
2.436449 0.507493 0.698979 -0.000001 -0.848843 0.000008
0.915663 0.529143 0.575942 0.000000 -0.630444 -0.000004
0.550251 0.583991 0.743525 0.000000 -0.026016 0.000035
1.538727 0.884436 0.990583 -0.044076 -0.004399 0.004139
1.228766 0.666042 0.598088 0.000001 0.834067 -0.000009
1.638711 1.136566 1.263611 0.068048 -0.006780 0.006085
2.346991 0.670131 0.694333 0.000000 0.876748 0.000002
1.049850 0.552697 0.562329 0.000002 -0.221966 -0.000007
1.559527 0.750215 0.489706 0.104848 0.003960 0.003570
1.443025 0.479408 0.744241 -0.068005 -0.011713 -0.009673
2.342442 0.586410 0.555681 -0.000000 -0.025612 -0.000036
1.908798 0.586712 0.555673 -0.000005 -0.004821 -0.000190
2.212804 0.546573 0.734242 0.000001 -0.410142 0.000007
2.747206 0.514917 0.580405 -0.000001 -0.669763 -0.000217
2.839009 0.634705 0.730872 -0.000000 0.503687 0.000093
0.826206 0.661852 0.592207 -0.000000 0.791848 -0.000010
2.902861 0.384292 0.878330 0.028482 -0.013176 -0.011848
3.222202 0.249397 0.273293 -0.053270 -0.006905 0.006021
1.291594 0.434969 0.813346 -0.068005 -0.011713 -0.009673
0.826206 0.496073 0.627754 0.000000 -0.970235 -0.000003
0.736748 0.536776 0.570501 0.000000 -0.547486 -0.000021
2.980777 0.592004 0.555770 0.000000 0.026016 -0.000018
1.139308 0.608131 0.557961 -0.000000 0.216765 -0.000030
1.204270 0.693857 0.767586 -0.044070 -0.009384 0.008680
2.660093 0.547016 0.734456 -0.000001 -0.435530 0.000112
1.490129 0.424969 0.453997 -0.044072 0.005807 -0.005444
1.810243 0.644236 0.574742 0.000000 0.610422 -0.000035
1.422797 0.860817 0.355624 -0.068003 0.001805 0.001512
0.692019 0.496919 0.674771 -0.000000 -0.963551 0.000008
1.574853 0.822326 0.407345 0.104848 0.003300 0.002975
2.794280 0.665226 0.596859 -0.000000 0.822468 -0.000005
2.436449 0.634869 0.568492 0.000000 0.503566 -0.000023
1.459693 0.449035 0.520549 -0.068005 -0.005857 0.004890
1.492625 0.274106 0.315283 -0.068003 -0.003129 0.002619
1.400793 0.940037 1.040521 -0.044071 -0.008798 0.008159
3.177889 0.427550 0.472336 -0.053270 -0.012084 0.010362
3.244643 0.935469 1.035456 -0.053272 0.006905 -0.006021
3.196094 0.376254 0.883803 -0.053271 -0.004316 -0.003782
3.171820 0.444648 0.807976 -0.053270 -0.006042 -0.005279
3.220369 0.867075 0.959629 -0.053269 0.010358 -0.008940
1.497140 0.637650 0.729092 -0.000001 0.523889 0.000022
1.318224 0.631637 0.732589 -0.000000 0.481287 0.000049
1.587624 0.857026 0.340375 0.068049 -0.009491 -0.008479
2.997341 0.674499 0.540648 -0.053271 0.007487 0.006519
1.638711 0.686996 0.547331 0.104848 0.007920 0.007124
0.736748 0.677784 0.675609 -0.000001 0.961936 0.000004
2.865505 0.428403 0.466978 0.028483 -0.004027 0.003950
0.289458 0.678350 0.625700 0.000000 0.970224 -0.000014
2.257533 0.644416 0.574880 -0.000000 0.610435 -0.000035
2.525906 0.641674 0.572865 0.000000 0.568985 -0.000020
1.585070 0.848751 0.949979 0.068049 -0.004746 0.004270
1.810243 0.631637 0.732589 -0.000000 0.481556 0.000006
1.005121 0.529502 0.575665 0.000001 -0.608566 -0.000009
1.546755 0.675751 0.537189 0.068049 -0.012202 -0.010834
1.440735 0.395488 0.425994 -0.044072 0.005807 -0.005444
1.452411 0.539871 0.568606 0.000000 -0.503675 -0.000006
2.727540 0.726015 0.499087 0.028485 -0.012745 -0.009546
1.541869 0.679911 0.632711 0.000000 0.981509 -0.000001
2.985940 0.447599 0.790186 -0.053271 0.007318 0.006708
1.944430 0.539904 0.730681 0.000001 -0.503220 0.000023
3.080843 0.675159 0.680319 0.058940 0.003054 0.000879
1.720785 0.505716 0.603279 0.000000 -0.863893 -0.000002
3.017925 0.668325 0.601743 0.000000 0.863866 -0.000016
1.951253 0.493507 0.648878 0.000000 -0.999672 -0.000000
1.646374 0.721525 0.496585 0.068048 -0.002881 -0.002597
3.135409 0.629648 0.634423 1.000000 0.000000 -0.000000
2.598752 0.670437 0.554591 0.028485 0.015614 0.013566
1.631327 0.674966 0.683913 -0.000001 0.915855 0.000001
1.536479 0.226289 0.262873 -0.068005 -0.005536 0.004624
0.826206 0.640803 0.727005 -0.000000 0.568834 0.000020
1.944430 0.680649 0.661851 0.000000 0.989623 0.000001
1.469346 0.696861 0.743039 -0.068006 0.003610 -0.003021
1.899701 0.646321 0.576371 -0.000001 0.628112 -0.000017
2.970259 0.486934 0.746440 -0.053271 0.014634 0.013058
0.334187 0.517433 0.586975 -0.000001 -0.742527 -0.000049
2.928467 0.555845 0.738127 -0.000000 -0.340675 0.000075
0.082834 0.651574 0.666517 -0.436643 0.000055 0.000013
3.057214 0.791108 0.864708 -0.053271 -0.010123 0.009202
1.546755 0.480741 0.745444 0.104846 -0.002200 -0.001984
2.928467 0.632598 0.567207 -0.000000 0.481153 -0.000025
1.623385 0.088020 0.089143 0.068049 0.009491 -0.008479
1.613168 0.803035 0.876567 0.104848 0.007040 -0.006336
2.704822 0.621465 0.562026 -0.000000 0.363779 -0.000017
2.928509 0.728196 0.505456 0.028482 -0.007967 -0.006295
2.928921 0.498615 0.568700 -0.053269 0.007318 -0.006708
3.062654 0.495010 0.632785 0.061089 -0.000707 -0.000138
3.135409 0.545288 0.634423 1.000000 0.000000 -0.000000
1.643820 0.021820 0.017828 0.068049 0.006780 -0.006085
1.643820 0.021820 1.281440 0.068049 0.006780 0.006085
1.810243 0.668877 0.696577 0.000000 0.862942 0.000004
2.391719 0.497784 0.621559 0.000001 -0.817940 -0.000001
3.171086 0.911611 0.287971 0.028481 0.017566 0.014814
3.117220 0.539184 0.726478 0.059142 -0.000398 0.000617
2.391719 0.594796 0.743327 0.000001 0.088324 0.000076
1.192710 0.679376 0.547737 -0.044070 -0.009384 -0.008680
1.677026 0.474648 0.526564 0.104849 -0.002200 0.001984
3.014450 0.739924 0.467619 -0.053271 0.013809 0.011754
3.106528 0.266563 1.005415 0.028481 -0.023416 -0.017926
2.677236 0.733250 0.811260 0.028482 0.019516 -0.015953
3.127992 0.917129 1.015123 0.028483 0.017565 -0.014814
3.127992 0.257807 0.284145 0.028483 -0.017565 0.014814
3.063598 0.890861 0.986000 0.028483 0.014639 -0.012900
3.020669 0.301587 0.966584 0.028482 -0.017566 -0.014814
2.977740 0.855836 0.947169 0.028484 0.020490 -0.016482
2.698700 0.432929 0.478300 0.028481 -0.009761 0.009148
2.883738 0.522971 0.717980 -0.000001 -0.687660 0.000014
2.436449 0.659191 0.710354 0.000001 0.755290 0.000006
1.094579 0.526231 0.578354 -0.000001 -0.647830 -0.000016
2.531900 0.521504 0.724805 -0.000001 -0.669713 0.000072
0.513103 0.503473 0.607481 0.000001 -0.875444 -0.000004
0.097516 0.514427 0.653399 -0.386538 -0.000036 0.000001
0.366786 0.591399 0.743513 0.000000 0.025612 0.000036
3.064483 0.427285 0.462873 -0.053270 -0.006042 0.005279
1.027865 0.493495 0.649332 0.000000 -0.999669 -0.000000
1.487962 0.173164 0.194324 -0.068004 -0.004814 0.004024
1.628494 0.266966 0.288057 0.068049 0.008135 -0.007286
0.423645 0.532311 0.573550 -0.000001 -0.587797 -0.000019
2.481177 0.674128 0.685980 -0.000001 0.920934 0.000011
1.676056 0.537544 0.729251 0.000000 -0.525795 0.000044
2.481177 0.557165 0.560679 0.000000 -0.316700 -0.000005
3.155164 0.358333 0.907492 -0.053273 -0.004316 -0.003782
1.638711 0.201283 0.216276 0.068049 0.006780 -0.006085
1.720785 0.513083 0.707061 0.000001 -0.779941 0.000005
1.403892 0.493495 0.649332 0.000000 -0.999672 -0.000000
1.608059 1.047805 1.147134 -0.068005 0.003851 -0.003222
1.618276 1.079588 0.115289 -0.068001 0.003370 0.002820
1.638711 1.143153 0.041598 -0.068006 0.009627 0.007988
1.485451 0.534872 0.728756 0.068049 0.006780 0.006085
2.973196 0.494922 0.665961 0.000000 -0.985737 0.000002
1.459733 0.218018 0.244857 -0.068004 -0.005777 0.004823
2.346991 0.639932 0.571661 0.000000 0.547589 -0.000005
2.610816 0.493497 0.648878 -0.000000 -0.999918 -0.000000
1.435474 0.983481 1.088686 -0.044072 -0.015481 0.013815
1.533998 1.015545 1.128917 -0.044070 -0.013371 0.012102
2.775716 0.499036 0.541912 0.028481 -0.023416 0.017926
1.989159 0.627308 0.734752 -0.000000 0.435520 0.000007
3.017925 0.509474 0.597202 -0.000000 -0.836386 -0.000001
2.699360 0.659006 0.719777 0.000001 0.669767 0.000181
0.200000 0.599535 0.556431 -0.012123 0.000228 -0.001600
3.134698 0.825563 0.919337 -0.053271 0.004316 -0.003782
2.437965 0.585351 0.555708 0.000000 -0.026006 -0.000018
2.824213 0.750862 0.464280 0.028482 0.013420 0.012028
1.654037 0.119050 1.172601 0.068051 0.009491 0.008479
1.578896 1.092089 1.212739 -0.044073 -0.009149 0.008472
2.123346 0.558672 0.560177 -0.000000 -0.316075 -0.000041
3.078183 0.312821 0.348959 0.028482 0.015931 -0.011409
2.885002 0.395427 0.432901 0.028482 -0.007321 0.007024
2.741060 0.672028 0.752045 0.028483 0.009761 -0.009148
1.400049 0.311960 0.958986 -0.044072 0.005103 0.004794
1.602950 0.743763 0.467508 0.068050 -0.005763 -0.005179
2.956770 0.396947 0.867738 0.028480 -0.005857 -0.005684
0.289458 0.647554 0.721895 0.000001 0.612191 0.000004
1.452411 0.630561 0.566124 0.000001 0.455549 -0.000013
2.710992 0.479244 0.774715 0.028481 -0.009761 -0.009148
1.656591 0.872946 0.960911 0.104847 0.002860 -0.002579
1.483991 0.930356 1.020137 -0.068003 0.005777 -0.004823
1.389233 0.249380 1.024466 -0.068005 -0.012515 -0.010314
1.215830 0.708338 0.515627 -0.044070 -0.009384 -0.008680
1.562636 0.032162 1.265291 -0.068003 -0.009627 -0.007988
1.366113 0.278342 0.992356 -0.068005 -0.006739 -0.005620
1.331432 0.321786 0.355077 -0.068005 -0.001805 0.001512
1.527955 1.099330 0.082142 -0.044072 -0.009853 -0.009094
1.527955 1.099330 1.217126 -0.044070 -0.009853 0.009094
2.660093 0.673257 0.687992 0.000001 0.907448 0.000003
1.659146 0.893231 0.307519 0.068049 -0.008135 -0.007286
3.056966 0.822233 0.902654 0.028483 -0.019114 0.013025
0.736748 0.652403 0.717563 0.000001 0.598077 0.000002
1.586598 0.624511 0.563268 0.000001 0.388501 -0.000064
1.613168 0.355610 0.894628 0.104848 -0.006600 -0.005942
1.462214 0.290844 0.967237 -0.068009 -0.001685 -0.001411
1.350641 0.487561 0.744316 -0.068004 -0.005857 -0.004890
1.396832 0.500391 0.539740 -0.044072 0.017122 -0.015096
2.348507 0.493490 0.649407 0.000000 -0.999915 -0.000000
1.406485 0.512524 0.708598 -0.068005 -0.003610 -0.003021
1.404515 0.830797 0.909759 -0.068005 0.003851 -0.003222
0.692019 0.670077 0.604836 -0.000000 0.876507 -0.000004
1.643820 0.162513 0.185733 0.104848 -0.003960 0.003569
3.017725 0.382589 0.431276 0.028481 0.011153 -0.008521
1.564635 0.416822 0.851572 0.068050 0.011524 0.010249
2.660093 0.595060 0.743304 0.000000 0.090030 0.000150
1.005121 0.652458 0.717511 0.000001 0.681834 0.000007
1.181763 0.583084 0.555766 0.000000 -0.026016 -0.000260
1.689798 1.106571 0.074115 0.068051 -0.006779 -0.006085
1.689798 0.813327 0.900040 0.068051 -0.004746 0.004270
1.689798 1.139154 1.261277 0.068049 -0.005424 0.004877
1.689798 0.748162 0.827792 0.068050 -0.005424 0.004877
1.689798 0.035782 1.261277 0.068049 0.005424 0.004877
1.689798 0.149822 0.164424 0.068049 0.010847 -0.009662
1.689798 0.035782 0.037991 0.068049 0.005424 -0.004877
1.689798 0.296444 0.326981 0.068049 0.004068 -0.003663
1.689798 0.927366 1.026473 0.068049 -0.007457 0.006687
1.689798 0.329026 0.936163 0.068049 0.008813 0.007884
1.689798 0.214987 0.236672 0.068049 0.006780 -0.006085
1.689798 0.992532 1.098720 0.068049 -0.006102 0.005482
1.689798 0.829618 0.381167 0.068049 -0.009491 -0.008479
2.212804 0.524388 0.579979 0.000001 -0.667932 -0.000015
0.378916 0.496869 0.674588 0.000000 -0.963623 0.000004
0.468374 0.623988 0.563048 0.000001 0.388353 -0.000032
1.602950 0.436266 0.495671 0.104847 -0.003960 0.003570
1.447862 0.587922 0.743603 0.000000 0.026016 0.000018
1.562081 0.643945 0.725255 0.068051 -0.006779 0.006085
3.085723 0.367441 0.396524 -0.053271 -0.004316 0.003782
2.391719 0.615543 0.559950 -0.000000 0.291385 -0.000022
1.628295 0.583235 0.555762 0.000000 -0.025612 -0.000264
1.899701 0.630763 0.733040 -0.000000 0.458527 0.000026
2.946368 0.447386 0.482866 0.028483 -0.006589 0.006359
1.228766 0.546369 0.734143 0.000000 -0.435082 0.000014
1.618276 0.332649 0.359837 0.068049 0.009491 -0.008479
0.244729 0.666725 0.700136 0.000002 0.565724 0.000002
1.590179 0.309635 0.967807 0.068049 0.004407 0.003967
1.504484 0.318169 0.959126 -0.044070 0.002376 0.002243
2.749551 0.673834 0.612591 0.000001 0.917052 -0.000006
1.192710 0.495560 0.547737 -0.068005 -0.006418 0.005355
1.720785 0.618771 0.738243 0.000000 0.340560 0.000037
1.475409 0.734513 0.787329 -0.068005 0.002166 -0.001814
3.185506 0.269041 0.300421 -0.053270 0.006749 -0.006195
3.078183 0.316622 0.953737 0.028480 -0.014640 -0.012901
1.586598 0.546028 0.733978 0.000001 -0.435330 0.000056
2.704822 0.565882 0.741102 0.000001 -0.241889 0.000054
1.181150 0.510041 0.735476 -0.068006 -0.006418 -0.005354
2.749551 0.596792 0.743147 0.000000 0.089882 0.000037
2.391719 0.523465 0.580819 0.000000 -0.688742 -0.000014
0.736748 0.504305 0.605869 -0.000000 -0.888561 -0.000003
0.692019 0.523026 0.581236 0.000000 -0.688618 -0.000028
1.899701 0.532281 0.573572 -0.000001 -0.589333 -0.000019
2.971685 0.699381 0.788993 -0.053272 0.007487 -0.006519
2.706405 0.506779 0.552534 0.028483 -0.007808 0.007460
1.406485 0.642651 0.572846 0.000001 -0.669772 0.000345
2.839009 0.503629 0.692089 -0.000001 -0.887837 0.000014
1.228766 0.618416 0.560896 -0.000001 0.334784 -0.000019
0.781477 0.671116 0.606809 0.000000 0.888683 -0.000002
2.250710 0.493577 0.646157 -0.000000 -0.999672 -0.000000
0.870935 0.494575 0.663872 -0.000000 -0.989649 0.000002
0.736748 0.652622 0.581913 0.000000 0.688104 -0.000007
0.960392 0.680014 0.633307 -0.000000 0.985861 -0.000005
2.436449 0.504236 0.606003 0.000000 -0.888680 -0.000007
0.513103 0.666477 0.700516 -0.000001 0.794712 0.000002
0.485052 0.583688 0.743517 0.000000 -0.025622 0.000018
1.689798 0.166113 1.116782 0.068049 0.010846 0.009662
1.318224 0.494173 0.660912 0.000000 -0.992292 0.000001
1.648928 1.028314 0.167310 0.104850 0.003960 0.003569
1.648928 0.767653 0.456300 0.104849 0.003520 0.003173
1.597842 0.452158 0.785175 0.104849 -0.003960 -0.003569
1.600396 0.260243 1.021526 0.068049 0.004068 0.003663
1.541869 0.676303 0.680295 0.000000 0.948529 0.000002
1.944430 0.510742 0.595366 -0.000001 -0.817506 -0.000009
1.342919 0.393676 0.868910 -0.044071 0.003079 0.002905
2.818030 0.705102 0.770628 0.028481 -0.014870 0.010816
1.049850 0.627032 0.564391 0.000000 0.412199 -0.000015
3.126938 0.713468 0.512997 -0.053269 -0.006749 -0.006195
0.602561 0.668572 0.602168 0.000001 0.863731 -0.000032
2.570635 0.550739 0.736132 0.000000 -0.388653 0.000032
0.870935 0.553154 0.562150 0.000001 -0.364547 -0.000069
1.541869 0.543837 0.566402 0.000000 -0.458605 -0.000052
0.513103 0.509018 0.701370 0.000000 -0.836714 0.000018
1.139308 0.504804 0.604935 0.000000 -0.876544 -0.000007
1.623385 0.088020 1.210126 0.068051 0.009491 0.008479
1.592733 0.678080 0.759979 0.068049 -0.012202 0.010834
0.378916 0.653061 0.582330 0.000000 0.688749 -0.000002
2.957431 0.701829 0.538891 -0.053271 -0.007318 -0.006708
1.412353 0.220417 0.242692 -0.068004 -0.011552 0.009544
2.525906 0.504732 0.605068 -0.000001 -0.863642 -0.000002
1.362953 0.541047 0.731348 0.000000 -0.503969 0.000012
1.567190 0.790343 0.855258 0.104848 0.003520 -0.003173
2.750309 0.584293 0.555735 0.000000 -0.025623 -0.000036
0.960392 0.504479 0.693736 0.000001 -0.883263 0.000007
1.171149 0.681390 0.651902 0.000000 0.999672 0.000000
2.257533 0.663039 0.705493 0.000000 0.807523 0.000010
1.989159 0.659240 0.588971 0.000000 0.759574 -0.000023
2.620217 0.492702 0.751643 0.028485 0.012745 0.009546
0.826206 0.525090 0.719922 0.000000 -0.669922 0.000004
1.342919 0.781260 0.868910 -0.044070 -0.006159 0.005768
2.346991 0.673584 0.611999 0.000000 0.911094 -0.000002
1.228766 0.670631 0.693399 -0.000001 0.887830 0.000007
0.915663 0.668953 0.602821 0.000001 0.863659 -0.000016
2.078617 0.635587 0.568911 0.000000 0.503675 -0.000023
1.720785 0.604836 0.557278 0.000001 0.191757 -0.000139
1.944430 0.506459 0.697263 0.000001 -0.860783 0.000004
3.017925 0.634771 0.568435 -0.000000 0.503725 -0.000093
1.471818 0.785395 0.417710 -0.044072 -0.002903 -0.002740
2.168075 0.663262 0.705188 0.000000 0.807453 0.000020
2.825690 0.463252 0.795501 0.028482 -0.013664 -0.012206
3.161232 0.337434 0.376247 -0.053271 0.013497 -0.012106
1.049850 0.546641 0.734275 0.000000 -0.435402 0.000028
1.765514 0.500411 0.685039 0.000000 -0.931129 0.000005
2.078617 0.633029 0.731824 -0.000000 0.481111 0.000025
2.570635 0.668782 0.696741 0.000001 0.863112 0.000008
1.765514 0.499374 0.616909 0.000000 -0.940190 -0.000005
1.362953 0.550390 0.563283 0.000000 -0.388585 -0.000016
1.273495 0.673210 0.611172 0.000001 0.896768 -0.000002
3.135409 0.498298 0.640102 0.058568 -0.000738 -0.000069
2.436449 0.675845 0.617691 0.000000 0.939812 -0.000005
3.129973 0.718977 0.798492 -0.053271 0.006905 -0.006021
1.362953 0.496440 0.626287 -0.000001 -0.965790 -0.000002
0.915663 0.649050 0.720619 0.000001 0.623395 0.000004
1.631327 0.680500 0.636369 0.000001 0.989912 -0.000008
1.049850 0.629350 0.733764 0.000000 0.435509 0.000014
1.273495 0.502745 0.690291 0.000001 -0.892327 0.000003
1.447034 0.997962 0.194527 -0.044072 -0.007390 -0.006893
1.676056 0.499763 0.615884 -0.000000 -0.931099 -0.000011
1.646374 0.428974 0.469492 0.068050 0.005763 -0.005179
2.863537 0.400383 0.853231 0.028485 0.003983 0.003237
0.228808 0.493608 0.654321 0.000000 -0.999672 0.000000
0.692019 0.669182 0.696055 0.000000 0.863893 0.000004
1.334903 0.586939 0.555667 -0.000000 -0.026016 -0.000035
1.765514 0.573118 0.556757 0.000000 -0.141863 -0.000012
2.212804 0.504804 0.694333 0.000000 -0.876415 0.000004
0.035424 0.590199 0.614351 -0.622365 0.000002 -0.000018
2.784559 0.397905 0.439469 0.028483 -0.006833 0.006582
1.989159 0.551505 0.736455 0.000001 -0.357822 0.000004
1.245353 0.492894 0.749126 -0.068005 -0.006418 -0.005355
2.346991 0.631099 0.732866 -0.000000 0.456980 0.000007
2.883738 0.620761 0.561750 -0.000001 0.353648 -0.000009
1.497140 0.670752 0.693164 -0.000000 0.888680 0.000007
3.062654 0.506897 0.698015 0.061388 -0.000619 0.000361
2.346991 0.541178 0.567844 0.000000 -0.503741 -0.000046
1.318224 0.671911 0.690869 -0.000000 0.900023 0.000003
0.513103 0.546199 0.565207 0.000000 -0.435510 -0.000056
2.885171 0.502506 0.540983 0.028483 -0.026824 0.019356
2.973196 0.676973 0.620981 0.000000 0.948762 -0.000001
2.302262 0.505369 0.695361 -0.000000 -0.876561 0.000030
0.915663 0.549833 0.735750 0.000000 -0.412199 0.000060
0.423645 0.647407 0.722014 -0.000000 0.625640 0.000004
0.334187 0.625310 0.735656 0.000000 0.412082 0.000030
1.572298 0.466449 0.533959 0.104848 -0.007920 0.007124
1.592733 0.690595 0.550578 0.104848 0.007920 0.007124
0.960392 0.622591 0.562467 -0.000000 0.364521 -0.000035
1.005121 0.652074 0.581392 -0.000000 0.688618 -0.000028
1.676056 0.632134 0.566952 0.000000 0.481252 -0.000049
1.094579 0.511139 0.704455 -0.000001 -0.733046 0.000001
1.530728 0.864266 0.330527 -0.044072 -0.009501 -0.008784
0.378916 0.669695 0.695129 0.000000 0.876055 0.000007
2.123346 0.508130 0.599259 0.000000 -0.850601 -0.000002
0.826206 0.671993 0.690699 0.000001 0.899301 0.000007
0.468374 0.672323 0.609250 0.000000 0.900030 -0.000003
1.689798 0.459357 0.791668 0.068050 0.005763 0.005179
2.123346 0.512529 0.706342 0.000000 -0.791891 0.000003
1.395538 0.412335 0.829326 -0.068003 -0.002166 -0.001814
2.078617 0.538766 0.730006 0.000000 -0.524739 0.000005
0.289458 0.505945 0.696381 -0.000001 -0.863231 0.000008
2.985610 0.768838 0.840781 0.028482 -0.012746 0.009546
1.439838 0.247685 1.021118 -0.068006 -0.006258 -0.005222
3.017925 0.669858 0.694830 0.000001 0.876229 0.000030
1.184037 0.671394 0.607347 0.000000 0.888838 -0.000002
1.139308 0.649678 0.579194 0.000001 0.668808 -0.000015
2.033888 0.507394 0.600449 -0.000000 -0.843616 -0.000002
0.423645 0.534102 0.726984 0.000000 -0.568881 0.000078
2.749551 0.631133 0.566419 -0.000000 0.458527 -0.000052
2.928467 0.662337 0.706432 0.000000 0.791905 0.000005
1.989159 0.531792 0.573929 0.000000 -0.585550 -0.000005
1.567190 0.766389 0.438782 0.068048 -0.005424 -0.004877
0.075662 0.558082 0.704825 -0.464679 -0.000024 0.000047
1.452411 0.675613 0.617051 0.000000 0.940253 -0.000002
3.017925 0.550356 0.563298 0.000002 -0.387922 -0.000064
0.781477 0.503189 0.691210 0.000000 -0.899301 0.000003
3.135409 0.510205 0.695161 0.055122 -0.000684 0.000391
2.615364 0.670804 0.606205 -0.000001 0.874541 -0.000002
2.570635 0.495918 0.670851 0.000000 -0.976159 0.000001
2.960623 0.433872 0.830621 0.028482 -0.026338 -0.019167
0.557832 0.631099 0.732866 0.000000 0.458537 0.000026
