0.997875 0.084121 -0.020327 0.000288 0.969025 -0.242935
-0.193730 0.263980 -0.344560 -0.048162 0.818895 0.571919
1.791302 0.086006 -0.009624 0.045813 0.996715 -0.034490
0.331762 -0.061904 -0.060477 -0.000179 -0.695316 -0.717251
-0.101264 0.085592 -0.081350 -0.048162 0.818895 0.571919
-0.157922 -0.415893 0.559059 -0.048162 -0.818895 -0.571919
-0.002321 -0.078310 -0.036840 -0.000070 -0.883115 -0.466843
-1.320960 -0.000000 0.086542 0.003059 -0.080541 0.995380
0.747127 0.032075 -0.080379 -0.000163 0.367980 -0.928586
1.771020 0.081179 0.087378 -0.000000 0.802337 -0.596872
-0.058418 0.318323 -0.434774 -0.020756 -0.794405 -0.607034
-0.442100 0.142714 -0.191842 -0.048162 0.818895 0.571919
1.388829 0.070101 0.072487 0.000000 0.802337 -0.596872
1.750673 -0.112984 0.130132 -0.000000 -0.802337 -0.596872
-0.118927 0.405359 -0.540692 -0.048162 0.818895 0.571919
0.046866 -0.540344 0.720007 0.013975 -0.812196 -0.581397
-0.035729 0.078636 0.081217 0.111381 0.797344 -0.593158
1.672718 -0.124062 0.188514 -0.000000 0.802337 0.596872
0.094681 0.117607 -0.158092 0.111381 0.797344 0.593158
-0.263673 0.079540 -0.086362 -0.048162 0.818895 0.571919
1.466066 -0.081460 0.087756 -0.000000 -0.802337 -0.596872
-0.268459 -0.068746 -0.100979 -0.020756 0.794405 -0.607034
-0.575635 -0.014849 0.085259 -0.000929 -0.221452 0.973963
0.052664 -0.245322 -0.321881 0.111381 -0.797344 0.593158
-0.002188 0.536816 0.722631 -0.020756 -0.794405 0.607034
1.727517 -0.228637 -0.296470 -0.158567 -0.929706 0.332422
-0.230014 0.134735 -0.162556 -0.048162 0.818895 0.571919
-0.228960 -0.069207 0.068642 -0.048162 -0.818895 -0.571919
-1.564350 -0.081104 0.030195 -0.000005 -0.916070 0.398371
0.006823 0.343242 -0.468499 0.048183 -0.801405 -0.596178
1.412187 0.085003 -0.016251 -0.000277 0.966622 -0.251946
-0.205285 0.370364 -0.497856 -0.048162 0.818895 0.571919
-0.633516 -0.081814 0.028216 0.000238 -0.939789 0.338607
-0.326116 0.059810 0.063369 -0.000000 -0.596872 -0.802337
1.633753 -0.089607 -0.142198 -0.000000 0.802337 -0.596872
-1.571142 -0.000000 0.086542 0.000944 -0.036179 0.998680
-0.506583 0.061790 0.081402 -0.048162 0.818895 -0.571919
-0.081481 -0.238209 -0.298207 -0.048162 -0.818895 0.571919
1.456450 0.015446 -0.085153 0.000422 0.238193 -0.970220
-0.080505 -0.435706 -0.587634 -0.020756 0.794405 -0.607034
1.762890 -0.036278 -0.048767 -0.147553 0.590338 0.793554
1.546253 0.056061 0.065930 0.000249 0.644462 0.763264
-0.451322 -0.089642 0.116628 -0.048162 -0.818895 -0.571919
-0.682432 -0.046400 0.073052 -0.000341 -0.519256 0.853334
1.718857 0.078463 0.127218 0.000000 -0.802337 0.596872
1.834770 0.271344 0.364750 -0.158567 0.929706 -0.332422
0.480349 0.000000 -0.086542 0.000160 -0.033390 -0.998542
-0.233880 -0.251156 -0.329579 -0.048162 -0.818895 0.571919
1.693447 0.042462 0.057079 -0.147553 -0.590338 -0.793554
1.755203 -0.126680 -0.192034 -0.000000 0.802337 -0.596872
1.592831 -0.057379 -0.064786 0.000029 -0.661861 -0.748158
-0.073655 -0.441638 0.595632 -0.020756 0.794405 0.607034
-0.095338 -0.068742 -0.056725 0.001529 -0.813841 0.579714
1.834147 0.167421 -0.203308 0.228661 0.774440 0.585232
-0.122162 -0.304536 0.414553 -0.020756 0.794405 0.607034
-0.082063 -0.189688 -0.265625 -0.020756 0.794405 -0.607034
0.016543 0.107826 0.151259 0.048183 -0.801405 0.596178
-0.192205 0.329613 0.444974 -0.020756 -0.794405 0.607034
-0.023163 -0.010524 -0.085900 -0.001347 -0.177464 -0.982675
1.589793 0.105527 0.120108 -0.000000 0.802337 -0.596872
0.502653 -0.078270 -0.036924 0.000039 -0.873394 -0.484749
1.853244 -0.029450 0.072218 0.137089 -0.432135 0.889918
1.802624 0.182531 -0.267111 0.000000 -0.802337 -0.596872
1.600499 -0.112510 -0.172986 0.000000 0.802337 -0.596872
0.048733 -0.070765 0.098839 0.048183 0.801405 0.596178
0.538530 -0.021938 -0.083716 -0.000465 -0.240095 -0.969849
-0.035845 0.142130 -0.201605 0.048183 -0.801405 -0.596178
0.083753 -0.097691 -0.129268 0.111381 -0.797344 0.593158
-0.397918 0.063003 -0.059331 -0.000597 0.699173 -0.713369
-0.030424 -0.347398 0.450248 -0.048162 -0.818895 -0.571919
0.069759 -0.229901 0.311056 0.048183 0.801405 0.596178
1.775481 0.116833 0.178796 -0.000000 -0.802337 0.596872
-0.436524 0.025012 -0.082849 0.000113 0.254360 -0.966047
0.926302 -0.085854 0.010894 0.000184 -0.989326 0.137979
-0.209660 0.105313 0.150843 -0.020756 -0.794405 0.607034
-1.160844 -0.000000 0.086542 -0.000643 -0.075611 0.995790
0.049863 0.373347 -0.505489 0.048183 -0.801405 -0.596178
-0.154438 -0.354982 -0.479465 -0.020756 0.794405 -0.607034
-0.005586 0.406739 -0.533124 -0.048162 0.818895 0.571919
-1.947677 -0.008287 0.038218 -0.570403 -0.256631 0.773829
0.015678 0.033672 0.079723 -0.000090 0.422433 0.905602
1.762545 -0.055408 -0.096227 -0.000000 0.802337 -0.596872
0.033424 0.261030 0.355837 0.048183 -0.801405 0.596178
0.143512 -0.068163 -0.053324 0.002639 -0.825587 -0.562002
0.650736 0.069527 -0.051533 0.000248 0.810158 -0.584614
-0.453554 -0.037905 -0.077799 -0.000388 -0.432352 -0.900590
0.058279 -0.189360 0.257486 0.048183 0.801405 0.596178
0.009251 -0.083600 -0.096336 0.111381 -0.797344 0.593158
-0.477758 -0.015306 0.085178 -0.000263 -0.223311 0.973616
-0.199456 -0.277894 0.377044 -0.020756 0.794405 0.607034
-0.965688 -0.009264 -0.086045 0.000186 -0.125443 -0.991142
0.425219 0.061564 -0.060824 0.000132 0.719176 -0.693242
-0.326129 -0.157199 -0.202815 -0.048162 -0.818895 0.571919
0.377813 -0.015649 -0.085116 0.000480 -0.189602 -0.980421
1.696203 -0.074588 0.078518 -0.000000 -0.802337 -0.596872
1.816340 0.099446 0.111934 -0.000000 0.802337 -0.596872
-1.152781 -0.044429 0.074267 -0.000044 -0.561441 0.826185
-0.117538 -0.021228 -0.083899 -0.002310 -0.218930 -0.974462
-0.838949 0.076380 -0.040691 0.000211 0.910972 -0.409843
-0.314053 0.150367 -0.192016 -0.048162 0.818895 0.571919
1.638519 -0.151619 0.225557 -0.000000 0.802337 0.596872
-0.347089 0.147024 0.190011 -0.048162 0.818895 -0.571919
-0.819137 -0.049043 -0.071305 -0.000015 -0.615278 -0.786841
-0.068075 -0.079754 0.076646 0.111381 -0.797344 -0.593158
-0.037754 0.336048 0.434615 -0.048162 0.818895 -0.571919
1.781096 -0.133981 0.201848 0.000000 0.802337 0.596872
1.498724 0.105300 -0.119803 -0.000000 0.802337 0.596872
0.608369 0.084590 0.018279 0.000252 0.961721 0.270002
0.986352 -0.077851 0.037801 0.000010 -0.872377 0.486566
0.033678 0.165701 0.211287 0.111381 0.797344 -0.593158
-0.076374 -0.085215 -0.015098 0.000950 -0.981968 -0.181387
-0.924005 -0.045298 -0.073740 -0.000001 -0.524772 -0.849949
-1.003596 -0.074127 -0.044663 0.000001 -0.856690 -0.513695
-0.006400 0.461919 0.612200 -0.048162 0.818895 -0.571919
-0.108435 -0.419650 0.560271 -0.048162 -0.818895 -0.571919
-0.277657 0.288991 -0.387439 -0.048162 0.818895 0.571919
-1.093276 0.084163 0.020155 0.001212 0.965899 0.254581
-1.644156 0.086145 0.008283 -0.000776 0.989348 0.137928
-0.121459 -0.324540 -0.440754 -0.020756 0.794405 -0.607034
0.325909 0.023471 0.083299 -0.000675 0.263341 0.963561
1.237581 0.077587 0.038339 0.000115 0.919964 0.389162
-0.135299 0.275211 -0.355720 -0.048162 0.818895 0.571919
1.167524 0.082587 -0.025864 0.000257 0.933024 -0.356795
1.823981 -0.132209 -0.199466 -0.000000 0.802337 -0.596872
1.868100 -0.212623 -0.282191 0.328774 -0.751412 0.572090
-1.499454 0.053718 0.067852 0.000065 0.617535 0.785170
0.051008 0.315850 -0.428107 0.048183 -0.801405 -0.596178
0.732766 0.085192 -0.015229 0.000574 0.981990 -0.182885
-0.242123 -0.334951 0.450254 -0.048162 -0.818895 -0.571919
-0.044351 0.482115 -0.644313 -0.048162 0.818895 0.571919
-1.482328 -0.057950 -0.064276 0.000026 -0.665559 -0.744886
-1.942403 0.038903 -0.017724 -0.542754 0.779430 -0.301510
-0.443128 0.071311 -0.049033 -0.000670 0.807910 -0.587624
-1.172478 0.024295 -0.083062 -0.000127 0.342817 -0.938234
0.821429 -0.060237 0.062137 0.000048 -0.734643 0.676837
-0.001505 0.064447 -0.057759 0.001092 0.778394 -0.626636
-0.142385 -0.139646 0.198074 -0.020756 0.794405 0.607034
1.113439 -0.046979 -0.072681 0.000163 -0.507896 -0.860128
-0.102507 -0.089057 0.133233 -0.020756 0.794405 0.607034
-0.326926 0.244322 -0.327628 -0.048162 0.818895 0.571919
1.771057 -0.227755 -0.284411 0.000000 -0.802337 0.596872
-0.343216 0.182329 0.247065 -0.020756 -0.794405 0.607034
-0.043551 0.086855 0.127925 0.048183 -0.801405 0.596178
1.588839 0.148034 -0.220738 0.000000 -0.802337 -0.596872
0.811256 0.073659 0.045430 0.000049 0.875506 0.480937
-1.255743 -0.060805 0.061582 -0.000086 -0.703020 0.709632
-0.325704 0.204649 -0.270721 -0.048162 0.818895 0.571919
1.823564 -0.179267 -0.262722 -0.000000 0.802337 -0.596872
-0.289486 0.289422 0.389051 -0.020756 -0.794405 0.607034
-0.000948 -0.297945 -0.382552 0.111381 -0.797344 0.593158
1.765773 0.147432 -0.176438 -0.000000 0.802337 0.596872
-0.125762 -0.436605 -0.586007 -0.048162 -0.818895 0.571919
0.074562 -0.281331 0.374398 0.111381 -0.797344 -0.593158
0.898375 -0.047047 0.072637 0.000079 -0.540706 0.839898
-0.056083 0.405038 0.548335 -0.020756 -0.794405 0.607034
0.049150 -0.491017 0.651493 0.111381 -0.797344 -0.593158
1.199751 0.058257 0.063998 0.000877 0.628469 0.776500
1.661067 0.172446 -0.253554 0.000000 -0.802337 -0.596872
1.323539 -0.055781 -0.096729 -0.000000 0.802337 -0.596872
1.417601 -0.112324 0.129244 -0.000000 -0.802337 -0.596872
-1.723493 -0.037329 0.078078 0.000253 -0.481355 0.875284
1.480688 -0.084619 -0.018145 0.000820 -0.978232 -0.199760
1.854222 0.178585 0.250933 0.328774 -0.763961 0.555221
-0.284689 -0.026194 -0.082483 -0.000242 -0.294947 -0.954359
0.083444 -0.512452 0.686746 0.111381 -0.797344 -0.593158
0.464687 0.074555 -0.043945 0.000195 0.868716 -0.493118
0.067995 0.237326 0.314011 0.111381 0.797344 -0.593158
-0.023967 -0.205470 -0.253921 0.111381 -0.797344 0.593158
-1.698318 0.050123 -0.070550 -0.000144 0.621469 -0.782211
1.850677 0.112409 -0.161977 0.328774 -0.763961 -0.555221
-0.004407 0.508994 -0.679437 -0.048162 0.818895 0.571919
-0.177161 -0.123955 -0.176351 -0.020756 0.794405 -0.607034
0.393532 -0.055472 0.066427 0.000412 -0.588166 0.807339
-0.421050 0.162950 0.219043 -0.020756 -0.794405 0.607034
0.943897 0.079626 -0.033902 -0.000035 0.894579 -0.444393
-0.972489 0.085007 0.016229 0.000161 0.969882 0.239305
1.695570 0.082689 -0.025536 -0.000785 0.931656 -0.359976
1.853772 0.062872 0.077266 0.328774 0.751412 -0.572090
1.468234 -0.130568 0.153769 -0.000000 -0.802337 -0.596872
1.774721 -0.155108 -0.230247 0.000000 0.802337 -0.596872
-0.108552 -0.140679 -0.160839 -0.048162 -0.818895 0.571919
1.381866 -0.122612 0.164820 -0.158567 -0.929706 -0.332422
1.650632 0.136946 0.162342 -0.000000 0.802337 -0.596872
-0.257330 0.249466 -0.337862 -0.020756 -0.794405 -0.607034
-0.055823 -0.409705 -0.554452 -0.020756 0.794405 -0.607034
-0.077514 -0.284153 -0.363657 -0.048162 -0.818895 0.571919
-0.316082 0.047977 -0.072172 -0.020756 -0.794405 -0.607034
1.707922 -0.149380 0.179056 0.000000 -0.802337 -0.596872
0.703654 0.017218 -0.084812 0.000296 0.262139 -0.963890
-0.175630 -0.082429 0.083084 -0.048162 -0.818895 -0.571919
0.644682 -0.053635 -0.067918 -0.000175 -0.601314 -0.797815
0.976160 -0.040585 0.076436 -0.000016 -0.517570 0.854351
-0.442123 -0.075635 -0.042058 0.000062 -0.841517 -0.538234
1.825670 0.150790 0.224443 -0.000000 -0.802337 0.596872
1.416705 0.134053 -0.180199 -0.158567 0.929706 0.332422
0.299337 -0.049239 0.071169 0.000045 -0.618778 0.784163
-0.354551 -0.085663 -0.012305 0.000195 -0.979680 -0.196163
0.318882 0.024596 -0.082974 -0.000412 0.235372 -0.970797
-0.277278 -0.249903 -0.337751 -0.020756 0.794405 -0.607034
1.564572 0.020234 0.084144 0.000288 0.241198 0.969308
1.641948 0.145152 0.216864 -0.000000 -0.802337 0.596872
-0.005712 -0.070414 0.050313 -0.001448 -0.824684 0.563527
0.094681 0.291483 0.391822 0.111381 0.797344 -0.593158
-0.812153 -0.085546 0.013098 -0.000148 -0.986045 0.159322
1.829115 0.219690 -0.273570 0.000000 0.802337 0.596872
0.711422 0.057891 0.064329 -0.000276 0.653197 0.755788
1.367595 0.085238 0.014967 -0.000444 0.971256 0.232969
-0.753683 -0.062330 0.060038 0.000243 -0.713245 0.699368
1.747986 -0.083168 -0.023931 -0.000188 -0.943223 -0.328847
-1.359580 -0.024168 -0.083099 0.000187 -0.328802 -0.943249
-1.442513 0.077332 0.038851 0.000180 0.868162 0.494127
-0.035986 -0.194282 0.236624 0.111381 -0.797344 -0.593158
0.063200 -0.188640 -0.256121 0.048183 0.801405 -0.596178
-1.521106 -0.086542 0.000000 -0.000430 -0.999125 -0.021921
0.063143 0.007088 0.086252 -0.000233 0.131359 0.990491
-0.151503 -0.085770 -0.085835 -0.048162 -0.818895 0.571919
1.693303 -0.053577 -0.093766 -0.000000 0.802337 -0.596872
1.522499 -0.153825 0.185031 -0.106462 -0.895453 -0.424973
1.661084 -0.159330 -0.192432 0.000000 -0.802337 0.596872
1.824757 -0.079941 0.017917 0.137321 -0.964542 0.220723
-0.162238 0.166771 0.202720 -0.048162 0.818895 -0.571919
1.864476 0.000000 0.028665 1.000000 -0.000000 0.000000
1.820839 0.127135 -0.192644 -0.000000 -0.802337 -0.596872
0.436351 -0.083404 0.023096 -0.000746 -0.969615 0.240174
-1.240902 0.086542 -0.000000 0.002460 0.998875 -0.027483
1.418612 0.061543 -0.104474 0.000000 -0.802337 -0.596872
0.064756 -0.044455 -0.074252 0.000003 -0.499412 -0.865087
1.848064 0.074048 -0.088665 0.328774 0.751412 0.572090
-1.085667 -0.044319 0.074333 -0.000280 -0.562470 0.825650
-1.398139 0.010474 -0.085906 0.001568 0.123476 -0.991573
1.311508 0.063709 -0.107385 -0.106462 -0.664465 -0.735476
-0.003767 0.222192 -0.306635 0.048183 -0.801405 -0.596178
0.214229 -0.069778 0.051192 -0.000018 -0.813435 0.579755
-0.687388 -0.049676 -0.070865 -0.000963 -0.518705 -0.853435
0.752771 -0.071656 -0.048528 -0.000032 -0.809682 -0.584983
-0.117877 0.098748 0.101587 -0.048162 0.818895 -0.571919
0.032772 0.076633 -0.091388 0.111381 0.797344 0.593158
1.545912 0.099075 0.111435 0.000000 0.802337 -0.596872
1.861444 -0.257488 -0.355225 0.328774 0.763961 -0.555221
-0.109139 -0.046870 0.072752 -0.000102 -0.516184 0.855204
1.228599 -0.028621 0.081673 -0.000481 -0.387477 0.920688
1.521221 0.168376 0.226337 -0.158567 0.929706 -0.332422
-0.813512 0.086307 -0.006373 0.000007 0.990327 -0.132862
-0.208114 0.152151 0.185650 -0.048162 0.818895 -0.571919
0.054155 0.513844 0.683117 0.111381 0.797344 -0.593158
-0.250061 0.027948 0.081905 0.000104 0.309637 0.949674
-0.990842 0.061400 -0.060989 0.000025 0.727234 -0.684773
-0.015992 -0.500789 0.675012 -0.020756 0.794405 0.607034
-1.629622 0.051273 0.069718 0.000050 0.587193 0.808117
-0.674039 -0.086394 -0.005066 0.002152 -0.993775 -0.105665
-0.901518 -0.085634 -0.012507 -0.000497 -0.988797 -0.142792
1.504356 -0.114554 -0.132243 0.000000 -0.802337 0.596872
1.627995 -0.188469 -0.231602 -0.106462 -0.895453 0.424973
0.092601 0.078567 -0.036289 0.000039 0.915201 -0.400253
-0.129420 0.084429 -0.019007 0.000016 0.964925 -0.258208
-0.167287 -0.365131 0.487164 -0.048162 -0.818895 -0.571919
1.679249 -0.070451 -0.050262 -0.000026 -0.813464 -0.579699
1.035708 0.060982 -0.061407 -0.000201 0.665210 -0.745244
-0.282230 0.085936 0.010230 -0.000355 0.984193 0.170883
1.519363 0.164023 -0.215049 -0.158567 0.929706 0.332422
-0.788573 0.039906 0.076793 0.000073 0.515156 0.855823
-0.309674 -0.026213 0.082477 0.000209 -0.340282 0.939166
-1.134506 0.081568 -0.028917 -0.000020 0.927931 -0.369867
-0.029237 0.426435 -0.577255 -0.020756 -0.794405 -0.607034
-1.656415 -0.077021 0.039462 0.000733 -0.863307 0.502720
-0.402552 -0.134378 -0.176574 -0.048162 -0.818895 0.571919
1.824480 -0.138307 0.207663 -0.000000 0.802337 0.596872
1.243149 -0.066253 -0.055679 0.000314 -0.764236 -0.643393
0.074626 -0.084987 0.016336 -0.000429 -0.970272 0.237413
-0.281645 0.190934 -0.260432 -0.020756 -0.794405 -0.607034
-0.141898 0.110137 -0.159474 -0.020756 -0.794405 -0.607034
-0.437395 0.098554 -0.134211 -0.020756 -0.794405 -0.607034
1.335806 -0.075604 0.042114 0.000105 -0.845229 0.532300
-0.202305 0.078675 -0.036054 -0.000154 0.891868 -0.449840
-0.305545 0.105508 0.127069 -0.048162 0.818895 -0.571919
0.677711 -0.073499 -0.045689 -0.000176 -0.830769 -0.554726
-1.903943 0.020986 0.060564 -0.397618 0.249161 0.879973
1.579973 0.134609 0.159201 0.000000 0.802337 -0.596872
-1.586362 -0.068381 -0.053044 -0.000021 -0.822127 -0.567390
-1.748850 -0.075824 -0.041717 0.000008 -0.847099 -0.529379
1.500000 -0.049273 0.087981 -0.000000 0.802337 0.596872
-0.272217 -0.154278 -0.194093 -0.048162 -0.818895 0.571919
-0.225713 -0.328182 -0.439179 -0.048162 -0.818895 0.571919
-0.374446 0.083349 0.023293 -0.000058 0.945052 0.323536
1.801311 -0.068075 0.069763 0.000000 -0.802337 -0.596872
-0.872094 0.020847 -0.083994 0.001375 0.273376 -0.960783
1.850857 -0.211695 0.298483 0.328774 0.763961 0.555221
-0.657028 0.067606 -0.054028 -0.000076 0.795851 -0.603695
-0.975117 -0.082854 0.024995 -0.000329 -0.965459 0.256405
-0.082442 -0.390795 -0.516766 -0.048162 -0.818895 0.571919
-0.195634 0.237635 0.306998 -0.048162 0.818895 -0.571919
-0.694219 0.078940 -0.035468 -0.000011 0.894840 -0.443956
0.094918 0.044275 -0.074359 -0.000040 0.527111 -0.848499
1.799807 -0.112081 -0.128918 -0.000000 -0.802337 0.596872
-1.190267 0.060084 -0.062286 0.000344 0.644354 -0.763226
-0.518974 -0.050087 -0.070575 0.000025 -0.579876 -0.813541
-0.606328 0.082210 -0.027039 -0.000153 0.957853 -0.283400
1.629008 0.085143 0.015501 -0.000044 0.983567 0.174576
1.053644 0.084864 0.016963 -0.000366 0.980012 0.193110
1.266995 -0.049673 0.070867 0.000499 -0.574556 0.817166
1.710882 -0.160808 -0.237909 -0.000000 0.802337 -0.596872
1.123635 -0.069424 0.051671 0.000130 -0.802816 0.594436
-0.032867 0.090380 -0.131800 0.048183 -0.801405 -0.596178
-0.177727 0.353710 0.477004 -0.020756 -0.794405 0.607034
-1.161124 -0.085257 0.014860 -0.000100 -0.972377 0.228850
1.669286 0.217000 0.291699 -0.158567 0.929706 -0.332422
0.688263 0.082937 -0.024720 0.000697 0.944794 -0.324462
-0.186313 0.046570 -0.072944 0.000063 0.557549 -0.828832
1.686289 0.071558 -0.117936 -0.000000 -0.802337 -0.596872
-0.040365 0.212361 -0.260105 0.111381 0.797344 0.593158
0.637816 0.007561 0.086211 0.000950 0.137594 0.989237
1.774385 0.075990 -0.080402 -0.000000 0.802337 0.596872
-1.488169 0.014188 0.085371 -0.001623 0.155413 0.986691
-0.164140 0.024160 0.083102 0.000578 0.334605 0.941295
1.685160 -0.126425 -0.148199 0.000000 -0.802337 0.596872
-0.507865 -0.084113 -0.020362 -0.000555 -0.968957 -0.242750
-1.111656 0.067241 0.054482 0.001501 0.759316 0.649175
-0.083066 0.140173 0.157969 -0.048162 0.818895 -0.571919
0.754511 -0.084579 0.018328 0.000419 -0.963838 0.262148
0.560338 -0.034121 0.079532 -0.000096 -0.436740 0.898363
0.053051 -0.169311 -0.219777 0.111381 -0.797344 0.593158
-0.194471 0.277146 0.376236 -0.020756 -0.794405 0.607034
0.094681 0.357435 -0.480478 0.111381 0.797344 0.593158
-1.782688 -0.085513 -0.013307 0.001646 -0.986423 -0.156610
0.581458 -0.080973 -0.030545 0.000084 -0.925862 -0.375033
0.076422 0.238740 -0.317495 0.111381 0.797344 0.593158
-1.902218 -0.010485 -0.064009 -0.382901 -0.199410 -0.898987
-0.054389 0.086232 -0.007328 0.000642 0.997185 -0.061371
1.601501 -0.119767 0.182740 -0.000000 0.802337 0.596872
0.172596 -0.016585 -0.084938 0.000161 -0.238645 -0.969979
-1.758123 0.008786 -0.086095 0.001452 0.113171 -0.992803
-0.258617 0.078166 -0.037143 -0.000520 0.917737 -0.394366
1.718248 0.050667 -0.046363 -0.147553 -0.590338 0.793554
1.827844 -0.206350 0.255638 0.000000 -0.802337 -0.596872
1.636021 -0.067517 -0.054139 -0.000054 -0.779200 -0.625024
1.239053 0.074072 -0.044755 -0.000004 0.844834 -0.532966
1.618626 -0.085946 0.010146 -0.002191 -0.982851 0.177438
-0.067437 0.204452 0.285447 -0.020756 -0.794405 0.607034
-1.856304 -0.020408 0.077436 -0.249059 -0.215696 0.942107
0.189157 0.084659 -0.017958 0.001208 0.964743 -0.259814
1.845455 -0.119992 0.175503 0.328774 0.763961 0.555221
-0.105757 0.064456 0.057749 -0.000927 0.750108 0.659461
-0.758136 -0.081261 -0.029769 -0.000464 -0.934816 -0.352047
-0.181614 -0.149540 0.179679 -0.048162 -0.818895 -0.571919
0.094681 0.183560 -0.246748 0.111381 0.797344 0.593158
1.615616 0.073616 -0.120702 0.000000 -0.802337 -0.596872
1.860331 -0.067592 -0.087236 0.328774 -0.751412 0.572090
-0.437971 -0.078190 0.037093 0.000023 -0.895052 0.443478
-0.704035 0.012014 0.085704 -0.001733 0.147725 0.987777
-0.001392 -0.418816 0.550062 -0.048162 -0.818895 -0.571919
-1.800420 -0.033786 -0.079776 -0.020997 -0.439681 -0.896652
1.606102 0.067924 -0.053628 -0.000022 0.745514 -0.664935
0.014115 -0.129530 -0.158990 0.111381 -0.797344 0.593158
1.832380 0.074920 0.030452 0.136613 0.918938 0.366123
1.385873 -0.060855 0.103548 0.000000 0.802337 0.596872
-0.178669 0.155263 -0.187626 -0.048162 0.818895 0.571919
-0.277657 -0.288991 -0.387439 -0.048162 -0.818895 0.571919
-0.114905 -0.105413 -0.110879 -0.048162 -0.818895 0.571919
-0.091996 -0.164999 -0.232976 -0.020756 0.794405 -0.607034
1.571685 0.080837 -0.130410 0.000000 -0.802337 -0.596872
1.859120 -0.162709 -0.211470 0.328774 -0.751412 0.572090
-0.351426 0.110561 0.138168 -0.048162 0.818895 -0.571919
-1.876714 0.058022 0.046721 -0.323819 0.772968 0.541970
-0.328979 -0.066496 -0.073183 -0.048162 -0.818895 0.571919
-0.684613 0.011148 -0.085821 -0.002427 0.184794 -0.981279
1.274438 -0.060484 -0.097614 -0.158567 0.585668 -0.794890
0.009468 -0.347474 -0.451086 0.111381 -0.797344 0.593158
1.450585 0.082963 0.024631 -0.000102 0.958140 0.282367
0.434359 0.065345 0.056742 -0.000068 0.747468 0.662665
-1.092457 -0.084420 0.019049 0.001490 -0.963844 0.263702
-0.141289 0.337572 -0.457131 -0.020756 -0.794405 -0.607034
1.554562 0.054829 -0.073703 -0.147553 -0.590338 0.793554
1.454795 -0.032672 -0.080138 0.000053 -0.376177 -0.925380
-0.460716 -0.074305 -0.101681 -0.020756 0.794405 -0.607034
-1.204202 -0.086150 0.008230 0.000198 -0.985514 0.161715
1.664712 -0.188649 -0.269898 -0.158567 0.585668 -0.794890
-0.039076 0.277084 -0.350298 -0.048162 0.818895 0.571919
1.185775 0.032395 -0.080251 0.000084 0.429710 -0.901768
1.617028 0.199838 0.268630 -0.158567 0.929706 -0.332422
-0.521039 0.066831 -0.089837 -0.048162 0.818895 0.571919
1.027481 -0.020603 0.084054 0.000546 -0.238944 0.969900
-0.554410 0.020700 0.084030 -0.000014 0.244495 0.968396
-1.482979 0.028546 -0.081699 -0.000347 0.342671 -0.938136
-0.341010 0.089992 -0.126302 -0.020756 -0.794405 -0.607034
-0.287415 -0.111793 -0.134541 -0.048162 -0.818895 0.571919
-0.011003 0.247680 0.313095 0.111381 0.797344 -0.593158
-0.048158 0.059603 -0.062746 0.000022 0.638637 -0.768092
0.471743 -0.030443 0.081011 -0.000353 -0.387613 0.920741
1.574073 -0.088361 -0.097033 -0.000000 -0.802337 0.596872
1.530550 0.117912 0.180247 0.000000 -0.802337 0.596872
-0.056255 -0.241394 -0.334174 -0.020756 0.794405 -0.607034
1.542412 -0.027687 0.081994 -0.000401 -0.377884 0.924504
0.085889 -0.108188 0.146140 0.048183 0.801405 0.596178
-1.028623 0.070167 0.050657 -0.000478 0.806016 0.590195
-0.110677 0.249237 0.342577 -0.020756 -0.794405 0.607034
0.292160 -0.035344 -0.078996 -0.000681 -0.448838 -0.892376
1.815246 0.085432 -0.136586 -0.000000 -0.802337 -0.596872
1.692627 0.134511 -0.202560 0.000000 -0.802337 -0.596872
1.564770 -0.182677 0.245561 -0.158567 -0.929706 -0.332422
-1.332857 0.078819 0.035736 0.000106 0.884536 0.464220
-0.131452 0.112324 0.162692 -0.020756 -0.794405 0.607034
-0.074943 0.103761 0.107628 0.111381 0.797344 -0.593158
0.073713 -0.143890 -0.195117 0.048183 0.801405 -0.596178
1.689046 -0.181247 0.265384 0.000000 0.802337 0.596872
1.385151 0.034572 -0.079337 -0.000505 0.325998 -0.943751
0.852688 0.057713 0.064489 -0.000794 0.627202 0.777439
-0.172976 0.114362 -0.128582 -0.048162 0.818895 0.571919
1.504917 0.148051 -0.177270 -0.106462 0.895453 0.424973
-0.475551 0.039436 -0.077035 -0.000009 0.423635 -0.904678
1.445424 -0.069099 0.052105 0.001670 -0.765203 0.642144
1.198963 -0.062547 0.084078 -0.158567 -0.929706 -0.332422
1.216382 0.068268 -0.091768 -0.158567 0.929706 0.332422
-0.012413 -0.096151 -0.137905 0.048183 0.801405 -0.596178
-0.429454 0.037820 0.077841 -0.000851 0.447482 0.892792
-0.311934 -0.067648 0.098056 -0.020756 0.794405 0.607034
-1.253989 0.049942 -0.070678 0.000622 0.542986 -0.838447
-1.209682 -0.014555 -0.085310 -0.000323 -0.167181 -0.984982
-0.290398 0.135051 0.187000 -0.020756 -0.794405 0.607034
1.711943 0.153596 0.228215 -0.000000 -0.802337 0.596872
-1.542719 0.066164 -0.055785 -0.000200 0.804436 -0.592062
-1.436617 -0.009198 -0.086052 -0.000397 -0.177274 -0.982740
1.337882 -0.093197 -0.103534 -0.106462 -0.895453 0.424973
1.468963 0.151214 0.203268 -0.158567 0.929706 -0.332422
-0.236424 0.241448 0.315893 -0.048162 0.818895 -0.571919
1.645852 -0.102989 0.116696 -0.000000 -0.802337 -0.596872
-0.274836 0.204066 0.277849 -0.020756 -0.794405 0.607034
-1.050764 0.000000 -0.086542 -0.000493 -0.036551 -0.997545
1.731305 0.077896 -0.082965 -0.000000 0.802337 0.596872
1.640801 0.140452 -0.167055 -0.000000 0.802337 0.596872
-0.192205 0.185053 -0.255794 -0.020756 -0.794405 -0.607034
1.449398 0.079699 -0.085389 0.000000 0.802337 0.596872
-0.256790 -0.128939 -0.156512 -0.048162 -0.818895 0.571919
0.348186 -0.084564 0.018398 0.000497 -0.973352 0.224569
-0.003900 -0.448372 -0.606829 -0.020756 0.794405 -0.607034
0.040639 -0.211126 0.288171 0.048183 0.801405 0.596178
1.206068 -0.038962 -0.077276 0.000204 -0.391309 -0.919165
1.710559 0.154054 0.185339 0.000000 0.802337 -0.596872
1.395655 -0.054151 -0.067508 -0.000321 -0.578759 -0.814177
1.398670 0.110231 0.159050 -0.158567 -0.585668 0.794890
1.871880 0.165453 -0.222408 0.328774 0.751412 0.572090
-1.579018 0.081991 -0.027694 0.000814 0.959571 -0.277396
-1.497767 0.082239 -0.026950 0.000039 0.943055 -0.329261
-0.433253 -0.116409 -0.157720 -0.020756 0.794405 -0.607034
0.666395 0.079264 0.034738 0.000231 0.911986 0.407664
-1.584701 0.018395 -0.084565 -0.000050 0.274212 -0.960538
0.932312 -0.081562 -0.028935 -0.000633 -0.922519 -0.383127
-1.860827 0.049971 -0.061183 -0.247476 0.663997 -0.703673
0.047620 0.159377 -0.205403 0.111381 0.797344 0.593158
-0.378032 -0.037419 -0.078035 -0.000138 -0.483483 -0.874216
0.094681 0.333453 -0.448239 0.111381 0.797344 0.593158
0.094681 0.189556 0.254808 0.111381 0.797344 -0.593158
0.094681 -0.279491 -0.375702 0.111381 -0.797344 0.593158
0.094681 -0.321461 -0.432120 0.111381 -0.797344 0.593158
-0.370605 -0.015711 0.085104 -0.000043 -0.150390 0.987718
0.523745 0.055085 0.066748 0.000013 0.623126 0.780867
-0.049377 0.161867 0.229230 0.048183 -0.801405 0.596178
1.557665 -0.144545 0.216049 -0.106462 0.664465 0.735476
-0.086240 0.282570 0.387035 -0.020756 -0.794405 0.607034
1.319809 0.082182 0.088727 0.000000 0.802337 -0.596872
-1.666144 0.008517 -0.086122 0.001301 0.067612 -0.996686
-0.092667 0.351396 -0.476884 -0.020756 -0.794405 -0.607034
-0.154287 -0.051295 0.069702 -0.000112 -0.567825 0.821834
-0.031496 -0.085906 -0.010478 0.000586 -0.984071 -0.171563
-1.112718 0.029193 -0.081470 -0.000581 0.273184 -0.960718
-0.217660 0.071379 -0.106162 -0.020756 -0.794405 -0.607034
1.445343 -0.083469 -0.133947 0.000000 0.802337 -0.596872
1.744025 -0.199770 0.290284 0.000000 0.802337 0.596872
0.054150 -0.118137 -0.162080 0.048183 0.801405 -0.596178
-0.277821 0.110396 -0.131733 -0.048162 0.818895 0.571919
-0.421280 -0.093348 -0.119404 -0.048162 -0.818895 0.571919
0.710517 -0.000000 0.086542 0.000191 -0.028106 0.998987
0.503591 0.060389 -0.061990 -0.000027 0.741382 -0.669479
-0.592601 0.063373 0.058936 -0.000146 0.770056 0.636223
-0.635280 0.043168 0.075007 -0.000001 0.448160 0.892715
-1.411026 -0.000000 0.086542 -0.001496 -0.065358 0.996825
-0.089509 -0.481659 -0.647463 -0.048162 -0.818895 0.571919
-0.421050 -0.162950 -0.219043 -0.048162 -0.818895 0.571919
-0.530893 0.081845 0.028125 -0.001426 0.945735 0.321705
-1.523735 -0.026303 -0.082448 -0.000017 -0.359340 -0.932023
-0.224936 -0.008583 0.086116 0.000373 -0.061684 0.996946
0.310476 -0.082309 -0.026736 -0.000002 -0.958164 -0.282268
1.010735 -0.086542 -0.000000 -0.001745 -0.996026 -0.074908
0.937804 0.030758 0.080892 -0.001495 0.405287 0.912999
-0.855255 -0.069861 0.051078 0.000071 -0.799426 0.598996
1.828662 -0.044212 -0.081177 0.111149 0.796964 -0.588445
-1.709255 -0.035496 -0.078928 0.000003 -0.471015 -0.880491
0.030364 0.080022 -0.032955 0.000240 0.905054 -0.422746
1.115079 0.059686 0.062667 -0.000535 0.646260 0.761679
0.002774 0.198985 0.274910 0.048183 -0.801405 0.596178
0.238464 0.057136 -0.065001 0.000199 0.671101 -0.739894
1.838664 -0.251735 -0.316646 0.282678 -0.762273 0.578333
-0.964679 -0.039428 0.077039 0.000298 -0.486594 0.872399
1.721936 0.101687 -0.158437 -0.000000 -0.802337 -0.596872
-0.402240 0.147137 -0.194818 -0.048162 0.818895 0.571919
1.084072 0.086113 -0.008607 0.000332 0.993063 -0.111198
1.590899 0.191258 -0.257095 -0.158567 0.929706 0.332422
1.442834 -0.142634 -0.191733 -0.158567 -0.929706 0.332422
-1.095976 0.060373 -0.062005 -0.000105 0.742408 -0.668303
-1.342471 -0.038117 0.077696 0.000045 -0.491612 0.869545
1.425795 0.101240 -0.157836 -0.106462 -0.664465 -0.735476
1.592830 0.156094 0.231572 -0.053607 -0.736688 0.669470
1.733491 0.223113 0.278172 -0.106462 0.895453 -0.424973
-0.150084 0.067847 0.053725 0.000399 0.749300 0.660748
1.805284 0.185469 -0.227569 -0.000000 0.802337 0.596872
1.868983 -0.111367 -0.149703 0.328774 -0.751412 0.572090
-0.156749 0.061626 -0.095481 -0.020756 -0.794405 -0.607034
-0.166528 0.078075 0.116673 -0.020756 -0.794405 0.607034
-0.622297 -0.010836 0.085861 -0.000507 -0.195241 0.979186
0.051830 -0.071790 -0.099966 0.048183 0.801405 -0.596178
-0.852980 0.031674 0.080538 0.001241 0.424581 0.904205
0.032335 0.395801 -0.537089 0.048183 -0.801405 -0.596178
-1.340702 -0.082353 0.026599 -0.000046 -0.931778 0.360000
0.007234 0.169935 -0.235500 0.048183 -0.801405 -0.596178
1.696333 -0.098249 0.110324 -0.000000 -0.802337 -0.596872
1.786238 0.240436 0.301457 -0.106462 0.895453 -0.424973
-1.337984 -0.070885 -0.049648 0.000133 -0.818043 -0.573222
1.671215 -0.000000 0.086542 -0.000037 -0.024950 0.999129
1.705813 -0.186044 0.228341 0.000000 -0.802337 -0.596872
-0.015869 -0.206203 0.286120 0.048183 0.801405 0.596178
-0.020476 -0.052635 -0.068696 -0.000382 -0.646342 -0.761632
-1.202763 -0.066483 -0.055404 -0.000420 -0.730489 -0.681450
0.076126 0.075637 0.042055 0.000004 0.840629 0.539553
1.268640 0.085429 0.114837 -0.158567 0.929706 -0.332422
0.094681 -0.483345 -0.649730 0.111381 -0.797344 0.593158
0.063377 0.104658 -0.134807 0.111381 0.797344 0.593158
1.286060 -0.091150 0.122527 -0.158567 -0.929706 -0.332422
-1.320960 0.000000 -0.086542 0.000575 -0.028237 -0.999050
-0.024208 0.083836 0.021472 -0.002870 0.981560 0.183220
1.757386 0.084545 0.018488 0.000125 0.975505 0.215368
0.172265 0.040258 -0.076609 -0.000026 0.419751 -0.906445
0.004230 0.447714 -0.606245 -0.020756 -0.794405 -0.607034
0.047361 0.479355 -0.648191 0.048183 -0.801405 -0.596178
-0.095337 0.169610 0.201152 -0.048162 0.818895 -0.571919
-0.246277 0.222830 -0.290064 -0.048162 0.818895 0.571919
1.500057 -0.089385 0.141900 0.000000 0.802337 0.596872
0.993911 0.080434 0.031938 -0.000064 0.929801 0.365101
1.506580 -0.054953 -0.095616 -0.000000 0.802337 -0.596872
0.017434 0.536489 -0.722875 -0.020756 -0.794405 -0.607034
-0.136550 -0.070220 -0.050583 -0.000163 -0.847858 -0.528204
1.821180 0.194000 0.282527 -0.000000 -0.802337 0.596872
1.486630 0.057011 0.082224 -0.000000 -0.596872 -0.802337
-0.083505 0.050609 -0.082432 0.048183 -0.801405 -0.596178
-0.065671 -0.363679 -0.493881 -0.020756 0.794405 -0.607034
0.820597 -0.000000 0.086542 0.000033 -0.026323 0.998638
-1.902405 -0.063934 -0.010434 -0.404132 -0.884152 -0.224600
-0.089590 0.274950 -0.376947 -0.020756 -0.794405 -0.607034
-1.438586 -0.047770 -0.072164 -0.000098 -0.548073 -0.835136
-0.220414 0.074375 0.075322 -0.048162 0.818895 -0.571919
1.343649 -0.078161 -0.037153 0.000470 -0.925464 -0.375745
-1.278394 -0.054777 -0.067001 -0.000041 -0.587858 -0.807649
-0.887821 0.081659 0.028661 0.000149 0.940401 0.337075
0.051870 -0.379391 -0.513451 0.048183 0.801405 -0.596178
1.619204 -0.185582 0.227721 -0.106462 -0.895453 -0.424973
1.694476 -0.079330 0.034588 -0.000124 -0.887381 0.458566
0.184178 -0.051288 0.069708 0.001343 -0.597628 0.800048
0.852803 0.085336 -0.014397 -0.000029 0.988796 -0.143485
-1.249475 0.051318 0.069686 -0.001661 0.640624 0.766419
1.284170 0.028046 -0.081872 -0.000024 0.384022 -0.922127
-0.003209 -0.375295 -0.511219 -0.020756 0.794405 -0.607034
-1.930967 -0.038489 -0.031936 -0.513477 -0.721259 -0.458479
0.067437 0.482941 0.651388 0.048183 -0.801405 0.596178
1.791563 0.122134 0.142431 -0.000000 0.802337 -0.596872
-1.617426 -0.060084 0.062285 0.000295 -0.686174 0.725728
1.002574 0.037638 0.077929 -0.000101 0.435821 0.898858
0.056755 0.212256 0.278201 0.111381 0.797344 -0.593158
-1.748248 0.050184 0.070507 0.000252 0.579647 0.813639
1.761280 -0.000000 0.086542 -0.001463 -0.055780 0.997570
1.259218 -0.081693 0.028562 -0.000933 -0.941871 0.333085
-1.682183 -0.015957 0.085059 0.001167 -0.229123 0.972579
1.501106 0.075697 -0.041946 0.000025 0.858768 -0.510457
1.873812 0.201511 -0.270878 0.328774 0.751412 0.572090
-0.045204 -0.112052 -0.124357 0.111381 -0.797344 0.593158
0.570255 0.050135 -0.070541 -0.000484 0.527299 -0.848434
-0.398746 -0.080505 -0.031756 0.000195 -0.928791 -0.367745
1.599204 0.040440 0.076106 0.000000 -0.802337 0.596872
-0.025054 0.140527 0.198578 0.048183 -0.801405 0.596178
1.777770 -0.024539 0.054732 -0.000000 0.802337 0.596872
1.381838 0.086805 -0.138432 -0.106462 -0.664465 -0.735476
0.857718 0.007973 -0.086174 -0.000958 0.141859 -0.988985
0.934453 0.068058 0.053457 -0.000064 0.787159 0.615091
0.094681 -0.513323 -0.690028 0.111381 -0.797344 0.593158
1.836648 0.037521 -0.034128 -0.147553 -0.590338 0.793554
-0.714373 -0.086035 0.009362 -0.001157 -0.984258 0.170302
1.478543 -0.139390 -0.165627 -0.106462 -0.895453 0.424973
1.307066 0.081101 -0.030204 -0.000021 0.928953 -0.367207
-0.392634 0.074944 0.104845 -0.020756 -0.794405 0.607034
-1.614205 0.077261 0.038991 -0.000074 0.890013 0.453520
1.610732 -0.123861 0.144753 0.000000 -0.802337 -0.596872
-0.322321 -0.080028 -0.032942 -0.000202 -0.901319 -0.430848
-0.245845 -0.046807 -0.073042 -0.000000 0.596872 0.802337
1.562715 -0.103840 0.117840 0.000000 -0.802337 -0.596872
1.722482 -0.095081 0.149557 -0.000000 0.802337 0.596872
-0.898990 -0.063926 0.058336 -0.000626 -0.698921 0.713628
-0.750546 0.000000 -0.086542 0.001550 -0.027900 -0.998792
0.053597 0.206472 -0.269832 0.111381 0.797344 0.593158
1.544730 -0.115705 -0.177281 0.000000 0.802337 -0.596872
0.510371 -0.086542 -0.000000 0.001326 -0.994902 -0.081644
0.072878 0.279668 -0.377703 0.048183 -0.801405 -0.596178
1.757160 0.068099 0.053405 -0.000041 0.784824 0.617999
-0.091409 0.305891 -0.417377 -0.020756 -0.794405 -0.607034
-0.043889 -0.109647 0.158590 0.048183 0.801405 0.596178
1.498697 0.081447 -0.087738 0.000000 0.802337 0.596872
0.036481 0.071828 0.085626 0.111381 0.797344 -0.593158
-0.760553 -0.000000 0.086542 -0.000590 -0.022521 0.998898
1.809670 -0.075315 -0.122986 -0.000000 0.802337 -0.596872
-1.765322 -0.079975 0.033069 0.000052 -0.923425 0.381009
1.779326 -0.212035 0.263279 0.000000 -0.802337 -0.596872
-0.438308 -0.026075 0.082521 0.001531 -0.355799 0.933584
1.782642 0.023970 -0.083157 0.045818 0.274967 -0.958686
0.675514 -0.066051 0.055918 0.000092 -0.724380 0.687825
1.824020 0.016689 0.080310 0.135815 0.256868 0.955669
-0.215272 0.311317 0.420242 -0.020756 -0.794405 0.607034
-1.903199 -0.050786 0.039647 -0.426029 -0.730188 0.529346
1.529934 0.088071 -0.140134 -0.000000 -0.802337 -0.596872
1.864476 0.009900 -0.075797 1.000000 -0.000000 -0.000000
-0.888602 -0.028672 -0.081655 0.000009 -0.385906 -0.921339
0.029930 -0.299580 -0.407940 0.048183 0.801405 -0.596178
-0.400000 0.183185 0.246244 -0.020756 -0.794405 0.607034
-0.197219 -0.029153 -0.081484 -0.000343 -0.390356 -0.919478
1.540725 -0.013207 -0.085529 -0.000126 -0.149997 -0.987651
-0.581006 -0.085064 -0.015926 0.000082 -0.991332 -0.123300
-0.157012 -0.181581 -0.252453 -0.020756 0.794405 -0.607034
-0.052362 0.291008 0.371355 -0.048162 0.818895 -0.571919
0.454459 -0.031557 -0.080584 0.000162 -0.400073 -0.915283
1.177543 0.027814 0.081951 0.000128 0.322971 0.945261
1.746298 0.102608 0.116185 0.000000 0.802337 -0.596872
-0.037162 0.377658 0.494142 -0.048162 0.818895 -0.571919
1.079823 0.073082 -0.046354 0.000351 0.841850 -0.537797
0.776345 0.039375 0.077066 0.000446 0.494591 0.868082
-0.922267 0.066771 -0.055056 0.000020 0.810617 -0.583738
-0.110128 0.358569 0.485675 -0.020756 -0.794405 0.607034
-0.100406 0.165227 -0.195302 -0.048162 0.818895 0.571919
-0.128609 -0.108438 -0.157705 -0.020756 0.794405 -0.607034
-1.143446 -0.075314 -0.042631 0.000735 -0.832925 -0.551262
0.110080 0.000000 -0.086542 0.001864 -0.064278 -0.997220
1.338717 0.080950 -0.087070 -0.000000 0.802337 0.596872
-0.064989 0.248064 -0.310928 -0.048162 0.818895 0.571919
1.299912 -0.022235 0.083637 0.000246 -0.262649 0.963749
-1.765646 -0.023786 0.083210 -0.000041 -0.330035 0.942824
-0.141163 -0.304156 -0.413405 -0.020756 0.794405 -0.607034
-0.027917 0.502140 0.671603 -0.048162 0.818895 -0.571919
0.150934 0.011706 0.085747 -0.001145 0.195249 0.979571
-1.633879 -0.086264 -0.006935 -0.000368 -0.991249 -0.126195
1.714153 -0.033469 0.079808 -0.000234 -0.385775 0.921439
1.557665 0.165373 -0.200555 -0.106462 0.895453 0.424973
1.819317 0.062174 -0.061831 0.000000 0.802337 0.596872
-0.145745 -0.143527 -0.168049 -0.048162 -0.818895 0.571919
-0.010007 -0.000000 0.086542 0.000305 -0.067259 0.996545
1.723215 -0.148859 -0.178356 -0.000000 -0.802337 0.596872
0.991963 -0.075125 -0.042963 -0.000496 -0.850894 -0.523304
1.689046 0.202074 0.249890 0.000000 0.802337 -0.596872
-1.298813 0.075241 -0.042760 -0.000639 0.838989 -0.542512
-0.289449 0.052119 0.069088 -0.000192 0.599162 0.799367
-0.825623 -0.032695 0.080129 0.000337 -0.383121 0.922505
1.211776 0.084707 -0.017728 -0.000550 0.962192 -0.267999
0.024952 -0.497003 -0.659795 -0.048162 -0.818895 0.571919
-0.212845 -0.184150 0.231865 -0.048162 -0.818895 -0.571919
1.747250 -0.194043 -0.239095 -0.000000 -0.802337 0.596872
0.046420 0.033698 -0.079712 -0.000001 0.430926 -0.901163
0.783675 -0.008474 -0.086127 0.000303 -0.128424 -0.990659
-0.147645 -0.085500 -0.127035 -0.020756 0.794405 -0.607034
-1.723598 0.072692 -0.046962 0.000647 0.843001 -0.535961
-0.164074 0.188234 0.233606 -0.048162 0.818895 -0.571919
1.452420 -0.074205 -0.078003 -0.000000 -0.802337 0.596872
1.763843 0.165605 0.200867 0.000000 0.802337 -0.596872
-1.964327 -0.025238 -0.007197 -0.632927 -0.736642 -0.225517
0.094681 0.513323 -0.690028 0.111381 0.797344 0.593158
1.839173 0.126158 0.187707 0.328774 -0.763961 0.555221
-0.353408 -0.103876 -0.128763 -0.048162 -0.818895 0.571919
-0.001679 -0.154393 0.189446 0.111381 -0.797344 -0.593158
0.280204 0.000000 -0.086542 0.000623 -0.023052 -0.998486
1.784467 -0.110372 0.170111 0.000000 0.802337 0.596872
-1.206552 0.085234 0.014989 -0.000606 0.987080 0.153775
-0.187991 0.059769 0.091983 -0.020756 -0.794405 0.607034
-0.125439 0.067577 -0.057591 -0.048162 0.818895 0.571919
1.577200 -0.143922 -0.215211 -0.000000 0.802337 -0.596872
1.451348 -0.086399 0.004986 -0.000694 -0.992965 0.112190
1.712283 0.117196 0.179285 -0.000000 -0.802337 0.596872
1.836673 -0.096859 0.112081 0.328774 -0.751412 -0.572090
-0.199456 -0.277894 -0.377044 -0.020756 0.794405 -0.607034
-1.964557 0.021616 0.014538 -0.644371 0.540338 0.531424
-0.079560 0.400511 -0.530435 -0.048162 0.818895 0.571919
-0.026635 0.337820 -0.436215 -0.048162 0.818895 0.571919
0.416671 0.029153 -0.081484 -0.000078 0.381215 -0.923317
1.493317 0.086113 0.008608 0.001633 0.986690 0.155477
-1.024325 -0.076348 0.040750 0.000009 -0.872559 0.486102
-0.307904 0.112138 -0.156417 -0.020756 -0.794405 -0.607034
-0.144229 -0.396599 -0.530280 -0.048162 -0.818895 0.571919
-1.626945 -0.047470 -0.072361 0.000532 -0.606781 -0.793016
1.795030 -0.222495 0.320832 -0.106462 0.664465 0.735476
0.048338 0.311391 0.422328 0.048183 -0.801405 0.596178
1.788492 -0.193084 -0.281296 -0.000000 0.802337 -0.596872
1.698407 -0.031606 -0.064232 0.000000 0.802337 -0.596872
-0.038649 -0.485138 -0.653755 -0.020756 0.794405 -0.607034
-0.071528 -0.142667 -0.160568 0.005089 -0.813496 0.580285
-1.007241 -0.034269 0.079468 0.000552 -0.452888 0.890314
0.009468 0.347474 0.451086 0.111381 0.797344 -0.593158
-0.944509 -0.007618 0.086206 0.000142 -0.116737 0.992203
1.146985 -0.086011 -0.009571 0.000191 -0.986847 -0.152634
-0.225625 -0.077309 -0.113649 -0.020756 0.794405 -0.607034
-0.023482 0.311974 -0.398942 -0.048162 0.818895 0.571919
1.712760 0.045929 -0.083485 0.000000 -0.802337 -0.596872
1.225533 -0.085594 0.012780 0.002287 -0.985074 0.163123
-0.934625 -0.075617 -0.042091 0.000000 -0.874053 -0.483551
1.615616 0.073616 0.120702 0.000000 -0.802337 0.596872
-1.668726 -0.065887 -0.056111 0.001598 -0.785916 -0.616996
-0.516368 -0.008098 -0.086163 0.001307 -0.139323 -0.989063
0.614339 0.080136 -0.032678 0.000170 0.900678 -0.432200
-0.067865 -0.154040 0.176544 0.005089 -0.813496 -0.580285
1.266005 0.072712 -0.080527 -0.158567 0.929706 0.332422
-0.102314 0.429113 -0.573305 -0.048162 0.818895 0.571919
-0.023013 -0.086959 0.126405 0.048183 0.801405 0.596178
-0.160116 -0.086542 -0.000000 -0.000633 -0.997790 -0.053374
-0.847234 -0.066650 -0.055202 -0.000037 -0.805327 -0.590913
1.759864 0.210947 -0.305308 -0.106462 -0.664465 -0.735476
1.402103 -0.087810 -0.096292 0.000000 -0.802337 0.596872
0.005978 -0.431130 0.584603 -0.020756 0.794405 0.607034
-0.059917 0.054622 0.067228 -0.000000 -0.596872 -0.802337
0.074264 0.071219 -0.091901 0.111381 0.797344 0.593158
1.732905 -0.072747 0.076043 -0.000000 -0.802337 -0.596872
1.593659 0.110084 -0.126233 0.000000 0.802337 0.596872
0.020193 -0.055801 0.081030 0.048183 0.801405 0.596178
-0.302112 0.186444 0.242667 -0.048162 0.818895 -0.571919
-0.040009 0.249454 0.345277 -0.020756 -0.794405 0.607034
-0.274462 0.156638 0.215796 -0.020756 -0.794405 0.607034
0.996760 -0.008480 -0.086126 0.000338 -0.162991 -0.985540
1.761359 -0.104836 -0.162670 -0.000000 0.802337 -0.596872
1.837696 -0.212841 -0.307853 0.111149 0.796964 -0.588445
-0.233467 -0.090681 0.099770 -0.048162 -0.818895 -0.571919
0.056677 0.535835 -0.723361 0.006061 -0.797437 -0.603045
1.383247 -0.106379 -0.153135 -0.158567 0.585668 -0.794890
-0.280288 -0.107985 0.151925 -0.020756 0.794405 0.607034
1.452892 0.070701 -0.049909 -0.000258 0.841183 -0.538772
0.226192 -0.048792 -0.071477 -0.000346 -0.597501 -0.800474
1.781630 -0.091443 -0.101176 -0.000000 -0.802337 0.596872
-0.065680 0.372764 -0.489537 -0.048162 0.818895 0.571919
0.010737 -0.246890 -0.338663 0.048183 0.801405 -0.596178
-0.244582 0.024743 -0.082930 -0.000073 0.222616 -0.973800
-0.024448 -0.240260 -0.300596 0.111381 -0.797344 0.593158
1.117800 -0.079992 -0.033028 0.000191 -0.907227 -0.417987
1.807461 -0.170834 0.251386 0.000000 0.802337 0.596872
1.423934 0.076236 0.080734 0.000000 0.802337 -0.596872
1.728168 0.028956 0.060669 0.000000 -0.802337 0.596872
-0.234437 0.164265 0.227145 -0.020756 -0.794405 0.607034
-0.084349 -0.102861 0.104652 0.005089 -0.813496 -0.580285
-0.311021 0.228743 0.303982 -0.048162 0.818895 -0.571919
-0.056875 -0.321624 0.439147 -0.020756 0.794405 0.607034
1.658726 0.055967 -0.053488 -0.147553 -0.590338 0.793554
-1.816826 0.085718 -0.006850 -0.084073 0.987645 -0.124253
-0.475886 0.072126 0.098310 -0.020756 -0.794405 0.607034
0.063648 -0.355709 -0.480665 0.048183 0.801405 -0.596178
0.055806 0.258889 -0.351150 0.048183 -0.801405 -0.596178
0.604355 -0.065066 -0.057062 0.000204 -0.723776 -0.688413
0.074687 0.465162 -0.626903 0.048183 -0.801405 -0.596178
-0.090065 0.086542 -0.000000 -0.000967 0.998902 -0.022438
0.955419 -0.028433 -0.081738 -0.000587 -0.384113 -0.922182
-0.206780 0.203382 0.258891 -0.048162 0.818895 -0.571919
-0.206263 0.085561 0.012999 -0.002004 0.984167 0.168532
-0.040456 -0.516782 -0.693623 -0.048162 -0.818895 0.571919
-0.090381 -0.165549 -0.194919 -0.048162 -0.818895 0.571919
0.105089 -0.008652 0.086109 -0.000124 -0.068116 0.996592
1.500206 0.079684 0.128860 -0.000000 -0.802337 0.596872
1.707117 -0.193625 -0.282023 -0.053607 0.736688 -0.669470
1.777023 -0.160861 -0.194489 -0.000000 -0.802337 0.596872
-1.441048 -0.086542 0.000000 0.001007 -0.996437 -0.069609
-0.230014 0.134735 0.162556 -0.048162 0.818895 -0.571919
-0.063480 0.184427 -0.259376 -0.020756 -0.794405 -0.607034
0.543261 0.086241 0.007210 0.000598 0.988887 0.140999
-0.025463 -0.171777 -0.240619 0.048183 0.801405 -0.596178
0.626156 0.027515 -0.082052 0.000026 0.327991 -0.943556
1.775013 0.206495 0.255833 0.000000 0.802337 -0.596872
1.654059 0.057656 -0.099248 0.000000 -0.802337 -0.596872
-1.822640 0.023067 0.082341 -0.078131 0.301048 0.948430
-0.032422 -0.073709 0.075215 0.111381 -0.797344 -0.593158
-0.059279 0.346122 0.471125 -0.020756 -0.794405 0.607034
-0.156615 -0.175322 0.214491 -0.048162 -0.818895 -0.571919
-1.000679 0.083179 -0.023893 -0.000111 0.936695 -0.345947
0.054391 -0.462415 0.624852 0.048183 0.801405 0.596178
1.563539 -0.053462 0.068055 -0.000033 -0.660860 0.749145
1.718705 0.179852 -0.220018 0.000000 0.802337 0.596872
-0.014484 -0.232914 0.321914 0.048183 0.801405 0.596178
-0.099188 -0.067180 0.104718 -0.020756 0.794405 0.607034
1.123206 -0.007616 -0.086207 0.000457 -0.123835 -0.991298
-0.157922 0.415893 -0.559059 -0.048162 0.818895 0.571919
0.895318 -0.039632 -0.076934 -0.000420 -0.492107 -0.869321
1.678196 0.085994 0.009727 0.000098 0.989735 0.133878
-0.073591 0.241037 0.333113 -0.020756 -0.794405 0.607034
1.877031 -0.261607 0.351661 0.328774 -0.751412 -0.572090
-1.246348 0.014181 0.085373 0.000475 0.210635 0.976461
0.412715 0.083091 0.024197 -0.000319 0.956569 0.287365
-0.321680 -0.119466 0.165535 -0.020756 0.794405 0.607034
0.856268 -0.066320 0.055599 0.000045 -0.800849 0.597040
1.695091 -0.166308 -0.201811 0.000000 -0.802337 0.596872
-1.366281 0.053741 -0.067835 0.000029 0.655977 -0.753314
-0.066033 0.159727 -0.184532 0.005089 0.813496 0.580285
-0.280964 0.054336 -0.067441 0.000000 -0.596872 0.802337
1.864476 -0.041390 -0.006760 1.000000 0.000000 -0.000000
0.015565 0.288931 0.373536 0.111381 0.797344 -0.593158
0.463390 0.086026 -0.009441 0.000924 0.993156 -0.110913
1.806162 -0.068402 0.113694 -0.000000 0.802337 0.596872
0.051322 0.116084 0.147902 0.111381 0.797344 -0.593158
0.038835 -0.085541 0.013129 -0.001085 -0.976266 0.210802
-0.028664 -0.316704 -0.406151 -0.048162 -0.818895 0.571919
-1.483734 -0.080328 -0.032202 -0.000079 -0.903649 -0.425738
1.146791 0.063378 -0.058931 0.000010 0.737750 -0.673458
0.062138 -0.147281 0.191870 0.111381 -0.797344 -0.593158
-0.969522 -0.079326 -0.034598 0.000044 -0.916824 -0.396530
-0.360332 0.054819 0.079612 -0.020756 -0.794405 0.607034
-1.801990 -0.056182 0.065928 -0.033833 -0.682109 0.728181
0.010559 -0.163290 -0.226299 0.048183 0.801405 -0.596178
-1.467346 0.059315 -0.063018 -0.000067 0.729918 -0.681914
0.020047 -0.426993 -0.559965 0.005089 -0.813496 0.580285
1.575235 -0.022732 -0.083503 -0.000588 -0.260793 -0.964232
-0.792418 0.028520 -0.081708 0.000062 0.355931 -0.933333
1.750428 0.142589 0.169929 -0.000000 0.802337 -0.596872
0.284200 0.061371 -0.061018 0.000028 0.741927 -0.668836
1.660896 -0.110678 -0.127032 -0.000000 -0.802337 0.596872
-0.116968 0.203248 -0.282178 -0.020756 -0.794405 -0.607034
1.655260 0.008622 -0.086112 0.001878 0.150135 -0.987384
-0.496497 -0.043935 0.074561 0.000008 -0.492675 0.868941
-0.532525 -0.043210 0.074983 0.000010 -0.442324 0.895624
1.434586 -0.124954 -0.146223 -0.106462 -0.895453 0.424973
-0.111992 -0.226672 -0.313001 -0.020756 0.794405 -0.607034
0.764895 -0.047697 -0.072212 0.000039 -0.604658 -0.795102
1.558284 -0.064589 -0.057601 -0.000059 -0.744757 -0.665685
1.708567 0.203051 -0.289257 -0.158567 -0.585668 -0.794890
-0.129129 -0.114120 0.124544 -0.048162 -0.818895 -0.571919
-0.757818 0.061668 0.060718 0.000588 0.697308 0.715178
-0.723147 -0.073733 0.045311 0.000309 -0.816397 0.575623
-1.618097 0.059792 -0.062566 -0.000602 0.720587 -0.691948
0.018699 0.083673 0.022102 -0.000042 0.963443 0.263992
-1.038857 0.043862 -0.074604 -0.000036 0.529763 -0.846842
0.805183 -0.081658 0.028662 -0.000015 -0.941932 0.332491
-1.782642 0.041882 -0.075733 0.003754 0.480589 -0.875765
-0.716989 0.027380 -0.082097 0.000033 0.378047 -0.924586
0.362107 0.039109 0.077201 -0.000019 0.445055 0.894273
-0.174297 0.267456 0.347900 -0.048162 0.818895 -0.571919
1.589050 -0.162438 0.196609 -0.000000 -0.802337 -0.596872
1.533115 -0.127649 0.149846 0.000000 -0.802337 -0.596872
1.660734 -0.166210 0.201681 0.000000 -0.802337 -0.596872
