2.200756 0.763949 0.332026 0.075235 -0.005886 -0.007327
2.800855 0.642615 0.388999 0.000000 0.552962 -0.000010
1.962367 0.311889 0.266007 -0.075132 -0.004730 0.005299
1.874896 0.241025 0.750855 -0.075132 -0.008703 -0.009704
1.676547 0.463396 0.572750 -0.075133 -0.008829 -0.009842
1.832393 0.888574 0.232209 -0.069919 -0.004658 -0.006422
2.059078 0.034537 0.916238 -0.075132 -0.006811 -0.007614
1.889064 0.952109 0.181322 -0.069917 -0.003942 -0.005438
1.804057 0.320443 0.687246 -0.075130 -0.005109 -0.005721
1.931568 0.177490 0.801742 -0.075131 -0.007190 -0.008033
1.804057 0.856807 0.687246 -0.069916 -0.001254 0.001733
1.959903 1.031527 0.117713 -0.069919 -0.006091 -0.008384
1.959903 0.145723 0.117713 -0.075132 -0.006433 0.007194
2.756013 0.490119 0.485652 0.000000 -0.990585 0.000004
1.634955 0.532634 0.390326 0.000000 -0.573824 -0.000005
0.084202 0.658472 0.465460 -0.448424 0.000056 -0.000004
2.307590 0.661875 0.405275 0.000000 0.739912 -0.000003
0.379369 0.499281 0.515991 -0.000000 -0.894696 0.000003
1.787990 0.373368 0.303184 -0.075132 -0.005865 0.006563
3.121219 0.300547 0.686251 0.000001 0.625138 0.000631
3.121219 0.860182 0.706879 -0.208602 0.002391 -0.002875
2.620016 0.688013 0.471985 0.000000 0.999924 -0.000000
0.558739 0.546903 0.382244 0.000000 -0.422357 -0.000015
0.334527 0.582936 0.571674 0.000000 -0.062294 0.000890
2.713376 0.584135 0.373167 0.000000 -0.024829 -0.000280
1.500428 0.686784 0.488027 -0.000000 0.986853 0.000001
2.016574 1.095062 0.066825 -0.069917 -0.004658 -0.006422
2.050864 1.074943 0.856688 -0.075133 0.004919 -0.005510
1.455585 0.677073 0.517794 -0.000000 0.895425 0.000003
2.157842 0.099747 0.076740 0.075234 0.004466 -0.005566
2.083378 0.626300 0.380481 0.000000 0.376895 -0.000017
2.707662 0.502313 0.524650 0.000000 -0.780510 0.000259
0.917477 0.638322 0.558527 -0.000000 0.510983 0.000006
0.827793 0.673753 0.421154 0.000000 0.859760 -0.000008
2.130426 0.588470 0.571839 0.000000 -0.025021 0.000073
2.148089 0.384099 0.630787 0.080855 -0.001251 -0.001562
3.035640 0.318028 0.680715 0.110979 0.005199 0.004517
3.035640 0.850961 0.691029 0.110980 0.003277 -0.006059
3.037564 0.590948 0.571814 0.000000 0.012311 0.000074
2.163694 0.916635 0.731313 0.080856 0.003872 -0.004829
2.005692 0.319627 0.667626 0.080855 -0.001157 -0.001444
1.882801 0.888778 0.237114 -0.075133 0.004730 0.005299
3.025067 0.644647 0.554550 -0.000001 0.573587 0.000159
1.735785 0.701433 0.389193 -0.075130 0.004415 0.004947
0.603581 0.654070 0.547251 0.000003 0.512289 0.000005
0.648423 0.629007 0.563264 -0.000000 0.399803 0.000016
1.818225 0.304559 0.244931 -0.075131 -0.005109 0.005721
0.962320 0.552133 0.564899 -0.000000 -0.376978 0.000017
2.797924 0.482136 0.540810 0.000000 0.625141 0.000789
2.843054 0.688680 0.569517 0.000000 0.625141 -0.001184
2.486959 0.642615 0.388999 0.000000 0.552834 -0.000005
2.059334 0.406478 0.341260 0.080856 -0.005477 0.006823
2.914440 0.775820 0.605451 0.110978 -0.005199 0.004517
0.289685 0.617402 0.377318 -0.000000 0.282728 -0.000047
2.262747 0.677865 0.516199 0.000000 0.895451 0.000014
1.096847 0.677693 0.428353 0.000001 0.894684 -0.000007
0.379369 0.682332 0.505567 -0.000000 0.943742 0.000005
2.486959 0.642744 0.555814 0.000000 0.552866 0.000021
0.424212 0.517339 0.541709 -0.000000 -0.724591 0.000007
1.545270 0.663097 0.406624 0.000000 0.741435 -0.000003
2.531801 0.665451 0.535499 -0.000000 0.773918 0.000011
1.007162 0.639920 0.557577 -0.000000 0.510414 0.000006
1.859166 0.636802 0.385519 0.000001 0.488759 -0.000025
0.827793 0.489610 0.463864 0.000001 -0.995502 -0.000001
2.711171 0.679347 0.513045 0.000001 0.915965 0.000006
3.016456 0.468393 0.585677 -0.000000 -0.625141 -0.001657
3.105371 0.541255 0.397060 0.279954 -0.000288 -0.000521
1.966679 0.768837 0.592459 -0.075132 0.005676 -0.006353
0.872635 0.516484 0.404087 -0.000000 -0.724415 -0.000007
1.096847 0.679471 0.512761 0.000001 0.916312 0.000012
2.038536 0.562303 0.568289 0.000000 -0.258980 0.000026
2.728340 0.685025 0.412169 0.110979 -0.005199 -0.004517
1.186531 0.543006 0.560752 0.000000 -0.467189 0.000026
2.980225 0.658190 0.401461 0.000000 0.706294 -0.000007
2.397274 0.549094 0.563636 -0.000000 -0.399834 0.000032
2.159792 0.897982 0.228931 0.080855 0.007932 0.009856
2.200756 1.115833 0.894709 0.075236 -0.007307 0.009080
1.455585 0.619691 0.566857 0.000001 0.306490 0.000086
3.016456 0.451871 0.379848 -0.000000 0.625141 -0.001657
3.016456 0.725378 0.565050 -0.000001 -0.625141 0.001657
1.590112 0.548846 0.563527 0.000000 -0.399840 0.000016
1.769482 0.567113 0.569481 0.000000 -0.210304 0.000065
2.038536 0.497903 0.431854 0.000001 -0.915703 -0.000006
0.962320 0.681833 0.506951 0.000001 0.931619 0.000003
0.034500 0.624995 0.472449 -0.649154 0.000009 0.000000
1.141689 0.518321 0.542698 0.000000 -0.707107 0.000002
0.128775 0.513217 0.426368 -0.274509 -0.000110 -0.000064
0.501399 0.586999 0.571823 0.000000 -0.012316 0.000018
1.096847 0.543696 0.561104 -0.000001 -0.368019 0.000004
2.913397 0.791321 0.301637 0.110980 0.003277 0.006059
1.993693 0.629785 0.381982 0.000001 0.422575 -0.000060
1.052004 0.495567 0.437549 -0.000000 -0.934861 -0.000003
1.455585 0.675309 0.423833 -0.000000 0.870975 -0.000004
0.827793 0.662941 0.538446 0.000000 0.741445 0.000013
0.872635 0.491568 0.493847 -0.000000 -0.977582 0.000003
1.186531 0.543558 0.383863 0.000000 -0.445057 -0.000028
0.247048 0.586302 0.571814 0.000000 -0.013086 0.000017
2.126631 0.244771 0.204748 0.080856 -0.007743 0.009624
2.845698 0.676584 0.518718 0.000000 0.882114 0.000004
1.410743 0.603974 0.374253 0.000001 0.160563 -0.000043
1.410743 0.516484 0.404087 0.000000 -0.724461 -0.000026
1.545270 0.546061 0.382636 0.000000 -0.422612 -0.000060
1.455585 0.571977 0.374465 0.000000 -0.161340 -0.000170
0.782950 0.542698 0.384309 -0.000001 -0.463254 -0.000013
2.041778 0.312930 0.236268 0.075234 0.001243 -0.001552
2.217905 0.522082 0.546271 -0.000002 -0.667019 0.000015
1.186531 0.630627 0.382375 0.000000 0.422422 -0.000004
1.988239 0.907880 0.714163 -0.075131 0.004352 -0.004876
2.651443 0.696051 0.386407 0.110979 0.001591 0.002941
1.007162 0.683603 0.443152 0.000000 0.959166 -0.000002
1.096847 0.510916 0.410478 0.000000 -0.789559 -0.000011
2.852143 0.793968 0.636916 0.110979 0.003181 -0.005881
2.972562 0.852719 0.260927 0.110978 0.003181 0.005881
2.731723 0.735218 0.355037 0.110980 0.003181 0.005881
2.771863 0.422448 0.339352 0.110978 -0.003181 0.005881
2.932422 0.344114 0.668287 0.110980 -0.003181 -0.005881
2.932422 0.833135 0.668287 0.110980 0.003181 -0.005881
2.912353 0.353906 0.284454 0.110980 -0.003277 0.006059
0.603581 0.498927 0.429640 0.000000 -0.906306 -0.000013
1.904009 0.660258 0.403554 -0.000001 0.723802 -0.000013
1.966833 0.826446 0.643770 -0.075128 0.002554 -0.002865
2.531801 0.500039 0.517516 -0.000001 -0.894681 0.000007
0.469054 0.644996 0.554306 -0.000000 0.573169 0.000020
1.679797 0.687629 0.481150 0.000001 0.977062 0.000000
0.917477 0.670393 0.415951 -0.000001 0.818998 -0.000019
2.756013 0.546061 0.382636 0.000000 -0.422422 -0.000007
0.782950 0.637038 0.559247 0.000001 0.488944 0.000050
2.070063 0.894155 0.703576 0.080856 0.004249 -0.005298
0.244842 0.674663 0.522213 0.000002 0.630606 0.000001
2.307590 0.546903 0.562655 0.000000 -0.422569 0.000030
1.545270 0.648141 0.552047 0.000000 0.593872 0.000038
2.038536 0.494110 0.503183 0.000000 -0.951339 0.000002
3.069909 0.687525 0.482346 0.279980 0.000156 0.000018
2.262747 0.679316 0.431783 -0.000001 0.914164 -0.000003
1.835626 0.699621 0.400882 -0.075132 0.007946 0.008870
1.634955 0.679223 0.513329 -0.000001 0.916466 0.000024
2.262747 0.491446 0.493279 -0.000000 -0.977360 0.000001
0.917477 0.497531 0.432705 0.000000 -0.916560 -0.000012
2.953093 0.488569 0.375381 0.000000 -0.625141 0.000592
2.954895 0.749210 0.617998 0.000000 0.625141 -0.000592
0.379369 0.657128 0.400442 0.000000 0.689235 -0.000015
2.167595 0.974387 0.777973 0.080856 0.003211 -0.004006
2.397274 0.647237 0.552714 0.000001 0.593338 0.000019
1.500428 0.498501 0.514346 0.000000 -0.906399 0.000003
1.993693 0.626372 0.564389 0.000000 0.376629 0.000017
0.334527 0.677073 0.427105 0.000000 0.884199 -0.000002
2.666328 0.633900 0.383967 0.000000 0.445056 -0.000007
0.738108 0.557411 0.378088 0.000001 -0.305521 -0.000022
2.217905 0.537696 0.387103 0.000001 -0.510365 -0.000023
2.397274 0.666738 0.410998 0.000000 0.789352 -0.000003
0.084202 0.519821 0.486358 -0.448425 -0.000055 0.000010
0.424212 0.672283 0.418786 0.000000 0.846726 -0.000017
1.871816 0.305292 0.693907 -0.075130 -0.002554 -0.002865
2.036902 0.928651 0.217140 -0.075131 0.003973 0.004454
2.101273 0.984769 0.799352 0.075233 -0.003451 0.004304
1.096847 0.638854 0.558210 -0.000001 0.510662 0.000047
2.442116 0.501009 0.519368 0.000000 -0.882114 0.000004
1.679797 0.636633 0.559474 0.000000 0.489191 0.000050
2.173063 0.500684 0.518752 -0.000001 -0.883853 0.000015
1.634955 0.578728 0.571349 -0.000001 -0.111927 0.000493
0.379369 0.646895 0.552967 0.000001 0.592194 0.000009
2.890540 0.654737 0.398237 -0.000000 0.670849 -0.000008
0.693266 0.500792 0.425941 0.000000 -0.884102 -0.000007
1.365901 0.544875 0.383209 0.000000 -0.443395 -0.000007
1.966833 0.368846 0.278602 -0.069918 0.001254 -0.001733
1.993693 0.687036 0.486342 0.000001 0.973332 0.000000
2.576643 0.637207 0.559152 0.000000 0.489169 0.000050
2.018730 0.958210 0.779211 -0.069917 -0.003583 0.004944
1.321058 0.498976 0.515364 -0.000000 -0.906088 0.000006
0.037555 0.593472 0.511125 -0.631203 0.000003 0.000021
1.276216 0.633137 0.383588 -0.000000 0.445365 -0.000007
2.576643 0.490410 0.457215 -0.000000 -0.986709 -0.000002
0.693266 0.639587 0.557775 -0.000001 0.510133 0.000023
1.276216 0.544112 0.383588 0.000000 -0.444750 -0.000003
0.513896 0.683033 0.441383 -0.000001 0.950473 -0.000009
0.469054 0.649862 0.394170 0.000000 0.613410 -0.000018
1.276216 0.548597 0.563419 -0.000000 -0.399803 0.000016
0.424212 0.516885 0.403666 -0.000001 -0.720732 -0.000007
2.072835 0.072867 0.889687 -0.069917 0.008599 0.011793
1.948851 0.548917 0.381340 -0.000000 -0.399889 -0.000032
0.379369 0.545499 0.382898 0.000000 -0.445056 -0.000007
1.859166 0.561408 0.568041 0.000000 -0.282896 0.000024
2.173447 0.687137 0.396385 0.080857 0.002644 0.003300
2.083378 0.679811 0.432918 0.000000 0.915718 -0.000003
1.724639 0.681312 0.508327 -0.000001 0.934753 0.000005
1.365901 0.672613 0.419310 0.000000 0.846399 -0.000009
1.814324 0.498027 0.513329 0.000000 -0.916537 0.000003
2.666328 0.524383 0.396612 0.000000 -0.652232 -0.000032
1.724639 0.604509 0.570558 -0.000001 0.158105 0.000022
2.200756 0.296006 0.238080 0.075235 0.004263 -0.005313
3.040565 0.700157 0.400049 0.000000 -0.625140 -0.000395
1.662379 0.697970 0.560028 -0.069918 -0.008360 0.011470
1.814324 0.596361 0.571538 0.000000 0.086959 0.000080
2.621486 0.677383 0.517170 0.000001 0.895043 0.000014
1.999121 0.187346 0.158754 -0.075132 -0.007189 0.008033
2.172472 0.425457 0.605870 0.075236 0.002943 0.003672
1.007162 0.499591 0.428284 0.000000 -0.894686 -0.000003
2.128220 0.496408 0.435383 -0.000000 -0.926083 -0.000006
0.200000 0.683603 0.501746 -0.028864 0.000661 0.000195
3.028318 0.788430 0.615551 -0.000001 -0.625135 0.000474
3.028318 0.405341 0.636178 0.000001 -0.625139 -0.000474
3.025067 0.500448 0.426591 0.000001 -0.883804 -0.000015
1.788589 0.442896 0.579708 -0.075131 -0.002207 -0.002477
1.679797 0.541637 0.560028 0.000001 -0.467136 0.000053
1.859166 0.649404 0.551085 0.000001 0.601742 0.000005
1.231374 0.680593 0.434774 0.000000 0.926236 -0.000006
1.747386 0.383977 0.636359 -0.075132 -0.005865 -0.006563
1.841461 0.723806 0.564975 -0.075133 0.007946 -0.008870
1.545270 0.684765 0.447250 0.000000 0.965866 -0.000004
2.217905 0.629715 0.562949 0.000001 0.419507 0.000015
2.038536 0.611834 0.569088 -0.000001 0.234182 0.000058
2.048606 0.490994 0.565353 0.075233 0.003958 0.004935
0.603581 0.504369 0.525162 -0.000001 -0.846626 0.000035
1.841461 0.468272 0.583489 -0.069917 0.007525 0.010337
1.069647 0.589941 0.373088 -0.000003 0.007857 -0.000116
2.128220 0.634141 0.384092 -0.000000 0.467336 -0.000026
1.634955 0.498027 0.431570 -0.000000 -0.916562 -0.000024
0.558739 0.632860 0.383450 0.000000 0.444903 -0.000014
2.749018 0.498658 0.383461 -0.000001 -0.625139 0.000789
2.397274 0.678274 0.515364 -0.000001 0.904332 0.000006
0.962320 0.649067 0.393552 0.000001 0.613041 -0.000036
2.217905 0.634483 0.384273 0.000000 0.466644 -0.000013
2.062260 0.700455 0.547624 0.080857 0.007365 -0.009158
1.883109 0.406377 0.342192 -0.075132 -0.001466 0.001646
2.756013 0.635647 0.384888 0.000000 0.467260 -0.000053
0.872635 0.631224 0.562245 0.000001 0.416210 0.000008
2.095421 0.374447 0.633045 0.080855 -0.001251 -0.001562
2.442116 0.551882 0.380101 0.000001 -0.372112 -0.000009
2.038536 0.679858 0.511873 -0.000000 0.916595 0.000006
0.693266 0.684504 0.446277 -0.000001 0.965673 -0.000007
0.648423 0.667617 0.412129 0.000001 0.786837 -0.000005
0.200000 0.550017 0.380860 -0.028866 -0.000276 -0.000632
1.141689 0.495704 0.437187 0.000000 -0.935215 -0.000005
1.769482 0.495225 0.506444 0.000000 -0.943873 0.000005
2.060310 0.209074 0.154877 0.075235 0.007510 -0.009330
2.890540 0.650716 0.550060 -0.000000 0.633110 0.000034
0.160035 0.576720 0.377453 -0.152868 -0.000037 -0.000248
1.321058 0.497485 0.432812 0.000001 -0.913524 -0.000003
1.814324 0.545640 0.382833 -0.000000 -0.422726 -0.000015
0.962320 0.536864 0.387598 -0.000001 -0.503922 -0.000006
0.077138 0.593585 0.406264 -0.476050 0.000005 -0.000052
0.558739 0.531112 0.553506 0.000000 -0.573566 0.000005
1.948851 0.635750 0.384942 -0.000001 0.466823 -0.000026
1.500428 0.669660 0.529994 0.000001 0.814737 0.000005
2.576643 0.551487 0.380262 0.000000 -0.376912 -0.000034
2.756013 0.631750 0.562000 -0.000000 0.445056 0.000007
2.935382 0.495485 0.507132 -0.000000 -0.935341 0.000021
1.859166 0.686386 0.490355 0.000000 0.982499 0.000005
2.890540 0.533667 0.389641 0.000000 -0.552945 -0.000021
2.756013 0.551953 0.564826 0.000001 -0.376620 0.000034
2.980225 0.549023 0.563605 -0.000001 -0.399726 0.000064
1.919042 0.304151 0.254741 -0.075132 -0.002365 0.002653
2.811051 0.725378 0.379848 0.110980 -0.005199 -0.004517
1.724639 0.501226 0.519779 -0.000000 -0.882407 0.000004
1.848306 0.379563 0.648286 -0.069917 0.001344 0.001856
2.890540 0.684304 0.445529 0.000000 0.965979 -0.000002
1.886531 0.481749 0.409690 -0.075134 -0.002523 0.002830
0.513896 0.496233 0.509085 0.000001 -0.898578 0.000001
1.958876 0.449844 0.337913 0.075235 0.005277 -0.006573
3.083509 0.392730 0.646278 -0.000001 -0.625139 -0.000631
1.449704 0.489239 0.472759 0.000000 -0.999687 0.000000
1.141689 0.681031 0.509049 -0.000000 0.926177 0.000003
0.289685 0.489494 0.465253 -0.000000 -0.998054 -0.000000
1.993693 0.492545 0.497873 0.000001 -0.905890 0.000000
1.231374 0.498894 0.429710 -0.000000 -0.906145 -0.000003
0.558739 0.628936 0.563295 -0.000001 0.398888 0.000032
1.321058 0.628759 0.563372 -0.000001 0.398468 0.000016
0.513896 0.669726 0.529899 -0.000000 0.818880 0.000005
1.634955 0.501941 0.521065 -0.000001 -0.816871 0.000001
2.711171 0.498158 0.431289 0.000000 -0.906284 -0.000006
1.500428 0.501714 0.424238 0.000000 -0.872171 -0.000004
0.917477 0.671433 0.527407 0.000001 0.832804 0.000018
1.859166 0.530480 0.391839 0.000000 -0.593763 -0.000009
1.141689 0.608774 0.569775 0.000000 0.210528 0.000032
1.052004 0.630417 0.382276 -0.000000 0.422597 -0.000060
2.666328 0.549378 0.563760 -0.000000 -0.399916 0.000127
0.289685 0.522857 0.546973 0.000000 -0.670993 0.000061
2.217905 0.489742 0.462399 -0.000001 -0.989246 -0.000001
3.119163 0.692710 0.401088 -0.208601 -0.002728 -0.003538
3.119163 0.496254 0.558436 -0.208600 -0.002857 -0.003435
0.738108 0.677762 0.516407 0.000001 0.847885 0.000001
0.470524 0.687998 0.474153 -0.000000 0.999924 0.000000
1.052004 0.523297 0.547352 0.000001 -0.642864 0.000008
1.231374 0.499746 0.516927 -0.000000 -0.894686 0.000003
0.347024 0.687994 0.474462 -0.000000 0.999924 0.000000
0.106064 0.641776 0.412222 -0.363047 0.000058 -0.000063
0.603581 0.681312 0.436571 -0.000001 0.934433 -0.000011
2.980225 0.635681 0.559992 -0.000000 0.467141 0.000026
2.004716 0.790646 0.331018 0.080857 0.002502 0.003123
2.989772 0.688680 0.569517 0.000000 0.625141 -0.000592
2.075915 1.017436 0.141974 -0.075133 0.006054 0.006774
1.990086 0.674419 0.383369 0.075235 -0.002639 -0.003293
1.777364 0.791969 0.632173 -0.075131 0.001466 -0.001646
2.845698 0.496233 0.509085 -0.000000 -0.923717 0.000001
2.980225 0.620354 0.378256 -0.000000 0.329386 -0.000010
1.935776 0.364224 0.309951 -0.075132 -0.002649 0.002971
2.933316 0.708857 0.359221 -0.000000 0.625140 0.000987
3.105371 0.664014 0.519819 0.279955 0.000521 0.000288
2.088594 0.446170 0.597389 0.075236 0.007002 0.008705
2.200756 0.080966 0.065847 0.075234 0.007307 -0.009080
2.119804 0.391636 0.306848 0.075235 0.002689 -0.003356
1.937932 0.744240 0.327541 -0.069915 -0.002688 -0.003711
2.980225 0.682101 0.438674 0.000001 0.938654 -0.000002
0.661655 0.489233 0.472604 0.000000 -0.999922 0.000000
0.167975 0.624051 0.562714 -0.122009 0.000123 0.000291
2.375956 0.588470 0.571841 0.000000 -0.012696 0.000144
2.158360 0.590483 0.373102 0.000000 0.025011 -0.000018
2.880635 0.735467 0.371768 0.000000 -0.625140 -0.000395
1.896969 0.899889 0.726466 -0.069917 -0.004300 0.005930
1.410743 0.631048 0.562327 -0.000001 0.417010 0.000008
1.679797 0.653688 0.397319 0.000000 0.652216 -0.000016
0.872635 0.687360 0.483808 0.000001 0.992321 0.000002
1.984953 0.974020 0.171476 -0.075132 0.007190 0.008033
2.038536 0.675763 0.424643 0.000000 0.872217 -0.000008
3.153192 0.236405 0.754555 0.110980 -0.003181 -0.005881
3.153192 0.940844 0.754555 0.110980 0.003181 -0.005881
0.738108 0.494662 0.440063 0.000000 -0.943778 -0.000005
2.144187 0.749411 0.606697 0.075233 -0.001472 0.001837
3.028318 0.771909 0.308720 -0.000000 0.625140 0.000474
2.800855 0.547044 0.562720 0.000000 -0.422483 0.000030
0.244842 0.543835 0.561173 0.000000 -0.445057 0.000056
2.007026 0.234793 0.743074 -0.075131 -0.003973 -0.004454
3.069824 0.411518 0.347528 -0.000001 0.625140 -0.000474
0.334527 0.500575 0.426351 -0.000000 -0.884108 -0.000029
1.820860 0.742891 0.338646 -0.069918 -0.007524 -0.010337
1.007162 0.499212 0.515852 0.000000 -0.895502 0.000007
0.513896 0.495321 0.438201 -0.000000 -0.933947 -0.000001
1.686413 0.489237 0.472217 0.000000 -0.999687 -0.000000
2.173063 0.514309 0.406452 -0.000000 -0.741297 -0.000013
2.546504 0.585683 0.571770 0.000010 -0.001002 0.000454
2.965319 0.472048 0.548890 0.000000 0.625140 0.001184
2.061285 0.401028 0.636184 0.075236 0.002689 0.003356
2.890540 0.684304 0.499369 0.000000 0.965979 0.000002
1.948851 0.686534 0.455342 -0.000001 0.966940 -0.000001
0.513896 0.555727 0.378666 0.000000 -0.330238 -0.000079
2.178324 0.829218 0.277581 0.075236 -0.001167 -0.001457
2.174422 0.362179 0.288535 0.075235 0.002740 -0.003419
0.603581 0.679749 0.512122 -0.000000 0.916457 0.000012
2.935382 0.680520 0.434594 -0.000000 0.926197 -0.000011
2.175398 1.031242 0.824322 0.080859 0.002738 -0.003417
2.003741 0.738598 0.611613 0.075233 -0.007003 0.008706
1.590112 0.622728 0.565808 -0.000001 0.349638 0.000019
2.117854 0.789098 0.624399 0.080855 0.001251 -0.001562
2.852143 0.383281 0.307982 0.110979 -0.003181 0.005881
0.782950 0.547994 0.563156 -0.000001 -0.398376 0.000032
2.500926 0.489304 0.475391 0.000000 -0.999687 0.000000
1.545270 0.550662 0.564301 -0.000001 -0.375520 0.000034
1.996041 0.264023 0.200207 -0.069919 0.007883 -0.010823
2.621486 0.626013 0.380364 0.000000 0.376916 -0.000068
2.666328 0.495046 0.505932 -0.000001 -0.936987 0.000002
3.082394 0.774431 0.306700 0.000001 0.625137 0.000474
3.054724 0.371165 0.315208 0.000000 0.625140 -0.000631
1.455585 0.532254 0.390593 -0.000000 -0.573507 -0.000040
2.055433 0.261408 0.719425 0.080857 -0.002125 -0.002652
2.054458 0.328384 0.665680 0.080857 -0.001157 -0.001444
1.904009 0.680652 0.509981 -0.000000 0.925694 0.000006
2.138335 1.153383 0.014080 0.075235 -0.006901 -0.008580
2.128220 0.681381 0.508146 0.000000 0.935289 0.000003
3.123102 0.536341 0.538011 0.279959 -0.000397 0.000444
1.186531 0.645948 0.553639 -0.000001 0.553883 0.000005
3.069909 0.528610 0.551679 0.280346 -0.000096 0.000124
2.087003 1.124467 0.897165 -0.075131 0.008325 -0.009287
2.145163 0.731510 0.363786 0.080856 0.006516 0.008109
2.050864 0.102307 0.856688 -0.075132 -0.004919 -0.005510
1.974481 0.412803 0.309754 0.075236 0.001472 -0.001837
2.872649 0.405809 0.627338 0.110979 -0.003278 -0.006059
0.782950 0.683128 0.441678 0.000000 0.951801 -0.000009
2.052507 0.949655 0.168957 0.075234 -0.003857 -0.004809
1.973352 0.295069 0.692769 -0.075132 -0.004541 -0.005088
2.037518 0.993933 0.806692 -0.069916 -0.003225 0.004451
0.872635 0.551667 0.380189 0.000001 -0.376590 -0.000068
2.954895 0.411518 0.597370 0.000000 0.625141 0.000592
0.050171 0.541212 0.460376 -0.581674 -0.000029 -0.000008
2.013494 0.857051 0.705543 0.075234 -0.004973 0.006195
2.060310 0.209074 0.790021 0.075235 0.007510 0.009330
3.123102 0.654187 0.420165 0.279959 0.000486 -0.000345
2.769696 0.705202 0.548890 0.110981 -0.005199 0.004517
2.118829 0.914722 0.219781 0.080856 0.007743 0.009624
2.174422 0.359602 0.653145 0.080856 -0.002550 -0.003182
2.307590 0.681573 0.507639 -0.000002 0.933445 0.000011
1.814324 0.679223 0.431570 0.000000 0.916457 -0.000002
0.808680 0.586457 0.571789 0.000000 -0.025011 0.000018
3.110064 0.401430 0.339448 -0.000001 0.625140 -0.000947
2.165644 1.119009 0.051294 0.080855 0.007932 0.009856
2.200756 0.041868 0.034532 0.075235 0.005683 -0.007076
2.999338 0.489347 0.477094 0.000000 -0.999687 0.000000
3.158564 0.661008 0.485212 0.278308 0.000134 0.000026
2.145163 0.445740 0.581113 0.080855 -0.006516 -0.008109
1.922122 0.239884 0.747106 -0.075132 -0.004352 -0.004876
3.038508 0.836350 0.290967 0.110980 -0.005199 -0.004517
2.060310 0.733586 0.602130 0.075235 -0.007002 0.008705
2.044704 0.230842 0.202107 0.080856 -0.007743 0.009624
2.621486 0.496394 0.435419 0.000000 -0.926017 -0.000006
3.087640 0.495002 0.461900 0.287637 -0.000642 -0.000109
2.089569 0.707737 0.366300 0.075236 -0.007002 -0.008705
2.888185 0.478481 0.367301 0.000000 -0.625141 0.000395
2.953093 0.705202 0.548890 0.000000 -0.625141 0.000592
1.980333 0.409105 0.351574 0.080857 -0.002455 0.003064
1.997889 0.484310 0.369289 0.075233 0.002639 -0.003293
0.693266 0.550555 0.564257 -0.000000 -0.376629 0.000017
1.769482 0.494547 0.440391 0.000000 -0.943884 -0.000010
1.545270 0.629433 0.381820 0.000000 0.399809 -0.000008
0.424212 0.552133 0.564899 0.000000 -0.376629 0.000017
2.083378 0.642223 0.556149 0.000000 0.532487 0.000003
1.321058 0.682204 0.438966 -0.000000 0.943856 -0.000010
2.307590 0.623235 0.565616 -0.000000 0.353716 0.000018
0.827793 0.502017 0.423698 -0.000001 -0.871208 -0.000008
2.980225 0.551093 0.380422 -0.000000 -0.376897 -0.000068
0.962320 0.618511 0.567237 -0.000001 0.306311 0.000086
1.904009 0.578574 0.373566 0.000000 -0.111994 -0.000062
1.007162 0.670348 0.529011 0.000001 0.814737 0.000005
2.352432 0.499350 0.516129 0.000000 -0.895655 0.000002
0.648423 0.685345 0.495319 0.000001 0.746661 0.000001
1.990086 0.418676 0.586672 0.080857 -0.002455 -0.003064
2.200756 0.296006 0.706818 0.075235 0.008524 0.010576
3.139247 0.292006 0.222179 -0.208602 -0.002391 0.002875
2.159792 0.269493 0.221102 0.080856 -0.003872 0.004829
0.558739 0.513697 0.407151 0.000001 -0.753905 -0.000006
0.782950 0.627375 0.380922 0.000001 0.399425 -0.000032
2.073964 0.274217 0.233806 0.080855 -0.004250 0.005298
0.816031 0.586612 0.373105 0.000000 -0.025011 -0.000009
0.424212 0.495097 0.438820 0.000000 -0.943856 -0.000010
2.800855 0.495554 0.437585 -0.000000 -0.935259 -0.000005
1.821510 0.800631 0.648098 -0.069920 -0.001344 0.001856
2.044704 0.931134 0.761862 0.075236 -0.008321 0.010327
1.321058 0.625798 0.380276 -0.000001 0.376679 -0.000034
1.999942 0.922487 0.751731 -0.069919 -0.003941 0.005437
0.289685 0.681970 0.506589 0.000000 0.926864 0.000001
1.186531 0.663654 0.407269 -0.000001 0.757257 -0.000012
0.334527 0.543178 0.560843 0.000001 -0.452236 0.000007
2.031050 0.408040 0.311407 0.075234 0.002943 -0.003672
2.010568 0.391901 0.648397 0.075235 0.005379 0.006699
2.103224 0.840109 0.281163 0.080857 0.001157 0.001444
1.970580 0.714181 0.395809 0.080853 0.002455 0.003064
2.134434 0.213956 0.778946 0.075234 0.006901 0.008580
1.958261 0.986890 0.787582 -0.075133 0.003595 -0.004030
1.972428 1.002774 0.144594 -0.075133 0.003595 0.004030
1.972428 0.174476 0.800304 -0.075133 -0.003595 -0.004030
2.200756 0.198261 0.159792 0.075234 0.003045 -0.003798
2.021297 0.684968 0.566961 0.075234 -0.002639 0.003293
1.976432 0.503474 0.562334 0.075233 0.002639 0.003293
2.967122 0.411518 0.347528 0.000000 0.625141 -0.000592
1.841461 0.453444 0.379924 -0.075132 -0.007946 0.008870
1.904009 0.549733 0.563914 0.000000 -0.399880 0.000032
0.441119 0.592728 0.373158 0.000010 0.000623 -0.000366
1.932440 0.735639 0.610657 -0.069917 -0.002777 0.003834
2.083378 0.496019 0.508545 -0.000000 -0.933620 0.000003
0.872635 0.544945 0.561724 0.000001 -0.445031 0.000056
1.764336 0.688011 0.472140 0.000000 0.999687 -0.000000
0.907186 0.489234 0.472217 0.000000 -0.999924 -0.000000
2.442116 0.623271 0.379296 -0.000000 0.353773 -0.000018
2.901313 0.745555 0.581210 -0.000001 -0.625138 0.000395
2.769696 0.488569 0.569517 -0.000001 -0.625140 -0.000395
2.173063 0.526898 0.550349 0.000000 -0.613652 0.000018
2.611304 0.500782 0.542806 0.110979 -0.003181 -0.005881
2.709657 0.485329 0.563648 0.110979 -0.003277 -0.006059
1.545270 0.494637 0.504763 0.000000 -0.943872 0.000005
0.917477 0.521020 0.399588 0.000000 -0.689376 -0.000004
0.917477 0.596053 0.373333 0.000000 0.087153 -0.000079
1.634955 0.677073 0.427105 0.000000 0.884517 -0.000001
1.953178 0.795371 0.327436 -0.075133 0.001372 0.001539
1.993693 0.540819 0.559587 -0.000000 -0.489075 0.000050
1.186531 0.687377 0.483654 0.000001 0.976249 0.000000
1.724639 0.495882 0.436716 0.000000 -0.935337 -0.000005
1.711316 0.476971 0.387752 -0.075132 -0.008829 0.009842
1.379868 0.489281 0.474462 0.000000 -0.999687 0.000000
1.769482 0.651135 0.549717 -0.000000 0.633168 0.000034
2.978447 0.735467 0.371768 -0.000000 -0.625140 -0.000592
3.027781 0.498658 0.561437 -0.000001 -0.625141 -0.001657
2.831729 0.458304 0.351141 0.000000 -0.625140 0.001184
3.016456 0.708857 0.359221 0.000000 0.625140 0.001657
1.490871 0.591567 0.373129 0.000000 0.024829 -0.000280
2.442116 0.680477 0.434487 0.000000 0.926026 -0.000003
2.666328 0.633380 0.561190 -0.000000 0.444956 0.000028
0.532274 0.489248 0.473843 0.000000 -0.999922 0.000000
2.397274 0.512338 0.408740 0.000000 -0.773707 -0.000011
3.043140 0.431695 0.581210 0.000000 0.625140 0.001657
2.978447 0.735467 0.573130 0.000000 -0.625141 0.001184
2.967122 0.749210 0.326900 0.000000 0.625141 0.000592
3.043140 0.448216 0.343061 0.000000 -0.625140 0.001657
3.043140 0.729034 0.601838 0.000000 0.625140 -0.001657
2.993805 0.785908 0.331368 0.000000 -0.625139 -0.000474
0.106064 0.555587 0.545668 -0.363048 -0.000036 0.000074
1.964882 0.373477 0.662777 -0.069917 0.001254 0.001733
2.307590 0.682447 0.439661 0.000000 0.943780 -0.000010
2.117854 0.472019 0.371041 0.075235 0.007002 -0.008705
0.724876 0.585993 0.571777 0.000000 -0.024627 0.000037
2.442116 0.623706 0.565438 0.000001 0.353300 0.000037
1.186531 0.512289 0.408800 0.000000 -0.774009 -0.000011
2.352432 0.496102 0.436136 0.000000 -0.935369 -0.000003
3.056318 0.316200 0.245789 0.110980 -0.003277 0.006059
0.447000 0.489241 0.471675 -0.000005 -0.178815 -0.000000
2.032025 0.441158 0.606871 0.075236 0.007002 0.008705
1.141689 0.682050 0.438528 0.000000 0.943924 -0.000001
1.900169 0.737443 0.571200 -0.075132 0.007946 -0.008870
2.397274 0.636262 0.385216 0.000000 0.488003 -0.000012
1.900169 0.439807 0.373698 -0.075132 -0.007946 0.008870
1.886531 0.695501 0.409690 -0.075131 0.002523 0.002830
1.873732 0.742717 0.366331 -0.075131 0.007946 0.008870
1.894334 0.484739 0.576145 -0.069913 0.001195 0.001650
0.963055 0.687899 0.467650 0.000000 0.999687 -0.000000
1.829792 0.519634 0.545306 -0.069915 0.002389 0.003299
1.590112 0.495110 0.438783 0.000000 -0.943884 -0.000005
1.900169 0.718191 0.349661 -0.069918 -0.007524 -0.010337
2.769980 0.687934 0.469043 0.000000 0.999687 -0.000000
0.379369 0.492268 0.448074 0.000000 -0.972058 -0.000001
1.096847 0.491495 0.493506 -0.000000 -0.977631 0.000006
1.997889 0.337384 0.292306 0.080855 -0.004627 0.005768
0.693266 0.495252 0.506516 -0.000000 -0.934456 0.000001
2.397274 0.516565 0.540896 0.000001 -0.700233 0.000003
1.997889 0.357240 0.677384 0.075235 0.004973 0.006195
1.977253 0.877504 0.227688 -0.069917 -0.004300 -0.005930
1.794424 0.751125 0.609924 -0.069918 -0.007524 0.010337
2.114928 0.079429 0.056319 0.075234 0.004466 -0.005566
2.128220 0.681600 0.437332 0.000000 0.935031 -0.000003
0.160035 0.680111 0.500669 -0.152871 0.000239 0.000067
1.940790 0.440064 0.566872 -0.075132 -0.002523 -0.002830
3.069909 0.608319 0.375026 0.283263 0.000029 -0.000152
2.094805 1.138787 0.028410 -0.069917 -0.007166 -0.009850
1.993693 0.554630 0.379049 0.000000 -0.353737 -0.000009
1.962983 0.932361 0.189219 -0.069917 -0.003942 -0.005437
1.962983 0.244889 0.189219 -0.069918 0.007883 -0.010823
3.105602 0.735467 0.371768 -0.208602 -0.002344 -0.003040
3.137544 0.445388 0.349261 -0.208602 -0.002454 0.002951
2.031050 0.769210 0.633491 0.075233 -0.002943 0.003672
2.486959 0.606303 0.570254 -0.000002 0.166434 0.000020
1.410743 0.684118 0.444898 -0.000000 0.959134 -0.000008
0.469054 0.609076 0.569709 0.000001 0.209712 0.000065
1.914901 0.705534 0.541284 -0.075134 0.002523 -0.002830
1.375457 0.585683 0.373129 0.000000 -0.025021 -0.000277
1.974071 1.047411 0.839908 -0.069919 -0.002867 0.003957
3.116757 0.836350 0.290967 -0.208601 -0.002344 -0.003040
0.603581 0.623054 0.379214 -0.000001 0.353603 -0.000073
3.110064 0.759299 0.626078 -0.208601 0.002454 -0.002951
1.410743 0.683921 0.500669 -0.000001 0.957118 0.000004
1.590112 0.680696 0.509874 -0.000001 0.906434 0.000001
2.993805 0.769387 0.634158 0.000000 0.625142 -0.000474
2.993805 0.391342 0.613531 -0.000001 0.625138 0.000474
1.141689 0.554630 0.379049 0.000000 -0.353716 -0.000073
2.083378 0.497098 0.433699 0.000000 -0.916568 -0.000003
1.063031 0.489281 0.474462 0.000000 -0.999687 0.000000
1.947275 0.211189 0.778711 -0.069919 0.003583 0.004944
2.075915 1.017436 0.802925 -0.075132 0.006054 -0.006774
1.890193 0.764018 0.317357 -0.069918 -0.002687 -0.003710
1.956202 0.589631 0.571818 0.000010 0.000976 0.000467
3.112295 0.381253 0.621611 -0.000002 0.625138 0.000631
1.724639 0.550088 0.380831 0.000000 -0.376893 -0.000009
2.856725 0.489335 0.468269 -0.000000 -0.999692 -0.000000
2.013494 0.320199 0.705543 0.075234 0.004973 0.006195
1.859166 0.666382 0.410539 0.000001 0.727749 -0.000003
2.621486 0.612473 0.568933 -0.000000 0.234493 0.000058
2.013494 0.301870 0.262239 0.080855 -0.004627 0.005768
1.052004 0.555982 0.378576 -0.000001 -0.263016 -0.000006
1.904009 0.623416 0.565548 -0.000001 0.352009 0.000018
1.957080 0.373000 0.624978 -0.075132 -0.002649 -0.002971
2.117854 0.472019 0.573857 0.075236 0.007002 0.008705
3.107833 0.438128 0.609918 0.000001 -0.625139 -0.000474
0.635191 0.592031 0.373140 0.000000 0.025011 -0.000018
0.648423 0.523738 0.547731 -0.000000 -0.652264 0.000032
2.442116 0.679688 0.512264 -0.000000 0.916497 0.000006
2.871282 0.482136 0.404089 0.000000 0.625141 -0.000395
2.005692 0.711461 0.355209 0.075235 -0.005277 -0.006573
2.420063 0.489295 0.475004 0.000001 -0.814338 0.000000
2.025814 0.977035 0.172914 -0.075132 0.003595 0.004030
2.059078 0.034537 0.028660 -0.075132 -0.006811 0.007614
2.262747 0.506591 0.528567 0.000000 -0.818979 0.000005
3.025067 0.684875 0.497237 -0.000000 0.965867 0.000004
1.455585 0.653101 0.548084 -0.000000 0.652247 0.000032
1.719050 0.415745 0.333983 -0.075132 -0.006622 0.007404
2.980225 0.495663 0.437295 0.000000 -0.935359 -0.000011
2.038852 0.803577 0.317113 0.080855 0.002503 0.003123
3.139247 0.885243 0.222179 -0.208602 0.002391 0.002875
2.689588 0.682129 0.389093 0.110980 0.003181 0.005881
1.948851 0.667498 0.532922 -0.000001 0.788386 0.000011
2.064211 0.517487 0.542625 0.075234 0.003958 0.004935
0.267631 0.583980 0.373171 -0.000000 -0.025011 -0.000018
0.579322 0.489320 0.476010 0.000000 -0.999687 0.000000
1.141689 0.629996 0.382080 -0.000000 0.422630 -0.000030
1.886651 0.760047 0.624361 -0.069918 -0.002777 0.003834
0.244842 0.492936 0.499332 0.000000 -0.965924 0.000030
3.025067 0.667071 0.411426 0.000000 0.789537 -0.000043
1.634955 0.657128 0.544456 -0.000000 0.683651 0.000004
2.083378 0.658190 0.401461 -0.000000 0.706294 -0.000007
1.956925 0.486242 0.366877 0.075235 0.002639 -0.003293
0.424212 0.496496 0.509730 -0.000000 -0.924622 0.000003
2.159792 0.273502 0.728802 0.075235 0.004262 0.005313
2.800855 0.549236 0.381201 -0.000000 -0.399913 -0.000064
0.091383 0.618978 0.539718 -0.420357 0.000026 0.000061
2.146138 0.488728 0.398115 0.080855 -0.001322 0.001650
2.134434 0.213956 0.165952 0.075233 0.003451 -0.004304
3.158564 0.522943 0.439463 0.280749 -0.000122 -0.000059
3.158564 0.535163 0.522888 0.277015 -0.000101 0.000092
1.914901 0.682177 0.374453 -0.069918 -0.002389 -0.003299
1.724639 0.621742 0.378742 -0.000001 0.328995 -0.000020
1.999121 0.989904 0.786144 -0.075132 0.007189 -0.008033
1.945735 1.015643 0.814464 -0.069917 -0.003225 0.004451
2.030075 0.836538 0.257387 0.075234 -0.004973 -0.006195
1.746736 0.437262 0.588951 -0.075131 -0.006622 -0.007404
1.993693 0.658025 0.543602 -0.000000 0.707492 0.000003
2.112977 1.021142 0.135153 0.080857 0.003116 0.003888
2.730335 0.702009 0.373170 0.110980 0.003277 0.006059
3.105371 0.578656 0.383973 0.279956 -0.000106 -0.000623
0.603581 0.572588 0.570533 0.000000 -0.161216 0.000043
3.097066 0.296320 0.715032 0.110979 -0.003278 -0.006059
3.097066 0.889190 0.704718 0.110978 -0.005199 0.004517
1.899946 0.376238 0.317039 -0.075132 -0.002744 0.003077
2.018730 0.219040 0.779211 -0.069918 0.003583 0.004944
2.818601 0.688680 0.375381 0.000000 0.625140 0.001184
2.888185 0.698769 0.367301 -0.000000 0.625140 0.000789
2.173063 0.489725 0.482346 0.000000 -0.996142 0.000000
0.160035 0.640568 0.392026 -0.152865 0.000141 -0.000207
2.150039 1.063946 0.847880 0.080856 0.002361 -0.002946
2.048606 0.490994 0.379545 0.075234 0.003958 -0.004935
1.947686 0.390289 0.334375 -0.075131 -0.001419 0.001592
2.935382 0.495187 0.438564 0.000000 -0.943884 -0.000010
2.109076 0.173960 0.131466 0.075235 0.003349 -0.004177
2.173063 0.648639 0.551679 -0.000000 0.613647 0.000009
0.200000 0.642551 0.555943 -0.028861 0.000381 0.000574
0.200000 0.493647 0.501746 -0.028868 -0.000661 0.000195
2.146138 0.663627 0.407098 0.075235 -0.005683 -0.007076
2.890540 0.622473 0.378998 0.000000 0.330117 -0.000020
2.042754 0.822230 0.643131 0.080854 0.001157 -0.001444
2.075915 0.172033 0.818181 0.075234 0.006698 0.008330
2.089569 0.947214 0.770404 0.075234 -0.003857 0.004809
3.077803 0.472048 0.396009 -0.000002 0.625131 -0.000395
3.077803 0.705202 0.548890 -0.000002 -0.625127 0.000395
1.931875 0.804147 0.627431 -0.075132 0.002743 -0.003077
1.834907 0.489239 0.472759 0.000000 -0.999687 0.000000
2.060310 0.747333 0.359931 0.080857 0.006516 0.008109
1.231374 0.618069 0.567380 0.000000 0.306744 0.000022
2.155891 0.331635 0.682618 0.075236 0.004668 0.005818
2.994892 0.337908 0.280106 0.110980 0.005199 -0.004517
2.771083 0.721889 0.357248 0.110981 0.003277 0.006059
2.791933 0.412656 0.613389 0.110981 -0.003277 -0.006059
2.070063 0.295887 0.719547 0.075237 0.002283 0.002850
1.882801 0.293245 0.231154 -0.069917 0.004479 -0.006176
0.379369 0.566357 0.569315 -0.000002 -0.172999 0.000010
2.159792 0.884198 0.713145 0.075235 -0.004262 0.005313
2.003741 0.482903 0.408249 0.080856 -0.002455 0.003064
2.167595 0.974387 0.166925 0.080856 0.006421 0.007992
2.873085 0.421606 0.589290 0.000000 0.625141 0.000395
2.893763 0.411518 0.347528 -0.000002 0.625139 -0.000789
1.922122 0.244275 0.192310 -0.069917 0.003942 -0.005437
0.113549 0.666849 0.443978 -0.333855 0.000089 -0.000030
3.069909 0.491723 0.494566 0.280345 -0.000153 0.000033
3.158564 0.609705 0.542861 0.275449 0.000038 0.000132
2.845698 0.547745 0.563047 0.000000 -0.422496 0.000030
2.163694 0.942331 0.759328 0.075234 -0.003857 0.004809
1.982079 0.840155 0.254302 -0.069918 -0.002329 -0.003216
2.859056 0.678592 0.383461 0.000000 0.625142 0.000395
2.843054 0.488569 0.569517 0.000000 -0.625141 -0.001184
2.888185 0.698769 0.577597 0.000000 0.625140 -0.000395
1.231374 0.563500 0.376289 -0.000000 -0.258800 -0.000026
2.099323 1.070707 0.096874 -0.075132 0.004919 0.005510
1.948851 0.506330 0.528182 -0.000002 -0.826087 0.000009
3.031815 0.417951 0.318820 0.000000 -0.625142 0.000237
2.989772 0.472048 0.396009 0.000000 0.625140 -0.000592
3.043140 0.729034 0.343061 -0.000000 0.625141 0.001657
3.027781 0.498658 0.383461 0.000000 -0.625141 0.001657
2.032025 0.424643 0.358647 0.080855 -0.006516 0.008109
2.173447 0.020934 0.924295 0.080855 -0.006421 -0.007992
3.069909 0.532634 0.390326 0.285810 -0.000088 -0.000126
2.831901 0.425689 0.611416 0.110981 -0.003277 -0.006059
2.811831 0.741769 0.603573 0.110981 0.003277 -0.006059
0.827793 0.682025 0.506444 -0.000000 0.943924 0.000002
2.179299 1.067344 0.086951 0.075235 -0.004465 -0.005566
3.114526 0.816173 0.637771 -0.208601 -0.002344 0.003040
3.077632 0.340900 0.653931 0.000000 0.625141 0.001263
3.077632 0.819828 0.674559 0.000000 0.625140 -0.001263
3.118988 0.337245 0.690719 0.000001 -0.625140 -0.000631
3.118988 0.856526 0.670091 -0.208603 -0.002344 0.003040
3.081149 0.441783 0.573130 0.000000 0.625141 0.001657
3.079863 0.856526 0.274807 0.110980 -0.005199 -0.004517
3.114526 0.361077 0.307127 0.000000 0.625141 -0.001263
3.076687 0.482136 0.540810 0.000000 0.625141 0.000789
3.118988 0.840005 0.254180 -0.208602 0.002454 0.002951
1.321058 0.683377 0.502446 -0.000000 0.945377 0.000001
2.029099 0.283157 0.733703 0.075235 0.004567 0.005692
0.244842 0.500792 0.425941 0.000001 -0.883919 -0.000029
2.059334 0.785433 0.615382 0.080855 0.001251 -0.001562
0.160035 0.586238 0.568159 -0.160600 -0.000001 0.000059
0.160035 0.498659 0.439704 -0.152864 -0.000235 -0.000079
0.743989 0.489324 0.476165 0.000000 -0.999692 0.000000
1.862063 0.482903 0.536649 -0.075129 -0.002523 -0.002830
2.800855 0.623416 0.565548 0.000000 0.353756 0.000073
2.128220 0.554776 0.378998 0.000000 -0.330212 -0.000020
2.146598 0.687980 0.470901 0.000000 0.999696 -0.000000
3.123102 0.569965 0.554204 0.279956 -0.000165 0.000572
2.142237 0.175886 0.808683 0.075235 0.006089 0.007578
2.083378 0.518074 0.402446 -0.000000 -0.706702 -0.000014
2.811051 0.468393 0.585677 0.000001 -0.625141 -0.000789
2.811831 0.427220 0.351639 0.110980 0.005199 -0.004517
1.948851 0.490435 0.457062 -0.000000 -0.986524 -0.000002
0.738108 0.598521 0.373549 0.000000 0.111983 -0.000247
2.800855 0.495225 0.506444 0.000000 -0.943924 0.000002
2.021297 0.893137 0.697692 -0.075131 0.004352 -0.004876
2.771083 0.447100 0.367562 0.110980 0.005199 -0.004517
2.850843 0.586844 0.373077 0.000000 -0.012701 -0.000036
0.636661 0.591876 0.571762 0.000000 0.025011 0.000073
1.605550 0.489273 0.474152 0.000000 -0.999692 0.000000
1.769912 0.697379 0.568904 -0.069919 -0.003135 0.004328
2.021297 0.474717 0.545030 0.080858 -0.002455 -0.003064
2.089569 0.219153 0.188082 0.080855 -0.003494 0.004358
1.727418 0.731469 0.583310 -0.075134 0.006622 -0.007404
1.724639 0.677107 0.427174 0.000000 0.895376 -0.000003
2.009866 0.589399 0.373075 0.000000 0.024819 -0.000037
1.455585 0.651675 0.395622 -0.000000 0.628964 -0.000004
1.532038 0.489285 0.470282 -0.000000 -0.999692 -0.000000
0.334527 0.561705 0.376770 0.000000 -0.282791 -0.000024
2.550914 0.687945 0.475391 0.000000 0.999687 0.000000
1.918802 0.462838 0.396098 -0.075132 -0.005045 0.005650
3.158564 0.552123 0.476716 1.000000 0.000000 0.000000
3.158564 0.577065 0.507334 1.000000 -0.000000 0.000000
3.158564 0.618103 0.494395 1.000000 0.000000 0.000000
3.158564 0.566679 0.442971 1.000000 -0.000000 0.000000
3.158564 0.609704 0.442345 1.000000 0.000000 0.000000
2.852579 0.407340 0.335716 0.110980 0.005199 -0.004517
2.852579 0.769910 0.609182 0.110979 -0.005199 0.004517
1.943579 0.346467 0.649981 -0.075133 -0.002554 -0.002865
1.231374 0.609871 0.375360 0.000000 0.210365 -0.000129
2.621486 0.681090 0.435993 0.000000 0.926311 -0.000003
2.847731 0.725378 0.565050 -0.000001 -0.625138 0.000592
1.966679 0.745926 0.621065 0.075237 -0.002639 0.003292
2.890540 0.491202 0.452755 -0.000000 -0.977667 -0.000000
2.144187 0.778735 0.314715 0.075236 -0.001472 -0.001837
2.148089 0.797770 0.645052 0.075234 -0.002740 0.003419
0.545506 0.687938 0.469198 0.000000 0.999697 -0.000000
2.756013 0.681046 0.435885 0.000000 0.925575 -0.000001
1.982284 0.740817 0.571639 0.080852 0.002455 -0.003064
1.906003 0.433378 0.330570 -0.069918 0.002777 -0.003834
1.648211 0.495163 0.397592 -0.075131 -0.004415 0.004947
3.114526 0.377598 0.658398 -0.000000 -0.625142 -0.001263
2.442116 0.495609 0.437440 0.000000 -0.935235 -0.000003
0.872635 0.623199 0.379269 0.000000 0.353665 -0.000073
2.101273 0.984732 0.165532 0.080857 0.003494 0.004358
1.809190 0.472355 0.393516 -0.075132 -0.004415 0.004947
1.924791 0.397655 0.641809 -0.069917 0.001344 0.001856
1.910572 0.812924 0.307498 -0.075133 0.002743 0.003077
1.410743 0.638388 0.386411 0.000000 0.510699 -0.000012
0.025583 0.600250 0.446686 -0.678284 0.000006 -0.000013
1.867966 0.830477 0.287560 -0.075133 0.001372 0.001539
2.061285 0.453356 0.378603 0.080855 -0.006516 0.008109
2.200756 0.471948 0.378999 0.075234 0.005683 -0.007076
2.166620 0.713466 0.575739 0.075232 -0.002842 0.003546
1.940790 0.737185 0.378027 -0.075132 0.002523 0.002830
2.022363 0.489269 0.470901 -0.000000 -0.999692 -0.000000
3.158564 0.632516 0.413493 0.280072 0.000082 -0.000107
2.200756 0.159163 0.128477 0.075233 0.002639 -0.003293
2.893327 0.781529 0.635418 0.110979 0.003277 -0.006059
0.091383 0.656629 0.501115 -0.420363 0.000062 0.000024
2.352432 0.556969 0.566667 -0.000001 -0.330036 0.000079
2.217905 0.553145 0.565287 0.000001 -0.352009 0.000018
2.081767 0.258331 0.748495 0.075234 0.004161 0.005187
1.920890 0.770335 0.634769 -0.069917 -0.002688 0.003711
1.754461 0.722815 0.358922 -0.069918 -0.001568 -0.002165
1.029216 0.590638 0.571793 0.000000 0.025011 0.000009
2.034951 0.685612 0.378741 0.075235 -0.001979 -0.002470
2.660447 0.489324 0.468733 -0.000000 -0.999692 -0.000000
2.165644 1.135122 0.913553 0.075236 -0.007307 0.009080
0.025583 0.560921 0.478050 -0.678285 -0.000014 0.000003
2.486959 0.533860 0.555386 -0.000001 -0.552708 0.000042
2.631373 0.686259 0.550648 0.110979 0.003181 -0.005881
2.934074 0.367580 0.641027 0.110979 0.005199 0.004517
3.081149 0.718945 0.593758 -0.000000 0.625140 -0.001657
2.965319 0.688680 0.375381 0.000000 0.625140 0.000592
2.934074 0.801409 0.651341 0.110979 0.003278 -0.006059
2.978447 0.441783 0.573130 0.000000 0.625141 0.000592
2.818601 0.472048 0.396009 0.000000 0.625141 -0.001184
2.954144 0.366049 0.285715 0.110978 -0.003278 0.006059
3.074456 0.658415 0.545277 -0.000000 0.780512 0.000259
2.773470 0.482136 0.404089 0.000000 0.625141 -0.000789
2.978447 0.458304 0.351141 0.000000 -0.625140 0.000592
3.081149 0.458304 0.351141 0.000001 -0.625140 0.001657
2.989772 0.488569 0.569517 0.000000 -0.625141 -0.000592
1.231374 0.674702 0.522146 -0.000000 0.872217 0.000008
2.502396 0.591567 0.373129 0.000000 0.025011 -0.000036
0.619018 0.687982 0.474307 0.000070 0.238550 0.000003
3.052492 0.769387 0.634158 0.000000 0.625141 -0.000474
2.935118 0.391342 0.331368 0.000000 0.625141 -0.000987
2.908863 0.451871 0.379848 0.000000 0.625141 -0.000493
2.873085 0.438128 0.334981 0.000000 -0.625141 0.000395
3.100541 0.327156 0.246099 -0.000001 -0.625140 0.000631
2.790373 0.698769 0.577597 0.000000 0.625143 -0.000789
2.094805 0.035026 0.912198 -0.075133 -0.006811 -0.007614
1.820860 0.434358 0.606252 -0.069917 0.007524 0.010337
1.820860 0.434358 0.338646 -0.069919 0.007524 -0.010337
1.410743 0.554268 0.565712 0.000001 -0.353441 0.000037
3.174217 0.247579 0.203526 -0.208601 0.001142 -0.001480
2.111026 0.299834 0.694426 0.080856 -0.004249 -0.005298
2.076890 0.840048 0.660950 0.080858 0.001157 -0.001444
0.379369 0.627089 0.380802 -0.000000 0.376895 -0.000017
2.728340 0.668504 0.553357 -0.000001 0.625139 -0.000789
2.173447 0.023607 0.017266 0.075236 0.005683 -0.007076
2.888185 0.461960 0.556970 0.000000 0.625140 0.000395
1.867299 0.401027 0.310505 -0.069921 0.001344 -0.001856
2.576643 0.670237 0.415729 0.000000 0.818755 -0.000010
2.045680 0.893646 0.244264 0.080855 0.004250 0.005298
2.922885 0.489252 0.474153 0.000000 -0.999922 0.000000
1.777638 0.684662 0.384530 -0.069917 -0.006271 -0.008629
1.634955 0.620280 0.378231 0.000000 0.330282 -0.000010
0.424212 0.626874 0.564184 0.000000 0.376955 0.000004
0.469054 0.617922 0.377471 -0.000000 0.306621 -0.000086
2.974822 0.829550 0.656950 0.110979 -0.005199 0.004517
2.974822 0.355960 0.667264 0.110979 -0.003278 -0.006059
2.974822 0.829550 0.287948 0.110978 -0.005199 -0.004517
1.897072 0.337792 0.282496 -0.075132 -0.001277 0.001433
2.933316 0.451871 0.565050 0.000000 0.625141 0.000493
2.918301 0.683636 0.565477 0.000000 0.625141 -0.000987
0.334527 0.493991 0.502815 -0.000001 -0.951098 0.000004
2.576643 0.556933 0.566655 -0.000001 -0.268286 0.000006
2.072989 0.358586 0.275852 0.075233 0.001243 -0.001552
1.007162 0.557633 0.566881 0.000000 -0.306709 0.000086
0.827793 0.516885 0.541232 0.000000 -0.724285 0.000013
2.455349 0.586612 0.571793 0.000000 -0.024636 0.000037
0.771923 0.687953 0.475081 0.000000 0.999687 0.000000
1.937824 0.591257 0.373121 0.000000 0.025011 -0.000278
0.424212 0.685820 0.451695 0.000001 0.976322 -0.000003
3.134955 0.663222 0.539275 0.746663 0.000273 0.000218
1.697148 0.684395 0.400474 -0.075131 0.004415 0.004947
2.918301 0.493613 0.379421 0.000000 -0.625141 0.000987
2.883509 0.695113 0.404089 0.000000 -0.625141 -0.000395
1.231374 0.559662 0.567526 0.000000 -0.283250 0.000006
2.083378 0.685181 0.495997 0.000000 0.971096 0.000002
2.923878 0.443172 0.605878 0.000000 -0.625141 -0.000493
2.944556 0.433084 0.330940 -0.000001 -0.625136 0.000493
2.942754 0.493613 0.565477 0.000000 -0.625141 -0.000493
1.784448 0.377339 0.638534 -0.075132 -0.005865 -0.006563
3.015570 0.841169 0.261712 0.110981 0.003277 0.006059
3.025067 0.493493 0.501226 -0.000000 -0.959088 0.000008
2.561206 0.591257 0.373121 0.000000 0.024829 -0.000037
2.200756 0.491498 0.550242 0.075234 0.005683 0.007076
2.112977 1.012550 0.820472 0.075235 -0.003045 0.003798
2.165644 0.058240 0.893604 0.080856 -0.007932 -0.009856
2.430355 0.585993 0.373121 0.000000 -0.025021 -0.000018
0.077138 0.549882 0.526338 -0.476052 -0.000029 0.000043
1.769482 0.572473 0.374384 0.000000 -0.161339 -0.000085
0.693266 0.635133 0.384616 0.000000 0.467110 -0.000013
0.917477 0.684945 0.447923 0.000000 0.972146 -0.000002
2.531801 0.684172 0.445084 -0.000000 0.953536 -0.000001
1.186531 0.489465 0.479181 -0.000001 -0.991202 0.000000
0.738108 0.618217 0.567332 0.000000 0.306744 0.000043
1.262984 0.688007 0.472914 0.000000 0.999687 0.000000
2.036902 0.928651 0.727759 -0.075131 0.003973 -0.004454
2.036902 0.264637 0.197116 0.075235 0.004262 -0.005313
1.935982 0.437640 0.613837 -0.069920 0.001344 0.001856
1.948851 0.514959 0.405734 -0.000000 -0.741326 -0.000013
2.038852 0.373672 0.627785 0.080857 -0.002502 -0.003123
1.965344 0.182418 0.150955 -0.075131 -0.007190 0.008033
1.997889 0.839866 0.652592 -0.075131 0.004919 -0.005510
1.982284 0.436433 0.373260 0.080854 -0.002455 0.003064
2.060310 0.429917 0.584967 0.080855 -0.006516 -0.008109
1.906003 0.415621 0.592159 -0.075133 -0.002933 -0.003289
2.531801 0.682587 0.504836 -0.000000 0.943380 0.000005
2.128220 0.554232 0.565698 -0.000001 -0.343110 0.000009
2.033617 0.182458 0.157880 -0.075131 -0.003406 0.003819
2.008567 1.052298 0.840781 -0.075131 0.002838 -0.003183
0.558739 0.683778 0.501152 -0.000001 0.952482 0.000002
1.154186 0.687976 0.470746 0.000000 0.999687 -0.000000
0.513896 0.666524 0.410723 -0.000001 0.789259 -0.000022
2.087619 0.403277 0.313061 0.075235 0.005886 -0.007327
1.701851 0.588315 0.373063 0.000000 -0.024829 -0.000280
2.829927 0.658415 0.399621 0.000000 0.780512 -0.000518
2.069088 0.354958 0.645916 0.080855 -0.002314 -0.002888
3.027781 0.678592 0.561437 0.000001 0.625141 -0.001657
3.077632 0.357421 0.270340 0.000000 -0.625140 0.001263
3.153192 0.940844 0.190344 0.110980 0.003181 0.005881
