3.434968 0.270963 0.301362 0.001764 0.352507 -0.001779
3.246130 0.719815 0.802405 0.001764 0.221118 -0.001668
0.054493 0.486737 0.609645 -0.516616 -0.000034 0.000021
0.249242 0.457242 0.635797 0.000000 -0.800522 0.000045
3.302266 0.561474 0.508211 -0.000002 0.428136 -0.000126
1.552666 0.807537 0.889511 -0.056145 0.009428 -0.007662
0.124320 0.575060 0.642493 -0.243944 0.000099 0.000108
0.938635 0.602900 0.619052 0.000000 0.915453 0.000013
1.874239 0.573220 0.654915 0.000000 0.575942 0.000011
2.169693 0.587722 0.527541 0.000000 0.726882 -0.000007
1.874239 0.587305 0.527100 0.000000 0.726980 -0.000028
2.524238 0.524277 0.669790 0.000000 -0.028717 0.000035
1.754307 0.854248 0.944482 0.073611 0.010701 -0.009488
2.563632 0.464744 0.525350 -0.000000 -0.706145 -0.000004
1.626255 0.146888 0.999443 -0.056149 -0.006914 -0.005654
1.923481 0.460988 0.640463 0.000001 -0.742221 0.000003
0.871337 0.527155 0.500110 0.000000 0.028717 -0.000069
2.563632 0.582128 0.647874 0.000000 0.665828 0.000004
2.514389 0.585789 0.525510 -0.000001 0.706355 -0.000015
1.776680 0.749901 0.330047 0.056195 -0.008525 -0.007551
1.347642 0.398475 0.731734 -0.042857 0.011145 0.010294
0.856564 0.440316 0.584178 0.000000 -0.999894 -0.000000
0.938635 0.602186 0.549229 0.000001 0.900054 -0.000004
1.578785 0.552706 0.504648 0.000000 0.322483 -0.000022
2.971624 0.458182 0.510701 0.000001 -0.666324 -0.000014
1.453937 0.670776 0.732271 -0.056147 0.018328 -0.014359
3.236719 0.457834 0.658857 -0.000000 -0.667228 0.000073
0.593939 0.600395 0.545594 0.000000 0.890535 -0.000008
3.181581 0.375553 0.418323 0.001765 0.225762 -0.001646
3.455747 0.761038 0.847791 -0.003960 -0.167949 0.003649
1.659308 0.102632 1.061117 -0.042857 0.007202 0.006778
2.317420 0.558505 0.506871 0.000000 0.402449 -0.000034
1.990779 0.525413 0.500060 0.000000 0.029122 -0.000034
1.711692 0.677551 0.742525 0.073609 0.001916 -0.001716
1.522393 0.386107 0.414317 -0.042858 0.007330 -0.006895
0.790908 0.466139 0.645910 -0.000000 -0.685363 0.000008
3.455747 0.760620 0.321704 -0.003959 0.168348 0.003630
1.456807 0.468312 0.647945 -0.000001 0.667249 -0.000406
1.680795 0.754833 0.316453 0.056195 -0.008525 -0.007551
1.480300 0.585896 0.525618 -0.000001 0.643546 -0.000002
2.612874 0.546250 0.502715 -0.000000 0.240124 -0.000030
2.376511 0.523672 0.500097 -0.000000 -0.028728 -0.000035
1.923481 0.476471 0.515436 0.000000 -0.575942 -0.000003
3.438916 0.429657 0.608274 -0.151697 -0.000294 0.000068
0.544696 0.575139 0.653560 -0.000001 0.588239 0.000005
1.628027 0.454177 0.631425 0.000000 -0.832887 0.000005
1.939895 0.524732 0.669803 0.000000 -0.028324 0.000018
1.762830 0.142880 0.165011 0.073610 -0.004194 0.003751
3.438916 0.558546 0.677442 -0.153062 0.000105 0.000280
2.988757 0.610047 0.583496 0.000000 0.999900 -0.000000
0.054493 0.539310 0.541467 -0.516619 0.000014 -0.000038
1.775754 0.606271 0.610007 0.000001 0.812042 0.000001
1.504493 0.872763 0.972928 -0.042856 -0.010288 0.009547
1.385482 0.390738 0.445068 -0.056147 -0.009079 0.007385
1.529543 0.593062 0.635888 0.000001 0.798712 0.000011
2.992810 0.426615 0.694618 0.001763 0.251120 0.001665
1.479819 0.304530 0.331477 -0.042858 0.006687 -0.006305
1.381816 0.442511 0.565710 0.000000 -0.977136 -0.000002
2.021966 0.539323 0.668626 0.000001 0.156463 0.000094
1.824623 0.617631 0.688129 0.056197 -0.009850 0.008692
1.488525 0.219373 0.246214 -0.056147 -0.009428 0.007661
1.081438 0.610011 0.586904 -0.000000 0.999576 0.000000
1.713822 0.462458 0.527170 0.073610 -0.005640 0.005038
2.662116 0.525035 0.669814 0.000000 -0.014166 0.000281
1.135604 0.454742 0.632278 0.000000 -0.833264 0.000010
0.987877 0.470064 0.520396 0.000000 -0.642505 -0.000004
3.187367 0.520946 0.500175 -0.000000 -0.028324 -0.000018
2.463506 0.440352 0.586601 0.000000 -0.999593 0.000000
2.642419 0.610059 0.585541 0.000000 0.999900 0.000000
1.615807 0.313837 0.797760 0.073611 -0.007087 -0.006319
2.415905 0.609427 0.574583 -0.000001 0.864951 -0.000000
2.859085 0.592404 0.636768 -0.000000 0.800613 0.000006
2.021966 0.607461 0.605778 -0.000000 0.970672 0.000007
2.722848 0.522612 0.500127 -0.000000 -0.029122 -0.000034
1.686122 0.474355 0.653359 0.056193 0.004926 0.004396
2.309213 0.610028 0.586298 0.000000 0.999587 0.000000
0.741666 0.577938 0.518448 0.000001 0.621759 -0.000038
1.625658 0.102617 0.116647 -0.056146 -0.006076 0.004978
0.108071 0.580309 0.539861 -0.307256 0.000088 -0.000068
1.275177 0.581156 0.521116 0.000000 -0.667248 0.000406
3.404679 0.362729 0.403062 -0.003957 -0.085857 0.003557
3.452509 0.663215 0.739189 -0.003959 0.071665 -0.003549
1.573192 0.425378 0.717558 0.056194 0.009851 0.008693
3.391537 0.757449 0.325945 0.001767 -0.250678 -0.001668
1.356951 0.681716 0.406309 -0.042856 -0.011145 -0.010294
3.192771 0.678339 0.414395 0.001767 -0.225515 -0.001648
1.581715 0.666793 0.453732 -0.056149 0.002985 0.002457
2.890272 0.522006 0.500145 0.000000 -0.028728 -0.000017
2.268178 0.591885 0.637420 0.000001 0.782578 0.000012
1.305449 0.463473 0.526260 -0.056147 -0.009078 0.007385
1.677270 0.593493 0.635312 0.000000 0.800566 0.000022
1.369475 0.636140 0.453291 -0.042860 -0.005573 -0.005274
2.169693 0.591461 0.637954 -0.000000 0.779209 0.000003
3.069676 0.639210 0.712638 0.001764 0.350161 -0.001806
0.881185 0.522687 0.669745 0.000000 -0.028335 0.000018
3.386472 0.461360 0.521109 -0.151933 -0.000868 -0.000776
1.510481 0.256345 0.293024 -0.056148 -0.005028 0.004127
1.638597 0.196376 0.961595 -0.042857 0.018514 0.016222
1.590238 0.388855 0.412981 0.056195 0.007388 -0.006562
1.824997 0.470093 0.520372 0.000001 -0.643599 -0.000035
3.351509 0.582581 0.647471 -0.150672 0.000193 0.000204
2.268178 0.458675 0.532213 -0.000000 -0.782949 -0.000012
1.305449 0.463473 0.643610 -0.056147 -0.009078 -0.007385
1.647768 0.610217 0.694771 0.056194 -0.007388 0.006563
1.768157 0.692351 0.404578 0.073611 0.003833 0.003429
0.600504 0.521703 0.500153 0.000000 -0.028728 -0.000017
1.581365 0.706687 0.366198 -0.042857 -0.013373 -0.012184
1.551184 0.344168 0.368580 -0.042859 0.003344 -0.003181
1.414013 0.363240 0.397089 -0.042858 0.011252 -0.010386
1.583845 0.460739 0.492684 0.056195 0.004926 -0.004396
1.762830 0.142880 1.004860 0.073609 -0.008388 -0.007466
1.135604 0.605449 0.557343 0.000000 0.946537 -0.000010
1.864390 0.525035 0.500058 0.000000 -0.028335 -0.000070
1.663749 0.349965 0.375770 0.056194 0.005020 -0.004480
0.544696 0.479328 0.656362 -0.000001 -0.428749 0.000004
1.531657 0.728547 0.823491 -0.042858 -0.006687 0.006305
3.377300 0.667103 0.742723 -0.003959 -0.085648 0.003575
3.509985 0.325974 0.362559 -0.003960 -0.168303 0.003631
2.760601 0.455294 0.633093 0.000001 -0.816635 0.000011
3.006812 0.459842 0.639101 -0.000000 -0.764957 0.000025
3.328428 0.630725 0.467946 -0.003960 -0.082543 -0.003574
3.203782 0.448121 0.549366 0.000000 -0.903264 -0.000007
1.352598 0.443810 0.684536 -0.042856 0.011145 0.010294
1.633854 0.246034 0.260607 -0.042857 0.005144 -0.004874
0.495454 0.458251 0.532747 0.000001 -0.654689 -0.000002
1.216376 0.439455 0.680635 -0.056146 -0.018153 -0.014236
0.288636 0.440435 0.589478 0.000000 -0.999593 0.000000
0.643181 0.441004 0.595738 0.000000 -0.991326 0.000001
1.631255 0.690092 0.785328 0.056194 -0.005021 0.004480
3.183700 0.592468 0.658919 -0.000000 0.667245 0.000025
0.994443 0.526246 0.669786 0.000000 0.028335 0.000035
0.987877 0.580771 0.520786 -0.000000 0.665516 -0.000033
0.396969 0.584986 0.645163 0.000001 0.706355 0.000015
3.438916 0.608551 0.637096 -0.152298 0.000257 0.000156
1.796390 0.359573 0.766682 0.073610 -0.001916 -0.001716
1.564668 0.606733 0.697892 0.056195 -0.009851 0.008692
3.200757 0.630203 0.703005 0.001765 0.397373 -0.001886
1.416272 0.593233 0.674524 -0.042858 -0.022495 0.019013
1.649899 0.789346 0.275321 0.056194 -0.007767 -0.006893
0.938635 0.489960 0.662161 0.000000 -0.399244 0.000004
3.056055 0.576897 0.517627 0.000000 0.599433 -0.000010
3.486814 0.299228 0.837378 -0.003960 -0.168296 -0.003632
1.234089 0.542043 0.501745 0.000000 0.212430 -0.000034
2.376511 0.440335 0.585995 0.000000 -0.999593 0.000000
1.712757 0.417639 0.692613 0.073610 -0.009545 -0.008480
1.440024 0.749979 0.829621 -0.056149 0.005552 -0.004553
1.394616 0.371887 0.762515 -0.042858 0.011252 0.010386
2.711358 0.558158 0.663150 0.000000 0.375997 0.000009
3.434516 0.361991 0.767457 -0.003960 -0.141343 -0.003603
3.327980 0.387626 0.432291 -0.003959 0.162160 -0.003642
3.279497 0.705612 0.383950 0.001765 -0.222480 -0.001644
2.366662 0.598791 0.542673 0.000000 0.863950 -0.000002
1.375218 0.669838 0.752249 -0.042858 -0.011252 0.010386
3.302266 0.455795 0.536065 0.000000 -0.817320 -0.000042
1.588633 0.610054 0.585389 -0.000000 0.999599 0.000000
2.071208 0.609156 0.572556 0.000000 0.987696 -0.000002
1.726512 0.447472 0.619052 0.000000 -0.912994 0.000002
3.302266 0.456363 0.634610 -0.000000 -0.817298 0.000011
0.817170 0.609994 0.582361 0.000000 0.999599 -0.000000
1.403749 0.712168 0.382929 -0.056144 0.002986 0.002457
1.342422 0.523975 0.669782 0.000000 -0.028728 0.000009
1.637923 0.963747 0.098325 -0.056147 0.010475 0.008485
3.105297 0.454638 0.632120 -0.000000 -0.833384 0.000010
0.495454 0.607096 0.562700 0.000001 0.962826 -0.000004
1.234089 0.548261 0.666612 0.000000 0.268082 0.000013
0.069179 0.481303 0.553052 -0.459124 -0.000045 -0.000031
0.200000 0.602397 0.549674 0.017068 0.001104 -0.000484
0.987877 0.459476 0.638666 0.000000 -0.764728 0.000002
2.662116 0.458487 0.637420 -0.000000 -0.783058 0.000012
1.376891 0.610037 0.585995 -0.000000 0.999599 0.000000
1.597021 0.252183 0.874244 -0.056147 -0.009218 -0.007496
1.558577 0.783235 0.310374 -0.056149 0.005028 0.004127
1.135604 0.463509 0.526632 0.000000 -0.725817 -0.000004
0.157621 0.450872 0.548398 -0.114432 -0.000317 -0.000145
3.056055 0.573778 0.654522 -0.000001 0.575901 0.000042
1.824997 0.607279 0.563357 0.000000 0.970672 -0.000002
1.431058 0.603022 0.551096 -0.000001 0.905716 -0.000002
0.593939 0.442656 0.565122 -0.000000 -0.970566 -0.000004
1.972724 0.577612 0.518189 0.000000 0.621896 -0.000038
1.685057 0.272885 0.318735 0.073611 -0.006508 0.005808
2.218935 0.501272 0.666378 0.000000 -0.267999 0.000107
0.249242 0.483480 0.511007 0.000001 -0.443220 -0.000004
2.415905 0.586837 0.643266 -0.000001 0.721882 0.000007
0.662878 0.528517 0.669721 -0.000000 0.028324 0.000018
0.741666 0.508478 0.668154 0.000000 -0.184146 0.000020
2.998605 0.528669 0.669717 0.000000 0.028728 0.000017
1.743653 0.060152 1.110873 0.056195 0.015910 0.013716
1.613548 0.810200 0.914144 -0.042856 -0.010288 0.009547
0.446212 0.560584 0.662081 -0.000002 0.418411 0.000016
1.440907 0.526095 0.500080 0.000000 0.028324 -0.000018
1.711692 0.383764 0.417542 0.056196 0.002510 -0.002246
2.120450 0.479778 0.513228 -0.000001 -0.527545 -0.000024
1.824997 0.532977 0.669452 0.000001 0.099677 0.000298
3.330791 0.299748 0.333108 0.001765 -0.161448 0.001632
0.200000 0.600258 0.624546 0.017068 0.001075 0.000547
2.809843 0.475758 0.653933 -0.000001 -0.567436 0.000011
3.254971 0.443792 0.495269 -0.003959 0.151511 -0.003630
1.760699 1.026743 1.150205 0.056197 -0.012880 0.011248
1.824623 0.599727 0.501727 0.056196 -0.009851 -0.008692
0.244318 0.520492 0.669682 0.000000 -0.028717 0.000009
1.446378 0.262629 0.880224 -0.042862 0.003151 0.002998
0.467550 0.440413 0.581149 0.000000 -0.999588 -0.000000
0.396969 0.474324 0.652879 0.000000 -0.599181 0.000020
1.776680 0.295826 0.835662 0.073611 -0.013015 -0.011482
1.532656 0.385369 0.718304 -0.056147 -0.018328 -0.014359
0.061766 0.537921 0.633384 -0.488141 0.000012 0.000042
0.938635 0.445413 0.613921 0.000001 -0.931947 0.000003
0.692423 0.587923 0.642104 0.000000 0.746377 0.000013
1.184846 0.591933 0.532509 -0.000000 0.781860 -0.000006
3.438916 0.432679 0.551575 -0.151725 -0.000285 -0.000099
3.438916 0.501848 0.680464 -0.153837 -0.000074 0.000288
3.002072 0.647250 0.721368 0.001766 0.161325 -0.001633
1.824997 0.593471 0.635343 -0.000000 0.800493 0.000022
1.344595 0.599289 0.493454 -0.042857 -0.008359 -0.007830
1.675314 0.082923 0.097139 -0.056147 -0.010475 0.008486
3.105297 0.457673 0.533497 0.000001 -0.800330 -0.000022
0.347727 0.553531 0.664941 0.000000 0.322153 0.000011
3.253024 0.597912 0.628702 -0.000000 0.863612 0.000035
1.663646 0.907187 0.169240 -0.056147 0.013407 0.010746
2.179541 0.440331 0.585844 0.000000 -0.999593 0.000000
1.726512 0.510749 0.668579 0.000001 -0.137208 0.000013
3.147874 0.403314 0.721540 0.001763 -0.393144 -0.001876
2.662116 0.454072 0.538603 -0.000000 -0.833196 -0.000005
2.918176 0.528669 0.669717 0.000000 0.028313 0.000009
1.668011 0.709537 0.365937 0.056195 -0.004642 -0.004144
2.071208 0.455294 0.633093 0.000000 -0.817287 0.000011
1.709561 0.122048 1.022222 0.073609 -0.008388 -0.007466
1.706365 0.222851 0.932401 0.056195 0.007009 0.006231
0.938635 0.493197 0.506322 0.000000 -0.375436 -0.000009
0.446212 0.499499 0.665830 0.000000 -0.295348 0.000097
2.514389 0.598943 0.626936 -0.000002 0.858324 0.000009
3.253024 0.600221 0.545257 0.000000 0.877625 -0.000002
2.120450 0.566792 0.510953 -0.000001 0.474700 -0.000014
1.446378 0.787743 0.880224 -0.042862 -0.003151 0.002998
1.135604 0.564156 0.509537 -0.000001 0.453902 -0.000059
1.768690 0.412706 0.715212 0.056196 0.012502 0.010933
1.037120 0.452878 0.540492 -0.000002 -0.764678 -0.000003
3.541571 0.256894 0.285446 -0.003958 -0.057441 0.003539
1.769222 0.470872 0.519632 0.056195 0.009851 -0.008692
3.531215 0.796706 0.887958 -0.003959 -0.219654 0.003720
1.874239 0.443398 0.607608 0.000000 -0.963376 0.000008
3.112048 0.347609 0.386709 0.001764 -0.221108 0.001668
3.263119 0.750272 0.333677 0.001764 0.191880 0.001648
2.935798 0.403035 0.448580 0.001764 -0.431088 0.001956
2.885442 0.418871 0.703612 0.001764 -0.350141 -0.001806
0.544696 0.549353 0.503571 0.000001 0.291651 -0.000012
0.495454 0.518980 0.500290 -0.000000 -0.071404 -0.000417
3.141408 0.609950 0.589024 0.000000 0.999588 0.000000
2.366662 0.468018 0.522198 -0.000000 -0.665523 -0.000017
1.769222 0.620677 0.685401 0.073612 0.009545 -0.008480
0.987877 0.588932 0.640973 -0.000001 0.729270 0.000003
1.624330 0.753970 0.818166 -0.056147 0.010056 -0.008157
2.859085 0.597033 0.539752 -0.000001 0.828741 -0.000002
0.347727 0.570144 0.512948 0.000000 0.528275 -0.000024
2.957570 0.597073 0.539817 0.000000 0.848058 -0.000005
1.610249 0.888937 0.983205 -0.056147 0.006914 -0.005654
1.455067 0.422778 0.679767 -0.056147 -0.018328 -0.014359
1.923481 0.596530 0.630920 -0.000000 0.833741 0.000001
1.592760 0.260901 0.305829 -0.056148 -0.009427 0.007661
2.218935 0.476378 0.515501 -0.000000 -0.576094 -0.000021
0.495454 0.592494 0.636646 0.000000 0.800613 0.000006
3.343707 0.709201 0.789786 0.001765 -0.352431 0.001779
1.762830 0.901504 0.159647 0.056196 -0.005494 -0.004898
1.824623 0.689247 0.768073 0.056194 -0.002321 0.002077
1.317806 0.663735 0.735764 -0.056149 0.006809 -0.005570
1.583845 0.460739 0.677186 0.056193 0.004926 0.004396
2.865651 0.440398 0.588191 -0.000005 -0.108888 0.000000
1.480300 0.576533 0.652516 -0.000000 0.599370 0.000010
0.741666 0.451677 0.627361 0.000000 -0.863608 0.000002
0.249242 0.446914 0.552104 -0.000000 -0.926566 -0.000006
1.585719 0.856955 0.223309 -0.056146 0.015501 0.012314
2.071208 0.453379 0.539688 0.000001 -0.785630 -0.000001
2.120450 0.568659 0.657833 -0.000000 0.503957 0.000026
2.514389 0.482891 0.511350 -0.000001 -0.503969 -0.000051
1.561112 0.170966 0.193888 -0.056147 -0.015501 0.012314
2.415905 0.448998 0.622352 0.000001 -0.866884 0.000001
1.746317 0.329964 0.794195 0.073610 -0.007087 -0.006319
3.203782 0.446630 0.617064 -0.000000 -0.926145 0.000006
1.771353 0.942831 1.045251 0.073612 0.007231 -0.006447
0.593939 0.471455 0.519225 0.000000 -0.644160 -0.000004
1.086362 0.586941 0.643156 0.000000 0.726999 0.000028
3.470502 0.412324 0.458949 -0.003959 -0.085819 0.003558
3.549468 0.239624 0.903702 -0.003958 -0.113865 -0.003577
3.470502 0.412324 0.710921 -0.003959 -0.085819 -0.003558
3.486295 0.672588 0.420393 -0.003960 0.071646 0.003550
0.347727 0.474991 0.516492 -0.000000 -0.597922 -0.000010
1.280402 0.381267 0.745589 -0.056147 -0.009079 -0.007385
1.664558 1.018232 1.135313 -0.042859 -0.020568 0.017700
1.664558 0.032140 0.034558 -0.056146 -0.014245 0.011379
1.360434 0.741840 0.826781 -0.042859 -0.014658 0.013237
1.440467 0.814575 0.261897 -0.042859 -0.006173 -0.005830
1.248389 0.640011 0.456759 -0.042858 -0.011145 -0.010293
1.584525 0.945497 1.054120 -0.042856 -0.014916 0.013445
1.616538 0.075781 1.086597 -0.056146 -0.010475 -0.008486
1.552512 0.133969 1.021643 -0.056145 -0.013826 -0.011064
1.488486 0.192157 0.956689 -0.056147 -0.017176 -0.013536
1.552512 0.916403 0.148227 -0.042858 -0.016971 -0.015060
1.493862 0.404073 0.470835 -0.056147 -0.009166 0.007454
0.593939 0.591273 0.638191 -0.000001 0.778092 0.000006
1.772419 0.331399 0.374390 0.073610 -0.003543 0.003171
2.169693 0.537864 0.668858 -0.000001 0.155726 0.000047
1.810772 0.431980 0.687447 0.073610 -0.003760 -0.003364
1.554316 0.762284 0.860252 -0.042858 -0.006173 0.005831
1.583845 0.612964 0.513585 0.073611 0.007520 0.006702
3.155139 0.367264 0.760939 0.001765 0.250993 0.001666
3.410045 0.615148 0.484809 -0.003959 -0.138878 -0.003617
3.426620 0.671111 0.421691 -0.003960 0.085805 0.003559
3.006812 0.595734 0.632120 0.000001 0.833273 0.000020
3.309728 0.648705 0.721835 -0.003960 -0.197444 0.003688
2.465147 0.558087 0.506692 0.000000 0.375997 -0.000018
0.157621 0.522821 0.667711 -0.122645 -0.000001 0.000081
1.824623 1.011518 1.127818 0.056193 -0.009851 0.008693
1.824623 0.003046 1.167790 0.056194 0.009851 0.008693
1.824623 0.307413 0.341840 0.056194 0.008525 -0.007551
1.824623 0.957806 0.102010 0.056194 -0.015911 -0.013716
1.824623 0.271605 0.868002 0.056195 0.015532 0.013413
1.824623 0.182085 0.967931 0.056195 0.010987 0.009660
1.824623 0.379029 0.421783 0.056195 0.010040 -0.008855
1.824623 0.671343 0.421783 0.056194 -0.010040 -0.008855
1.824623 0.725055 0.808044 0.056194 -0.004263 0.003808
1.824623 0.921998 0.141982 0.056194 -0.009472 -0.008368
0.446212 0.588932 0.528897 0.000000 0.746454 -0.000003
1.653095 0.592536 0.495285 0.056194 -0.002463 -0.002204
0.889392 0.454365 0.538161 0.000001 -0.795373 -0.000003
2.218935 0.571802 0.514010 -0.000000 0.552302 -0.000011
3.236066 0.366720 0.761337 0.001766 0.250811 0.001667
1.283331 0.608474 0.568600 -0.000001 0.944229 -0.000001
1.726512 0.579178 0.650426 0.000000 0.644001 0.000018
1.771353 0.107541 0.124619 0.073611 -0.007231 0.006447
1.657573 0.610059 0.585238 -0.000000 0.999599 0.000000
1.538919 0.689800 0.783338 -0.042859 -0.007201 0.006777
1.513259 0.636467 0.444015 -0.042857 -0.022496 -0.019014
2.612874 0.598237 0.628146 -0.000000 0.863592 0.000009
2.612874 0.480614 0.512708 0.000001 -0.527513 -0.000024
1.771353 0.112703 1.049875 0.056195 0.004736 0.004228
0.889392 0.573220 0.654915 0.000000 0.576204 0.000011
1.086362 0.467681 0.647367 -0.000001 -0.682037 0.000008
1.705222 0.967123 0.085589 -0.042858 -0.012344 -0.011321
1.684524 0.411611 0.473651 0.073611 -0.009545 0.008480
1.529543 0.570530 0.513188 0.000000 0.528556 -0.000048
2.612874 0.598867 0.542804 0.000000 0.863779 -0.000004
1.037120 0.597714 0.540845 -0.000001 0.848146 -0.000009
3.069676 0.410744 0.457606 0.001766 0.192939 -0.001625
1.614742 0.423636 0.453873 0.056195 0.007388 -0.006562
1.478659 0.610054 0.585389 -0.000000 0.999587 0.000000
1.628027 0.495810 0.664562 -0.000000 -0.349405 0.000080
2.317420 0.450532 0.625311 -0.000001 -0.841303 0.000002
0.643181 0.465279 0.645056 0.000000 -0.707089 0.000060
2.266536 0.524429 0.669795 0.000000 -0.028717 0.000009
1.504570 0.818329 0.263009 -0.056146 0.009428 0.007662
2.366662 0.568626 0.657852 0.000001 0.440434 0.000004
1.617809 0.819331 0.245893 -0.042859 -0.010287 -0.009546
1.431058 0.443743 0.608849 0.000000 -0.955361 0.000005
1.628027 0.448576 0.548408 0.000000 -0.903181 -0.000007
2.584970 0.440370 0.582664 -0.000000 -0.999588 -0.000000
1.628027 0.556929 0.663648 -0.000000 0.375932 0.000037
0.132559 0.464622 0.634458 -0.211874 -0.000139 0.000107
2.071208 0.497235 0.665076 0.000000 -0.322594 0.000022
1.593889 0.321787 0.342473 -0.042857 0.006173 -0.005831
2.859085 0.461894 0.641482 -0.000000 -0.746230 0.000027
1.972724 0.455905 0.535910 0.000000 -0.816864 -0.000003
0.347727 0.442173 0.567264 0.000000 -0.977142 -0.000013
3.325246 0.440338 0.582587 0.000000 -0.999900 -0.000000
0.396969 0.442028 0.601940 -0.000000 -0.975414 0.000002
3.253024 0.558228 0.663121 0.000000 0.402264 0.000008
0.790908 0.596509 0.538919 -0.000000 0.833223 -0.000005
0.790908 0.598943 0.626936 -0.000001 0.863064 0.000009
0.396969 0.608990 0.598362 0.000001 0.987051 0.000002
1.504570 0.232043 0.906862 -0.056146 -0.009428 -0.007662
1.504570 0.818329 0.906862 -0.056148 0.009427 -0.007661
0.840150 0.479810 0.656662 0.000000 -0.528655 0.000003
2.711358 0.597734 0.628993 -0.000000 0.848458 0.000009
1.276919 0.436917 0.491509 -0.056147 -0.009078 0.007385
0.495454 0.465601 0.645378 -0.000000 -0.707113 0.000030
1.923481 0.597714 0.540845 -0.000001 0.848146 -0.000009
2.947721 0.440400 0.588267 0.000000 -0.999593 0.000000
3.105297 0.603429 0.552034 -0.000000 0.924902 -0.000003
0.249242 0.590847 0.638724 0.000000 0.765115 0.000002
1.455067 0.627594 0.679767 -0.056146 0.009166 -0.007454
2.612874 0.476718 0.654609 -0.000000 -0.576164 0.000042
1.680795 0.745881 0.843425 0.056195 -0.008525 0.007551
2.809843 0.586603 0.526357 -0.000000 0.721882 -0.000004
2.914613 0.615560 0.686029 0.001763 0.350385 -0.001805
3.040505 0.655151 0.439648 0.001764 0.350149 0.001806
1.135604 0.441072 0.573607 -0.000000 -0.991767 -0.000001
3.116706 0.675172 0.417754 0.001763 -0.222792 -0.001642
2.514389 0.453719 0.630729 0.000000 -0.848646 0.000005
2.071208 0.586213 0.525943 0.000000 0.721882 -0.000004
2.563632 0.573097 0.514868 0.000000 0.575942 -0.000005
1.473335 0.680128 0.427965 -0.056147 0.009166 0.007454
1.529543 0.492460 0.663249 0.000000 -0.376099 0.000037
1.216376 0.439455 0.489236 -0.056148 -0.018153 0.014235
0.790908 0.457424 0.533830 -0.000000 -0.800489 -0.000011
2.317420 0.487872 0.661172 0.000000 -0.428132 0.000016
1.276919 0.613455 0.678361 -0.056148 0.009078 -0.007385
3.288297 0.292182 0.845032 0.001765 -0.302128 -0.001744
0.544696 0.592027 0.532628 0.000000 0.783167 -0.000003
1.086362 0.539883 0.501339 0.000001 0.176901 -0.000021
0.889392 0.573220 0.514955 -0.000000 0.574943 -0.000011
2.465147 0.460500 0.529987 0.000001 -0.760549 -0.000006
2.415905 0.490064 0.507663 0.000001 -0.398082 -0.000017
1.745784 0.231463 0.265779 0.073610 -0.011858 0.010489
3.351509 0.605131 0.556411 -0.152486 0.000263 -0.000090
0.643181 0.608030 0.566487 -0.000000 0.977112 -0.000006
1.780942 0.251300 0.885837 0.073611 -0.005930 -0.005295
2.711358 0.475233 0.516310 0.000001 -0.564714 -0.000005
1.529543 0.485442 0.509936 -0.000000 -0.479348 -0.000007
0.347727 0.486655 0.660557 0.000000 -0.453967 0.000029
1.623265 0.405375 0.735663 0.056195 0.007388 0.006562
3.056055 0.469775 0.649230 0.000001 -0.525835 0.000003
2.775373 0.522309 0.500136 -0.000000 -0.028717 -0.000035
1.972724 0.486520 0.660488 -0.000000 -0.451355 0.000007
2.218935 0.453239 0.629957 -0.000000 -0.848646 0.000005
1.740457 0.640958 0.448601 0.056195 -0.012502 -0.010933
2.908328 0.582911 0.647159 0.000000 0.686584 0.000032
1.283331 0.566526 0.659063 -0.000001 0.473337 0.000007
3.438916 0.481404 0.536062 0.206206 -0.000020 -0.000023
1.513260 0.703941 0.373307 -0.042858 -0.003601 -0.003424
1.531184 0.440318 0.585389 0.000000 -0.999593 0.000000
3.056055 0.476099 0.515697 0.000000 -0.576233 -0.000021
2.711358 0.595546 0.537466 -0.000000 0.833384 -0.000020
0.157621 0.518100 0.502429 -0.114396 -0.000025 -0.000526
3.438916 0.481404 0.633808 0.206206 -0.000020 0.000023
1.406009 0.424567 0.487937 -0.056147 -0.004539 0.003728
1.234089 0.442775 0.564644 -0.000000 -0.969503 -0.000002
0.249242 0.596530 0.538950 0.000001 0.823450 -0.000005
3.302266 0.496626 0.505004 0.000000 -0.349447 -0.000320
1.184846 0.442446 0.603864 -0.000000 -0.977150 0.000006
0.692423 0.462755 0.527430 0.000000 -0.726980 -0.000007
2.317420 0.584233 0.645910 0.000000 0.686554 0.000008
2.908328 0.477183 0.514934 0.000000 -0.575942 -0.000005
3.006812 0.559684 0.507389 -0.000000 0.402364 -0.000068
1.649899 0.806276 0.879383 -0.056148 0.008590 -0.006997
1.775754 0.500114 0.666020 0.000000 -0.295855 0.000012
2.120450 0.469346 0.648857 -0.000000 -0.665410 0.000008
0.643181 0.495455 0.505440 -0.000000 -0.349437 -0.000080
1.503607 0.306800 0.816223 -0.056144 -0.002776 -0.002285
1.824997 0.440348 0.583421 -0.000000 -0.999593 -0.000000
1.234089 0.497845 0.665283 0.000000 -0.322594 0.000022
1.184846 0.538014 0.668834 -0.000001 0.156292 0.000094
3.169420 0.412584 0.459941 0.001764 0.251013 -0.001665
1.677270 0.490757 0.507359 0.000000 -0.402449 -0.000017
1.728738 0.766134 0.326576 0.073611 0.013015 0.011482
3.411722 0.572707 0.531717 0.206207 0.000040 -0.000045
3.248181 0.421998 0.701103 0.001765 -0.397361 -0.001886
1.704767 0.291872 0.832120 0.073611 -0.006508 -0.005808
3.302266 0.602267 0.620470 -0.000001 0.903049 0.000007
1.381816 0.470760 0.519810 0.000000 -0.643944 -0.000035
1.480300 0.477528 0.514701 0.000000 -0.552565 -0.000023
2.465147 0.512882 0.668917 -0.000001 -0.156254 0.000047
1.453937 0.392896 0.744186 -0.042858 0.022495 0.019013
1.731934 0.900209 1.011384 0.056193 -0.005494 0.004899
3.346681 0.405605 0.717669 -0.003960 0.162137 0.003642
1.638597 0.853996 0.208275 -0.042857 -0.018514 -0.016222
2.760601 0.601618 0.621839 -0.000001 0.903063 0.000007
1.776680 0.754546 0.835662 0.073611 0.006508 -0.005808
3.203782 0.603629 0.552525 -0.000000 0.926577 -0.000012
1.824623 0.760863 0.321854 0.056194 -0.015532 -0.013413
0.347727 0.593720 0.635009 -0.000002 0.591909 0.000002
1.578785 0.563987 0.660420 0.000000 0.454126 0.000007
1.332573 0.606670 0.608703 0.000001 0.957338 0.000002
3.502088 0.707128 0.381837 -0.003959 0.220129 0.003702
1.416272 0.457139 0.674524 -0.042858 0.022495 0.019013
1.234089 0.598390 0.627884 0.000001 0.862759 0.000009
2.071208 0.491104 0.507206 0.000000 -0.402305 -0.000034
1.248389 0.410361 0.713112 -0.056147 -0.009078 -0.007385
1.312415 0.698199 0.391805 -0.042858 -0.011145 -0.010293
1.601764 0.206087 0.929766 -0.056147 -0.008380 -0.006830
1.775754 0.450114 0.624546 0.000000 -0.877444 0.000001
1.234089 0.598771 0.542640 0.000000 0.863380 -0.000004
0.446212 0.535050 0.500632 0.000001 0.127778 -0.000058
0.396969 0.481096 0.512407 0.000000 -0.528655 -0.000012
1.184846 0.477907 0.514449 0.000000 -0.552560 -0.000011
1.683992 0.389202 0.721175 0.073611 -0.009545 -0.008480
3.273223 0.619506 0.478526 -0.003959 0.151860 0.003612
1.627526 0.654128 0.424374 0.056196 -0.012502 -0.010933
1.513259 0.655651 0.708670 -0.056147 0.018328 -0.014359
1.677270 0.596216 0.538477 0.000000 0.833204 -0.000010
3.253024 0.565196 0.510081 -0.000000 0.479092 -0.000027
1.473335 0.370244 0.427965 -0.056147 -0.009166 0.007454
0.554545 0.528820 0.669713 0.000000 0.028728 0.000017
2.465147 0.596132 0.538350 0.000001 0.830754 -0.000005
0.643181 0.571644 0.655965 -0.000000 0.552597 0.000090
3.386472 0.545272 0.496934 -0.151935 0.000195 -0.001148
0.544696 0.455206 0.536901 -0.000000 -0.816965 -0.000005
0.298485 0.458722 0.637717 0.000000 -0.783100 0.000024
2.317420 0.596853 0.539463 0.000000 0.848058 -0.000005
1.086362 0.451849 0.542215 0.000000 -0.863590 -0.000004
2.415905 0.482826 0.658482 0.000001 -0.504074 0.000051
3.203782 0.566858 0.510989 0.000002 0.438431 -0.000007
1.874239 0.478412 0.514115 0.000001 -0.539590 -0.000006
1.060099 0.526095 0.669790 -0.000000 0.028335 0.000035
1.532841 0.848867 0.228448 -0.056148 0.008590 0.006997
3.438916 0.623385 0.590169 -0.165437 0.000276 0.000011
2.465147 0.598447 0.627786 -0.000001 0.862978 0.000017
3.438916 0.547858 0.628566 1.000000 0.000000 0.000000
3.438916 0.574199 0.581012 1.000000 0.000000 -0.000000
3.438916 0.531712 0.536201 1.000000 0.000000 0.000000
3.438916 0.476017 0.584935 1.000000 0.000000 0.000000
1.726512 0.441660 0.569865 0.000001 -0.982627 -0.000006
1.710626 0.836652 0.227637 0.056195 -0.007009 -0.006231
1.923481 0.446131 0.554034 0.000000 -0.926621 -0.000001
1.596630 0.617025 0.463186 0.056194 -0.009851 -0.008693
1.726512 0.596913 0.539559 0.000000 0.848898 -0.000019
3.263771 0.391981 0.435470 0.001763 -0.249444 0.001690
3.363833 0.781944 0.871549 0.001765 0.249240 -0.001691
2.957570 0.602397 0.620196 0.000000 0.903064 0.000001
1.529543 0.553852 0.664827 0.000000 0.349312 0.000020
1.628027 0.551774 0.504331 0.000000 0.322594 -0.000022
2.021966 0.561850 0.508390 -0.000001 0.424330 -0.000008
2.218935 0.603098 0.551269 -0.000000 0.914651 -0.000003
1.532841 0.201505 0.228448 -0.056147 -0.017176 0.013536
3.105297 0.572528 0.514491 0.000001 0.552300 -0.000045
2.966301 0.623444 0.474972 0.001767 0.249064 0.001693
3.061691 0.363445 0.765484 0.001764 -0.191825 -0.001648
3.263771 0.658391 0.734400 0.001763 0.249538 -0.001689
3.304676 0.336842 0.794759 0.001766 0.352302 0.001780
3.464547 0.813616 0.262967 0.001767 0.249026 0.001693
3.212762 0.315937 0.818516 0.001765 -0.221021 -0.001669
2.809843 0.599020 0.626805 -0.000000 0.863950 0.000002
1.433410 0.345767 0.775141 -0.056148 -0.005971 -0.004893
3.006812 0.597413 0.540363 0.000001 0.848143 -0.000019
1.737261 0.275268 0.298587 0.056195 0.007767 -0.006893
1.705222 0.974040 1.078085 -0.056146 0.010056 -0.008157
1.693580 0.259195 0.892909 0.056194 0.007767 0.006893
0.692423 0.573220 0.514955 -0.000001 0.539752 -0.000003
2.021966 0.582746 0.647315 0.000001 0.682037 0.000008
3.400990 0.718286 0.368751 -0.003959 0.141384 0.003602
1.549533 0.419084 0.675895 -0.056148 -0.005587 -0.004581
1.708367 1.013357 0.036945 -0.042858 -0.020568 -0.017700
1.135604 0.566160 0.659263 -0.000000 0.478542 0.000014
3.253024 0.451391 0.543000 0.000000 -0.863561 -0.000004
0.790908 0.564122 0.660351 -0.000001 0.453501 0.000029
3.113434 0.434341 0.484263 0.001766 0.192940 -0.001625
3.112048 0.347609 0.783161 0.001766 -0.220940 -0.001669
0.593939 0.609695 0.592802 -0.000001 0.994410 0.000001
1.708367 0.033505 1.129781 -0.056146 -0.014245 -0.011379
2.809843 0.559303 0.662649 0.000000 0.402366 0.000068
2.071208 0.545147 0.667428 -0.000002 0.148679 0.000012
3.410045 0.615148 0.685061 -0.003959 -0.264307 0.003803
3.454709 0.603508 0.497506 -0.003959 0.168345 0.003631
1.037120 0.450260 0.624812 0.000001 -0.876965 0.000008
3.223138 0.637241 0.459009 0.001765 0.397369 0.001886
2.941122 0.434568 0.685810 0.001765 0.352379 0.001780
3.167728 0.686788 0.765608 0.001763 0.397623 -0.001885
1.683837 0.065488 1.093137 -0.056146 -0.017595 -0.013837
2.873858 0.610053 0.585920 0.000000 0.999900 0.000000
3.351509 0.492144 0.663121 -0.146839 -0.000109 0.000267
3.248181 0.629350 0.700229 0.001764 -0.400170 0.001857
2.662116 0.546250 0.502715 0.000000 0.240324 -0.000060
0.692423 0.608796 0.599558 0.000000 0.982828 0.000001
2.859085 0.561679 0.508309 -0.000001 0.428163 -0.000063
1.381816 0.597393 0.540331 -0.000000 0.848039 -0.000002
0.593939 0.567187 0.511178 -0.000000 0.503855 -0.000026
2.760601 0.445506 0.555701 -0.000000 -0.936596 -0.000006
1.534397 0.442671 0.472845 -0.042857 0.006859 -0.006463
1.292925 0.623528 0.471263 -0.042859 -0.008359 -0.007829
0.741666 0.444581 0.558347 -0.000000 -0.926314 -0.000001
1.534658 0.369703 0.773505 -0.042859 0.007202 0.006777
3.006812 0.489138 0.508098 -0.000000 -0.428343 -0.000063
3.126023 0.430382 0.690027 0.001766 0.222427 0.001644
1.481950 0.758408 0.333728 -0.056148 0.005447 0.004468
1.398098 0.741551 0.346770 -0.056146 0.002986 0.002457
1.597021 0.784665 0.283511 -0.042857 -0.011316 -0.010442
3.178376 0.426371 0.694399 0.001765 0.225757 0.001646
3.178376 0.624001 0.475471 0.001766 -0.225672 -0.001647
2.941122 0.434846 0.483811 0.001764 -0.350147 0.001806
2.966301 0.623722 0.694649 0.001763 -0.251219 0.001664
3.203782 0.479201 0.513591 -0.000000 -0.551784 -0.000006
1.596630 0.639117 0.686894 0.073612 0.007520 -0.006702
2.908328 0.484046 0.659172 0.000001 -0.387297 0.000004
1.367734 0.606078 0.684969 -0.042861 -0.005572 0.005273
1.972724 0.452345 0.628506 -0.000000 -0.863370 0.000002
3.105297 0.490272 0.662298 -0.000000 -0.399522 0.000004
3.421434 0.493596 0.494655 -0.151934 -0.000459 -0.001108
0.200000 0.537266 0.500918 0.017067 0.000189 -0.001192
1.677270 0.553994 0.505096 0.000000 0.349312 -0.000020
0.446212 0.452307 0.541430 0.000000 -0.863552 -0.000017
3.351509 0.447975 0.620196 -0.152557 -0.000251 0.000119
1.578785 0.505961 0.502260 0.000000 -0.240406 -0.000030
3.478918 0.733874 0.818100 -0.003960 0.220096 -0.003703
3.509985 0.325974 0.807312 -0.003960 -0.168303 -0.003631
3.533674 0.776208 0.304724 -0.003960 0.220074 0.003703
0.290278 0.610036 0.582739 0.000000 0.999888 -0.000000
2.120450 0.599477 0.543894 -0.000001 0.874132 -0.000004
1.737261 0.793008 0.891269 0.056194 -0.015532 0.013413
2.612874 0.449306 0.546910 0.000000 -0.890937 -0.000002
2.612874 0.564764 0.660024 0.000001 0.436945 0.000004
3.173052 0.655534 0.729879 0.001764 -0.225852 0.001645
3.391537 0.292923 0.843925 0.001765 0.250988 0.001666
3.391537 0.292923 0.325945 0.001766 0.250841 -0.001667
3.363833 0.781944 0.298322 0.001764 0.249339 0.001691
1.135604 0.489925 0.662146 0.000000 -0.428268 0.000031
1.037120 0.486790 0.509244 0.000000 -0.453988 -0.000029
0.968180 0.610060 0.584405 0.000000 0.999900 -0.000000
2.268178 0.560721 0.507854 0.000000 0.428467 -0.000031
2.529162 0.610002 0.582664 0.000000 0.999599 -0.000000
0.902524 0.440315 0.585617 0.000000 -0.999894 0.000000
2.957570 0.453947 0.631078 -0.000000 -0.833264 0.000010
2.263253 0.610046 0.585692 0.000000 0.999587 0.000000
1.615807 0.736535 0.372110 -0.056146 0.002567 0.002113
1.672272 0.307990 0.359336 0.073610 -0.007087 0.006319
1.779876 0.973835 0.080344 0.056195 -0.015910 -0.013716
1.779876 0.076537 0.080344 0.056195 0.015911 -0.013716
1.779876 0.973835 1.089527 0.056196 -0.015910 0.013716
1.780942 0.790120 0.294027 0.073611 0.011858 0.010488
1.693580 0.794923 0.298329 0.073610 0.006508 0.005808
3.327980 0.662746 0.432291 -0.003960 -0.162148 -0.003642
3.154539 0.560170 0.507603 0.000000 0.401990 -0.000017
1.779876 0.072202 1.085643 0.073612 -0.012147 -0.010737
2.809843 0.450387 0.544825 0.000001 -0.874132 -0.000004
2.268178 0.446373 0.616433 0.000000 -0.924786 0.000002
1.135604 0.502659 0.503106 -0.000001 -0.261065 -0.000014
3.460665 0.330331 0.802168 -0.003959 0.219667 0.003720
3.460665 0.330331 0.367702 -0.003959 0.219633 -0.003721
3.492251 0.261529 0.879530 -0.003960 -0.220097 -0.003703
0.116155 0.468041 0.538208 -0.275753 -0.000099 -0.000076
1.184846 0.601683 0.621702 0.000000 0.903469 0.000007
0.446212 0.608747 0.570052 -0.000000 0.982460 -0.000001
3.374548 0.323171 0.809950 0.001766 0.303986 0.001719
3.374548 0.323171 0.359920 0.001764 0.162585 -0.001607
0.741666 0.598294 0.628048 -0.000001 0.863371 0.000017
3.246130 0.330557 0.367465 0.001765 -0.221021 0.001669
1.760699 0.023629 0.019666 0.056195 0.012881 -0.011248
1.760699 1.026743 0.019666 0.056196 -0.012881 -0.011248
2.992810 0.426615 0.475253 0.001764 0.251025 -0.001665
3.027916 0.398971 0.444255 0.001766 0.162442 -0.001608
3.192228 0.439594 0.488409 0.001765 -0.397409 0.001886
1.312415 0.352173 0.391805 -0.056148 -0.006809 0.005570
1.354691 0.710378 0.789108 -0.056136 0.002270 -0.001869
0.544696 0.449100 0.622555 -0.000000 -0.890848 0.000004
2.780298 0.609981 0.581907 0.000000 0.999599 -0.000000
3.199236 0.349490 0.781306 0.001764 -0.249323 -0.001691
1.742055 0.698262 0.769003 0.073611 0.001916 -0.001716
1.666945 0.825868 0.933881 0.056195 -0.007009 0.006231
1.666945 0.224504 0.235989 0.056195 0.007009 -0.006231
0.347727 0.600860 0.546505 -0.000001 0.890104 -0.000008
2.760601 0.562227 0.661302 0.000001 0.424960 0.000016
2.366662 0.566659 0.510880 0.000001 0.479031 -0.000027
1.536660 0.266673 0.881596 -0.042859 0.006173 0.005831
1.332573 0.557701 0.506535 -0.000001 0.374339 -0.000037
3.006812 0.453968 0.538761 -0.000001 -0.823197 -0.000003
1.332573 0.493513 0.506194 -0.000000 -0.375967 -0.000018
2.514389 0.566990 0.658807 0.000001 0.485476 0.000007
1.824997 0.488556 0.661497 0.000000 -0.428429 0.000031
1.037120 0.600221 0.624613 -0.000001 0.867190 0.000002
1.037120 0.564964 0.509954 0.000000 0.478542 -0.000014
0.033596 0.555509 0.577884 -0.598581 0.000020 -0.000004
1.597387 0.917217 0.151208 -0.056147 0.006914 0.005654
1.585719 0.201057 0.216466 -0.042857 0.010288 -0.009547
1.689319 0.786205 0.861338 0.073611 0.013015 -0.011482
1.667908 0.134468 1.010833 -0.056148 -0.006076 -0.004977
1.699844 0.055277 0.056610 -0.042858 0.020568 -0.017700
1.745784 0.239103 0.910935 0.056195 0.014017 0.012185
3.302266 0.562671 0.661090 0.000001 0.453972 0.000234
0.124320 0.548721 0.512503 -0.243947 0.000049 -0.000138
1.360434 0.308532 0.343089 -0.056147 -0.011941 0.009625
1.547622 0.453321 0.535355 0.073610 -0.007520 0.006702
2.514389 0.451276 0.543196 0.000000 -0.877715 -0.000004
1.683992 0.876018 0.208865 -0.056147 0.006914 0.005654
0.748231 0.522309 0.500136 -0.000000 -0.028717 -0.000035
1.332573 0.566160 0.659263 -0.000000 0.478350 0.000007
0.157621 0.444528 0.603691 -0.114431 -0.000342 0.000069
1.536506 0.148516 0.164466 -0.056147 -0.006914 0.005654
2.686737 0.609994 0.587509 0.000000 0.999599 0.000000
2.120450 0.599550 0.625843 -0.000000 0.876522 0.000004
1.680173 0.931895 1.029155 -0.056147 0.005866 -0.004808
1.445831 0.524429 0.669795 0.000000 -0.028717 0.000009
0.889392 0.487600 0.508832 0.000000 -0.453967 -0.000015
2.711358 0.451222 0.626574 0.000000 -0.877805 0.000002
1.415143 0.652072 0.456868 -0.056147 0.018327 0.014359
3.236535 0.698327 0.392029 0.001761 -0.115396 -0.001585
1.789465 0.870219 0.966200 0.073610 0.004773 -0.004267
0.840150 0.449908 0.624141 0.000000 -0.891019 0.000015
1.708367 1.016867 1.129781 -0.056147 0.014245 -0.011379
1.431058 0.442738 0.564791 0.000000 -0.970566 -0.000004
0.108071 0.596275 0.580870 -0.315084 0.000052 -0.000001
3.351509 0.450114 0.545324 -0.146350 -0.000254 -0.000139
3.105297 0.564494 0.660162 0.000001 0.452112 0.000015
3.261245 0.691570 0.770176 0.001767 -0.222326 0.001645
1.710626 0.836652 0.942234 0.056195 -0.007009 0.006231
1.780942 0.251300 0.284034 0.073611 -0.005930 0.005295
2.291157 0.524126 0.500084 0.000000 -0.028335 -0.000018
3.261231 0.610036 0.587132 0.000000 0.999888 0.000000
1.923481 0.564156 0.660334 -0.000001 0.452112 0.000015
2.735980 0.522612 0.669743 0.000000 -0.028728 0.000138
0.790908 0.491867 0.506871 0.000000 -0.402449 -0.000034
1.381816 0.487195 0.660832 0.000000 -0.453967 0.000015
1.775754 0.559337 0.507237 0.000000 0.402633 -0.000004
1.874239 0.465654 0.645431 -0.000000 -0.707068 0.000030
3.419242 0.732397 0.816802 -0.003960 0.220099 -0.003703
1.710626 0.213720 0.227637 0.056194 0.007010 -0.006231
3.056055 0.601878 0.621291 0.000000 0.903594 0.000007
0.033596 0.506176 0.560282 -0.598579 -0.000015 -0.000018
3.363833 0.268428 0.871549 0.001765 -0.249240 -0.001691
3.465810 0.797270 0.888797 0.001765 0.249240 -0.001691
1.561112 0.879406 0.193888 -0.056146 0.007752 0.006328
1.480300 0.449014 0.547484 0.000000 -0.903594 -0.000007
1.556055 0.372380 0.437872 -0.056148 -0.002986 0.002457
2.889434 0.607851 0.492868 0.001765 -0.433890 -0.001927
1.434373 0.779362 0.304091 -0.056148 0.002567 0.002113
1.561112 0.879406 0.975983 -0.056147 0.015501 -0.012314
1.647120 0.178115 0.188610 -0.042858 0.009259 -0.008637
1.448027 0.293119 0.837741 -0.056146 -0.005552 -0.004553
2.612874 0.448770 0.621873 0.000000 -0.902278 0.000004
2.711358 0.563110 0.509004 -0.000000 0.454006 -0.000059
1.568840 0.704145 0.407264 -0.056148 0.005866 0.004808
1.628027 0.440505 0.590650 0.000000 -0.997450 0.000001
1.626994 0.369410 0.394376 0.056195 0.002510 -0.002247
2.680171 0.440370 0.582664 0.000000 -0.999593 -0.000000
1.680173 0.127045 0.133040 -0.042857 0.007202 -0.006778
1.655226 0.689608 0.749737 0.073610 0.003833 -0.003429
1.507432 0.620984 0.502757 -0.056145 0.002794 0.002299
3.253024 0.497952 0.665320 0.000000 -0.322594 0.000088
0.593939 0.484245 0.659281 0.000000 -0.478542 0.000014
2.809843 0.489549 0.507903 0.000000 -0.428005 -0.000016
0.973104 0.523520 0.500102 0.000000 -0.028717 -0.000035
3.230044 0.440333 0.582966 -0.000000 -0.999897 -0.000000
2.366662 0.497235 0.665076 0.000000 -0.322594 0.000011
0.200000 0.451276 0.543196 0.017064 -0.001059 -0.000577
2.197597 0.525640 0.500067 0.000000 0.028728 -0.000069
1.271841 0.440318 0.585389 0.000000 -0.999593 0.000000
2.501258 0.527155 0.500110 0.000000 0.028717 -0.000017
1.675469 0.191789 0.940600 0.073611 -0.010701 -0.009487
0.166060 0.583577 0.645018 -0.081655 0.000356 0.000346
1.541033 0.525640 0.500067 0.000000 0.028728 -0.000017
1.590238 0.684228 0.736543 -0.056146 0.011732 -0.009463
2.110602 0.524277 0.500080 -0.000000 -0.028324 -0.000018
3.403953 0.583143 0.657611 -0.151937 0.000799 0.000894
3.187115 0.711720 0.376588 0.001764 0.221166 0.001668
1.742055 0.352110 0.400867 0.073610 -0.001916 0.001716
0.092183 0.472445 0.623254 -0.369235 -0.000066 0.000045
2.120450 0.450713 0.544227 0.000000 -0.877586 -0.000008
2.859085 0.449186 0.547146 0.000000 -0.890679 -0.000008
3.129961 0.375182 0.417770 0.001764 0.222597 -0.001643
1.677270 0.450114 0.545324 0.000000 -0.891018 -0.000004
3.053094 0.391053 0.734454 0.001763 0.193208 0.001623
1.685590 0.701366 0.403648 0.073610 0.001916 0.001716
3.154539 0.597950 0.628637 0.000000 0.863613 0.000017
2.179541 0.610041 0.584027 0.000000 0.999599 -0.000000
1.534397 0.630653 0.676463 -0.056149 0.005587 -0.004581
1.635517 0.351149 0.795161 0.056194 0.010040 0.008855
1.568840 0.346227 0.407264 -0.056147 -0.002933 0.002414
2.021966 0.447945 0.620127 -0.000000 -0.907810 0.000002
1.492732 0.689480 0.751540 -0.056147 0.005971 -0.004893
0.889392 0.600980 0.623129 -0.000000 0.890696 0.000008
0.157621 0.597293 0.544215 -0.114431 0.000308 -0.000163
2.514389 0.484577 0.659462 -0.000001 -0.388564 0.000004
0.692423 0.451276 0.626674 0.000000 -0.877715 0.000004
3.105297 0.490723 0.507374 0.000001 -0.401995 -0.000034
3.096186 0.411197 0.712670 0.001765 -0.350032 -0.001807
3.086869 0.694845 0.774322 0.001764 0.393000 -0.001877
0.200000 0.513106 0.668952 0.017067 -0.000189 0.001192
0.298485 0.553710 0.504990 0.000000 0.349447 -0.000160
1.435670 0.618242 0.499738 -0.056146 0.009166 0.007454
1.972724 0.488419 0.508438 -0.000001 -0.424960 -0.000016
1.685057 0.616352 0.671263 0.073613 0.005640 -0.005038
3.154539 0.562227 0.661302 0.000000 0.428255 0.000016
3.452509 0.386983 0.739033 -0.003959 0.071517 0.003566
2.415905 0.538014 0.501036 0.000000 0.156548 -0.000047
1.923481 0.442245 0.602939 0.000001 -0.973578 0.000002
2.317420 0.456992 0.534406 -0.000001 -0.800323 -0.000022
3.377300 0.383269 0.427147 -0.003959 0.085641 -0.003575
3.325454 0.694532 0.395267 0.001763 0.191882 0.001648
1.683992 0.647543 0.733382 0.056195 -0.012502 0.010933
1.520499 0.163063 0.989166 -0.056148 -0.015501 -0.012314
3.121364 0.647093 0.721508 0.001763 0.393277 -0.001876
2.859085 0.494745 0.505705 0.000000 -0.349549 -0.000040
2.957570 0.566659 0.510880 -0.000001 0.468129 -0.000007
1.726512 0.563650 0.509279 0.000001 0.436218 -0.000004
1.824623 0.814575 0.907974 0.056195 -0.014017 0.012185
3.253024 0.448527 0.621360 -0.000000 -0.903511 0.000014
1.578785 0.443662 0.608557 -0.000000 -0.963249 0.000002
3.056055 0.449048 0.547416 0.000000 -0.890937 -0.000002
2.169693 0.496378 0.664774 0.000001 -0.349465 0.000080
1.592368 0.419973 0.676691 0.073611 -0.007520 -0.006702
1.592368 0.419973 0.493179 0.073609 -0.003760 0.003364
2.218935 0.449203 0.547113 0.000000 -0.890484 -0.000004
1.785203 0.219546 0.929440 0.056195 0.007009 0.006231
1.552054 0.653760 0.423482 -0.042858 -0.003665 -0.003485
2.760601 0.486520 0.660488 -0.000001 -0.453672 0.000029
3.403953 0.615811 0.564251 -0.151935 0.001153 -0.000332
1.685590 0.349006 0.766222 0.073612 -0.001916 -0.001716
1.542920 0.648089 0.473001 -0.056148 0.018327 0.014359
1.755372 0.596824 0.499126 0.056193 -0.004926 -0.004396
1.982572 0.525640 0.669803 -0.000005 0.006424 0.000155
2.957570 0.448365 0.548853 -0.000000 -0.903426 -0.000004
3.056055 0.445956 0.615376 -0.000000 -0.935894 0.000003
2.760601 0.600946 0.546674 0.000002 0.670906 -0.000001
1.165149 0.610041 0.585844 -0.000000 0.999588 0.000000
0.830302 0.522460 0.500132 -0.000000 -0.028324 -0.000070
1.972724 0.602945 0.550923 -0.000000 0.912363 -0.000002
0.705554 0.528366 0.669726 0.000000 0.028324 0.000070
1.824997 0.558817 0.507008 0.000001 0.402252 -0.000068
2.218935 0.591862 0.637450 0.000001 0.782578 0.000012
1.584525 0.104875 0.115750 -0.056148 -0.012150 0.009786
1.598761 0.370594 0.776555 0.056196 0.002510 0.002247
1.702103 0.821310 0.267931 0.073611 0.005930 0.005295
1.772419 0.713914 0.369858 0.056195 -0.004642 -0.004144
3.080676 0.526928 0.500079 0.000000 0.014161 -0.000035
0.968180 0.440311 0.585390 0.000000 -0.999900 0.000000
1.524838 0.213011 0.937095 -0.042856 0.010545 0.009772
2.002269 0.440309 0.584784 0.000001 -0.868302 -0.000000
1.598761 0.679778 0.393315 0.056194 -0.002510 -0.002247
3.465810 0.253102 0.281073 0.001765 -0.249309 0.001691
1.824623 0.921998 1.027889 0.056195 -0.009472 0.008368
1.793726 0.162483 0.986395 0.073611 -0.004194 -0.003751
1.824623 0.886191 0.987917 0.056196 -0.010987 0.009660
3.211825 0.705085 0.785507 0.001767 -0.222292 0.001645
2.711358 0.448916 0.547689 0.000000 -0.903457 -0.000007
1.719149 0.863865 0.971892 0.056194 -0.006252 0.005566
2.563632 0.600808 0.546404 0.000000 0.890972 -0.000015
1.601725 0.178870 0.962799 -0.056146 -0.007752 -0.006328
1.780942 0.776935 0.869642 0.056194 -0.007767 0.006893
0.200000 0.451276 0.626674 0.017064 -0.001059 0.000577
2.268178 0.490965 0.507267 0.000000 -0.402305 -0.000034
1.625658 0.944762 1.055905 -0.042857 -0.007202 0.006778
1.402100 0.308127 0.829795 -0.042856 0.003601 0.003424
1.785203 0.812922 0.260416 0.056194 -0.014017 -0.012185
1.719149 0.176287 0.962737 0.073610 -0.004773 -0.004267
0.495454 0.444280 0.610586 0.000000 -0.955360 0.000009
1.511129 0.336905 0.779023 -0.056150 -0.005866 -0.004808
0.298485 0.540702 0.668377 -0.000000 0.184597 0.000159
1.583495 0.339120 0.808589 -0.042860 0.006687 0.006305
1.593889 0.728585 0.827397 -0.042856 -0.006173 0.005831
0.741666 0.602823 0.550645 -0.000001 0.914884 -0.000007
0.889392 0.600327 0.545459 0.000000 0.890937 -0.000004
1.655123 0.879531 0.989380 -0.042858 -0.008230 0.007713
1.611545 0.590794 0.493725 0.056193 -0.004926 -0.004396
3.549468 0.810748 0.266168 -0.003959 0.113846 0.003578
3.478918 0.733874 0.351771 -0.003959 0.220129 0.003702
2.420829 0.440361 0.582967 0.000000 -0.999593 -0.000000
1.785203 0.830826 0.929440 0.056195 -0.007009 0.006231
1.628027 0.605388 0.612707 0.000000 0.946456 0.000005
1.740457 0.649114 0.713963 0.073609 0.009545 -0.008480
0.298485 0.491173 0.507176 0.000000 -0.402315 -0.000068
1.610249 0.161435 0.186665 -0.056146 -0.006914 0.005655
1.789465 0.183559 0.200619 0.056195 0.006252 -0.005566
1.789465 0.866813 0.200619 0.056195 -0.006252 -0.005566
0.149218 0.479150 0.517610 -0.147083 -0.000156 -0.000215
1.419756 0.323657 0.366690 -0.056147 -0.005971 0.004893
3.365381 0.423585 0.472112 -0.003960 0.082552 -0.003574
3.303739 0.366855 0.407527 0.001764 -0.221106 0.001668
3.211825 0.345531 0.384145 0.001765 -0.221068 0.001669
0.249242 0.441358 0.598212 0.000000 -0.987685 0.000009
0.918938 0.610028 0.583572 0.000000 0.999587 -0.000000
1.538049 0.308129 0.838240 -0.042857 0.003344 0.003181
3.154539 0.497666 0.504648 0.000000 -0.322594 -0.000044
1.573377 0.154975 0.994305 -0.056146 -0.006914 -0.005654
1.381816 0.557385 0.506407 0.000000 0.375997 -0.000018
1.510738 0.437789 0.656626 -0.056148 -0.005587 -0.004581
3.203782 0.557772 0.663306 0.000000 0.376091 0.000018
3.091528 0.383362 0.426374 0.001765 -0.221049 0.001669
2.563632 0.497809 0.665271 0.000000 -0.322594 0.000088
1.972724 0.603771 0.616994 0.000000 0.926425 0.000006
3.302266 0.592721 0.533527 0.000000 0.800481 -0.000022
3.469532 0.687680 0.766183 -0.003959 -0.071518 0.003566
3.452509 0.387157 0.430681 -0.003960 -0.071653 0.003550
1.701038 0.898914 0.157326 0.056194 -0.005494 -0.004898
1.701038 0.151458 0.157326 0.056194 0.005494 -0.004898
3.154539 0.447975 0.549674 0.000000 -0.914955 -0.000003
1.465330 0.439692 0.511539 -0.056147 -0.018328 0.014359
1.632853 0.771406 0.331299 -0.056146 0.009428 0.007662
2.033456 0.524429 0.500076 -0.000000 -0.028335 -0.000018
3.006812 0.566360 0.659154 -0.000001 0.477482 0.000027
