-0.011053 -0.270890 -0.217917 -0.045701 -0.679588 0.732169
0.319160 -0.101317 -0.016889 0.000405 -0.979427 -0.197799
1.405003 -0.148608 -0.113948 0.000000 -0.652777 0.757550
0.016784 -0.332091 -0.272985 -0.045701 -0.679588 0.732169
-0.727391 0.077725 0.067150 -0.000050 0.747343 0.663296
-0.072896 -0.289862 -0.239387 -0.045701 -0.679588 0.732169
-0.015176 0.099795 0.094941 -0.016066 -0.642816 0.765852
1.194777 -0.088618 0.051934 -0.000044 -0.833731 0.550732
1.471478 0.322995 -0.264216 -0.088810 0.757071 0.644198
-0.765641 -0.042427 0.093543 -0.000287 -0.362791 0.931048
0.075294 -0.042540 0.093491 -0.000013 -0.438441 0.897886
1.429742 -0.199147 -0.185711 0.000000 0.652777 -0.757550
-1.423765 0.073699 -0.071546 0.000047 0.679488 -0.732625
-0.198634 -0.191771 -0.168293 -0.016066 0.642816 -0.765852
0.145074 0.470353 0.398056 0.129329 0.647295 -0.751188
1.557981 0.198279 -0.170856 0.257326 -0.674859 -0.691627
0.042797 -0.437528 -0.379633 -0.016066 0.642816 -0.765852
-0.547110 0.060354 -0.083112 0.000154 0.582199 -0.812089
0.950275 0.079469 -0.065077 -0.000500 0.751409 -0.658603
0.037336 0.167488 -0.152861 -0.016066 -0.642816 -0.765852
0.174145 -0.058688 0.084297 0.000373 -0.545123 0.837419
-1.290336 -0.102224 0.010030 0.000417 -0.988270 0.147585
1.098022 -0.185978 0.160257 -0.132618 -0.802668 -0.581495
-0.373046 0.091575 0.046523 0.000452 0.900228 0.433683
0.133971 -0.362447 0.315532 0.045732 0.652094 0.756758
0.044977 -0.091056 -0.047530 -0.000057 -0.872458 -0.487080
0.187153 0.138107 0.119006 0.045732 -0.652094 0.756758
1.424801 0.147392 -0.112900 -0.000000 0.652777 0.757550
-0.360657 -0.128184 -0.111522 -0.016066 0.642816 -0.765852
0.187153 0.326529 0.281368 0.045732 -0.652094 0.756758
-0.176909 0.102689 0.072148 -0.045701 0.679588 -0.732169
-0.049022 -0.345589 -0.289622 -0.045701 -0.679588 0.732169
1.425211 -0.105373 -0.076692 -0.000000 -0.652777 0.757550
0.008481 0.312315 0.255148 -0.045701 0.679588 -0.732169
-1.517351 -0.050263 -0.077186 -0.299803 -0.492754 -0.815577
1.273945 0.120272 -0.117745 0.000000 -0.652777 -0.757550
0.417136 -0.091443 -0.046781 -0.000307 -0.873693 -0.485006
1.296060 -0.161442 0.125007 0.000000 -0.652777 -0.757550
1.399482 0.234235 0.215946 0.000000 -0.652777 0.757550
1.220101 -0.194217 0.153249 0.000000 -0.652777 -0.757550
0.140816 -0.448826 -0.378774 0.129329 -0.647295 0.751188
1.424204 0.094141 0.041082 0.000082 0.894558 0.445241
0.254586 0.019922 -0.100764 -0.000093 0.209644 -0.977048
1.418297 -0.068101 0.076893 -0.000860 -0.628311 0.777163
-0.289478 -0.194260 0.168477 -0.016066 0.642816 0.765852
0.132715 -0.328447 -0.286311 0.045732 0.652094 -0.756758
0.903371 -0.092596 -0.044456 -0.000362 -0.923072 -0.382707
0.977010 0.132767 0.114405 -0.132618 0.802668 -0.581495
-0.759213 -0.092760 -0.044112 0.000477 -0.892605 -0.449265
0.065780 0.125763 -0.115704 0.045732 -0.652094 -0.756758
1.149884 -0.208783 0.179907 -0.132618 -0.802668 -0.581495
-1.449930 0.000000 -0.102715 -0.013871 -0.031121 -0.998477
-0.415600 -0.019886 0.100771 -0.001344 -0.170280 0.984540
0.697013 0.039032 0.095009 0.000055 0.399689 0.915798
0.069029 0.259849 -0.231049 -0.007236 -0.644247 -0.764677
-0.557633 0.015684 0.101510 -0.001470 0.103974 0.993908
1.284556 0.097427 0.069845 -0.000000 0.652777 -0.757550
0.949954 0.000000 -0.102715 -0.001780 -0.051661 -0.997765
0.749204 -0.091646 -0.046383 -0.000701 -0.863311 -0.502781
0.115899 0.509235 0.431221 -0.045701 0.679588 -0.732169
0.133425 0.162449 -0.130731 0.129329 0.647295 0.751188
-0.755832 0.044072 0.092779 0.000149 0.397515 0.916760
-0.006051 -0.159423 0.114142 -0.045701 -0.679588 -0.732169
0.042273 0.275829 0.219173 -0.045701 0.679588 -0.732169
1.517597 -0.046699 0.074409 0.218352 -0.473041 0.852394
-0.046566 -0.248058 0.198942 -0.045701 -0.679588 -0.732169
1.295971 -0.186726 -0.146794 -0.000000 -0.652777 0.757550
-0.243868 -0.084425 -0.059375 0.000000 0.757550 0.652777
-0.298010 -0.091080 0.047483 -0.000481 -0.900403 0.433457
0.140575 0.018777 -0.100984 -0.000084 0.208144 -0.977302
-0.241457 -0.229500 0.199062 -0.016066 0.642816 0.765852
1.408456 0.242393 -0.194761 0.000000 0.652777 0.757550
1.390051 0.016768 0.101337 -0.000048 0.180871 0.982759
1.241040 -0.052252 0.088431 -0.000113 -0.554974 0.830925
1.434738 0.205492 -0.162964 -0.000000 0.652777 0.757550
0.996328 -0.103707 0.075256 0.000000 -0.652777 -0.757550
-0.329095 0.148925 -0.124563 -0.045701 0.679588 0.732169
1.573425 0.395023 0.340389 -0.132618 0.802668 -0.581495
0.135983 -0.542450 0.469654 -0.016066 0.642816 0.765852
1.167921 0.175563 -0.165389 -0.044604 -0.590681 -0.803207
1.503132 0.143046 0.137369 0.086548 -0.664121 0.739924
-0.001705 -0.487356 0.420523 -0.016066 0.642816 0.765852
1.413557 0.059486 -0.083736 -0.000388 0.543454 -0.838493
-0.287281 -0.117206 -0.092511 -0.045701 -0.679588 0.732169
1.477435 -0.102354 -0.074090 -0.000000 -0.652777 0.757550
1.108211 -0.111229 -0.109953 -0.000000 0.652777 -0.757550
0.305794 -0.020451 -0.100658 -0.000323 -0.217103 -0.975306
0.187153 -0.311455 -0.268379 0.129329 -0.647295 0.751188
-0.038555 -0.349061 0.292191 -0.045701 -0.679588 -0.732169
1.516749 -0.227439 0.181876 -0.000000 -0.652777 -0.757550
-0.062783 -0.435318 0.373765 -0.045701 -0.679588 -0.732169
0.147089 -0.144571 0.126998 0.045732 0.652094 0.756758
-0.404079 -0.006936 -0.102480 -0.000119 -0.118944 -0.992247
0.007612 -0.091940 0.050653 -0.045701 -0.679588 -0.732169
0.017860 0.394316 0.342840 -0.016066 -0.642816 0.765852
-0.091752 -0.379749 0.328314 -0.016066 0.642816 0.765852
-0.037110 0.155481 0.141221 -0.016066 -0.642816 0.765852
0.059700 0.210480 0.159426 0.129329 0.647295 -0.751188
-0.130504 0.249176 0.217904 -0.016066 -0.642816 0.765852
0.239781 0.093075 -0.043442 -0.000150 0.889410 -0.455569
-0.181941 0.202184 0.164812 -0.045701 0.679588 -0.732169
-0.519421 -0.012334 -0.101971 0.001671 -0.164004 -0.985535
1.539561 -0.261874 -0.239762 0.086548 0.664121 -0.739924
0.132679 -0.061593 -0.082198 0.000466 -0.550696 -0.833725
0.573572 -0.086039 -0.056103 -0.000690 -0.854755 -0.517367
1.064614 -0.086138 -0.055951 0.000075 -0.807824 -0.588104
1.427943 -0.199064 0.157425 -0.000000 -0.652777 -0.757550
0.144526 0.381517 -0.321413 0.129329 0.647295 0.751188
1.438419 0.142469 0.108658 -0.000000 0.652777 -0.757550
-0.034775 0.025514 -0.099495 -0.000147 0.275776 -0.960415
0.021091 0.516276 -0.443675 -0.045701 0.679588 0.732169
0.100674 0.512169 -0.434894 -0.045701 0.679588 0.732169
1.517597 0.051185 -0.042064 1.000000 0.000000 0.000000
-0.213672 -0.313907 -0.270492 -0.016066 0.642816 -0.765852
0.144926 0.352442 0.296427 0.129329 0.647295 -0.751188
1.214670 -0.127636 -0.124091 -0.000000 0.652777 -0.757550
0.976506 -0.084654 -0.087053 0.000000 0.652777 -0.757550
1.306690 -0.236583 0.217969 -0.044604 0.590681 0.803207
1.331976 0.089378 0.050614 0.000059 0.878160 0.476727
-0.235878 0.134502 -0.105357 -0.045701 0.679588 0.732169
0.187153 -0.273771 -0.235907 0.129329 -0.647295 0.751188
-0.093242 0.296193 0.258150 -0.016066 -0.642816 0.765852
-0.038738 0.465661 -0.400428 -0.045701 0.679588 0.732169
-0.195652 0.291601 0.248663 -0.045701 0.679588 -0.732169
-0.151892 -0.327788 0.279520 -0.045701 -0.679588 -0.732169
-1.459415 0.021884 0.099951 -0.083716 0.193435 0.975841
1.244003 0.036942 0.095841 0.000545 0.378778 0.924671
1.256011 0.075983 -0.079581 -0.000000 -0.652777 -0.757550
0.789513 -0.098489 0.029158 0.000166 -0.952251 0.302800
1.257257 -0.075755 -0.065278 0.000000 0.757550 0.652777
0.003462 -0.383400 0.321441 -0.045701 -0.679588 -0.732169
1.501338 -0.176399 -0.137895 -0.000000 -0.652777 0.757550
0.098927 0.308463 0.271132 0.045732 -0.652094 0.756758
0.065511 0.026159 0.099328 0.000007 0.282004 0.958594
0.245956 0.043080 0.093244 0.000111 0.389123 0.920442
-0.260470 -0.151852 -0.133490 -0.016066 0.642816 -0.765852
-0.197798 -0.099775 -0.091093 -0.016066 0.642816 -0.765852
1.501338 0.162446 -0.154086 0.000000 -0.652777 -0.757550
0.491009 -0.035291 0.096462 -0.000016 -0.362469 0.931151
0.097338 -0.423139 -0.352466 -0.045701 -0.679588 0.732169
0.354241 0.039982 -0.094614 0.000213 0.411380 -0.910625
-0.361378 -0.057701 -0.084976 -0.000268 -0.531150 -0.846379
-0.094806 0.097802 0.031385 -0.000023 0.942289 0.332446
1.458665 0.071066 0.071480 0.213517 0.669895 0.709892
1.517597 -0.043225 -0.009001 1.000000 0.000000 -0.000000
-1.247361 -0.067550 -0.077377 -0.000084 -0.697714 -0.715276
1.357812 0.049583 0.089955 0.000004 0.453522 0.890442
1.159980 0.100046 0.023259 -0.001331 0.971823 0.231887
0.215769 -0.041550 -0.093936 -0.000017 -0.454172 -0.890042
0.599579 0.049471 0.090016 0.000048 0.450591 0.891853
0.440255 0.100914 0.019147 -0.000298 0.970258 0.238645
-0.203463 -0.102200 0.010271 0.000227 -0.984479 0.169023
-0.109479 -0.033047 0.097253 0.000147 -0.297076 0.954076
-0.240237 -0.158657 0.139626 -0.016066 0.642816 0.765852
-1.322202 -0.088414 -0.052281 0.000036 -0.868799 -0.493578
1.535007 -0.260972 0.210771 0.086548 -0.633668 -0.766166
-0.166537 -0.046884 0.091390 0.000024 -0.475826 0.878659
0.229781 -0.093075 0.043442 -0.000150 -0.889410 0.455569
0.667577 0.033421 -0.097125 0.000097 0.291736 -0.955677
-0.540476 -0.091434 -0.046799 0.000005 -0.879481 -0.474284
0.834610 0.057226 0.085296 0.000241 0.540218 0.840681
0.000799 -0.100113 -0.022970 0.000011 -0.967363 -0.250281
0.557763 0.057903 -0.084838 0.000041 0.580830 -0.813062
-1.354833 -0.017967 -0.101131 -0.000128 -0.227435 -0.973014
0.394872 0.068027 0.076958 0.000032 0.636520 0.770260
0.505859 0.100808 -0.019700 0.000042 0.976565 -0.211478
1.478725 0.111177 -0.081694 0.000000 0.652777 0.757550
-0.170282 -0.169642 -0.133879 -0.045701 -0.679588 0.732169
-0.982440 0.095883 0.036835 -0.000256 0.947384 0.318376
0.245648 -0.073838 -0.071402 0.000007 -0.756093 -0.653281
-0.501386 -0.053680 0.087571 -0.000377 -0.506059 0.861559
-0.195652 -0.291601 0.248663 -0.045701 -0.679588 -0.732169
1.241947 0.128713 0.096804 0.000000 0.652777 -0.757550
1.366332 -0.075755 -0.065278 -0.000000 0.757550 0.652777
0.085090 -0.124757 -0.089931 0.129329 -0.647295 0.751188
-0.136533 -0.344562 -0.297841 -0.016066 0.642816 -0.765852
1.433535 0.176565 0.166252 0.000000 -0.652777 0.757550
-0.131082 -0.225665 0.183432 -0.045701 -0.679588 -0.732169
0.674677 0.102187 -0.010400 0.001840 0.987587 -0.150391
0.634202 -0.087009 -0.054587 0.000148 -0.866484 -0.497659
0.187153 0.401898 0.346313 0.045732 -0.652094 0.756758
-0.611817 -0.009290 -0.102294 -0.001094 -0.122851 -0.991522
1.351458 -0.082731 0.057182 -0.000000 0.757550 -0.652777
-0.207915 0.017641 0.101188 0.000178 0.225937 0.973333
1.477431 -0.033780 0.090579 0.214698 -0.309885 0.925326
1.280671 -0.239094 -0.191919 -0.044604 -0.707108 0.702883
0.179623 -0.421190 -0.361641 0.129329 -0.647295 0.751188
0.049441 -0.546082 0.470888 -0.016066 0.642816 0.765852
0.706753 -0.097872 -0.031168 -0.000247 -0.967146 -0.251213
1.035632 0.099455 -0.025670 -0.000122 0.972903 -0.227725
1.021726 0.073289 -0.071966 0.000011 0.688966 -0.723707
0.399981 -0.102715 -0.000000 0.000386 -0.998914 -0.026065
0.015688 0.477939 0.408427 -0.045701 0.679588 -0.732169
-0.006783 0.196331 0.148446 -0.045701 0.679588 -0.732169
-0.811882 0.038629 0.095174 0.001146 0.325626 0.944677
-0.811882 -0.038629 0.095174 0.001146 -0.325626 0.944677
-0.363603 0.036358 0.096064 -0.000105 0.333612 0.941891
-0.073030 0.398436 0.344392 -0.016066 -0.642816 0.765852
0.089927 0.101941 0.071103 0.129329 0.647295 -0.751188
1.145923 0.186466 0.167730 -0.132618 -0.456506 0.879781
-0.013675 -0.174599 0.157760 -0.016066 0.642816 0.765852
-0.086258 -0.172293 0.131095 -0.045701 -0.679588 -0.732169
0.005712 -0.123975 -0.115675 -0.016066 0.642816 -0.765852
-0.143408 0.101744 0.014084 -0.000645 0.985182 0.167156
1.253069 0.167428 -0.130164 0.000000 0.652777 0.757550
-0.063260 0.106298 0.068404 -0.045701 0.679588 -0.732169
-0.676848 0.090400 0.048766 0.000162 0.852387 0.521420
0.899094 -0.056300 0.085910 0.000059 -0.521636 0.852278
-0.244021 -0.246493 -0.209813 -0.045701 -0.679588 0.732169
0.162279 0.540261 0.461258 0.129329 0.647295 -0.751188
0.132715 -0.328447 0.286311 0.045732 0.652094 0.756758
0.727606 0.093035 0.043528 0.000649 0.924902 0.378307
1.313368 -0.025707 0.099446 0.000140 -0.286365 0.957319
-0.127229 -0.113403 0.078991 -0.045701 -0.679588 -0.732169
-0.168280 0.302267 -0.256854 -0.045701 0.679588 0.732169
-1.404709 -0.086976 0.054639 -0.000351 -0.839818 0.541409
-0.015921 0.364824 0.317378 -0.016066 -0.642816 0.765852
0.044396 -0.319595 0.280680 -0.016066 0.642816 0.765852
0.076002 0.568287 -0.488522 -0.045701 0.679588 0.732169
-0.485203 0.024587 0.099728 0.000500 0.221073 0.974490
1.345807 -0.190216 0.178015 0.000000 0.652777 0.757550
-1.241005 -0.084475 0.058432 0.000674 -0.794417 0.606296
-0.245586 0.150907 0.133009 -0.016066 -0.642816 0.765852
1.077890 -0.100211 0.022540 -0.000007 -0.960028 0.277008
0.048788 0.152548 0.107628 0.129329 0.647295 -0.751188
-0.192775 -0.188993 0.153244 -0.045701 -0.679588 -0.732169
1.337940 0.102703 -0.074392 0.000000 0.652777 0.757550
-0.872645 0.086528 0.055346 0.000199 0.859689 0.509304
1.437741 0.285332 -0.259976 -0.000000 -0.652777 -0.757550
-1.551014 0.073279 -0.030812 -0.426778 0.858437 -0.278701
1.290947 0.221213 -0.204725 -0.000000 -0.652777 -0.757550
-0.345977 0.089103 -0.051097 -0.000358 0.859468 -0.509626
-0.156098 -0.101566 -0.015320 -0.000066 -0.978584 -0.202268
1.582069 -0.398824 -0.343664 -0.132618 -0.802668 0.581495
1.582069 0.398824 -0.343664 -0.132618 0.802668 0.581495
-0.383628 -0.099385 -0.086868 -0.016066 0.642816 -0.765852
-0.176232 0.229864 -0.190148 -0.045701 0.679588 0.732169
0.923733 -0.090486 0.048606 -0.001681 -0.877697 0.478187
-1.327658 -0.058493 0.084433 -0.000090 -0.561415 0.826587
0.314025 0.071183 -0.074049 -0.000474 0.666284 -0.744605
0.084242 0.098043 -0.030623 0.000012 0.944840 -0.325120
-0.068157 0.323925 0.281953 -0.016066 -0.642816 0.765852
-1.495121 -0.055513 0.080336 -0.221641 -0.518587 0.824359
-0.469164 -0.018535 0.101028 0.000257 -0.234243 0.971347
0.899217 0.098560 -0.084928 -0.132618 0.802668 0.581495
-0.396009 0.142738 0.122996 -0.016066 -0.642816 0.765852
0.003895 -0.191813 -0.172576 -0.016066 0.642816 -0.765852
-0.078118 -0.224498 0.179043 -0.045701 -0.679588 -0.732169
0.052198 -0.358167 0.313218 -0.016066 0.642816 0.765852
-0.467061 -0.083341 0.060038 -0.000201 -0.841673 0.538502
1.578173 -0.264144 0.227611 0.257326 0.674859 0.691627
1.483522 -0.125392 0.093943 -0.000000 -0.652777 -0.757550
-0.017549 0.435779 0.376899 -0.016066 -0.642816 0.765852
-0.108987 -0.400545 -0.344374 -0.045701 -0.679588 0.732169
-0.225936 0.100454 0.073133 -0.045701 0.679588 -0.732169
-1.519200 -0.091551 0.000000 -0.310382 -0.949276 0.021958
-1.417725 0.101335 0.016776 -0.000547 0.976154 0.213471
-0.152216 0.320351 0.272637 -0.045701 0.679588 -0.732169
-0.293848 0.098078 0.075167 -0.045701 0.679588 -0.732169
-1.100232 0.076547 -0.068490 -0.000096 0.773567 -0.632475
1.445640 0.235822 0.217313 -0.000000 -0.652777 0.757550
-0.176909 0.102689 -0.072148 -0.045701 0.679588 0.732169
-1.573197 0.040355 -0.054776 -0.521919 0.566674 -0.633175
-1.333142 0.102126 0.010975 -0.001204 0.992325 0.117052
-0.229989 0.000000 -0.102715 -0.001856 -0.052052 -0.997572
0.159716 -0.087750 -0.053387 0.000176 -0.866777 -0.497313
-0.038326 -0.134613 0.093129 -0.045701 -0.679588 -0.732169
0.187153 -0.530025 0.456720 0.129329 -0.647295 -0.751188
0.817901 0.102358 0.008556 -0.000662 0.993483 0.107589
-0.498447 -0.052040 -0.088556 0.000002 -0.523725 -0.850962
-1.228743 0.071236 0.073998 -0.000336 0.680147 0.732057
-0.084414 -0.091584 -0.046505 -0.000000 -0.903478 -0.426795
1.128300 -0.098097 0.098637 -0.000000 0.652777 0.757550
-0.273463 0.057153 -0.085345 -0.000547 0.537174 -0.842514
0.641632 0.089421 -0.050539 -0.000033 0.895811 -0.442692
0.039931 0.034021 -0.096917 0.000053 0.357151 -0.933200
0.657494 -0.086877 0.054796 0.000118 -0.856784 0.514176
0.153815 -0.472273 0.401215 0.129329 -0.647295 -0.751188
-0.313749 -0.010891 -0.102135 -0.000776 -0.125929 -0.991149
-0.314442 -0.065911 0.078778 -0.000132 -0.661692 0.748475
1.238144 -0.088134 0.061837 -0.000000 -0.652777 -0.757550
-0.695775 0.086587 -0.055254 0.000030 0.835149 -0.548597
0.596035 0.039921 -0.094639 -0.000050 0.355785 -0.933731
0.298294 -0.017817 0.101157 0.000028 -0.192276 0.980548
-0.016182 0.252620 -0.201279 -0.045701 0.679588 0.732169
0.093265 -0.322721 0.261923 0.129329 -0.647295 -0.751188
1.562328 -0.336141 0.303758 0.172323 0.671482 0.717950
1.364761 -0.136512 -0.131739 -0.000000 0.652777 -0.757550
1.500147 0.245213 -0.197192 -0.000000 0.652777 0.757550
0.695440 0.074695 0.070505 0.000035 0.749393 0.660957
1.057418 -0.070801 0.074414 0.000116 -0.705146 0.707943
-0.269667 0.206119 0.178846 -0.016066 -0.642816 0.765852
-1.034057 -0.069595 0.075543 -0.000092 -0.669918 0.741401
1.149762 -0.101462 -0.015991 -0.002164 -0.986908 -0.155396
-0.677222 -0.036429 -0.096037 0.000074 -0.386659 -0.921371
0.944407 0.084905 0.057805 0.000271 0.793124 0.607781
0.636404 -0.101249 0.017289 0.000025 -0.978528 0.202285
-0.827959 0.085706 0.056610 0.000196 0.823125 0.566478
0.862088 -0.098125 -0.030361 -0.000555 -0.969482 -0.241898
0.484378 -0.048450 -0.090570 0.000408 -0.454035 -0.890171
0.424360 -0.071285 0.073951 -0.000012 -0.668045 0.743078
1.497924 -0.017175 -0.090557 0.217353 -0.118994 -0.967830
1.026833 -0.006232 -0.102525 0.001064 -0.099475 -0.994471
-1.617452 -0.034826 0.007626 -0.686643 -0.687844 0.222282
1.143196 -0.079306 -0.065275 -0.001052 -0.744257 -0.667051
0.758394 0.031269 0.097839 -0.000302 0.269941 0.962026
-0.325546 0.145629 0.126901 -0.016066 -0.642816 0.765852
-1.369419 0.030091 -0.098208 0.000036 0.295935 -0.954406
-0.866741 -0.082147 0.061662 -0.000049 -0.819479 0.571779
1.280189 -0.142167 -0.108397 -0.000000 -0.652777 0.757550
0.307381 0.077218 0.067733 -0.000422 0.716062 0.696962
0.128269 -0.122363 0.095302 0.129329 -0.647295 -0.751188
1.178151 -0.170796 0.161281 0.000000 0.652777 0.757550
1.039526 0.086167 0.055907 0.000037 0.819465 0.571755
1.467064 -0.243345 -0.195582 -0.000000 -0.652777 0.757550
0.922649 0.027877 0.098859 -0.000240 0.290387 0.956072
0.066382 0.431425 0.375005 -0.016066 -0.642816 0.765852
-0.708206 -0.081176 0.062934 0.000209 -0.780509 0.623911
0.057627 0.340760 0.278482 -0.045701 0.679588 -0.732169
-0.040181 0.063672 -0.080599 0.000056 0.597864 -0.800638
-0.126722 -0.124750 -0.089491 -0.045701 -0.679588 0.732169
1.445381 -0.169363 0.131832 -0.000000 -0.652777 -0.757550
0.995371 -0.102476 -0.006993 0.000451 -0.994125 -0.102133
-0.555947 -0.068080 0.076911 0.000203 -0.623481 0.780821
0.014698 0.401583 -0.348873 -0.016066 -0.642816 -0.765852
0.893201 0.023953 -0.099883 -0.000082 0.252310 -0.966872
0.584020 -0.028040 -0.098813 -0.000015 -0.287999 -0.956818
1.426726 0.087357 -0.054027 0.000060 0.822018 -0.568107
0.135679 0.240194 -0.198112 0.129329 0.647295 0.751188
0.020218 0.085773 -0.057810 0.000000 -0.757550 0.652777
-0.481526 0.102493 0.006746 0.000904 0.995799 0.084745
-1.564792 -0.042898 -0.058694 -0.482206 -0.553174 -0.676525
-0.440481 0.069111 0.075986 -0.000375 0.630278 0.775360
1.374846 -0.149841 0.115010 0.000000 -0.652777 -0.757550
-0.881776 0.102366 0.008455 -0.001263 0.997988 0.050855
0.264864 0.099108 0.026979 -0.000536 0.949545 0.310467
-0.924508 -0.031442 0.097784 -0.000187 -0.344073 0.938129
1.506883 0.100417 0.079476 0.257326 0.584314 -0.769649
0.187153 0.469730 0.404764 0.045732 -0.652094 0.756758
-0.506965 0.072838 -0.072421 -0.000118 0.733408 -0.678594
-0.045389 0.138724 -0.097386 -0.045701 0.679588 0.732169
-0.084168 0.172706 0.154692 -0.016066 -0.642816 0.765852
0.087428 -0.228111 -0.179393 0.129329 -0.647295 0.751188
-0.209098 0.100526 -0.021091 -0.000114 0.964696 -0.260189
1.297519 -0.180263 0.169439 0.000000 0.652777 0.757550
-0.059762 0.100041 -0.023282 -0.000011 0.958926 -0.280949
-0.006783 0.196331 -0.148446 -0.045701 0.679588 0.732169
-0.560009 0.091939 0.045799 -0.000058 0.911242 0.409936
0.824522 -0.090507 -0.048567 -0.000157 -0.853141 -0.520165
1.424191 -0.020601 -0.100627 0.000341 -0.244106 -0.968916
1.295972 0.099188 -0.026685 -0.000013 0.954604 -0.295241
1.507685 -0.171852 0.133977 0.086548 -0.633668 -0.766166
1.212374 -0.067996 -0.076985 -0.000033 -0.655041 -0.754689
0.147076 -0.091973 0.072353 0.129329 -0.647295 -0.751188
0.052595 -0.199976 0.180450 0.025138 0.649217 0.760042
-1.420949 0.036108 -0.096159 -0.000013 0.398421 -0.916347
-0.818733 -0.098040 0.030633 0.000413 -0.958375 0.282922
0.202628 0.071571 -0.073674 0.000056 0.676742 -0.735263
0.094922 0.376303 0.329338 -0.016066 -0.642816 0.765852
-0.130768 -0.152016 -0.136348 -0.016066 0.642816 -0.765852
0.157458 -0.265446 0.230528 0.045732 0.652094 0.756758
1.377829 0.272441 0.220654 -0.000000 0.652777 -0.757550
1.354882 -0.230858 0.184822 0.000000 -0.652777 -0.757550
-0.091529 -0.347626 0.294165 -0.045701 -0.679588 -0.732169
1.115883 0.166633 -0.129480 -0.088810 0.757071 0.644198
1.117323 0.039725 -0.094722 -0.000281 0.418482 -0.907502
0.083208 0.272877 0.241418 0.045732 -0.652094 0.756758
1.324036 -0.244210 -0.224542 -0.044604 0.590681 -0.803207
-0.926771 -0.069929 0.075234 0.000554 -0.720523 0.692183
1.063845 -0.143751 0.109762 -0.088810 -0.757071 -0.644198
1.501756 0.330765 0.270912 -0.000000 0.652777 -0.757550
-0.757174 0.064055 -0.080295 -0.000232 0.582523 -0.811951
-1.055649 0.099959 -0.023630 -0.000232 0.959008 -0.280611
0.106956 -0.309915 -0.253245 0.129329 -0.647295 0.751188
1.114510 0.084886 -0.057832 0.000251 0.793387 -0.607464
-0.189218 -0.262900 -0.228192 -0.016066 0.642816 -0.765852
0.016620 -0.388360 -0.337815 -0.016066 0.642816 -0.765852
1.376075 -0.281045 0.228067 -0.088810 -0.757071 -0.644198
0.060692 -0.167453 -0.151936 0.045732 0.652094 -0.756758
-0.426315 -0.093244 -0.078949 -0.045701 -0.679588 0.732169
-0.178538 0.158054 -0.140414 -0.016066 -0.642816 -0.765852
1.409932 -0.102715 -0.000000 -0.001136 -0.996603 -0.070021
0.085464 0.319722 -0.281648 0.004538 -0.646124 -0.763074
1.293040 0.186700 -0.174985 -0.000000 -0.652777 -0.757550
-1.289089 0.030601 0.098050 -0.000115 0.286857 0.957244
1.563402 -0.319187 -0.264461 0.257326 -0.584314 0.769649
0.346914 0.094741 0.039678 -0.000621 0.906932 0.419266
0.018208 -0.291826 0.235523 -0.045701 -0.679588 -0.732169
1.566882 0.350994 -0.316557 0.125496 -0.617224 -0.768094
1.566882 -0.364946 -0.300365 0.125496 -0.668459 0.723946
-0.145617 -0.223517 -0.196051 -0.016066 0.642816 -0.765852
0.217926 0.087026 0.054559 0.000297 0.830931 0.554997
1.155660 -0.033020 0.097262 0.000339 -0.294079 0.954956
0.955438 -0.109682 0.087459 -0.132618 -0.802668 -0.581495
0.143879 -0.369287 -0.320827 0.045732 0.652094 -0.756758
1.336000 0.160595 -0.124276 0.000000 0.652777 0.757550
-0.383628 0.099385 0.086868 -0.016066 -0.642816 0.765852
0.317237 -0.092618 0.044410 -0.000247 -0.875696 0.481243
1.408297 0.164885 -0.156188 -0.000000 -0.652777 -0.757550
-0.042024 0.342284 -0.297911 -0.016066 -0.642816 -0.765852
-0.326696 -0.093483 -0.042559 -0.000631 -0.893308 -0.447648
-0.112080 0.361881 0.312890 -0.016066 -0.642816 0.765852
1.360147 0.215940 0.171968 0.000000 0.652777 -0.757550
0.787179 -0.100178 -0.022685 -0.000013 -0.972357 -0.230209
1.233562 0.009370 -0.102286 0.000505 0.147557 -0.988210
0.878069 0.085143 0.057454 -0.000475 0.795668 0.604501
-0.318338 -0.151504 0.126285 -0.045701 -0.679588 -0.732169
1.456752 -0.265085 0.242529 -0.000000 0.652777 0.757550
0.121019 -0.492012 0.427005 -0.016066 0.642816 0.765852
-1.621997 0.031415 -0.000000 -0.677385 0.726382 -0.070618
-0.679967 -0.102715 0.000000 0.000245 -0.997000 -0.064832
1.480152 -0.312857 -0.283694 -0.044604 0.590681 -0.803207
0.071994 0.532965 -0.455987 -0.045701 0.679588 0.732169
1.324626 0.120688 0.118103 -0.000000 -0.652777 0.757550
-0.153489 -0.141442 0.126996 -0.016066 0.642816 0.765852
-0.104923 -0.307784 0.258021 -0.045701 -0.679588 -0.732169
0.785465 -0.037516 -0.095618 -0.000012 -0.315729 -0.947967
1.170112 -0.145424 -0.111204 0.000000 -0.652777 0.757550
0.047334 -0.135735 -0.125412 0.045732 0.652094 -0.756758
-1.055635 0.045172 -0.092249 -0.000017 0.477047 -0.877993
-1.303877 -0.023184 -0.100064 0.000355 -0.262882 -0.964010
-1.519523 0.065788 0.063526 -0.312207 0.651781 0.689129
1.200600 0.150828 -0.115861 0.000000 0.652777 0.757550
1.234827 -0.126903 0.123459 0.000000 0.652777 0.757550
1.470035 0.190547 -0.178300 0.000000 -0.652777 -0.757550
0.037833 0.288810 -0.231499 -0.045701 0.679588 0.732169
-0.332929 0.095146 0.038698 0.000893 0.903339 0.426840
1.376196 -0.188981 0.148737 0.000000 -0.652777 -0.757550
-0.247972 0.096177 0.036059 0.000917 0.925338 0.377447
1.014557 0.102290 0.009332 -0.000770 0.991396 0.123841
-0.239527 -0.100353 -0.021899 0.000373 -0.973776 -0.225350
0.146324 0.233927 0.194544 0.129329 0.647295 -0.751188
-0.230128 -0.069038 0.076053 -0.000007 -0.711474 0.701617
-0.035590 -0.375110 -0.316184 -0.045701 -0.679588 0.732169
0.179991 0.102715 -0.000000 0.000168 0.999110 -0.023978
0.152860 0.101863 -0.081871 0.129329 0.647295 0.751188
1.375869 0.114433 0.112713 0.000000 -0.652777 0.757550
0.949954 -0.102715 -0.000000 0.000798 -0.998620 -0.025993
-0.025871 0.086887 0.056517 -0.000000 -0.757550 -0.652777
1.498709 -0.311087 0.282169 0.000000 0.652777 0.757550
-0.096557 -0.263672 -0.216555 -0.045701 -0.679588 0.732169
1.226248 0.211498 -0.192827 -0.132618 -0.456506 -0.879781
1.428113 0.289975 0.263977 -0.044604 -0.590681 0.803207
-0.291745 -0.103965 0.092640 -0.016066 0.642816 0.765852
0.772120 0.039929 -0.094636 0.000028 0.355973 -0.933663
1.014507 -0.021503 0.100438 -0.000594 -0.225171 0.973510
1.314906 -0.122621 0.119769 -0.000000 0.652777 0.757550
1.535545 0.125096 -0.107795 0.257326 -0.674859 -0.691627
1.395954 -0.240060 0.192751 -0.000000 -0.652777 -0.757550
-0.136131 -0.265608 0.220821 -0.045701 -0.679588 -0.732169
0.737606 0.093035 -0.043528 0.000649 0.924902 -0.378307
1.044504 0.119615 0.088964 -0.000000 0.652777 -0.757550
1.124556 0.156494 0.148958 -0.044604 -0.590681 0.803207
-0.362438 0.099488 -0.087399 -0.016066 -0.642816 -0.765852
-0.187397 0.262699 0.221321 -0.045701 0.679588 -0.732169
0.634216 0.021703 0.100396 0.000006 0.263671 0.963725
-1.583033 0.000000 0.062039 -0.520486 -0.045571 0.850034
1.528177 0.224740 0.207764 0.086548 -0.664121 0.739924
1.563402 0.308723 -0.276605 0.257326 -0.674859 -0.691627
-0.464359 -0.102388 -0.008178 0.000657 -0.993465 -0.107807
0.158611 -0.421302 0.358120 0.129329 -0.647295 -0.751188
0.025889 0.121232 -0.076701 0.012755 0.670606 0.740501
1.282569 -0.102512 -0.006445 -0.000607 -0.994083 -0.102631
-1.574350 0.055612 0.038016 -0.514760 0.740331 0.428361
-1.443890 -0.094902 0.039293 -0.002321 -0.924857 0.378649
1.159248 -0.185702 -0.145911 -0.044604 -0.707108 0.702883
1.081191 -0.137426 -0.132526 -0.044604 0.590681 -0.803207
-0.822179 0.016593 -0.101365 0.000481 0.178208 -0.983267
1.193103 -0.227787 -0.196283 -0.132618 -0.802668 0.581495
1.022474 -0.145959 0.122245 -0.132618 -0.802668 -0.581495
1.361485 0.033755 -0.097010 -0.000197 0.344567 -0.938045
0.066017 -0.146483 0.133544 0.045732 0.652094 0.756758
1.497476 -0.277845 -0.253524 -0.000000 0.652777 -0.757550
1.300390 0.012449 0.101957 -0.001115 0.168491 0.984783
1.230099 -0.233768 0.204963 -0.132618 0.456506 0.879781
-1.104662 -0.035781 0.096281 0.000214 -0.375412 0.926219
-0.270259 -0.260785 0.224717 -0.045701 -0.679588 -0.732169
-0.595318 0.049510 0.089994 0.000067 0.497093 0.866810
1.449930 0.102226 -0.010008 0.076581 0.982913 -0.152150
1.166111 0.123826 0.120807 -0.000000 -0.652777 0.757550
-0.320305 0.177160 -0.153477 -0.016066 -0.642816 -0.765852
1.512239 0.172753 0.162967 0.086548 -0.664121 0.739924
1.517597 0.074128 0.030283 1.000000 -0.000000 -0.000000
1.223854 -0.100430 0.021541 0.000289 -0.972778 0.228243
0.062866 -0.251692 0.195484 0.071098 -0.659841 -0.746841
0.111544 -0.169677 -0.150779 0.045732 0.652094 -0.756758
-0.283722 -0.163570 0.142838 -0.016066 0.642816 0.765852
1.401101 -0.264772 -0.214046 0.000000 -0.652777 0.757550
0.386966 0.096108 -0.036243 -0.000208 0.914377 -0.402850
0.589972 0.102715 -0.000000 -0.000981 0.999015 -0.022464
-0.118919 0.195493 -0.154667 -0.045701 0.679588 0.732169
-0.027607 -0.443809 -0.379451 -0.045701 -0.679588 0.732169
-0.283692 -0.212594 -0.183986 -0.016066 0.642816 -0.765852
0.101283 0.407830 0.355933 -0.016066 -0.642816 0.765852
0.044113 -0.555905 -0.479020 -0.016066 0.642816 -0.765852
-0.370859 -0.166347 0.143340 -0.045701 -0.679588 -0.732169
-0.270259 0.260785 0.224717 -0.016066 -0.642816 0.765852
-0.131935 -0.390638 0.336611 -0.045701 -0.679588 -0.732169
1.437662 0.249730 -0.229298 -0.000000 -0.652777 -0.757550
0.809961 0.000000 -0.102715 0.003033 -0.070392 -0.996494
0.259987 -0.102715 -0.000000 -0.000833 -0.999251 -0.013045
0.729965 0.000000 -0.102715 0.000056 -0.060394 -0.997317
-0.059080 -0.184389 0.165024 -0.016066 0.642816 0.765852
0.977010 0.132767 -0.114405 -0.132618 0.802668 0.581495
-0.012689 -0.227026 0.201785 -0.016066 0.642816 0.765852
0.462595 -0.097347 0.032770 0.000045 -0.935236 0.351794
0.039165 0.100170 -0.022720 0.000000 0.980200 -0.194310
0.165148 -0.212600 -0.179408 0.129329 -0.647295 0.751188
0.094913 0.158619 -0.120801 0.129329 0.647295 0.751188
0.977114 0.105613 0.076899 -0.088810 0.757071 -0.644198
1.292469 -0.103998 0.075507 -0.000000 -0.652777 -0.757550
0.058758 0.222428 -0.199424 0.004538 -0.646124 -0.763074
-0.720575 0.100825 -0.019613 -0.000860 0.978002 -0.204903
1.046499 0.122171 -0.119381 -0.044604 -0.590681 -0.803207
1.162359 -0.143061 0.137382 -0.000000 0.652777 0.757550
-0.568828 -0.020890 -0.100568 0.000029 -0.223254 -0.973957
0.200182 0.022876 0.100135 0.000070 0.252400 0.966929
0.143600 0.566798 0.490250 0.000000 0.757550 0.652777
0.143600 0.566798 -0.490250 0.007973 -0.646628 -0.762554
0.283462 -0.057153 -0.085345 0.000547 -0.537174 -0.842514
1.225754 -0.171628 -0.161998 -0.000000 0.652777 -0.757550
0.974074 0.055637 -0.086341 0.000086 0.512495 -0.857781
0.524377 0.094305 0.040704 0.000104 0.925329 0.377066
-0.032872 -0.078315 0.066465 0.000000 0.757550 -0.652777
-0.085005 0.098110 -0.092062 -0.016066 -0.642816 -0.765852
0.187153 0.198402 -0.170962 0.129329 0.647295 0.751188
0.187153 -0.537562 -0.463214 0.129329 -0.647295 0.751188
0.187153 0.492341 -0.424247 0.129329 0.647295 0.751188
0.187153 0.266234 -0.229412 0.129329 0.647295 0.751188
0.025018 -0.041733 -0.093855 0.000032 -0.431967 -0.901024
0.428114 0.076668 -0.068354 -0.000061 0.708055 -0.705046
0.977926 0.025201 0.099575 0.000041 0.267672 0.962697
-0.525571 0.039229 0.094928 -0.000108 0.377441 0.925260
0.127330 0.125322 0.111604 0.045732 -0.652094 0.756758
-0.249383 -0.029580 0.098363 -0.000224 -0.265218 0.963322
-1.488510 -0.076042 -0.063237 -0.146092 -0.764231 -0.626546
0.077958 -0.377879 -0.330305 -0.016066 0.642816 -0.765852
1.214748 0.095900 -0.068530 0.000000 0.652777 0.757550
0.013578 -0.206530 0.156641 -0.045701 -0.679588 -0.732169
-0.039894 0.033843 0.096979 -0.000076 0.302432 0.952370
0.013517 0.079443 0.065156 -0.000000 -0.757550 -0.652777
1.587147 -0.293417 0.252836 0.257326 0.674859 0.691627
1.517597 0.011922 -0.024738 1.000000 -0.000000 -0.000000
1.138267 0.075755 0.065278 -0.000000 -0.757550 -0.652777
-0.076596 -0.319526 -0.278084 -0.016066 0.642816 -0.765852
-0.646415 -0.080208 0.064164 -0.000112 -0.769420 0.637535
0.145744 0.522023 -0.442696 0.129329 0.647295 0.751188
-1.180839 0.016685 0.101350 0.000422 0.211178 0.976695
-1.175295 -0.086490 -0.055405 -0.000064 -0.811609 -0.582870
-0.820380 -0.099614 -0.025048 0.000101 -0.959749 -0.278051
-0.864930 -0.007545 -0.102437 0.001228 -0.053604 -0.997841
-0.634034 -0.079856 -0.064602 -0.000084 -0.754663 -0.654918
-0.289986 -0.102715 -0.000000 0.000481 -0.998971 -0.025281
-0.675895 0.044802 -0.092429 -0.000089 0.472062 -0.880708
-0.089881 -0.063663 0.080606 -0.000089 -0.597091 0.801184
0.137305 0.076322 0.068778 0.045732 -0.652094 0.756758
0.064252 -0.098006 0.030744 0.000000 -0.944473 0.326183
1.366309 -0.101835 0.013413 0.000770 -0.985461 0.164690
1.024204 -0.103102 -0.102950 0.000000 0.652777 -0.757550
-0.169660 -0.355224 0.306094 -0.045701 -0.679588 -0.732169
1.571306 0.303585 0.268651 0.257326 -0.674859 0.691627
1.133717 0.126626 -0.123220 0.000000 -0.652777 -0.757550
0.334307 0.039151 0.094961 -0.000287 0.430432 0.901777
0.020995 0.365315 -0.303560 -0.045701 0.679588 0.732169
0.329962 0.096055 -0.036383 0.000259 0.948031 -0.316333
1.196220 0.157725 0.121804 0.000000 0.652777 -0.757550
1.382715 0.091957 -0.045763 0.000008 0.878752 -0.475700
-0.837384 0.066815 -0.078013 0.000056 0.689976 -0.722793
-1.449930 0.057032 0.085426 -0.014035 0.519906 0.853139
1.219941 -0.000000 0.102715 0.000280 0.029028 0.998734
-0.263638 -0.021719 -0.100392 -0.000889 -0.229760 -0.972435
0.073016 0.415953 -0.347314 -0.045701 0.679588 0.732169
1.511048 -0.284429 0.230984 -0.000000 -0.652777 -0.757550
0.471321 0.086585 0.055256 0.000009 0.853270 0.519955
1.211017 0.199769 -0.158033 -0.000000 0.652777 0.757550
1.151234 0.024445 0.099763 0.000173 0.292757 0.955379
-1.227380 0.102258 0.009672 -0.001409 0.991107 0.127398
1.095822 0.113241 0.083472 -0.000000 0.652777 -0.757550
1.361543 -0.209992 -0.195056 0.000000 0.652777 -0.757550
1.547494 -0.383620 0.330564 -0.132618 -0.802668 -0.581495
-0.020041 0.086666 -0.055130 0.000030 0.811827 -0.582548
-0.391941 0.029919 -0.098260 0.000301 0.343635 -0.938280
1.284581 -0.056854 -0.085544 0.000399 -0.540601 -0.840387
-0.849894 0.100472 -0.021346 -0.000052 0.973435 -0.225288
-0.326847 -0.207664 0.178943 -0.045701 -0.679588 -0.732169
-0.332859 -0.178306 -0.154176 -0.016066 0.642816 -0.765852
1.495106 -0.216995 -0.201091 0.000000 0.652777 -0.757550
-0.402206 -0.053854 0.087464 -0.000060 -0.506283 0.861506
-0.048226 -0.214434 -0.190470 -0.016066 0.642816 -0.765852
1.083976 0.108325 -0.107450 0.000000 -0.652777 -0.757550
1.314131 0.152893 0.145854 0.000000 -0.652777 0.757550
-1.287993 0.102563 -0.005578 -0.000197 0.994963 -0.093971
-0.117340 0.371136 -0.320548 -0.016066 -0.642816 -0.765852
-0.157629 0.143035 -0.108393 -0.045701 0.679588 0.732169
-0.411051 0.088029 0.052926 0.000418 0.838877 0.542970
-0.292150 0.102501 -0.006625 -0.002278 0.994340 -0.099570
-1.504611 0.090407 0.030898 -0.256810 0.916380 0.301868
1.089947 0.102715 -0.000000 -0.000122 0.998341 -0.047071
1.163199 -0.097932 0.030979 0.000674 -0.966960 0.252331
0.094972 -0.485167 -0.420713 -0.016066 0.642816 -0.765852
-1.291259 0.088693 -0.051805 0.000512 0.861537 -0.506179
-0.423964 0.063347 -0.080854 -0.000090 0.571207 -0.819867
-0.612989 -0.020744 0.100598 0.000098 -0.254773 0.966219
-1.059230 -0.017552 -0.101204 -0.000069 -0.202898 -0.978403
-0.924320 0.029915 -0.098262 -0.000650 0.272890 -0.961299
-0.864311 0.026796 0.099158 -0.000023 0.313209 0.948886
-0.076732 -0.135671 0.096509 -0.045701 -0.679588 -0.732169
0.102412 -0.079866 -0.064665 -0.000000 0.757550 0.652777
1.605095 -0.351963 0.303285 0.257326 0.674859 0.691627
-0.535728 0.102439 -0.007515 -0.000660 0.998125 -0.050267
1.474204 -0.149595 -0.143013 -0.000000 0.652777 -0.757550
-0.067563 -0.102453 0.007322 0.000044 -0.994503 0.098271
1.435645 -0.105852 0.077105 -0.000000 -0.652777 -0.757550
1.149884 0.208783 -0.179907 -0.132618 0.802668 0.581495
0.157481 0.136261 -0.112307 0.129329 0.647295 0.751188
-0.123020 0.038043 -0.095410 -0.000409 0.357863 -0.933195
-0.017784 -0.187506 -0.140941 -0.045701 -0.679588 0.732169
-0.104349 0.155863 -0.140131 -0.016066 -0.642816 -0.765852
-0.158669 0.068337 0.076683 -0.000303 0.681370 0.731116
0.051110 0.465641 -0.394802 -0.045701 0.679588 0.732169
-0.152216 -0.320351 -0.272637 -0.045701 -0.679588 0.732169
0.129118 -0.266783 -0.233393 0.045732 0.652094 -0.756758
0.095316 0.567304 0.489662 0.000000 0.757550 0.652777
1.369934 0.102715 -0.000000 0.001674 0.999218 -0.015450
-1.533574 0.010454 0.086065 -0.365704 0.150956 0.916691
1.252625 -0.112852 -0.111351 0.000000 0.652777 -0.757550
0.147832 -0.181737 -0.149832 0.129329 -0.647295 0.751188
0.161218 0.433455 -0.375073 0.045732 -0.652094 -0.756758
1.481373 0.139546 0.106139 0.000000 0.652777 -0.757550
1.578795 0.362515 0.302502 0.257326 0.584314 -0.769649
-1.098813 -0.021895 -0.100354 -0.000427 -0.234185 -0.971382
-0.011663 0.267772 -0.236006 -0.016066 -0.642816 -0.765852
-1.162742 -0.062033 -0.081867 -0.000755 -0.618786 -0.784737
-0.220010 0.102111 -0.092589 -0.016066 -0.642816 -0.765852
-0.139134 0.209235 0.184199 -0.016066 -0.642816 0.765852
-1.116851 0.044820 -0.092420 0.000531 0.481244 -0.875762
0.023697 0.236997 0.210917 -0.016066 -0.642816 0.765852
0.138919 0.414417 -0.348796 0.129329 0.647295 0.751188
-0.440021 -0.101421 0.087394 -0.045701 -0.679588 -0.732169
0.140030 0.345174 -0.300282 0.045732 -0.652094 -0.756758
1.530453 -0.232167 -0.214164 0.086548 0.664121 -0.739924
1.397861 0.182305 0.142984 -0.000000 0.652777 -0.757550
0.094539 0.097588 -0.089688 0.045732 -0.652094 -0.756758
0.073502 0.214225 -0.165030 0.129329 0.647295 0.751188
1.155721 0.032427 -0.097461 -0.000332 0.340569 -0.939676
-0.287521 -0.082759 -0.074929 -0.016066 0.642816 -0.765852
1.517597 0.026836 0.049949 1.000000 0.000000 0.000000
-0.205903 -0.134820 -0.103781 -0.045701 -0.679588 0.732169
1.376075 0.267092 -0.244259 -0.044604 -0.590681 -0.803207
0.944907 -0.068779 -0.073374 -0.022302 0.621729 -0.780378
0.029360 -0.265919 -0.210780 -0.045701 -0.679588 0.732169
0.025673 -0.138552 0.128329 -0.016066 0.642816 0.765852
-0.265537 0.213212 -0.184886 -0.016066 -0.642816 -0.765852
0.121073 0.174607 0.154452 0.045732 -0.652094 0.756758
0.187153 -0.484804 0.417753 0.129329 -0.647295 -0.751188
1.278376 0.196781 0.183672 -0.000000 -0.652777 0.757550
-0.030094 0.209649 0.186834 -0.016066 -0.642816 0.765852
1.208392 0.061482 0.082282 -0.000146 0.641400 0.766188
-0.206110 -0.243193 0.204384 -0.045701 -0.679588 -0.732169
-1.376289 -0.102168 -0.010583 0.000545 -0.985690 -0.162651
-0.365866 -0.103637 0.084823 -0.045701 -0.679588 -0.732169
0.189363 -0.100392 -0.021718 0.000401 -0.970405 -0.237954
0.004128 -0.101694 0.014443 0.000004 -0.979712 0.196742
0.174279 -0.099060 -0.086138 0.045732 0.652094 -0.756758
0.145039 0.460135 -0.399041 0.045732 -0.652094 -0.756758
1.129786 0.138247 0.105020 0.000000 0.652777 -0.757550
-1.478530 -0.085862 0.052137 -0.152516 -0.870628 0.464065
0.532017 -0.015737 -0.101502 -0.000189 -0.131729 -0.990555
1.113477 -0.082731 0.057182 -0.000000 0.757550 -0.652777
-0.040144 0.187043 -0.167649 -0.016066 -0.642816 -0.765852
-0.232535 0.296200 0.255234 -0.016066 -0.642816 0.765852
-0.232535 -0.296200 0.255234 -0.045701 -0.679588 -0.732169
-1.434604 -0.081692 -0.062263 -0.000294 -0.761176 -0.647232
-0.534381 -0.102084 -0.011365 -0.002376 -0.993527 -0.108436
-0.054560 -0.139459 -0.098641 -0.045701 -0.679588 0.732169
1.460222 -0.314381 0.281481 -0.132618 0.456506 0.879781
0.093596 0.239674 0.190418 0.129329 0.647295 -0.751188
-0.749964 -0.102715 0.000000 -0.000783 -0.999010 -0.021301
-0.113941 -0.281113 -0.245058 -0.016066 0.642816 -0.765852
-0.018761 0.496881 0.428160 -0.016066 -0.642816 0.765852
1.468176 0.124903 -0.121736 0.000000 -0.652777 -0.757550
0.712739 -0.033283 0.097172 0.000003 -0.356345 0.933513
-1.057842 0.039229 0.094928 -0.000031 0.421446 0.905987
0.162475 0.207061 0.174175 0.129329 0.647295 -0.751188
0.029966 0.198032 0.178343 -0.016066 -0.642816 0.765852
-0.029570 -0.082507 -0.061600 -0.000000 0.757550 0.652777
0.047142 0.497692 0.430223 -0.016066 -0.642816 0.765852
-0.951821 0.094436 -0.040400 -0.000075 0.895039 -0.444216
0.083365 -0.190597 -0.170509 0.045732 0.652094 -0.756758
0.057957 -0.097204 -0.091567 0.045732 0.652094 -0.756758
-0.024996 0.127768 0.118215 -0.016066 -0.642816 0.765852
-0.200299 0.281178 -0.239279 -0.045701 0.679588 0.732169
0.018442 0.125129 0.116910 -0.016066 -0.642816 0.765852
1.242070 -0.118181 0.087729 -0.000000 -0.652777 -0.757550
1.295870 -0.148072 -0.141700 -0.000000 0.652777 -0.757550
0.449892 -0.022095 -0.100310 0.000691 -0.251435 -0.967071
0.229836 -0.095113 -0.038779 0.001048 -0.937633 -0.344966
1.335369 -0.060891 0.082720 0.000149 -0.635912 0.770770
-0.140138 -0.035298 -0.096459 -0.000098 -0.369035 -0.928586
1.517597 -0.058967 -0.044038 1.000000 0.000000 0.000000
0.864407 -0.050557 -0.089411 0.000089 -0.537199 -0.842603
1.531606 0.290225 -0.235978 0.000000 0.652777 0.757550
0.069222 -0.288333 -0.254961 -0.016066 0.642816 -0.765852
0.899217 0.098560 0.084928 -0.132618 0.802668 -0.581495
0.497252 -0.099776 -0.024391 0.000028 -0.977337 -0.208207
-0.040399 0.263608 0.231909 -0.016066 -0.642816 0.765852
0.047620 0.319375 -0.259258 -0.045701 0.679588 0.732169
1.227761 0.179157 0.168486 -0.000000 -0.652777 0.757550
1.379124 0.081139 0.084024 0.000000 -0.652777 0.757550
1.405995 -0.075755 -0.065278 -0.000000 0.757550 0.652777
1.259939 0.102715 -0.000000 -0.000081 0.999140 -0.023523
-0.768288 -0.032577 -0.097412 -0.000063 -0.336570 -0.940827
-0.064761 0.157146 -0.142039 -0.016066 -0.642816 -0.765852
-0.006051 -0.159423 -0.114142 -0.045701 -0.679588 0.732169
1.455430 -0.253521 0.204350 -0.000000 -0.652777 -0.757550
0.765855 -0.048265 0.090668 -0.000012 -0.438350 0.897940
1.477739 0.286629 -0.261094 0.000000 -0.652777 -0.757550
0.114569 0.293999 0.240841 0.129329 0.647295 -0.751188
0.464725 0.102347 -0.008684 -0.000816 0.989581 -0.138499
0.150753 -0.523798 -0.453554 0.045732 0.652094 -0.756758
-1.431063 -0.101294 -0.017021 -0.000259 -0.975106 -0.218153
-0.210921 -0.210473 0.183732 -0.016066 0.642816 0.765852
0.103453 0.102509 0.006487 0.000352 0.998512 0.044887
-0.205953 -0.127460 0.096953 -0.045701 -0.679588 -0.732169
-0.399533 0.013399 0.101837 -0.000050 0.187182 0.981606
-0.174105 0.028789 -0.098597 0.000061 0.301086 -0.952783
0.012082 -0.104429 -0.061967 -0.045701 -0.679588 0.732169
1.483522 -0.111440 -0.110134 -0.000000 0.652777 -0.757550
-1.555393 -0.055253 0.054265 -0.446363 -0.673732 0.586744
-0.082037 0.273598 -0.239420 -0.016066 -0.642816 -0.765852
1.306755 -0.198878 -0.185479 0.000000 0.652777 -0.757550
-0.332724 0.108469 0.087239 -0.045701 0.679588 -0.732169
1.046160 0.163174 -0.140606 -0.132618 0.802668 0.581495
1.436786 -0.293788 -0.267263 -0.044604 0.590681 -0.803207
-1.503829 0.035979 -0.088711 -0.251335 0.321995 -0.910960
0.040190 -0.469582 -0.406483 -0.016066 0.642816 -0.765852
0.052102 0.108772 0.101890 0.045732 -0.652094 0.756758
-0.100031 0.324017 -0.281362 -0.016066 -0.642816 -0.765852
-1.470612 0.098208 -0.025240 -0.106700 0.976462 -0.180504
1.616313 -0.388555 0.334815 0.257326 0.674859 0.691627
0.157065 0.255694 0.222148 0.045732 -0.652094 0.756758
-0.256831 0.108814 0.097442 -0.016066 -0.642816 0.765852
-0.982820 -0.017211 0.101262 -0.000702 -0.155181 0.986859
-1.356530 -0.094392 -0.040503 -0.000207 -0.911187 -0.410128
1.151984 0.106567 -0.077721 -0.000000 0.652777 0.757550
-1.219941 0.000000 -0.102715 -0.000191 -0.033274 -0.998695
0.145200 -0.027092 0.099077 0.000199 -0.290570 0.956035
1.192704 -0.124644 0.121512 0.000000 0.652777 0.757550
0.011831 0.226181 -0.201590 -0.016066 -0.642816 -0.765852
0.085742 0.443263 -0.371869 -0.045701 0.679588 0.732169
-0.807278 0.102495 -0.006715 0.000614 0.994835 -0.095228
0.310850 -0.087243 -0.054212 -0.000380 -0.861204 -0.506988
1.073395 0.114861 0.113082 0.000000 -0.652777 0.757550
-1.193496 -0.102034 0.011804 -0.001187 -0.990155 0.132884
1.480594 0.294540 0.267910 -0.000000 -0.652777 0.757550
0.036875 0.536509 0.461469 -0.045701 0.679588 -0.732169
-0.114224 0.144345 -0.106900 -0.045701 0.679588 0.732169
1.324613 -0.182501 0.143153 0.000000 -0.652777 -0.757550
1.282769 -0.215099 0.199457 0.000000 0.652777 0.757550
0.039442 -0.436549 0.368527 -0.045701 -0.679588 -0.732169
0.108084 0.463854 0.403100 -0.016066 -0.642816 0.765852
-0.328012 0.008450 0.102366 0.000589 0.136200 0.989922
0.414033 -0.007188 0.102463 0.000832 -0.098182 0.994475
-1.176060 0.092669 -0.044302 0.000720 0.881513 -0.470842
-0.107376 0.070530 0.074671 -0.000360 0.664639 0.745969
-0.145154 0.103848 0.095616 -0.016066 -0.642816 0.765852
-0.474379 0.048450 -0.090570 -0.000408 0.454035 -0.890171
1.270448 0.103102 0.102950 0.000000 -0.652777 0.757550
-1.617660 -0.009359 0.034205 -0.658549 -0.252681 0.702344
0.001918 0.135832 -0.125547 -0.016066 -0.642816 -0.765852
0.864431 -0.102559 0.005659 0.001592 -0.995362 0.091660
1.416322 -0.114092 -0.112420 -0.000000 0.652777 -0.757550
1.394934 -0.025480 0.099504 -0.001515 -0.265013 0.963458
0.187153 0.379287 -0.326830 0.129329 0.647295 0.751188
0.019811 0.337972 0.278255 -0.045701 0.679588 -0.732169
1.536180 0.219927 -0.200090 0.257326 -0.674859 -0.691627
-1.332130 0.013659 0.101802 -0.001350 0.144116 0.988780
0.018670 -0.422703 -0.356972 -0.045701 -0.679588 0.732169
0.567643 0.098743 -0.028284 -0.000054 0.954437 -0.295780
0.031491 -0.209533 -0.188029 -0.016066 0.642816 -0.765852
0.984571 0.068779 0.073374 -0.000000 -0.652777 0.757550
0.386793 -0.096736 0.034532 -0.000016 -0.928055 0.370281
1.176773 -0.106562 0.077717 0.000000 -0.652777 -0.757550
1.508886 -0.192173 0.179701 -0.000000 0.652777 0.757550
0.187153 0.326529 -0.281368 0.129329 0.647295 0.751188
1.358192 0.207920 -0.165057 0.000000 0.652777 0.757550
-1.112593 0.030590 0.098054 -0.000627 0.315758 0.947975
-0.930673 -0.088106 -0.052798 0.000138 -0.872037 -0.488301
-1.048982 -0.101902 -0.012898 -0.001604 -0.992961 -0.113861
-0.016182 0.252620 0.201279 -0.045701 0.679588 -0.732169
-1.220400 0.026008 0.099367 -0.000617 0.302775 0.952019
-0.954341 0.049539 0.089979 0.000576 0.445820 0.894345
-0.070000 -0.168063 -0.126154 -0.045701 -0.679588 0.732169
-0.939955 -0.102715 0.000000 -0.001761 -0.999164 -0.028270
1.214283 0.090582 0.048427 -0.000105 0.854358 0.518178
1.324531 -0.168625 -0.159411 0.000000 0.652777 -0.757550
1.011078 -0.054572 -0.087018 -0.000019 -0.573726 -0.818077
-0.719006 -0.082507 -0.061179 0.000059 -0.813890 -0.579663
0.059768 0.064251 -0.080138 0.000020 0.646517 -0.761867
0.886215 -0.079243 0.061230 -0.132618 -0.802668 -0.581495
-1.173710 0.102266 0.009591 -0.000727 0.992986 0.111699
0.107275 0.148966 0.133190 0.045732 -0.652094 0.756758
-1.121882 0.092565 -0.044520 -0.000149 0.897002 -0.440174
0.554223 -0.102447 -0.007414 0.000615 -0.998127 -0.053787
-0.662344 0.034713 0.096671 0.000003 0.348889 0.936355
-1.005398 0.074410 -0.070805 -0.000128 0.717245 -0.695731
1.262124 0.131707 0.127598 0.000000 -0.652777 0.757550
0.039349 0.094979 0.039106 0.000015 0.913127 0.405739
1.324840 0.234422 -0.216107 -0.000000 -0.652777 -0.757550
-1.044398 -0.017421 0.101226 -0.000357 -0.154502 0.986938
0.145268 0.010118 0.102215 -0.000025 0.123817 0.991441
0.029866 -0.049813 0.089828 0.000017 -0.459563 0.887258
1.472654 -0.256103 -0.234789 0.000000 0.652777 -0.757550
0.014994 0.008649 -0.102350 0.000019 0.056083 -0.997637
-0.488530 0.090905 0.047817 -0.000183 0.900422 0.433312
1.047488 0.031805 -0.097666 0.000192 0.331850 -0.942531
-0.147672 0.242319 -0.211789 -0.016066 -0.642816 -0.765852
0.120108 0.050615 -0.089378 0.000056 0.516019 -0.855658
-0.070315 0.378637 -0.321625 -0.045701 0.679588 0.732169
0.024965 0.025738 0.099437 0.000016 0.277221 0.959984
0.481253 0.032634 -0.097392 -0.000025 0.336619 -0.940804
1.507403 0.264065 0.241650 0.000000 -0.652777 0.757550
-0.029471 0.297904 -0.244141 -0.045701 0.679588 0.732169
0.670131 -0.086737 -0.055018 0.000108 -0.836239 -0.546934
-1.378444 0.039201 0.094940 -0.000222 0.427700 0.903082
-0.920633 -0.043683 -0.092962 -0.000030 -0.445064 -0.894647
0.023403 -0.503161 -0.431356 -0.045701 -0.679588 0.732169
0.344241 -0.039982 0.094614 0.000213 -0.411380 0.910625
0.860877 0.095501 -0.037813 -0.000300 0.916529 -0.398048
1.196119 -0.097675 -0.098273 -0.000000 0.652777 -0.757550
-0.952189 -0.068366 -0.076657 -0.000063 -0.639149 -0.768065
0.143828 0.425356 0.369145 0.045732 -0.652094 0.756758
-0.174347 0.030057 0.098218 -0.000032 0.323949 0.945245
0.468783 0.048264 0.090669 0.000038 0.517834 0.854561
1.039444 0.055552 0.086396 -0.000026 0.568070 0.822026
1.485410 -0.081061 0.049386 0.214826 -0.821610 0.526471
-0.129851 0.095008 -0.039035 -0.000092 0.912492 -0.407034
1.120391 -0.105385 -0.076702 -0.000000 -0.652777 0.757550
0.748883 -0.093169 0.043242 -0.000390 -0.917967 0.394428
-0.148578 0.167298 0.130349 -0.045701 0.679588 -0.732169
0.524290 -0.047573 0.091034 -0.000024 -0.444457 0.894920
-0.722631 -0.034619 -0.096705 -0.000001 -0.388447 -0.920618
