1.799714 0.096247 -0.010051 0.039328 0.990862 -0.110853
-0.381936 0.368085 -0.303943 -0.073358 -0.595707 -0.799845
1.797701 0.196041 0.165006 0.062080 -0.627511 0.776129
-1.047139 0.086426 -0.043533 -0.000081 0.906971 -0.419256
1.712791 0.184650 0.137435 0.032899 0.637456 -0.769302
1.782210 0.040498 -0.087888 -0.000143 0.450371 -0.891881
1.558928 -0.091553 -0.031346 -0.000260 -0.924493 -0.378931
0.297125 -0.014002 0.095752 -0.000584 -0.137988 0.989618
-1.370579 -0.058337 0.077209 0.000034 -0.554697 0.831014
1.655251 -0.307327 0.249717 -0.039137 0.591948 0.805025
1.838542 -0.110904 0.087313 0.062080 -0.631281 -0.773066
-0.343685 -0.134714 -0.130471 0.067160 0.629190 -0.774345
0.405724 0.086622 0.043141 -0.000079 0.881720 0.469888
0.420271 -0.095826 0.013487 -0.000083 -0.981827 0.184565
0.919854 0.000000 -0.096770 0.000924 0.064272 -0.996890
1.405954 0.112021 0.093986 -0.039137 -0.591948 0.805025
-0.858517 0.068273 -0.068580 -0.000200 0.741680 -0.669684
-0.335152 -0.311309 0.240265 -0.067110 -0.658592 -0.749502
0.229080 0.040979 0.087665 -0.000146 0.445397 0.894388
-0.234988 -0.072638 -0.063939 0.000167 -0.767195 -0.640103
-0.181822 -0.542769 0.447996 0.067160 0.629190 0.774345
-1.748019 0.033165 -0.090910 -0.000036 0.378830 -0.924533
-0.174730 -0.444706 -0.367700 0.067160 0.629190 -0.774345
-0.424420 0.190747 -0.167969 -0.073358 -0.595707 -0.799845
0.011333 0.079760 0.054798 -0.000007 0.836012 0.547148
-0.295739 -0.093815 -0.023731 -0.000011 -0.958747 -0.281221
1.867339 -0.079440 0.023387 0.205322 -0.935727 0.282604
1.360220 0.079338 0.060934 -0.039137 0.666843 -0.744170
-0.283638 -0.418979 -0.330263 -0.067110 -0.658592 0.749502
-0.435037 0.181967 0.160456 -0.073358 -0.595707 0.799845
1.569751 -0.000000 0.096770 0.000904 -0.032222 0.998855
1.657110 -0.243653 0.192562 -0.039137 -0.666843 -0.744170
-0.336415 0.501368 -0.407384 -0.073358 -0.595707 -0.799845
-0.445844 -0.086878 -0.042623 -0.000203 -0.868837 -0.493299
-1.481730 -0.015789 -0.095473 0.000059 -0.163561 -0.985132
-0.202065 -0.244624 -0.190789 0.061427 -0.629423 0.774631
-0.180692 0.071739 -0.065165 0.067160 -0.629190 -0.774345
-0.581152 -0.094851 -0.082173 -0.073358 0.595707 -0.799845
-1.674778 -0.056411 -0.078627 -0.000020 -0.608365 -0.792535
0.849865 0.096770 -0.000000 0.001148 0.997221 -0.062763
-0.288173 0.342845 0.263770 -0.024269 0.649838 -0.759026
0.734210 -0.074462 -0.061806 -0.000184 -0.786324 -0.616386
-0.311909 -0.288328 -0.250964 -0.073358 0.595707 -0.799845
1.440681 -0.049990 0.082858 0.000053 -0.517473 0.854653
1.586956 -0.256076 0.208711 -0.039137 0.591948 0.805025
-0.411810 -0.225373 0.194915 -0.073358 0.595707 0.799845
-1.141379 0.054207 -0.080163 -0.000052 0.606570 -0.793975
-1.843864 -0.085178 0.036653 -0.195840 -0.882694 0.424413
-0.521726 0.175574 0.137700 -0.067110 0.658592 -0.749502
0.189908 -0.087877 -0.040523 0.000613 -0.896588 -0.441056
-0.372105 0.095712 0.014273 0.000093 0.991909 0.121781
1.714191 -0.007039 0.096514 0.000068 -0.108679 0.993370
-0.285547 0.321394 -0.246548 0.061427 0.629423 0.774631
1.466338 -0.132365 0.111880 -0.039137 0.591948 0.805025
0.397459 -0.075450 0.060595 0.000381 -0.785079 0.618213
-0.450662 0.331092 -0.270088 -0.073358 -0.595707 -0.799845
-0.128016 -0.275275 -0.221566 0.061427 -0.629423 0.774631
-1.146943 -0.024390 0.093646 0.000366 -0.304287 0.951655
1.797078 0.069071 0.049823 0.062080 0.631281 -0.773066
1.585373 0.263338 0.213974 -0.039137 -0.591948 0.805025
-0.002099 -0.072095 0.064551 0.000229 -0.706348 0.706643
1.640472 -0.091982 -0.030064 -0.000010 -0.929540 -0.366311
1.547462 -0.081920 0.053962 -0.014357 -0.644103 -0.764630
-0.102685 0.048918 0.083496 -0.000176 0.521087 0.852468
0.708830 -0.041710 -0.087320 0.000642 -0.396248 -0.917118
0.636044 -0.079526 -0.055138 -0.000157 -0.851571 -0.522687
0.545416 0.076485 0.059284 -0.000035 0.769562 0.637192
1.415359 0.010462 0.096203 0.000708 0.168809 0.984581
-1.449137 -0.083472 0.048959 0.000079 -0.849406 0.526075
-0.066173 0.083999 0.048049 0.000109 0.876526 0.479497
1.783533 -0.247892 0.208062 0.062080 0.627511 0.776129
-0.111138 -0.225733 0.184259 0.067160 0.629190 0.774345
0.038888 0.074454 -0.061815 -0.000043 0.782074 -0.621769
-0.579174 0.027789 -0.092695 -0.000025 0.343265 -0.938300
1.637645 0.035074 0.090190 -0.000125 0.307211 0.950704
1.733511 -0.057366 -0.077933 0.000082 -0.639915 -0.767327
-0.152888 -0.381228 -0.314227 0.067160 0.629190 -0.774345
-0.224956 -0.043543 0.086421 0.000010 -0.493363 0.868860
1.856298 0.237717 0.192294 0.062080 0.631281 -0.773066
1.445799 0.085491 -0.045342 -0.000190 0.852966 -0.520262
1.445799 -0.085491 -0.045342 -0.000190 -0.852966 -0.520262
-0.540475 0.103413 -0.075971 -0.067110 0.658592 0.749502
0.827672 -0.093964 -0.023136 0.000016 -0.961059 -0.273196
0.762408 0.054745 0.079797 -0.000797 0.584669 0.810101
-0.596384 0.149530 -0.121500 -0.073358 -0.595707 -0.799845
-1.242441 -0.095671 -0.014546 0.000559 -0.978330 -0.202781
1.302931 0.094016 -0.022925 0.000176 0.954673 -0.294788
-1.784836 0.056608 -0.078486 0.000609 0.536770 -0.842764
0.886590 0.055420 -0.079329 -0.000794 0.598445 -0.799948
-0.662426 -0.094435 -0.021133 -0.000456 -0.967922 -0.247222
1.725474 -0.233588 -0.179947 -0.039137 -0.666843 0.744170
-0.944982 0.086052 0.044267 0.000055 0.899076 0.435881
0.059990 -0.096770 -0.000000 0.001317 -0.997506 0.056158
-0.484833 -0.160983 0.121575 -0.067110 -0.658592 -0.749502
1.759992 0.091586 -0.031248 0.000204 0.936471 -0.348244
-0.162464 0.267704 0.222814 0.067160 -0.629190 0.774345
-0.317890 -0.136086 0.093412 0.061427 -0.629423 -0.774631
1.662687 0.232731 0.195227 -0.039137 -0.591948 0.805025
-0.591885 -0.107708 0.090764 -0.073358 0.595707 0.799845
1.725784 0.252607 -0.196974 -0.039137 0.666843 0.744170
-0.309205 0.476658 0.391477 -0.073358 -0.595707 0.799845
-0.108521 0.635232 -0.516769 0.067160 -0.629190 -0.774345
-1.519518 0.015843 -0.095465 0.000806 0.136981 -0.989830
1.216317 -0.007765 -0.096458 0.000421 -0.107240 -0.993525
1.875850 -0.043498 0.055299 1.000000 0.000000 -0.000000
-0.221261 0.226535 0.194462 0.067160 -0.629190 0.774345
-0.411406 0.399876 -0.324917 -0.073358 -0.595707 -0.799845
-0.658921 -0.042730 -0.086825 0.000089 -0.414292 -0.909186
-0.489869 -0.267393 0.215529 -0.067110 -0.658592 -0.749502
-0.202295 -0.628009 0.514004 -0.073358 0.595707 0.799845
-0.111507 -0.335259 0.271615 0.061427 -0.629423 -0.774631
-1.515588 0.042942 0.086721 -0.000189 0.494899 0.867938
-0.477806 0.227600 -0.179483 -0.067110 0.658592 0.749502
1.185842 -0.067569 0.069274 0.000315 -0.666787 0.744045
1.459078 -0.088239 0.039728 -0.000038 -0.931656 0.360917
0.473986 -0.093035 0.026625 -0.000495 -0.972654 0.228330
0.542753 -0.096394 -0.008525 0.001266 -0.991245 -0.125186
1.791549 -0.041798 -0.087278 0.000239 -0.399408 -0.915759
-0.999841 0.000000 -0.096770 0.000805 0.054921 -0.997739
0.973596 0.023935 -0.093764 -0.000070 0.276686 -0.960081
0.050917 0.065868 0.070894 0.000294 0.661298 0.748848
0.652992 -0.046547 -0.084840 -0.000002 -0.509332 -0.859551
-0.313812 -0.073494 -0.062953 0.000225 -0.738925 -0.672557
0.348295 -0.025271 -0.093412 -0.000003 -0.289538 -0.956290
0.904411 0.096415 0.008279 -0.000398 0.997639 0.057434
-0.127825 0.525324 -0.429138 0.067160 -0.629190 -0.774345
1.496941 0.096237 0.010145 -0.000270 0.989429 0.136814
0.563518 -0.050456 -0.082576 0.000091 -0.568441 -0.821704
1.544051 0.088088 -0.040063 -0.000122 0.899456 -0.435025
-0.160991 -0.435123 0.358722 0.067160 0.629190 0.774345
-0.251946 -0.311378 0.266062 0.067160 0.629190 0.774345
1.646583 -0.273581 -0.219934 -0.039137 -0.666843 0.744170
1.646583 0.271268 -0.222781 -0.039137 -0.591948 -0.805025
-0.527831 0.010729 -0.096174 -0.000014 0.173377 -0.983734
-0.679892 0.096770 -0.000000 0.001542 0.999161 -0.022233
-0.242209 0.448706 -0.376803 -0.031220 -0.606829 -0.793586
1.859461 0.040867 0.073888 0.202090 0.442484 0.872489
0.804531 -0.051040 -0.082215 0.000079 -0.547471 -0.835822
-0.933427 0.030210 0.091934 -0.000076 0.288710 0.956502
-0.202502 0.093968 0.023118 -0.000064 0.961244 0.272393
1.670542 -0.112504 -0.078813 0.000000 -0.630614 0.776097
1.510446 -0.039984 -0.088124 0.000036 -0.465991 -0.883869
0.223733 -0.049980 -0.082865 0.000098 -0.537747 -0.842089
1.160851 -0.059222 -0.076532 -0.000381 -0.588253 -0.807579
-0.382887 -0.160117 0.148966 -0.073358 0.595707 0.799845
0.841181 0.069386 0.067454 0.000590 0.697324 0.715617
-0.520050 0.207760 0.171869 -0.073358 -0.595707 0.799845
-0.368611 0.115861 -0.117315 -0.026524 -0.607970 -0.792762
1.733766 0.153169 0.113412 0.062080 0.631281 -0.773066
1.699805 0.084143 0.080971 -0.000000 -0.630614 0.776097
-0.313355 -0.083373 0.049127 0.000281 -0.862478 0.504341
-0.107361 0.006873 0.096526 -0.002346 0.114900 0.992679
-0.863071 0.071372 0.065349 -0.000335 0.697238 0.715648
0.057023 -0.010411 -0.096209 -0.001261 -0.133702 -0.989965
0.972241 -0.079296 0.055467 0.000012 -0.850225 0.524775
-1.059832 -0.000000 0.096770 -0.000629 -0.053928 0.997756
-0.312955 -0.181994 0.131106 0.061427 -0.629423 -0.774631
-0.145684 0.639781 0.523688 0.067160 -0.629190 0.774345
1.809451 -0.085051 -0.041783 0.202705 -0.904676 -0.371866
1.677904 -0.214560 -0.182605 -0.039137 0.591948 -0.805025
1.105320 -0.063545 0.072983 -0.000425 -0.698436 0.714432
-0.411979 0.125740 0.120694 -0.073358 -0.595707 0.799845
-0.362177 -0.114576 0.072422 0.061427 -0.629423 -0.774631
1.866876 -0.240915 0.195755 0.062080 -0.631281 -0.773066
0.584917 -0.093205 -0.026027 0.000368 -0.968006 -0.247338
-0.101442 -0.562262 0.456864 0.067160 0.629190 0.774345
-0.200903 0.324681 -0.272444 0.067160 -0.629190 -0.774345
1.586139 -0.040304 0.087978 -0.000272 -0.462705 0.885549
-0.222548 -0.272060 -0.231565 0.067160 0.629190 -0.774345
-0.549164 0.096112 0.011265 0.002541 0.984981 0.166025
-0.331416 0.508134 0.412882 -0.067110 0.658592 -0.749502
-0.438557 0.293994 -0.234309 -0.067110 0.658592 0.749502
-0.474716 0.151050 -0.133791 -0.073358 -0.595707 -0.799845
-0.473563 -0.018377 0.095009 0.000266 -0.140014 0.989268
-0.470350 0.095025 -0.018295 0.000541 0.968460 -0.245357
0.713276 -0.006401 0.096558 0.000265 -0.116938 0.992519
1.033355 -0.079533 0.055126 0.000084 -0.853038 0.520205
1.509760 -0.000000 0.096770 -0.000100 -0.059304 0.997316
-0.677713 -0.007579 0.096473 0.001176 -0.119020 0.992162
-0.437569 -0.175858 -0.155674 -0.073358 0.595707 -0.799845
-1.191068 0.023207 -0.093946 -0.000478 0.275115 -0.960448
-0.441170 -0.118428 0.112571 -0.073358 0.595707 0.799845
1.159404 0.075195 0.060911 0.000049 0.738202 0.673265
0.334715 -0.095944 -0.012618 -0.001402 -0.985841 -0.160848
-0.511394 -0.264554 -0.214962 -0.073358 0.595707 -0.799845
1.502739 0.101119 0.090675 -0.039137 -0.591948 0.805025
1.060995 0.033356 -0.090840 0.000787 0.372235 -0.927222
0.339503 -0.024093 0.093723 -0.000107 -0.293878 0.954926
1.836086 0.082825 -0.033283 0.202353 0.920150 -0.332337
1.411273 0.032408 -0.091182 -0.000123 0.390318 -0.919716
1.494844 0.050234 0.082711 0.000312 0.552943 0.832139
1.722254 -0.307846 0.246658 -0.039137 -0.666843 -0.744170
-0.269957 0.000000 -0.096770 -0.000071 0.061926 -0.997118
-0.333534 -0.049789 0.082979 -0.000051 -0.557008 0.829516
-1.604509 -0.008705 -0.096378 -0.001133 -0.057862 -0.997481
0.119743 0.089267 -0.037362 -0.000057 0.907334 -0.418389
1.346616 0.040558 0.087861 -0.000037 0.445965 0.894135
0.100512 0.087054 0.042262 0.000536 0.885773 0.462173
1.669465 0.224159 -0.174444 -0.039137 0.666843 0.744170
-1.460714 0.087535 0.041257 -0.000081 0.877058 0.478545
1.224784 0.052923 0.081016 -0.000075 0.578104 0.814876
0.897816 -0.096346 0.009055 0.000100 -0.993132 0.110258
1.089827 -0.000000 0.096770 -0.000001 -0.026412 0.998591
-1.312121 0.088635 -0.038836 0.000041 0.890113 -0.453841
0.848412 -0.036922 -0.089450 -0.000281 -0.357479 -0.932909
0.450105 0.071808 0.064870 -0.000034 0.700363 0.712547
-1.362615 0.024583 0.093596 0.000215 0.228977 0.972522
-1.114224 -0.072398 0.064211 -0.000122 -0.770885 0.635583
1.735000 -0.088517 -0.039106 -0.000247 -0.926450 -0.374181
-0.184618 -0.020301 -0.094617 -0.000157 -0.242368 -0.969172
-0.244720 0.328735 0.279539 0.067160 -0.629190 0.774345
-0.277826 -0.238112 -0.179490 0.061427 -0.629423 0.774631
-0.176817 -0.338634 0.281693 0.067160 0.629190 0.774345
0.620597 0.084226 -0.047650 0.000301 0.881639 -0.470024
-1.970021 0.016074 0.026897 -0.648696 0.410217 0.635893
1.786564 -0.103124 0.076785 0.062080 -0.631281 -0.773066
-1.513260 -0.094977 -0.018542 0.000263 -0.970549 -0.236991
-0.660080 0.071829 0.064846 -0.000116 0.778529 0.626228
-0.248826 0.481903 0.400920 -0.073358 -0.595707 0.799845
0.501009 0.094703 0.019896 0.000001 0.971840 0.231630
1.365827 -0.099867 -0.079036 -0.039137 -0.666843 0.744170
-0.374786 -0.201358 -0.180424 -0.073358 0.595707 -0.799845
-0.441037 -0.317992 0.261215 -0.073358 0.595707 0.799845
0.355266 0.093143 0.026247 -0.000221 0.952958 0.299946
1.535555 -0.195718 -0.161830 -0.039137 0.591948 -0.805025
1.784613 -0.096482 -0.007466 0.000010 -0.994072 -0.101982
-0.350112 -0.118394 0.117768 0.067160 0.629190 0.774345
1.535295 -0.207769 0.166813 -0.039137 -0.666843 -0.744170
-0.206131 0.270123 -0.211185 0.061427 0.629423 0.774631
-0.101442 -0.438539 0.356333 0.067160 0.629190 0.774345
0.111198 -0.096313 -0.009394 0.000892 -0.986463 -0.157901
1.163934 -0.096462 -0.007719 -0.000412 -0.990409 -0.132904
1.016500 -0.016750 0.095310 -0.000069 -0.186278 0.981646
-0.412890 0.119919 -0.116276 -0.073358 -0.595707 -0.799845
0.821776 0.034284 -0.090494 0.000097 0.409611 -0.911353
-0.187369 0.043880 0.086250 -0.000285 0.502677 0.863526
-0.488818 -0.225024 0.187592 -0.073358 0.595707 0.799845
-0.395528 -0.039202 -0.088474 0.000236 -0.428265 -0.902661
0.924475 0.019632 0.094758 -0.000268 0.236309 0.970778
-1.912129 -0.036497 0.060110 -0.466281 -0.424727 0.772496
-1.680679 -0.074871 0.061309 0.000045 -0.734892 0.676933
-1.799714 -0.029917 0.092030 -0.023800 -0.247200 0.967275
0.082219 0.041213 -0.087556 -0.000249 0.477436 -0.877690
1.216577 0.096456 -0.007799 -0.000283 0.989281 -0.140227
-0.101442 0.090568 -0.073591 0.061427 0.629423 0.774631
1.211648 0.015072 0.095589 -0.000207 0.135097 0.990078
1.802773 0.400191 0.325173 -0.039137 -0.591948 0.805025
-0.333386 -0.371798 -0.293259 -0.067110 -0.658592 0.749502
0.494028 0.069650 -0.067182 -0.000331 0.738089 -0.673436
0.833695 -0.082168 0.051117 -0.000221 -0.830834 0.555018
-0.331265 0.232877 -0.170998 0.018577 0.640115 0.767402
1.295467 0.031969 0.091337 -0.000179 0.313933 0.948529
-0.533986 -0.067783 0.069065 0.000106 -0.738227 0.673287
-0.203292 0.140180 -0.122736 0.067160 -0.629190 -0.774345
0.580733 0.089095 0.037771 0.000293 0.895323 0.443377
-0.138070 0.585585 0.472910 0.061427 0.629423 -0.774631
-0.942977 0.040834 -0.087733 -0.001256 0.390014 -0.919918
-0.174899 -0.519282 -0.428311 0.067160 0.629190 -0.774345
1.801017 -0.354797 0.291709 -0.039137 0.591948 0.805025
-0.405439 0.156574 -0.144259 -0.073358 -0.595707 -0.799845
1.486415 -0.096394 0.008524 0.000562 -0.990849 0.128393
-0.519337 -0.098278 -0.090395 -0.073358 0.595707 -0.799845
0.130925 -0.035111 -0.090176 -0.000384 -0.391028 -0.919522
-0.540556 0.089846 -0.035948 -0.000052 0.938583 -0.342474
0.998687 0.068983 -0.067866 0.000065 0.670992 -0.740350
-0.139978 0.000000 -0.096770 0.001270 0.030394 -0.998611
0.557704 -0.076166 0.059693 -0.001116 -0.759030 0.649958
-0.212045 -0.179761 -0.155657 0.067160 0.629190 -0.774345
-0.506171 -0.158872 -0.136731 -0.073358 0.595707 -0.799845
-0.746396 -0.070872 -0.065891 -0.000364 -0.708131 -0.704873
1.788065 -0.213326 0.179752 0.062080 0.627511 0.776129
1.494489 -0.104963 0.093100 -0.039137 0.591948 0.805025
-0.901690 0.079912 -0.054575 -0.000973 0.811648 -0.582623
-0.372024 0.265518 -0.203330 -0.067110 0.658592 0.749502
-1.570092 -0.043334 0.086526 -0.000095 -0.472548 0.880476
-0.031741 -0.046076 0.085097 0.000149 -0.465665 0.884065
-0.381536 -0.165429 -0.116233 -0.067110 -0.658592 0.749502
-0.338842 -0.254502 -0.223301 -0.073358 0.595707 -0.799845
-0.340790 0.182982 -0.129702 0.061427 0.629423 0.774631
-1.774880 0.056600 0.078492 0.000104 0.608337 0.792571
0.815246 0.093917 0.023327 0.000499 0.981709 0.186225
1.671609 0.275019 0.226755 -0.039137 -0.591948 0.805025
-0.204308 -0.239271 0.186261 0.061427 -0.629423 -0.774631
-1.270692 -0.039237 -0.088459 -0.000008 -0.398743 -0.916098
-1.427811 -0.096285 0.009683 0.000576 -0.985821 0.161679
-0.789385 0.095322 0.016679 0.000110 0.989404 0.139581
-0.242209 -0.448706 0.376803 -0.026524 0.607970 0.792762
-0.411920 0.090732 0.094627 -0.073358 -0.595707 0.799845
-0.205341 0.432454 0.360400 0.067160 -0.629190 0.774345
-0.401598 -0.089746 0.036196 0.000385 -0.923781 0.380060
-0.101442 0.454005 -0.368899 0.061427 0.629423 0.774631
-0.454510 0.021272 -0.094403 -0.000286 0.276966 -0.959923
1.683469 0.164499 -0.121061 -0.000000 0.630614 0.776097
-0.386409 0.433706 -0.352406 -0.073358 -0.595707 -0.799845
-0.256003 -0.139824 0.101357 0.061427 -0.629423 -0.774631
1.708290 -0.238674 0.185408 -0.039137 -0.666843 -0.744170
-1.829509 0.000000 -0.094887 -0.100465 -0.027140 -0.993636
1.213722 0.058946 -0.076746 -0.000169 0.595444 -0.802403
-0.315157 0.109714 0.072200 0.061427 0.629423 -0.774631
-0.270683 -0.055558 -0.079233 0.000222 -0.591324 -0.805456
-0.177972 -0.136707 -0.105012 0.061427 -0.629423 0.774631
-0.812582 -0.095076 -0.018031 0.000031 -0.974570 -0.220834
1.087619 0.063682 -0.072863 0.000849 0.616103 -0.786747
0.088722 -0.069203 0.067642 0.000725 -0.748510 0.661873
-0.286136 -0.176999 -0.159839 0.067160 0.629190 -0.774345
-1.576779 -0.093524 0.024856 -0.000556 -0.956608 0.289206
1.683463 -0.187100 0.140499 -0.039137 -0.666843 -0.744170
-0.133899 0.534024 0.431345 0.061427 0.629423 -0.774631
-0.363243 0.308010 -0.260915 -0.073358 -0.595707 -0.799845
-0.995107 -0.096547 -0.006574 0.000159 -0.994042 -0.102456
-1.966723 -0.008367 -0.033188 -0.664792 -0.251346 -0.696622
-0.330994 -0.096525 0.006880 -0.001130 -0.992436 0.114837
0.109983 -0.000000 0.096770 0.000937 -0.068712 0.996386
-0.454828 -0.090827 0.033391 0.000733 -0.918721 0.392606
-0.455166 0.272817 0.217188 -0.067110 0.658592 -0.749502
-0.422180 0.088174 -0.091781 -0.073358 -0.595707 -0.799845
-0.298112 0.242596 0.181525 0.061427 0.629423 -0.774631
1.659436 0.066579 0.070226 0.001107 0.673701 0.737737
1.550301 -0.146079 0.126046 -0.039137 0.591948 0.805025
-0.226443 0.059875 -0.076023 -0.000418 0.642821 -0.764877
-0.258412 -0.163633 -0.120512 0.061427 -0.629423 0.774631
-0.482447 -0.294016 -0.239559 -0.073358 0.595707 -0.799845
-0.346235 -0.223448 0.164054 -0.067110 -0.658592 -0.749502
-0.465000 -0.167232 -0.125291 -0.067110 -0.658592 0.749502
-0.164733 0.544956 -0.437782 0.061427 0.629423 0.774631
1.875850 0.000000 -0.010132 1.000000 0.000000 -0.000000
-0.384135 -0.381917 -0.314043 -0.073358 0.595707 -0.799845
1.416306 -0.087765 0.040766 -0.000606 -0.909286 0.414404
1.830489 -0.080492 0.041187 0.202411 -0.897327 0.389755
1.370314 -0.005629 0.096606 -0.001059 -0.111267 0.993097
1.773276 -0.037814 0.089076 0.000016 -0.392314 0.919142
-0.193192 -0.060327 -0.075665 -0.000647 -0.666082 -0.744767
1.397925 0.108690 -0.085253 -0.039137 0.666843 0.744170
1.453243 0.088218 0.039776 -0.000073 0.925232 0.377115
0.430701 -0.047725 0.084183 0.000148 -0.484065 0.874031
-0.509598 -0.044778 -0.085787 0.000041 -0.513997 -0.856761
0.204885 0.084549 -0.047074 0.000013 0.900085 -0.433745
-0.150444 0.477513 0.384115 0.061427 0.629423 -0.774631
-0.195245 -0.387038 -0.307048 0.061427 -0.629423 0.774631
-0.274063 -0.268225 -0.232917 0.067160 0.629190 -0.774345
-0.189030 0.638488 0.523026 -0.073358 -0.595707 0.799845
-0.297318 -0.134099 -0.093429 0.061427 -0.629423 0.774631
0.774693 0.011026 -0.096140 0.001380 0.187044 -0.980908
-0.181283 0.095997 -0.012208 -0.000354 0.986927 -0.156849
-0.404351 -0.108573 -0.068316 -0.067110 -0.658592 0.749502
-0.212991 -0.437213 -0.346410 0.061427 -0.629423 0.774631
-0.799873 -0.000000 0.096770 -0.000551 -0.070637 0.996551
1.679733 0.096770 -0.000000 -0.000728 0.995449 -0.078335
1.697066 -0.164004 -0.145862 0.000000 0.630614 -0.776097
-0.122727 0.124160 0.102731 0.067160 -0.629190 0.774345
-0.929217 -0.082000 -0.051386 0.000888 -0.876049 -0.480358
-0.767809 0.044269 -0.086051 -0.000167 0.428056 -0.902776
-1.190349 0.060211 0.075757 0.000426 0.664707 0.746020
-0.607657 0.015998 0.095439 0.000766 0.225938 0.973057
-0.426249 -0.335831 -0.269970 -0.067110 -0.658592 0.749502
-0.208745 0.522114 -0.415732 0.061427 0.629423 0.774631
-0.285840 -0.313574 -0.270786 0.067160 0.629190 -0.774345
-0.192351 0.208682 -0.162355 0.061427 0.629423 0.774631
1.717125 -0.086348 0.082763 0.020703 0.629782 0.776358
0.358718 0.086342 -0.043698 0.000186 0.912863 -0.406601
-1.269332 0.068488 0.068365 -0.001868 0.703395 0.709291
1.861024 -0.357009 0.290086 0.062080 -0.631281 -0.773066
-1.659737 -0.000000 0.096770 0.000084 -0.058407 0.997332
-0.400667 -0.192406 -0.141650 -0.067110 -0.658592 0.749502
-0.027415 0.072783 0.063774 0.000043 0.725100 0.687359
1.828325 0.055837 -0.071684 0.203335 0.552092 -0.807366
-1.159125 -0.086880 -0.042618 -0.000046 -0.872327 -0.487172
1.583077 0.227121 -0.181641 -0.039137 0.666843 0.744170
-0.906687 -0.054332 -0.080078 -0.000068 -0.575568 -0.816465
-0.459706 -0.045346 -0.085488 -0.000100 -0.496114 -0.867246
-0.650269 0.021851 0.094271 -0.000019 0.237026 0.970511
-1.311416 -0.066110 0.070668 -0.000157 -0.662295 0.748142
-0.235016 0.107548 0.076795 0.061427 0.629423 -0.774631
-0.110040 -0.639506 0.518946 0.061427 -0.629423 -0.774631
-0.262318 0.395754 0.335521 -0.026524 -0.607970 0.792762
1.012629 0.095729 0.014155 0.000590 0.978297 0.203320
-0.426404 -0.379578 0.308424 -0.073358 0.595707 0.799845
-0.226428 -0.650222 -0.528335 -0.073358 0.595707 -0.799845
-0.556389 -0.203659 -0.165482 -0.073358 0.595707 -0.799845
-0.631380 -0.102168 -0.083016 -0.073358 0.595707 -0.799845
-0.144441 0.239357 -0.191079 0.061427 0.629423 0.774631
-0.355429 -0.193220 0.138316 -0.067110 -0.658592 -0.749502
-0.514280 -0.103847 0.074006 -0.067110 -0.658592 -0.749502
-0.393036 0.200306 0.147909 -0.067110 0.658592 -0.749502
-0.319951 0.087211 -0.089814 0.067160 -0.629190 -0.774345
-0.591385 -0.156296 -0.126998 -0.073358 0.595707 -0.799845
-1.494540 -0.081816 0.051678 0.000640 -0.864186 0.501556
-0.318472 0.213143 0.155978 0.061427 0.629423 -0.774631
1.665151 -0.150752 0.109891 -0.000000 -0.630614 -0.776097
-0.577259 0.117901 0.091995 -0.067110 0.658592 -0.749502
-0.254101 0.528230 0.423618 -0.067110 0.658592 -0.749502
-0.401601 -0.268707 0.208781 -0.067110 -0.658592 -0.749502
-0.328392 -0.221767 0.199879 -0.026524 0.607970 0.792762
-0.035718 0.036167 -0.089758 -0.000027 0.409856 -0.911184
1.734251 -0.348418 0.282384 -0.039137 -0.666843 -0.744170
1.632062 -0.149325 -0.132409 -0.039137 0.591948 -0.805025
-0.283638 0.418979 -0.330263 -0.067110 0.658592 0.749502
0.699346 0.092441 0.028622 -0.000225 0.945238 0.323775
0.199968 -0.096770 -0.000000 -0.001443 -0.998969 0.027065
-1.299794 0.096770 -0.000000 0.002466 0.999103 -0.029159
1.399778 -0.096770 -0.000000 0.001415 -0.999411 0.021309
1.795008 -0.395303 0.321202 -0.039137 0.591948 0.805025
-0.314028 0.276864 -0.208107 0.018577 0.640115 0.767402
1.321387 -0.097160 0.078947 -0.039137 0.591948 0.805025
0.632155 -0.009935 -0.096259 0.000202 -0.165915 -0.985077
-1.571932 -0.035446 -0.090045 0.000007 -0.372680 -0.927009
-1.211326 -0.085144 -0.045988 -0.000064 -0.875201 -0.481930
-0.327083 0.251104 0.221849 -0.073358 -0.595707 0.799845
-1.924692 -0.058011 -0.026340 -0.476241 -0.781364 -0.397445
1.861414 -0.349269 -0.283797 0.062080 0.627511 -0.776129
1.870388 0.171260 0.139156 0.062080 0.631281 -0.773066
1.863365 -0.310571 0.252353 0.062080 -0.631281 -0.773066
1.861024 0.357009 -0.290086 0.062080 0.631281 0.773066
-0.101442 -0.484936 0.394032 0.067160 0.629190 0.774345
1.875850 -0.030376 -0.040362 1.000000 0.000000 0.000000
1.804632 0.366885 0.295230 -0.039137 0.666843 -0.744170
1.826065 -0.414854 0.337087 -0.039137 0.591948 0.805025
-0.246368 0.370974 -0.289941 0.061427 0.629423 0.774631
-1.769719 0.096770 -0.000000 0.000102 0.999215 -0.024787
1.329151 0.102048 0.082918 -0.039137 -0.591948 0.805025
-0.101442 0.237490 0.192971 0.061427 0.629423 -0.774631
-0.101442 -0.106034 -0.086157 0.061427 -0.629423 0.774631
-0.101442 0.206559 -0.167838 0.061427 0.629423 0.774631
-0.274007 0.050132 0.082773 0.000330 0.540646 0.840224
-0.101442 0.384411 -0.312351 0.061427 0.629423 0.774631
-0.101442 0.307084 0.249519 0.061427 0.629423 -0.774631
-0.371873 -0.314978 -0.265313 -0.073358 0.595707 -0.799845
-0.000408 -0.078857 -0.056090 -0.000101 -0.825857 -0.562298
-0.284561 0.129705 -0.121273 0.067160 -0.629190 -0.774345
-0.380102 0.085603 -0.093725 -0.026524 -0.607970 -0.792762
-0.284404 0.287536 0.249505 0.067160 -0.629190 0.774345
0.784935 0.082214 -0.051042 0.000103 0.817684 -0.574119
1.708225 0.231309 0.178813 -0.039137 0.666843 -0.744170
1.610213 0.173639 0.132289 -0.039137 0.666843 -0.744170
1.690086 0.075411 -0.060644 0.000005 0.759737 -0.648870
-0.623631 0.096576 -0.006121 0.000878 0.998606 -0.035724
-0.232963 0.174363 -0.131248 0.061427 0.629423 0.774631
-1.229413 0.094476 -0.020949 0.000321 0.970374 -0.237896
-0.595474 -0.085860 -0.044638 -0.000071 -0.900290 -0.433247
0.877260 -0.070722 -0.066052 0.000859 -0.755682 -0.653445
-0.325517 0.454608 -0.365320 -0.067110 0.658592 0.749502
-1.933963 0.008815 0.057572 -0.519054 0.204938 0.827486
1.425711 -0.041535 -0.087403 0.000133 -0.481039 -0.875693
-0.353876 0.146406 0.098944 0.061427 0.629423 -0.774631
1.786164 0.095642 -0.084755 0.062080 -0.627511 -0.776129
-0.058417 -0.023426 -0.093892 0.000592 -0.205733 -0.977735
-1.659919 0.064128 0.072471 0.000027 0.683886 0.728375
-0.093971 -0.093527 -0.024843 -0.000498 -0.958251 -0.282841
0.508578 -0.075471 -0.060569 -0.000003 -0.796520 -0.603173
1.715155 -0.137759 0.099334 0.020703 -0.631039 -0.775336
-0.141183 -0.538274 0.440819 0.067160 0.629190 0.774345
-0.621592 -0.056716 0.078408 -0.000254 -0.544787 0.837574
0.941046 -0.052351 -0.081387 -0.000176 -0.489215 -0.871144
-1.867871 0.064658 -0.058554 -0.280864 0.676177 -0.679421
-1.216909 -0.072215 0.064416 0.000130 -0.732834 0.679160
-0.210764 -0.141700 0.106469 0.061427 -0.629423 -0.774631
0.248974 0.094774 0.019556 0.000975 0.970792 0.235966
1.729682 0.036087 0.089790 0.000188 0.414204 0.909231
0.691996 -0.043461 0.086462 0.000165 -0.481138 0.875680
1.802734 0.276381 -0.219564 0.062080 0.631281 0.773066
-0.201179 0.456466 -0.362991 0.061427 0.629423 0.774631
-0.332294 0.137075 0.131402 0.067160 -0.629190 0.774345
-0.200597 -0.084055 0.076898 0.067160 0.629190 0.774345
0.761419 -0.071507 0.065202 0.000345 -0.753751 0.655898
0.320427 0.060364 0.075635 0.000274 0.649479 0.759275
0.597069 -0.076372 -0.059429 0.000416 -0.812969 -0.580816
1.602069 -0.164753 0.124755 -0.039137 -0.666843 -0.744170
-0.098344 -0.078201 0.057001 -0.000369 -0.805846 0.590794
-1.487464 -0.053193 -0.080839 -0.000304 -0.552404 -0.832542
-0.406100 0.077901 -0.057410 0.000205 0.789237 -0.612630
-0.253273 -0.090632 -0.033917 -0.000277 -0.943592 -0.328436
1.659141 0.158941 0.116545 -0.013052 0.642899 -0.765699
1.823161 -0.316682 -0.260510 0.062080 0.627511 -0.776129
-0.922390 -0.053613 0.080562 0.000091 -0.503809 0.862792
-0.808207 -0.040197 0.088027 0.000192 -0.454658 0.889699
1.503883 0.142795 -0.121375 -0.039137 -0.591948 -0.805025
-0.356932 -0.322216 0.272074 -0.073358 0.595707 0.799845
-0.323649 0.312715 -0.268051 -0.073358 -0.595707 -0.799845
-0.431352 -0.249355 -0.194440 -0.067110 -0.658592 0.749502
-0.769339 0.092432 -0.028649 0.000226 0.945149 -0.324034
1.818431 0.264842 0.218975 0.062080 -0.627511 0.776129
1.703232 -0.069659 -0.056601 -0.050344 0.775113 0.629814
1.500000 0.072425 -0.069442 -0.033567 -0.775586 0.630199
1.724198 -0.260647 -0.218744 -0.039137 0.591948 -0.805025
-0.438765 0.103845 0.067243 -0.067110 0.658592 -0.749502
-1.653435 0.089125 0.037698 -0.000507 0.905600 0.422160
1.583369 0.227387 0.181864 -0.039137 0.666843 -0.744170
0.417353 -0.025350 -0.093391 0.000260 -0.288606 -0.956577
0.258887 0.088584 -0.038952 -0.000024 0.889191 -0.455614
0.303762 -0.016727 -0.095314 -0.000097 -0.203323 -0.978218
-0.735488 0.087767 0.040761 0.000212 0.892424 0.449324
-0.417498 0.247902 0.191923 -0.067110 0.658592 -0.749502
-0.294771 -0.501641 0.403896 -0.067110 -0.658592 -0.749502
-0.356531 -0.419606 0.344645 -0.073358 0.595707 0.799845
1.574380 -0.195260 -0.163381 -0.039137 0.591948 -0.805025
1.574409 0.156723 -0.135045 -0.039137 -0.591948 -0.805025
-0.160264 -0.594760 0.488372 0.067160 0.629190 0.774345
-0.367206 -0.088559 -0.095008 0.067160 0.629190 -0.774345
-1.533047 0.083159 -0.049488 0.000142 0.885738 -0.462647
-0.601427 0.090467 0.077049 -0.073358 -0.595707 0.799845
1.875850 0.075781 0.028759 1.000000 -0.000000 -0.000000
-0.290116 0.149748 0.138041 0.067160 -0.629190 0.774345
-0.233321 0.278611 0.237822 0.067160 -0.629190 0.774345
0.495836 -0.075858 0.060084 0.000313 -0.779193 0.625345
-0.188524 0.403640 0.335529 0.067160 -0.629190 0.774345
0.795956 0.032018 0.091320 0.000306 0.385311 0.921836
1.079829 0.000000 -0.096770 0.000973 0.063683 -0.996948
1.849713 0.116614 0.092872 0.062080 0.631281 -0.773066
-0.141231 -0.127585 0.107120 0.067160 0.629190 0.774345
0.416883 0.040998 -0.087656 -0.000167 0.396327 -0.917222
-0.172693 -0.096096 -0.011404 0.001427 -0.988106 -0.149075
-0.317141 -0.241777 -0.179350 0.061427 -0.629423 0.774631
1.733176 0.082241 0.055445 0.062080 0.631281 -0.773066
0.920171 0.087059 0.042252 -0.000219 0.887985 0.457936
-0.101442 -0.345747 -0.280935 0.061427 -0.629423 0.774631
1.673083 -0.070838 0.057559 -0.050344 0.775113 -0.629814
1.836889 0.078898 0.067160 0.062080 -0.627511 0.776129
-1.900041 0.070915 0.027006 -0.396730 0.880663 0.252614
-0.793259 0.056111 0.078842 -0.000762 0.590884 0.805588
-0.194120 -0.178711 0.153249 0.067160 0.629190 0.774345
-0.292021 -0.354998 -0.274793 -0.067110 -0.658592 0.749502
-0.223956 -0.210656 -0.181793 0.067160 0.629190 -0.774345
-1.639086 -0.074230 -0.062084 -0.000319 -0.762159 -0.646263
0.149077 -0.092545 0.028282 -0.000051 -0.969623 0.240221
-0.139298 0.416834 0.341980 0.067160 -0.629190 0.774345
-0.678597 -0.083353 0.049160 0.000465 -0.833212 0.551309
-1.437266 0.020871 0.094493 -0.000291 0.245586 0.968363
1.863755 0.302832 0.246065 0.062080 0.631281 -0.773066
-0.069989 0.096770 -0.000000 0.000540 0.998861 -0.021568
-0.342602 -0.277221 0.210979 -0.067110 -0.658592 -0.749502
-0.244609 -0.560744 -0.460026 -0.073358 0.595707 -0.799845
-0.370009 0.167369 -0.155548 -0.073358 -0.595707 -0.799845
1.562872 -0.101869 0.094149 -0.039137 0.591948 0.805025
1.540087 0.208702 0.171597 -0.039137 -0.591948 0.805025
1.781869 0.339636 -0.279630 -0.039137 -0.591948 -0.805025
-0.350936 0.325810 0.275300 -0.073358 -0.595707 0.799845
-0.369941 -0.096770 -0.000000 -0.000442 -0.998960 0.029773
-0.276342 0.179670 -0.161159 0.067160 -0.629190 -0.774345
-1.925040 0.007659 -0.063051 -0.481720 0.167101 -0.858408
-0.524104 -0.215720 0.173189 -0.067110 -0.658592 -0.749502
-0.470930 -0.089286 0.088138 -0.073358 0.595707 0.799845
1.039835 0.000000 -0.096770 -0.001359 0.039788 -0.997613
1.569844 -0.253563 -0.206032 -0.039137 -0.666843 0.744170
-0.950252 0.062553 0.073835 0.000067 0.621914 0.781794
-0.514214 -0.124170 0.110149 -0.073358 0.595707 0.799845
-0.936054 -0.079503 0.055170 -0.000166 -0.811861 0.582419
1.774043 0.093678 0.068066 0.062080 0.631281 -0.773066
-0.351942 -0.207595 -0.150635 -0.067110 -0.658592 0.749502
-0.484420 0.220836 0.174132 -0.067110 0.658592 -0.749502
1.580220 -0.214447 0.177773 -0.039137 0.591948 0.805025
1.028515 -0.061158 -0.074994 0.000029 -0.627176 -0.777902
0.019031 -0.009332 -0.096319 -0.000857 -0.137727 -0.989546
0.699504 -0.091297 -0.032082 -0.000531 -0.932654 -0.358450
-0.361776 0.219564 0.162032 -0.067110 0.658592 -0.749502
1.742782 0.042440 -0.086967 0.000199 0.468003 -0.882726
1.613396 -0.089264 0.037370 -0.000067 -0.901424 0.430923
1.695201 -0.116596 -0.107341 -0.000000 0.630614 -0.776097
1.579936 -0.064171 -0.072433 0.000030 -0.639697 -0.767482
-0.450248 -0.130216 -0.120519 -0.073358 0.595707 -0.799845
-0.744660 -0.096482 0.007466 0.000582 -0.992340 0.117218
1.705572 0.113195 0.104577 0.000000 -0.630614 0.776097
-0.178154 -0.293928 0.232747 0.061427 -0.629423 -0.774631
1.554768 0.027273 -0.092848 0.000299 0.308045 -0.950468
-0.210062 0.610469 0.491938 -0.067110 0.658592 -0.749502
-0.908112 0.095535 -0.015413 0.000584 0.981600 -0.186807
1.704794 0.217164 -0.185827 -0.039137 -0.591948 -0.805025
1.315171 -0.034219 0.090518 -0.000099 -0.363286 0.930900
-1.811856 -0.033040 -0.090583 -0.059130 -0.276025 -0.958007
-1.148951 -0.037760 -0.089099 0.000379 -0.341644 -0.939013
-0.395545 0.298986 0.234845 -0.067110 0.658592 -0.749502
-0.139851 0.370438 -0.297952 0.061427 0.629423 0.774631
1.038562 0.060334 0.075659 0.000303 0.654187 0.755207
1.796645 -0.319251 0.254084 0.062080 -0.631281 -0.773066
1.835171 -0.260580 0.214190 0.062080 0.627511 0.776129
-1.330142 0.089933 0.035729 0.000309 0.918520 0.393199
-0.170210 -0.407915 0.325997 0.061427 -0.629423 -0.774631
1.474797 -0.098308 -0.071907 -0.039137 -0.666843 0.744170
1.619905 -0.063924 -0.072652 0.000002 -0.682417 -0.729750
-1.774845 -0.069645 0.067187 -0.000009 -0.739653 0.671673
1.416134 -0.138840 -0.114201 -0.039137 0.591948 -0.805025
-0.706482 -0.008546 -0.096392 0.000166 -0.121111 -0.991739
-0.872804 -0.091147 0.032508 0.000127 -0.919680 0.390286
-1.875491 -0.083557 0.015435 -0.319953 -0.919644 0.221433
-0.251216 0.217011 -0.189321 0.067160 -0.629190 -0.774345
0.305466 -0.085806 0.044742 -0.000247 -0.861803 0.505479
-0.335246 -0.156070 0.147092 0.067160 0.629190 0.774345
1.727023 0.121133 -0.110096 0.062080 -0.627511 -0.776129
-0.258868 0.476525 -0.395994 -0.073358 -0.595707 -0.799845
-0.291046 -0.320107 0.276546 -0.023170 0.608759 0.792139
1.620535 0.081987 0.079220 -0.000000 -0.630614 0.776097
0.133301 -0.084699 -0.046804 -0.000379 -0.854249 -0.518232
-1.223501 -0.055927 -0.078972 -0.000037 -0.570673 -0.819941
-0.140879 -0.357423 0.287295 0.061427 -0.629423 -0.774631
-0.523128 0.085134 0.046007 0.000253 0.904207 0.425029
1.672770 0.093333 -0.088438 0.000000 -0.630614 -0.776097
-0.865885 -0.094162 -0.022316 -0.000140 -0.982893 -0.180590
0.563143 -0.046698 0.084757 -0.000070 -0.490853 0.870227
1.780734 0.242960 -0.204298 0.062080 -0.627511 -0.776129
-1.315214 0.007991 0.096440 -0.000292 0.135981 0.989970
-0.502958 0.142194 0.124605 -0.073358 -0.595707 0.799845
1.875850 0.043086 -0.019600 1.000000 0.000000 0.000000
-1.821827 0.035922 -0.088707 -0.069924 0.385815 -0.918484
-0.203885 -0.383086 0.320160 0.067160 0.629190 0.774345
1.498145 0.174910 -0.139322 -0.039137 0.666843 0.744170
-0.164888 -0.474622 0.391154 0.067160 0.629190 0.774345
-0.239974 -0.275482 0.235857 0.067160 0.629190 0.774345
-1.816606 0.012052 0.095370 -0.083944 0.189022 0.976698
1.838283 -0.153818 0.122336 0.062080 -0.631281 -0.773066
1.471261 -0.180247 -0.145519 -0.039137 -0.666843 0.744170
-0.293965 -0.110936 0.106839 0.067160 0.629190 0.774345
-0.635562 -0.085514 -0.045297 0.000008 -0.853524 -0.519340
1.729861 -0.251989 0.212653 -0.039137 0.591948 0.805025
-0.101442 0.268420 -0.218104 0.061427 0.629423 0.774631
-1.759295 -0.017573 -0.095161 -0.000096 -0.208063 -0.977223
-0.137972 0.172155 -0.136987 0.061427 0.629423 0.774631
1.138632 0.009949 0.096257 -0.000530 0.164981 0.985265
1.057460 0.092223 -0.029315 -0.000032 0.933557 -0.356004
-0.503340 -0.219404 -0.174568 -0.067110 -0.658592 0.749502
0.935400 -0.096554 -0.006471 0.001787 -0.993517 -0.108340
-0.478104 0.083009 -0.082804 -0.073358 -0.595707 -0.799845
1.829685 0.214364 0.171086 0.062080 0.631281 -0.773066
1.777639 -0.346103 -0.284180 -0.039137 0.591948 -0.805025
-0.418038 -0.180059 0.160594 -0.073358 0.595707 0.799845
1.723829 0.008864 -0.096363 0.000855 0.115292 -0.992679
0.698578 0.025636 -0.093313 0.000294 0.317949 -0.947278
-0.568942 -0.169383 0.136488 -0.067110 -0.658592 -0.749502
-0.371721 0.174272 0.123125 -0.067110 0.658592 -0.749502
-1.579749 -0.000000 0.096770 -0.000200 -0.016845 0.999279
0.024050 -0.096408 0.008369 0.000746 -0.997987 0.049430
-0.319872 -0.157570 -0.110712 0.061427 -0.629423 0.774631
-0.296420 -0.555496 0.451366 -0.073358 0.595707 0.799845
1.501208 0.135475 0.103823 -0.039137 0.666843 -0.744170
-0.187199 0.376627 0.299226 0.061427 0.629423 -0.774631
1.609744 0.000000 -0.096770 -0.000121 0.063865 -0.996934
-0.239962 0.096770 -0.000000 0.000931 0.998274 -0.038674
1.592562 0.081109 0.052781 0.001978 0.846495 0.531241
-0.252640 -0.469075 -0.391017 -0.073358 0.595707 -0.799845
0.913765 0.073755 -0.062647 -0.000612 0.786546 -0.616005
-0.440763 -0.281249 -0.233874 -0.073358 0.595707 -0.799845
-0.435864 0.096215 0.010348 0.000746 0.989733 0.135522
-0.281329 -0.273898 0.238156 0.067160 0.629190 0.774345
1.044095 -0.096333 0.009193 0.000050 -0.992463 0.116763
1.426429 0.083846 0.074263 -0.039137 -0.591948 0.805025
-0.985701 -0.070597 -0.066186 0.001191 -0.731144 -0.680545
1.844019 -0.048610 0.072905 0.202435 -0.510505 0.834490
1.583000 -0.164967 -0.125950 -0.039137 -0.666843 0.744170
-1.799714 -0.096770 0.000000 -0.021170 -0.998203 0.027315
0.451089 0.075486 -0.060551 -0.000916 0.751106 -0.658896
-0.282188 -0.238718 0.209645 0.067160 0.629190 0.774345
1.430087 0.165586 -0.134546 -0.039137 -0.591948 -0.805025
-0.169935 0.114326 0.087464 0.061427 0.629423 -0.774631
1.524124 -0.136796 -0.103802 -0.039137 -0.666843 0.744170
1.836649 -0.125066 -0.104507 0.062080 0.627511 -0.776129
-0.185655 0.234372 0.197742 0.067160 -0.629190 0.774345
-0.246478 -0.082080 0.079273 0.067160 0.629190 0.774345
1.532820 -0.176670 0.147691 -0.039137 0.591948 0.805025
-1.241858 -0.035223 0.090132 -0.001198 -0.320289 0.946500
1.103006 0.096178 0.010692 0.001418 0.990794 0.128403
-0.265351 -0.361026 0.307566 0.067160 0.629190 0.774345
1.729725 0.096770 -0.000000 -0.000667 0.998159 -0.047910
-0.881698 -0.010193 0.096232 -0.001372 -0.149624 0.987691
1.145672 0.010249 -0.096226 0.000789 0.124763 -0.991314
1.875850 -0.008563 0.035193 1.000000 0.000000 0.000000
0.517501 0.034883 -0.090264 -0.001066 0.387877 -0.920694
-0.249410 -0.591572 -0.478857 -0.067110 -0.658592 0.749502
-0.259526 0.435314 0.342458 -0.067110 0.658592 -0.749502
-0.399400 -0.223918 -0.194969 -0.073358 0.595707 -0.799845
1.633653 0.124373 0.088457 0.000000 0.630614 -0.776097
-0.630809 0.088869 -0.071279 -0.067110 0.658592 0.749502
-0.194968 -0.449005 0.357421 0.061427 -0.629423 -0.774631
1.639493 -0.034293 -0.090490 -0.000000 -0.382161 -0.923139
1.184873 -0.088344 0.039494 0.000003 -0.892753 0.448648
-0.262354 -0.174874 0.129333 0.061427 -0.629423 -0.774631
-0.303638 -0.363731 0.307881 -0.073358 0.595707 0.799845
0.019422 0.095372 0.016390 0.000474 0.989340 0.140005
1.737006 -0.038778 0.088661 0.001399 -0.440080 0.897292
0.732781 0.053594 -0.080574 -0.001037 0.568519 -0.821326
1.546992 0.157105 0.133993 -0.039137 -0.591948 0.805025
0.929636 -0.016242 0.095398 -0.000975 -0.112688 0.992829
-1.099120 0.019675 0.094749 -0.000230 0.261921 0.964108
-0.807308 -0.087051 0.042268 -0.000060 -0.917612 0.395347
0.757995 0.095201 -0.017354 0.000300 0.971348 -0.234160
1.637175 -0.100878 -0.069366 -0.000000 -0.630614 0.776097
1.500000 -0.072425 -0.069442 -0.033567 0.775586 0.630199
1.474797 0.098308 -0.071907 -0.039137 0.666843 0.744170
1.752537 -0.137191 -0.101872 0.062080 -0.631281 0.773066
-0.756520 -0.083880 0.048255 0.000514 -0.841594 0.538269
0.203607 0.083112 0.049567 0.000154 0.872838 0.486219
1.688738 -0.317528 -0.258846 -0.039137 0.591948 -0.805025
1.109130 -0.089655 0.036421 -0.000837 -0.917859 0.394846
1.466338 -0.136601 -0.106667 -0.039137 -0.666843 0.744170
-0.849865 0.096770 -0.000000 0.000126 0.997934 -0.050615
-0.510357 -0.082244 -0.050995 0.000042 -0.816455 -0.575878
1.153191 -0.045664 0.085318 -0.000223 -0.481416 0.875509
1.074391 0.039854 0.088182 -0.000108 0.463286 0.885215
0.777446 -0.095049 -0.018171 0.000181 -0.987061 -0.154512
0.379739 0.045681 0.085309 -0.000125 0.522664 0.851509
-0.388003 -0.288329 -0.224805 -0.067110 -0.658592 0.749502
0.537654 0.009753 0.096278 -0.000001 0.130787 0.990393
1.684737 0.008667 -0.096381 -0.000016 0.118939 -0.992006
-0.663889 0.034926 -0.090248 -0.000054 0.331660 -0.942473
0.539267 0.093508 -0.024914 0.000110 0.970046 -0.239336
-0.579744 -0.058441 -0.077131 -0.000061 -0.579891 -0.813605
1.824042 -0.379104 -0.305159 -0.005386 -0.655658 0.754584
-1.650464 -0.034238 0.090511 -0.000453 -0.324627 0.944921
-0.990706 -0.080490 0.053721 -0.000017 -0.797055 0.602451
0.927173 0.090669 -0.033818 -0.001082 0.919515 -0.391005
1.263811 0.093756 0.023964 -0.000175 0.962927 0.266334
0.058526 -0.072101 -0.064544 -0.000059 -0.758695 -0.650095
-0.548903 -0.032407 0.091183 0.000222 -0.336102 0.940826
1.780048 0.207560 -0.161544 0.062080 0.631281 0.773066
1.183403 0.012881 -0.095909 -0.001776 0.166552 -0.985111
0.000204 0.038334 -0.088854 -0.000150 0.415321 -0.908712
1.211690 0.079646 0.054964 -0.000066 0.811306 0.583099
1.333844 0.064716 -0.071947 0.000202 0.686264 -0.726176
-0.370157 -0.210168 0.187411 -0.073358 0.595707 0.799845
-0.110868 0.627715 0.510865 0.067160 -0.629190 0.774345
-1.453168 -0.023118 0.093968 0.000269 -0.295867 0.954318
-0.396073 0.406612 0.329464 -0.067110 0.658592 -0.749502
0.054952 0.090609 -0.033977 -0.000104 0.921085 -0.387101
-1.305269 0.069233 0.067612 0.000710 0.707476 0.705665
1.280229 0.071390 0.065330 0.000077 0.763023 0.645000
-1.409776 0.096770 -0.000000 0.000717 0.999200 -0.013118
-0.530802 -0.094828 -0.019291 -0.000044 -0.965503 -0.256984
-1.720454 0.091949 0.030165 -0.000011 0.939836 0.339021
-1.790273 0.091747 0.030773 -0.001280 0.957141 0.286508
0.268572 -0.094120 -0.022493 0.000414 -0.956357 -0.289048
-0.348756 0.041405 0.087465 0.000001 0.400310 0.915426
-1.714863 -0.056716 0.078408 -0.000037 -0.560839 0.826854
-1.523945 -0.065573 -0.071167 -0.000061 -0.680937 -0.731144
-1.013234 0.096289 -0.009636 -0.000157 0.986075 -0.160366
1.330945 -0.085578 -0.045177 -0.000066 -0.898803 -0.436325
-1.408924 0.073463 -0.062989 -0.000002 0.742272 -0.668781
-0.491268 0.266087 0.217950 -0.073358 -0.595707 0.799845
-1.745277 -0.094212 0.022104 -0.002061 -0.981101 0.186176
-0.444530 0.182361 -0.136752 -0.067110 0.658592 0.749502
-0.308630 0.372277 0.313788 -0.073358 -0.595707 0.799845
-1.422135 0.077169 0.058391 0.000028 0.780542 0.623688
-1.320324 0.048519 -0.083728 -0.000007 0.531030 -0.846335
-1.256418 0.037513 0.089204 -0.000646 0.365748 0.929766
-0.693914 -0.049591 -0.083097 -0.000381 -0.486989 -0.872468
0.432800 -0.062413 -0.073953 -0.000871 -0.610271 -0.791164
-0.332136 -0.185442 -0.170689 0.067160 0.629190 -0.774345
-1.006549 -0.058445 0.077128 -0.000015 -0.633934 0.772246
-1.108193 -0.077009 -0.058602 0.001195 -0.785543 -0.617601
1.654369 -0.112469 0.103987 -0.000000 0.630614 0.776097
1.472958 -0.021077 -0.094447 -0.001977 -0.187501 -0.981177
-1.357680 0.089957 -0.035669 -0.000074 0.919570 -0.390667
1.428577 0.063312 -0.073186 0.000012 0.678718 -0.733225
1.227847 0.093207 0.026019 -0.000231 0.951314 0.305268
-1.664548 0.044815 -0.085768 -0.000339 0.443749 -0.895294
1.461144 0.185137 -0.150432 -0.039137 -0.591948 -0.805025
1.659448 0.034006 -0.090598 0.000044 0.379550 -0.924217
-1.269107 -0.096327 0.009255 0.000955 -0.992533 0.115330
0.968034 -0.037333 0.089279 0.000032 -0.422876 0.905205
-0.181398 -0.206370 0.174620 0.067160 0.629190 0.774345
1.555478 -0.042522 -0.086927 -0.000053 -0.467412 -0.883108
-0.323852 0.016860 0.095290 -0.000021 0.232191 0.971767
0.656515 0.067461 -0.069380 -0.000463 0.720598 -0.692078
1.574906 0.057462 -0.077863 0.000034 0.568927 -0.821315
-0.343410 -0.369665 0.292283 -0.067110 -0.658592 -0.749502
-0.243395 0.125306 -0.090560 0.061427 0.629423 0.774631
-0.460435 0.082694 -0.050261 -0.000092 0.837344 -0.545065
-1.939029 -0.051177 0.020226 -0.566150 -0.750615 0.335574
1.294961 -0.094471 0.020968 0.001476 -0.979721 0.195379
1.608100 0.097137 -0.091530 0.000000 -0.630614 -0.776097
-0.550356 0.070413 0.066797 0.000000 -0.776097 -0.630614
-0.175812 0.528825 0.436145 0.067160 -0.629190 0.774345
1.251589 -0.055154 0.079514 -0.000305 -0.615085 0.787354
0.673542 0.035580 0.089992 -0.000000 0.422198 0.905538
1.410643 -0.088135 -0.039959 0.000116 -0.884090 -0.465428
-1.688910 0.093614 -0.024514 0.000403 0.951401 -0.305093
-1.634800 -0.094220 -0.022068 -0.000518 -0.974547 -0.220229
0.313760 0.049067 -0.083408 -0.000115 0.479288 -0.876658
-1.628192 0.071488 -0.065222 0.000171 0.764366 -0.643419
-0.153925 -0.189349 -0.149693 0.061427 -0.629423 0.774631
-1.641259 -0.091497 0.031509 -0.000023 -0.935024 0.352200
-0.129979 0.096770 -0.000000 -0.000869 0.998752 -0.027977
-0.027754 0.029147 0.092276 0.000102 0.320220 0.946431
0.568329 0.033478 -0.090795 0.000064 0.359723 -0.932133
-1.538105 0.065559 0.071179 -0.000025 0.701250 0.711743
1.706509 -0.096558 0.006408 0.000184 -0.992980 0.112273
-1.875515 -0.030604 0.079260 -0.277434 -0.307705 0.908262
0.855328 0.087036 -0.042299 -0.000041 0.908754 -0.415291
-1.430431 0.051800 -0.081739 -0.000068 0.583401 -0.811104
1.621621 -0.252302 0.202178 -0.039137 -0.666843 -0.744170
1.775401 0.033520 0.090780 0.000045 0.383132 0.922768
0.593912 0.018274 0.095029 -0.000064 0.217595 0.975119
-1.122907 0.084776 0.046664 0.000173 0.867112 0.496373
-0.986270 -0.032581 0.091121 0.000263 -0.390951 0.919460
1.837120 -0.209326 0.167569 0.062080 -0.631281 -0.773066
-0.110566 -0.597181 -0.486028 0.067160 0.629190 -0.774345
0.117319 -0.064451 -0.072184 -0.000513 -0.684236 -0.728118
0.184182 -0.050299 -0.082671 0.000326 -0.541470 -0.839694
1.607536 -0.193334 0.163577 -0.039137 0.591948 0.805025
-1.018842 0.067300 -0.069536 0.000095 0.673771 -0.737823
-1.500557 -0.019630 0.094758 0.000136 -0.223019 0.973826
-0.475731 0.099068 0.066355 -0.067110 0.658592 -0.749502
-1.384819 -0.029484 0.092169 0.000809 -0.282204 0.958379
1.146254 0.043115 0.086635 0.000065 0.427195 0.903182
0.019997 -0.000000 0.096770 -0.001258 -0.057153 0.997404
-0.558618 -0.140899 0.110534 -0.067110 -0.658592 -0.749502
0.699903 0.084384 -0.047370 0.000273 0.886868 -0.460412
-1.754640 -0.079427 -0.055279 -0.000482 -0.837127 -0.545418
-1.388011 0.069821 0.067003 -0.000004 0.744615 0.666205
1.010050 -0.095394 -0.016265 -0.000454 -0.978910 -0.200125
1.179776 0.096609 -0.005578 0.001992 0.993213 -0.110641
-0.197251 -0.494544 0.410149 0.067160 0.629190 0.774345
1.523258 -0.224238 -0.182203 -0.039137 -0.666843 0.744170
-0.413521 -0.071964 0.064696 -0.000224 -0.744118 0.666784
-1.154689 -0.096611 -0.005558 0.000570 -0.994278 -0.100760
1.196311 -0.038271 -0.088881 0.000216 -0.340071 -0.939439
1.000189 0.015130 0.095580 0.001103 0.164125 0.985574
-0.586759 0.058348 0.077201 -0.000743 0.619401 0.784064
1.466884 0.129468 -0.100246 -0.039137 0.666843 0.744170
-1.600143 0.052197 0.081486 0.000109 0.506722 0.861108
-0.636380 0.095401 0.077518 -0.067110 0.658592 -0.749502
-0.366660 -0.418728 -0.343062 -0.073358 0.595707 -0.799845
1.690032 0.319165 -0.258496 -0.039137 0.666843 0.744170
-0.418199 0.040946 0.087681 0.000073 0.398632 0.916180
0.139996 0.074173 -0.062151 0.000290 0.801332 -0.596780
1.834762 0.411379 0.334955 -0.022261 -0.598190 0.800617
1.834762 -0.412055 -0.334122 -0.022261 -0.661251 0.749377
1.834762 0.412055 -0.334122 -0.005386 0.655658 0.754584
1.305780 -0.049184 -0.083339 0.000150 -0.536225 -0.843045
-0.257961 0.305878 -0.262115 0.067160 -0.629190 -0.774345
-1.409613 -0.082861 -0.049986 0.000050 -0.828214 -0.559039
-0.572129 -0.089457 0.066542 -0.067110 -0.658592 -0.749502
-0.262318 -0.395754 0.335521 -0.026524 0.607970 0.792762
-0.674924 0.075581 -0.060432 0.000094 0.741801 -0.669310
1.568570 0.095548 -0.015333 0.000179 0.981981 -0.184648
-0.110899 0.326747 -0.266317 0.067160 -0.629190 -0.774345
0.392962 0.090406 -0.034515 -0.000215 0.910968 -0.410395
-0.334205 -0.102598 -0.064908 0.061427 -0.629423 0.774631
-1.108011 0.044528 -0.085917 -0.000993 0.515152 -0.855748
1.303998 0.008481 -0.096398 0.000184 0.146238 -0.988367
1.523015 0.217664 -0.177357 -0.039137 -0.591948 -0.805025
1.727114 -0.317639 -0.255178 -0.039137 -0.666843 0.744170
-1.574437 0.087978 -0.040302 0.000247 0.882909 -0.467700
0.121375 -0.046485 0.084874 0.000137 -0.431682 0.901025
