1.513411 -0.126205 -0.163700 0.030537 0.784617 -0.619228
-0.088482 0.299826 0.388391 -0.071613 -0.751698 0.655608
1.217786 0.082130 0.111392 -0.013078 -0.769347 0.638698
1.365708 0.033683 0.093545 -0.001935 0.281893 0.956064
0.072704 0.161935 -0.195702 0.062868 0.785292 0.615925
0.844273 0.093356 0.034204 0.000100 0.969543 0.230451
0.318991 -0.086161 0.049614 -0.000040 -0.891582 0.445425
-1.562003 -0.042831 0.081742 -0.255694 -0.566812 0.773410
1.520527 -0.049888 -0.085164 0.030839 -0.482453 -0.871546
-0.388760 -0.078264 -0.061319 -0.000015 -0.842570 -0.534273
1.479830 -0.182988 -0.229276 0.030537 -0.788340 0.614482
0.009967 0.063365 0.076617 0.000075 0.588591 0.804454
-1.647543 -0.046131 0.028453 -0.557554 -0.638888 0.521835
0.993247 0.085168 0.106585 -0.013078 0.803610 -0.595012
0.025166 -0.138888 -0.161466 0.062868 -0.785292 0.615925
1.206433 -0.078121 0.061501 -0.001527 -0.800853 0.592842
1.356180 0.096954 -0.114525 -0.013078 0.803610 0.595012
0.066196 -0.428106 -0.552367 -0.071613 0.751698 -0.655608
0.141633 0.147597 -0.192165 0.067145 -0.785073 -0.615753
0.012793 -0.276530 0.335693 0.062868 -0.785292 -0.615925
-0.130356 -0.191770 0.259923 -0.071613 0.751698 0.655608
-0.209511 -0.063336 0.076641 0.001825 -0.543858 0.835275
-1.247588 -0.063359 0.076621 0.000700 -0.543761 0.835119
1.285375 0.117330 -0.143602 -0.013078 0.803610 0.595012
0.968226 0.090644 -0.116537 -0.013078 -0.769347 -0.638698
-0.322026 0.107471 0.131372 -0.067065 0.814172 -0.576738
-0.070513 -0.117314 0.176688 0.067145 0.785073 0.615753
1.046729 -0.093543 -0.033689 0.000630 -0.970649 -0.226884
1.358738 0.195079 -0.250330 -0.013078 -0.769347 -0.638698
-0.036412 0.231565 -0.273341 -0.023758 0.805833 0.590760
-0.027953 -0.189495 0.264076 0.067145 0.785073 0.615753
-0.002546 -0.366960 0.474751 -0.071613 0.751698 0.655608
1.567094 0.085082 0.045564 0.052884 0.877472 0.469911
-0.035868 0.262682 -0.317206 -0.067065 0.814172 0.576738
0.080565 0.169885 0.206640 0.062868 0.785292 -0.615925
-0.215104 -0.130377 -0.151275 -0.067065 -0.814172 0.576738
-0.608196 -0.033666 -0.093551 0.000464 -0.283919 -0.955343
0.078075 0.200434 -0.266461 0.067145 -0.785073 -0.615753
0.019453 -0.191342 -0.227759 0.062868 -0.785292 0.615925
-0.203704 0.075864 0.119018 -0.071613 -0.751698 0.655608
0.093936 0.364124 -0.455656 0.062868 0.785292 0.615925
-0.154232 0.291542 -0.371710 -0.067065 0.814172 0.576738
-0.385967 0.059160 -0.079957 -0.000000 -0.617146 0.786849
0.012793 0.276530 0.335693 0.062868 0.785292 -0.615925
-0.121516 -0.119433 -0.177949 -0.071613 0.751698 -0.655608
-0.050267 -0.136316 -0.150486 0.062868 -0.785292 0.615925
-0.163708 0.238171 0.297470 -0.067065 0.814172 -0.576738
1.385726 0.131709 0.160816 -0.013078 0.803610 -0.595012
1.314538 0.102061 0.122338 -0.013078 0.803610 -0.595012
-0.181800 -0.074023 0.119299 -0.071613 0.751698 0.655608
-0.243725 0.173279 0.215166 -0.067065 0.814172 -0.576738
-0.057614 0.139370 0.203402 0.067145 -0.785073 0.615753
0.078881 0.264024 -0.347450 0.067145 -0.785073 -0.615753
1.275918 -0.091104 0.108389 -0.013078 -0.803610 -0.595012
0.054587 -0.128187 0.150825 0.062868 -0.785292 -0.615925
-0.019337 0.167177 0.234681 0.067145 -0.785073 0.615753
0.985166 -0.075397 -0.093566 -0.013078 -0.803610 0.595012
-0.308226 -0.054763 -0.083406 -0.071613 0.751698 -0.655608
1.270608 0.179151 -0.227419 -0.013078 0.803610 0.595012
1.584373 0.079523 -0.053245 0.052884 0.877472 -0.469911
1.487778 0.087766 -0.046716 0.013936 0.880182 -0.467861
1.270681 0.178177 0.228168 -0.013078 -0.769347 0.638698
1.052522 0.120850 0.153473 -0.013078 0.803610 -0.595012
1.381330 -0.075640 0.064528 0.000458 -0.799619 0.594747
1.507826 -0.231468 -0.292864 0.014546 -0.794103 0.607467
-0.050254 -0.186040 -0.262103 -0.025364 0.764235 -0.643491
-0.177738 -0.207051 -0.272268 -0.071613 0.751698 -0.655608
0.919845 -0.062728 0.077890 -0.013078 -0.803610 -0.595012
0.041883 -0.054144 -0.083891 0.067145 0.785073 -0.615753
1.343434 -0.083416 0.115513 -0.013078 0.769347 0.638698
1.584373 -0.018463 -0.093905 0.044171 -0.059619 -0.993637
-0.049137 0.152532 -0.219259 0.067145 -0.785073 -0.615753
-1.615109 0.062983 -0.037185 -0.433154 0.678409 -0.581624
0.849115 0.085669 -0.050458 0.000199 0.825658 -0.558497
0.089699 0.033655 0.093555 0.000005 0.283121 0.955622
1.087100 0.110594 -0.138861 -0.013078 0.803610 0.595012
0.158515 -0.388030 -0.496871 0.067145 0.785073 -0.615753
1.473340 0.168456 0.210311 0.030537 0.788340 -0.614482
-0.598052 0.017063 -0.097949 0.000645 0.058449 -0.994835
-0.269355 0.052564 -0.085131 -0.000000 -0.617146 0.786849
-0.342479 -0.131415 0.167551 -0.067065 -0.814172 -0.576738
-0.007513 -0.061579 0.098757 0.067145 0.785073 0.615753
1.253762 0.076149 0.063927 0.000564 0.682467 0.726202
-0.002365 0.367084 0.474912 -0.071613 -0.751698 0.655608
-0.011385 0.075846 -0.117370 0.067145 -0.785073 -0.615753
1.470607 0.082795 0.055047 -0.000236 0.770418 0.632325
1.466372 0.101002 0.134086 0.030537 -0.784617 0.619228
-0.023972 -0.108003 -0.117072 0.062868 -0.785292 0.615925
-0.008727 -0.275784 -0.332545 0.019553 -0.796207 0.603823
0.123914 0.336699 -0.435198 0.067145 -0.785073 -0.615753
0.219315 -0.086161 -0.049614 -0.000099 -0.889925 -0.448305
-1.505098 0.019428 -0.097508 -0.015230 0.061980 -0.994109
-1.465228 -0.099424 0.000000 0.000662 -0.997077 -0.045291
0.132448 0.410918 -0.528895 0.067145 -0.785073 -0.615753
1.136315 0.064956 -0.076142 -0.013078 0.803610 0.595012
0.209351 0.033820 0.093496 0.000908 0.394695 0.915057
1.056755 0.077363 -0.062452 -0.001848 0.719621 -0.689303
-0.787516 -0.085558 -0.050646 0.000366 -0.827497 -0.555610
1.465228 -0.000000 0.099424 0.005727 -0.101915 0.991894
-1.526197 0.093503 -0.030255 -0.156263 0.932284 -0.310093
1.584373 -0.049698 0.019349 1.000000 0.000000 0.000000
-0.074911 0.073902 -0.068395 0.062868 0.785292 0.615925
-0.141445 -0.087423 -0.082072 -0.067065 -0.814172 0.576738
-1.086633 0.063624 -0.076402 0.001533 0.592037 -0.801761
-0.128578 0.177433 -0.207641 -0.067065 0.814172 0.576738
0.903944 0.093412 0.034051 -0.000073 0.969747 0.229688
-0.378659 0.086328 0.049323 0.000009 0.916316 0.392047
-0.847320 -0.061323 0.078261 -0.000733 -0.535663 0.841677
0.619565 0.047849 -0.087153 0.000301 0.436403 -0.896382
0.239414 -0.049243 -0.086373 0.001481 -0.443561 -0.892490
0.023723 0.262234 -0.318581 0.062868 0.785292 0.615925
-0.119465 0.098906 0.095727 0.020794 0.795892 -0.604168
-0.118237 0.212323 -0.255693 -0.067065 0.814172 0.576738
-0.027953 0.189495 -0.264076 0.067145 -0.785073 -0.615753
-0.142512 0.069012 -0.117845 -0.071613 -0.751698 -0.655608
0.000141 0.103285 0.151097 0.067145 -0.785073 0.615753
-1.544124 -0.095924 0.000000 -0.117488 -0.987368 0.059539
1.264691 -0.120613 0.148490 -0.013078 -0.803610 -0.595012
0.161475 -0.153940 0.198088 0.067145 0.785073 0.615753
-0.012273 -0.306358 -0.376118 -0.067065 -0.814172 0.576738
0.091380 -0.231850 -0.286748 0.062868 -0.785292 0.615925
0.022374 0.086179 -0.049583 -0.000840 0.892427 -0.443803
1.491033 -0.141285 0.183911 0.030537 0.784617 0.619228
0.096510 -0.305081 -0.397874 0.067145 0.785073 -0.615753
1.043626 0.103534 -0.133608 -0.013078 -0.769347 -0.638698
-1.608639 0.072552 0.023299 -0.375175 0.866111 0.313773
0.135909 0.368978 0.466129 0.062868 0.785292 -0.615925
-0.769322 0.076501 0.063504 0.000358 0.835292 0.543695
-0.021355 0.275801 0.368177 -0.071613 -0.751698 0.655608
-1.601117 -0.079488 0.000000 -0.352601 -0.929878 0.057771
1.058763 -0.094902 0.118291 -0.013078 -0.803610 -0.595012
-0.082831 0.233771 0.281854 -0.067065 0.814172 -0.576738
-0.098071 0.069475 -0.118699 0.067145 -0.785073 -0.615753
1.525830 -0.028533 0.094226 0.031342 -0.284690 0.953997
1.226794 0.150618 0.194073 -0.013078 -0.769347 0.638698
1.226794 0.150618 -0.194073 -0.013078 -0.769347 -0.638698
-0.170410 0.133390 -0.150331 -0.067065 0.814172 0.576738
0.897049 0.049530 -0.086209 -0.000590 0.446582 -0.890887
-1.367153 0.018883 -0.097615 -0.001079 0.288305 -0.954261
0.046642 0.364223 -0.450955 -0.023758 0.805833 0.590760
-0.253000 -0.172215 0.214744 -0.067065 -0.814172 -0.576738
1.549815 0.037074 0.089987 0.046261 0.373251 0.922450
1.326278 -0.141324 0.175108 -0.013078 -0.803610 -0.595012
-1.438765 0.097929 -0.017179 0.003880 0.959363 -0.269301
0.012036 0.308949 -0.376949 -0.023758 0.805833 0.590760
0.159577 0.086312 0.049350 -0.000925 0.915029 0.394512
1.570452 -0.123430 0.157371 0.030537 0.784617 0.619228
1.329709 -0.171184 0.220953 -0.013078 0.769347 0.638698
0.139745 0.084605 -0.052222 0.000790 0.884985 -0.457071
0.043188 0.228050 -0.276984 0.062868 0.785292 0.615925
0.757360 0.084734 0.052014 0.000783 0.884383 0.458168
0.061915 -0.417305 0.524114 -0.067065 -0.814172 -0.576738
0.667741 0.093518 -0.033757 0.000279 0.955366 -0.283882
-0.428600 -0.093514 0.033770 -0.000034 -0.955367 0.283943
-0.205157 -0.209558 0.261897 -0.067065 -0.814172 -0.576738
-1.403209 -0.034463 0.093260 0.001391 -0.453728 0.886600
1.372586 0.136712 -0.180308 -0.013078 -0.769347 -0.638698
0.141519 -0.448933 0.568643 0.062868 -0.785292 -0.615925
-0.036724 -0.231039 -0.315176 -0.071613 0.751698 -0.655608
-0.069777 -0.063408 -0.076581 0.000184 -0.593092 -0.800743
-1.674102 -0.032282 -0.008110 -0.669631 -0.674025 -0.298611
1.411853 -0.107930 0.129604 0.030537 -0.788340 -0.614482
0.893964 -0.082797 0.105565 -0.013078 -0.803610 -0.595012
1.389833 0.067149 0.073323 0.000522 0.580674 0.809420
-0.139643 0.149298 0.169211 -0.067065 0.814172 -0.576738
1.084941 -0.075541 0.091567 -0.013078 -0.803610 -0.595012
-0.062516 -0.323866 -0.418791 -0.071613 0.751698 -0.655608
1.424182 0.078129 -0.091983 0.030537 0.788340 0.614482
-0.000184 -0.137530 -0.194794 0.067145 0.785073 -0.615753
0.398721 0.049293 0.086345 0.000470 0.393001 0.915741
0.458490 -0.077339 0.062481 0.001627 -0.718935 0.690085
0.419478 -0.061156 -0.078391 0.000626 -0.671377 -0.735654
-0.088836 -0.257060 0.315429 -0.067065 -0.814172 -0.576738
1.303614 0.161202 0.202453 -0.013078 0.803610 -0.595012
0.163188 -0.080517 -0.101131 0.062868 -0.785292 0.615925
1.440715 0.133225 0.176181 0.030537 -0.784617 0.619228
0.073028 0.081335 -0.092971 0.062868 0.785292 0.615925
-0.012185 0.336147 0.418161 -0.067065 0.814172 -0.576738
-0.109004 0.274247 0.342037 -0.067065 0.814172 -0.576738
0.993722 -0.086051 0.049803 0.000051 -0.890289 0.447692
0.043191 -0.228037 0.276969 0.062868 -0.785292 -0.615925
-0.089726 0.063375 0.076609 0.000137 0.588493 0.804559
-1.219260 -0.075928 -0.064188 0.000057 -0.680621 -0.727950
0.111555 0.101851 0.137120 0.067145 -0.785073 0.615753
-0.996754 -0.097949 0.017063 -0.000002 -0.995030 0.057346
0.136616 0.469485 0.603113 0.000000 0.617146 0.786849
0.136616 0.469485 -0.603113 -0.000000 0.617146 -0.786849
-0.082463 -0.094889 -0.149399 0.067145 0.785073 -0.615753
0.215792 -0.050130 0.085862 -0.001150 -0.603568 0.793146
-0.258751 -0.117784 0.161068 -0.071613 0.751698 0.655608
-0.209351 -0.033820 -0.093496 -0.000033 -0.392908 -0.915899
-1.626207 0.017243 0.065120 -0.443789 0.285870 0.842471
0.844496 -0.076272 0.063780 0.000078 -0.800356 0.593668
-0.461838 -0.049477 0.086240 -0.000133 -0.391206 0.916502
1.487129 0.027082 -0.095665 0.014664 0.277439 -0.956352
0.009676 -0.149472 0.208945 0.067145 0.785073 0.615753
1.272635 0.084697 -0.115607 -0.013078 -0.769347 -0.638698
1.127983 -0.035312 0.092942 0.000995 -0.290877 0.952920
0.151559 -0.204757 0.263960 0.067145 0.785073 0.615753
1.088662 -0.124263 0.159499 -0.013078 0.769347 0.638698
1.346941 0.201756 0.258132 -0.013078 -0.769347 0.638698
0.760407 0.097921 -0.017223 -0.001395 0.991669 -0.103560
1.193757 -0.091421 0.110623 -0.013078 -0.803610 -0.595012
1.177592 0.098451 -0.130228 -0.013078 -0.769347 -0.638698
0.051319 0.295963 0.364402 0.062868 0.785292 -0.615925
-0.096886 -0.086140 -0.049651 -0.000525 -0.892150 -0.444340
-1.530972 0.096085 0.018097 -0.115461 0.945964 0.289906
-0.004011 -0.317907 0.391462 -0.067065 -0.814172 -0.576738
-0.000841 0.227014 0.271170 0.062868 0.785292 -0.615925
0.141365 0.186432 -0.233943 0.062868 0.785292 0.615925
-0.089221 0.081288 0.132795 0.067145 -0.785073 0.615753
0.032587 -0.274987 -0.335747 0.062868 -0.785292 0.615925
0.072019 -0.362792 0.451721 0.062868 -0.785292 -0.615925
1.372165 -0.087720 -0.101703 0.016001 -0.793597 0.608119
-0.212986 0.116307 0.164373 -0.071613 -0.751698 0.655608
-0.737627 -0.049260 0.086364 0.000042 -0.443354 0.892640
0.157448 0.090319 0.113043 0.062868 0.785292 -0.615925
-0.131968 0.076324 0.063717 0.000389 0.833331 0.546569
1.367726 0.102307 0.138766 -0.013078 -0.769347 0.638698
0.087107 0.389087 0.506005 0.067145 -0.785073 0.615753
0.548215 -0.000000 -0.099424 -0.000009 0.057699 -0.994968
0.016310 -0.211026 -0.286701 0.067145 0.785073 -0.615753
1.278650 -0.131242 -0.162539 -0.013078 -0.803610 0.595012
0.164003 -0.353309 0.452005 0.067145 0.785073 0.615753
1.298599 -0.048807 0.086621 -0.000211 -0.431722 0.898855
-0.092907 0.255904 -0.337547 -0.071613 -0.751698 -0.655608
1.160265 -0.137226 0.173222 -0.013078 -0.803610 -0.595012
0.126455 0.309874 0.389807 0.062868 0.785292 -0.615925
0.158734 -0.300548 0.381212 0.062868 -0.785292 -0.615925
1.542029 -0.071973 0.093572 0.030537 0.784617 0.619228
1.305959 0.068667 0.096979 -0.013078 -0.769347 0.638698
0.502244 -0.076146 0.063930 0.000222 -0.682461 0.726131
-0.725194 -0.087156 -0.047843 0.000721 -0.835850 -0.541938
-0.548455 0.076279 -0.063771 0.000207 0.801632 -0.592251
-0.657999 -0.049240 -0.086375 0.000004 -0.391207 -0.916703
-0.767087 -0.092626 0.036133 -0.001867 -0.955935 0.281723
1.393519 -0.160269 -0.209112 -0.013078 0.769347 -0.638698
1.566474 -0.148282 0.189056 0.030537 0.784617 0.619228
1.572440 0.111004 0.141529 0.030537 -0.784617 0.619228
1.572440 0.111004 -0.141529 0.030537 0.788340 0.614482
1.562496 0.173133 0.220741 0.030537 -0.784617 0.619228
1.564485 0.160707 -0.204899 0.030537 0.788340 0.614482
1.378654 -0.086832 -0.048430 -0.000147 -0.921493 -0.379348
-0.164168 -0.257758 -0.331889 -0.071613 0.751698 -0.655608
1.068217 0.073881 0.089693 -0.013078 0.803610 -0.595012
-1.584464 -0.000000 -0.085785 -0.367998 0.078744 -0.918874
1.502912 0.197725 0.249329 0.030537 0.788340 -0.614482
1.584373 -0.067586 0.067757 1.000000 0.000000 -0.000000
-0.033070 0.332341 -0.431724 -0.071613 -0.751698 -0.655608
0.051156 0.324303 0.400519 0.062868 0.785292 -0.615925
1.477612 0.222684 0.281665 -0.013078 0.803610 -0.595012
0.178143 0.334909 0.427003 0.062868 0.785292 -0.615925
0.178143 -0.285173 -0.363590 0.062868 -0.785292 0.615925
0.178143 0.210568 -0.268471 0.062868 0.785292 0.615925
0.178143 0.384645 -0.490416 0.062868 0.785292 0.615925
0.178143 0.397080 0.506269 0.062868 0.785292 -0.615925
0.178143 0.446816 0.569682 0.062868 0.785292 -0.615925
0.178143 -0.409514 0.522122 0.062868 -0.785292 -0.615925
0.178143 -0.446816 -0.569682 0.062868 -0.785292 0.615925
0.178143 0.173266 0.220911 0.062868 0.785292 -0.615925
0.178143 -0.198134 -0.252617 0.062868 -0.785292 0.615925
0.178143 0.260305 -0.331883 0.062868 0.785292 0.615925
-0.936287 -0.077787 0.061923 0.000811 -0.729462 0.678240
0.082977 -0.255955 0.316624 0.062868 -0.785292 -0.615925
1.036601 0.093783 0.117268 -0.013078 0.803610 -0.595012
-0.458457 0.077886 -0.061798 0.000722 0.729796 -0.678050
-1.401244 0.070431 0.070177 0.000159 0.705727 0.703815
-0.032571 0.094845 0.099418 0.062868 0.785292 -0.615925
0.018239 -0.108701 0.156028 0.067145 0.785073 0.615753
-0.844758 0.076063 0.064029 -0.000501 0.799919 0.594255
1.264691 0.115476 0.152519 -0.013078 -0.769347 0.638698
-0.021355 0.275801 -0.368177 -0.071613 -0.751698 -0.655608
-1.397846 -0.097597 -0.018976 0.002164 -0.990710 -0.109192
1.093376 0.140774 -0.179484 -0.013078 0.803610 0.595012
0.966477 0.103879 0.132444 -0.013078 0.803610 -0.595012
1.510329 0.261998 0.334042 -0.005808 0.801148 -0.598321
1.510329 -0.261998 -0.334042 -0.005808 -0.801148 0.598321
1.510329 0.261998 -0.334042 -0.005808 0.801148 0.598321
1.419687 -0.235645 -0.300442 -0.013078 -0.803610 0.595012
1.129633 0.151315 -0.192924 -0.013078 0.803610 0.595012
1.256532 -0.188209 0.239963 -0.013078 -0.803610 -0.595012
1.347174 -0.214562 -0.273563 -0.013078 -0.803610 0.595012
0.893964 0.082797 0.105565 -0.013078 0.803610 -0.595012
0.893964 -0.082797 -0.105565 -0.013078 -0.803610 0.595012
-1.298139 0.098012 -0.016702 -0.000293 0.978458 -0.193877
-0.224825 0.231494 0.295150 -0.067065 0.814172 -0.576738
-0.224825 0.231494 -0.295150 -0.067065 0.814172 0.576738
-0.189528 -0.261518 0.333430 -0.067065 -0.814172 -0.576738
-0.177763 0.271526 -0.346190 -0.067065 0.814172 0.576738
-0.236590 -0.221486 -0.282391 -0.071613 0.751698 -0.655608
-0.318948 -0.151431 0.193071 -0.067065 -0.814172 -0.576738
-0.013046 0.411637 0.524829 -0.067065 0.814172 -0.576738
-0.013046 -0.411637 0.524829 -0.067065 -0.814172 -0.576738
-0.283652 0.181454 0.231351 -0.067065 0.814172 -0.576738
-0.283652 -0.181454 -0.231351 -0.071613 0.751698 -0.655608
-0.142466 -0.301549 0.384470 -0.067065 -0.814172 -0.576738
1.550624 0.047328 -0.058752 0.030537 0.788340 0.614482
0.034016 0.451668 0.575868 -0.067065 0.814172 -0.576738
-0.118935 0.321565 0.409990 -0.067065 0.814172 -0.576738
1.477612 0.220496 -0.283381 -0.013078 -0.769347 -0.638698
0.040009 -0.175666 0.209871 0.062868 -0.785292 -0.615925
-0.986786 0.093518 -0.033759 -0.000434 0.969961 -0.228893
0.461516 0.076057 0.064036 0.000000 0.722821 0.685982
-0.587953 -0.076526 0.063474 -0.000269 -0.728001 0.680666
1.550564 0.247687 0.315797 0.023269 -0.782153 0.622539
-0.538229 -0.017209 0.097924 0.000091 -0.115548 0.989910
0.338830 0.097923 0.017216 -0.000003 0.989965 0.115234
-0.996769 0.049428 -0.086268 0.000395 0.442053 -0.893443
-0.348921 0.033774 -0.093512 -0.000122 0.393043 -0.915829
0.079578 0.097938 0.017129 0.000028 0.990033 0.114850
0.857142 0.017216 -0.097923 -0.000004 0.116215 -0.989792
-0.056794 -0.211211 0.290249 -0.071613 0.751698 0.655608
1.136317 -0.097924 -0.017209 0.000020 -0.989988 -0.115106
-1.066682 0.093545 -0.033683 0.000014 0.956308 -0.281239
1.396347 -0.142092 0.174606 -0.013078 -0.803610 -0.595012
-0.667809 0.093471 -0.033887 0.000274 0.952798 -0.290971
0.667809 -0.093471 0.033887 -0.000063 -0.955165 0.284549
0.309007 0.093520 -0.033753 0.000001 0.955206 -0.284370
-0.079578 -0.097938 0.017129 -0.000028 -0.990033 0.114850
-0.388713 -0.093475 0.033876 0.000120 -0.955301 0.284156
-1.086483 -0.093549 0.033672 -0.000165 -0.955414 0.283739
-0.298836 0.017092 0.097944 -0.000003 0.114636 0.990070
-0.009968 0.099424 0.000000 0.000003 0.995000 -0.057518
-1.046591 0.000000 -0.099424 -0.000080 0.057631 -0.994980
1.206072 0.033669 -0.093550 0.000001 0.282985 -0.955675
1.146267 -0.033666 -0.093551 -0.000001 -0.283033 -0.955656
-0.687760 -0.000000 -0.099424 0.000002 0.057346 -0.995030
-1.206072 0.000000 -0.099424 -0.001003 0.038103 -0.997363
0.488409 -0.000000 0.099424 0.000000 -0.057589 0.994988
-0.508344 -0.099424 0.000000 -0.000056 -0.995018 -0.057417
-0.837291 0.017209 -0.097924 -0.000072 0.114773 -0.990046
1.445293 -0.099424 -0.000000 0.000065 -0.997274 -0.042361
1.470842 -0.092144 0.037345 0.000407 -0.882245 0.463477
1.066528 0.033664 -0.093552 -0.000007 0.283059 -0.955646
0.129557 0.033649 0.093557 0.000007 0.283041 0.955651
-0.717583 0.086175 0.049590 -0.000191 0.891698 0.445193
-0.598056 -0.086339 -0.049303 -0.001374 -0.915055 -0.394438
-0.279472 -0.144849 0.189837 -0.071613 0.751698 0.655608
0.578105 0.086196 0.049553 0.000030 0.891837 0.444925
0.916947 0.097923 -0.017216 0.000431 0.990348 -0.113030
0.697797 0.086296 0.049378 -0.000016 0.891913 0.444706
0.069956 -0.093552 -0.033665 -0.000814 -0.955668 -0.283021
-0.069956 0.093552 0.033665 -0.000096 0.956217 0.281491
-0.088890 -0.243191 -0.323410 -0.071613 0.751698 -0.655608
-1.367078 0.070553 -0.070054 -0.000005 0.707044 -0.702522
0.319032 0.049518 0.086216 0.000071 0.445388 0.891575
-0.408669 0.099424 -0.000000 0.000031 0.994979 -0.057637
-0.996560 -0.017087 0.097945 -0.000001 -0.114570 0.990081
1.524917 0.098494 0.000000 0.028671 0.994356 -0.058309
1.524917 -0.098494 -0.000000 0.031415 -0.994150 -0.059541
1.116398 -0.086195 -0.049555 -0.000756 -0.886166 -0.454990
0.897096 -0.017209 0.097924 0.000070 -0.115141 0.989982
-0.677811 0.017209 0.097924 0.000021 0.115222 0.989968
-0.046142 -0.273672 0.333915 -0.067065 -0.814172 -0.576738
0.796999 0.048555 -0.086762 0.000108 0.539697 -0.838021
0.259266 0.017186 0.097928 -0.000039 0.115211 0.989969
0.368960 -0.093549 -0.033671 0.000025 -0.955597 -0.283212
-0.328929 0.099424 -0.000000 0.000047 0.994979 -0.057639
1.093940 -0.087381 -0.107360 -0.013078 -0.803610 0.595012
0.667836 0.033882 -0.093473 0.000040 0.282263 -0.956001
-0.067301 0.129505 -0.191881 0.067145 -0.785073 -0.615753
-0.279472 0.144849 -0.189837 -0.071613 -0.751698 -0.655608
0.199544 0.049243 -0.086373 0.000006 0.445522 -0.891383
-0.443896 0.074236 0.066138 0.000921 0.713832 0.695863
-1.485163 -0.000000 0.099424 -0.013314 -0.061947 0.993703
0.567972 0.076446 -0.063570 0.000075 0.802183 -0.591498
-1.470607 -0.082795 -0.055047 0.000055 -0.770325 -0.632560
-1.267764 0.077061 0.062824 0.000269 0.733486 0.675187
0.000000 -0.097949 0.017063 -0.000003 -0.995000 0.057518
-0.428620 0.033808 0.093500 0.000050 0.284375 0.955222
0.139229 -0.113693 -0.149200 0.067145 0.785073 -0.615753
0.099534 0.097933 -0.017154 0.000039 0.990005 -0.115008
-0.847210 -0.093516 0.033763 0.000024 -0.970026 0.228785
0.568150 -0.000000 0.099424 -0.000002 -0.057346 0.995030
0.179434 -0.097924 0.017209 0.000107 -0.990036 0.114827
1.325865 0.033665 0.093552 0.000720 0.284623 0.955090
0.727630 -0.000000 -0.099424 -0.000064 0.057294 -0.995039
-1.265877 -0.099424 0.000000 0.000021 -0.994994 -0.057553
1.186137 -0.000000 0.099424 -0.000011 -0.057341 0.995031
-0.947054 0.033689 -0.093543 0.001054 0.229580 -0.969648
0.488313 0.076375 -0.063656 -0.000211 0.801511 -0.592318
-1.006721 0.099424 -0.000000 -0.000019 0.994993 -0.057556
0.996754 0.017063 0.097949 0.000046 0.057304 0.995037
0.976801 0.097924 -0.017209 -0.000022 0.989988 -0.115104
-0.817338 -0.017063 -0.097949 0.000002 -0.057346 -0.995030
0.757533 -0.097949 0.017063 -0.000002 -0.995030 0.057346
-0.857208 0.097949 0.017063 0.000002 0.995030 0.057346
-0.877161 0.097924 -0.017209 -0.000090 0.990033 -0.114845
-0.209413 0.093463 -0.033911 0.000043 0.955165 -0.284575
1.006730 -0.033655 -0.093555 -0.000005 -0.283121 -0.955622
0.588223 -0.093543 -0.033689 -0.000040 -0.970262 -0.227964
-0.538309 0.086285 0.049397 -0.001033 0.892996 0.442820
-0.727865 0.076519 -0.063483 -0.000901 0.835747 -0.543408
-0.717663 0.017063 0.097949 0.000046 0.057304 0.995037
-0.289059 -0.000000 -0.099424 0.000036 0.057469 -0.995009
0.508158 -0.065795 -0.074540 -0.001352 -0.555465 -0.826451
1.305790 -0.076422 -0.063600 0.000162 -0.802150 -0.591551
-0.647890 -0.099424 0.000000 -0.000009 -0.995025 -0.057376
-0.368797 -0.033705 0.093537 -0.000002 -0.283395 0.955540
-0.219226 -0.086313 -0.049349 0.000767 -0.892716 -0.443241
0.080565 -0.169885 0.206640 0.062868 -0.785292 -0.615925
-0.358813 -0.097924 -0.017209 0.000067 -0.989993 -0.115078
1.265852 -0.033687 -0.093544 0.000058 -0.283033 -0.955659
-0.149487 0.033658 -0.093554 -0.000031 0.283361 -0.955546
-0.239028 -0.017088 0.097945 -0.000061 -0.114425 0.990107
-1.076301 -0.017088 0.097945 -0.000000 -0.114577 0.990080
-0.109643 -0.033666 0.093551 0.000000 -0.283027 0.955658
-0.069773 -0.033666 0.093551 0.000000 -0.283028 0.955658
-0.169448 0.033666 0.093551 0.000000 0.283028 0.955658
0.000193 0.017087 0.097945 -0.000000 0.114573 0.990081
1.126332 -0.000000 -0.099424 0.000000 0.057288 -0.995040
-0.757599 -0.017216 -0.097923 -0.000006 -0.115187 -0.989974
-0.137854 -0.127087 -0.137647 -0.067065 -0.814172 0.576738
0.249340 -0.093552 0.033663 -0.000011 -0.970323 0.227732
-0.129578 -0.000000 -0.099424 0.000001 0.057273 -0.995043
-0.926981 -0.000000 0.099424 -0.000001 -0.057276 0.995042
0.136616 -0.469485 -0.603113 0.051744 0.781997 -0.620695
0.966851 -0.099424 -0.000000 -0.000002 -0.995030 -0.057346
-0.667963 0.033689 -0.093543 -0.000072 0.227773 -0.970308
1.156232 -0.086349 0.049286 0.000619 -0.891952 0.444579
-0.608175 0.093545 -0.033683 0.000009 0.955532 -0.283407
0.428604 -0.000000 0.099424 0.000026 -0.057438 0.995014
-1.146415 -0.033677 -0.093547 0.000024 -0.283241 -0.955584
1.209364 -0.116548 0.144216 -0.013078 -0.803610 -0.595012
-0.857206 0.086349 -0.049286 0.000130 0.892332 -0.443919
1.240393 -0.125023 -0.154980 -0.013078 -0.803610 0.595012
0.388734 -0.099424 -0.000000 0.000130 -0.994994 -0.057550
-1.106529 -0.033805 -0.093501 0.000073 -0.283641 -0.955458
-0.019953 -0.097924 -0.017209 -0.000028 -0.989997 -0.115054
-0.059630 -0.097941 -0.017113 -0.000016 -0.990052 -0.114739
1.488446 -0.207651 -0.268130 0.001463 0.774600 -0.632340
-1.282652 0.046680 -0.087785 0.000059 0.555571 -0.827643
1.584373 -0.013630 0.058722 1.000000 -0.000000 -0.000000
-0.308226 -0.067534 0.073389 -0.067065 -0.814172 -0.576738
0.064761 -0.094452 -0.108851 0.062868 -0.785292 0.615925
-1.036431 -0.017087 0.097945 -0.000000 -0.114574 0.990081
-0.236590 -0.221486 0.282391 -0.067065 -0.814172 -0.576738
-0.245104 -0.174429 -0.227507 -0.071613 0.751698 -0.655608
-0.308226 0.067534 -0.073389 -0.067065 0.814172 0.576738
-0.163848 0.191939 0.256459 -0.071613 -0.751698 0.655608
0.040896 0.115850 0.133697 0.062868 0.785292 -0.615925
0.071731 -0.379040 -0.472407 0.062868 -0.785292 0.615925
-0.203290 0.104332 -0.151703 -0.071613 -0.751698 -0.655608
1.234711 -0.057460 0.082022 -0.013078 0.769347 0.638698
-0.040018 -0.349634 -0.440437 -0.067065 -0.814172 0.576738
-0.345557 -0.081779 0.110305 -0.071613 0.751698 0.655608
1.174574 0.124017 0.160962 -0.013078 -0.769347 0.638698
0.029918 -0.347481 0.455964 -0.071613 0.751698 0.655608
-0.401307 -0.081375 0.103752 -0.067065 -0.814172 -0.576738
-0.097428 -0.097742 0.096492 0.062868 -0.785292 -0.615925
-0.237509 0.064641 0.102456 -0.071613 -0.751698 0.655608
0.045664 0.420599 -0.541518 -0.071613 -0.751698 -0.655608
-0.081165 0.120822 0.127578 0.062868 0.785292 -0.615925
1.314538 0.102061 -0.122338 -0.013078 0.803610 0.595012
0.072704 -0.161935 -0.195702 0.062868 -0.785292 0.615925
-0.084860 -0.154181 -0.169733 0.019553 -0.796207 0.603823
-1.247964 0.062553 -0.077281 0.000119 0.629905 -0.772503
-1.366986 -0.052122 0.084667 0.000316 -0.559758 0.824839
0.813734 0.097724 -0.018307 0.000286 0.994315 -0.063082
-0.072304 0.132018 -0.142757 0.062868 0.785292 0.615925
-1.644848 -0.027029 -0.049073 -0.554711 -0.532730 -0.627598
-0.088483 -0.193827 -0.266856 -0.071613 0.751698 -0.655608
0.124485 -0.274902 -0.345018 0.062868 -0.785292 0.615925
-0.347096 -0.056962 -0.081681 -0.071613 0.751698 -0.655608
0.096417 -0.469485 -0.603113 -0.017637 0.766015 -0.641206
1.470458 0.037874 0.091928 0.000332 0.374005 0.923357
-1.401363 -0.070178 -0.070429 0.000237 -0.703601 -0.705966
-0.044557 0.059644 -0.100329 0.067145 -0.785073 -0.615753
0.139552 -0.223716 -0.289442 0.067145 0.785073 -0.615753
0.139396 0.239015 -0.300784 0.062868 0.785292 0.615925
-0.149665 0.093552 0.033663 0.000011 0.970323 0.227732
-1.505098 -0.037874 -0.091928 -0.016234 -0.270555 -0.959350
1.245355 -0.158472 0.203914 -0.013078 0.769347 0.638698
-0.140905 -0.095333 0.093176 -0.067065 -0.814172 -0.576738
-1.679008 0.025095 0.014036 -0.687761 0.559024 0.454060
-0.088482 -0.299826 0.388391 -0.071613 0.751698 0.655608
0.508344 -0.000000 -0.099424 -0.000000 0.058458 -0.994834
1.214127 0.074797 0.065503 -0.000385 0.787394 0.610009
0.532155 0.034738 -0.093158 0.000104 0.290195 -0.953261
-0.311426 -0.108285 -0.144423 -0.071613 0.751698 -0.655608
-0.181630 0.231097 -0.289567 -0.067065 0.814172 0.576738
1.335246 0.085538 0.050681 -0.000424 0.788991 0.606661
0.747721 0.033958 0.093445 -0.000101 0.284219 0.955286
-1.156560 0.075689 -0.064470 -0.001052 0.718328 -0.691053
-0.022392 -0.086180 0.049581 0.000823 -0.892424 0.443810
0.588085 -0.000000 -0.099424 -0.000037 0.057561 -0.994992
0.817196 0.017154 -0.097933 0.000240 0.114694 -0.990027
-1.542490 -0.073851 -0.061636 -0.203302 -0.760887 -0.605378
-0.956884 -0.097949 0.017063 -0.000002 -0.995030 0.057346
0.565099 -0.034139 -0.093380 0.000134 -0.229926 -0.969677
0.623461 -0.047915 0.087117 -0.000443 -0.535000 0.840955
-0.071280 0.317890 -0.399260 -0.067065 0.814172 0.576738
1.273175 0.075950 -0.064162 -0.000023 0.721717 -0.687178
-0.237261 0.064707 -0.102560 -0.071613 -0.751698 -0.655608
-0.172989 -0.167518 -0.227460 -0.071613 0.751698 -0.655608
1.516875 0.055117 0.073454 0.030537 -0.784617 0.619228
-0.345557 0.087456 0.105853 -0.067065 0.814172 -0.576738
-0.075767 -0.069810 0.116694 0.067145 0.785073 0.615753
0.036416 0.416374 0.525765 -0.067065 0.814172 -0.576738
-0.279052 0.049232 0.086380 -0.000689 0.390113 0.917298
0.001000 0.210544 -0.250359 0.062868 0.785292 0.615925
0.368780 -0.033805 0.093501 -0.000055 -0.284173 0.955294
0.606251 0.075860 -0.064268 0.000878 0.723773 -0.684994
-0.108671 -0.180556 -0.209735 -0.067065 -0.814172 0.576738
-0.128831 -0.267795 0.347257 -0.071613 0.751698 0.655608
0.027401 -0.402854 0.507728 -0.067065 -0.814172 -0.576738
-0.064096 0.187345 -0.214136 -0.023758 0.805833 0.590760
-0.178273 -0.154328 0.211759 -0.071613 0.751698 0.655608
0.040009 0.175666 -0.209871 0.062868 0.785292 0.615925
1.107337 0.113591 0.142465 -0.013078 0.803610 -0.595012
-0.050267 -0.136316 0.150486 0.062868 -0.785292 -0.615925
1.550564 -0.247687 0.315797 0.023269 0.782153 0.622539
-1.264110 -0.077051 -0.062836 -0.000466 -0.801848 -0.591909
0.100280 0.057236 -0.081466 0.000000 -0.617146 0.786849
0.075152 0.443163 -0.559078 -0.067065 0.814172 0.576738
-0.164023 0.109451 0.115794 -0.067065 0.814172 -0.576738
-1.375538 0.097924 0.017209 -0.000377 0.990372 0.110768
0.143218 -0.343487 -0.434375 0.062868 -0.785292 0.615925
1.461465 -0.133907 -0.176021 0.030537 0.784617 -0.619228
1.457939 -0.058772 -0.080993 -0.000000 0.617146 0.786849
-0.136897 -0.157423 0.180361 -0.067065 -0.814172 -0.576738
-0.588348 0.076606 -0.063377 -0.000513 0.801851 -0.591839
-0.071017 -0.176290 0.199335 -0.023758 -0.805833 -0.590760
-0.029206 0.251829 0.339834 -0.071613 -0.751698 0.655608
0.179415 -0.086279 -0.049408 0.000663 -0.890753 -0.446787
1.532052 0.145134 0.183307 0.030537 0.788340 -0.614482
-0.077939 0.165235 -0.184534 -0.023758 0.805833 0.590760
-0.780161 0.048922 -0.086555 -0.000117 0.440271 -0.894359
-1.537292 -0.080490 0.054082 -0.168188 -0.863515 0.465051
0.044531 0.319775 -0.422276 0.067145 -0.785073 -0.615753
-0.031216 -0.338691 0.423965 -0.067065 -0.814172 -0.576738
0.426882 0.076415 -0.063608 -0.000071 0.801479 -0.592392
0.209386 0.076517 0.063485 0.000920 0.803208 0.590443
-0.064096 -0.162511 -0.233614 -0.025364 0.764235 -0.643491
1.350976 0.171604 -0.221895 -0.013078 -0.769347 -0.638698
0.132891 0.112173 -0.138400 0.062868 0.785292 0.615925
0.648224 -0.036960 -0.092299 0.000941 -0.298783 -0.950110
0.011928 0.147764 -0.171431 0.062868 0.785292 0.615925
-1.213679 0.045805 -0.088245 0.000803 0.462446 -0.882907
-0.318881 0.049375 0.086298 -0.000801 0.445174 0.891617
0.089322 -0.398719 -0.499293 0.062868 -0.785292 0.615925
1.114783 0.090327 0.110881 -0.013078 0.803610 -0.595012
0.338748 -0.049316 -0.086332 -0.000321 -0.443837 -0.892374
-0.424838 0.061359 -0.078232 -0.067065 0.814172 0.576738
-1.555626 0.035969 -0.086558 -0.143049 0.384896 -0.907361
1.433158 0.186644 0.233967 -0.013078 0.803610 -0.595012
0.077641 0.232321 0.307164 0.067145 -0.785073 0.615753
0.032799 -0.327213 -0.433039 -0.022052 0.765017 -0.642527
0.617994 -0.086357 0.049272 0.000017 -0.916572 0.391523
0.014122 -0.095707 -0.139910 0.067145 0.785073 -0.615753
0.538309 -0.086285 0.049397 -0.000063 -0.891623 0.445233
-0.192160 0.076266 -0.063786 0.000203 0.800340 -0.593745
1.315684 -0.046822 -0.087709 -0.001089 -0.382235 -0.921535
-1.014895 -0.084869 0.051793 0.000963 -0.887200 0.453332
0.123023 -0.075937 -0.064177 -0.000114 -0.722573 -0.686204
-0.039170 0.119629 -0.130344 0.062868 0.785292 0.615925
1.584373 -0.093858 -0.018700 0.044322 -0.993527 -0.060187
0.009975 0.093471 0.033889 -0.001564 0.955242 0.284286
-0.242263 -0.086065 0.049780 0.000218 -0.890307 0.447567
0.664795 0.076247 0.063810 -0.000030 0.800539 0.593493
0.126158 -0.136448 -0.179638 0.067145 0.785073 -0.615753
-0.095404 -0.341581 0.435509 -0.067065 -0.814172 -0.576738
-0.107170 0.331573 -0.422749 -0.067065 0.814172 0.576738
1.584373 -0.079523 -0.053245 0.052884 -0.768737 -0.632312
-0.113842 0.075832 -0.066881 0.016661 0.796752 0.602877
1.489933 0.156683 -0.203476 0.030537 -0.784617 -0.619228
0.689051 0.062008 -0.077719 -0.000976 0.582156 -0.809165
-0.817372 0.086195 -0.049555 0.000657 0.892140 -0.444428
-1.013591 0.075161 -0.065084 -0.001118 0.676988 -0.731460
1.390507 0.078225 0.108966 0.030537 -0.784617 0.619228
-0.211049 0.072680 0.069353 -0.000000 -0.617146 -0.786849
0.875835 0.077526 -0.098845 -0.013078 0.803610 0.595012
0.917143 0.075880 0.064245 -0.000009 0.797631 0.597473
0.959413 -0.075941 0.064173 -0.001059 -0.683488 0.725300
0.044154 0.065339 0.097916 0.067145 -0.785073 0.615753
0.688167 -0.078006 0.061647 -0.001423 -0.808882 0.583083
0.209334 0.093537 -0.033705 0.000591 0.969873 -0.229033
-0.289083 0.078184 0.061421 -0.000900 0.802091 0.591450
0.053563 0.362506 0.475773 0.020888 -0.775360 0.630206
1.533949 0.143716 -0.184875 0.030537 -0.784617 -0.619228
-0.047701 -0.126917 -0.186444 0.067145 0.785073 -0.615753
0.229612 -0.076506 0.063499 -0.000566 -0.835865 0.543176
-0.041654 0.359944 -0.455181 -0.067065 0.814172 0.576738
-0.024812 0.401629 -0.512069 -0.067065 0.814172 0.576738
0.026310 -0.297241 0.363479 0.062868 -0.785292 -0.615925
0.096902 0.086343 0.049297 0.000660 0.897681 0.433962
-1.159160 -0.075974 -0.064134 0.000008 -0.722509 -0.686374
-1.604224 -0.068207 0.038178 -0.364332 -0.809966 0.450649
1.584373 -0.036456 0.088487 1.000000 0.000000 -0.000000
0.438572 -0.097949 0.017063 0.000022 -0.994996 0.057544
1.436452 0.097745 0.018195 -0.000165 0.977894 0.197648
1.398382 -0.050335 0.085742 -0.000580 -0.448833 0.889621
1.487129 -0.026893 -0.095718 0.014982 -0.276140 -0.956696
-1.204413 -0.085303 0.051074 -0.000197 -0.887508 0.453234
-0.153664 0.251453 -0.315051 -0.067065 0.814172 0.576738
1.513688 0.085306 -0.105639 0.030537 0.788340 0.614482
-0.667249 -0.061532 0.078096 -0.000284 -0.580783 0.810596
-0.445698 -0.075984 0.064122 0.000000 -0.801508 0.592483
-0.610954 0.050305 0.085759 0.000001 0.553190 0.828915
1.183502 -0.070501 -0.096681 -0.013078 0.769347 -0.638698
-0.158624 0.070276 0.117535 -0.071613 -0.751698 0.655608
-0.148328 -0.220190 -0.290546 -0.071613 0.751698 -0.655608
-0.089519 0.290345 -0.362496 -0.067065 0.814172 0.576738
1.105365 0.076703 -0.092688 -0.013078 0.803610 0.595012
-0.627834 -0.093563 0.033634 0.000006 -0.970380 0.227483
0.886595 -0.078281 -0.061298 -0.000459 -0.809662 -0.581863
-1.637504 0.043834 0.042063 -0.558958 0.539594 0.621339
-0.055296 -0.096737 0.099510 0.062868 -0.785292 -0.615925
1.479758 -0.114912 0.141935 0.030537 -0.788340 -0.614482
1.345748 -0.111031 -0.133767 -0.013078 -0.803610 0.595012
0.106383 0.138526 0.184444 0.067145 -0.785073 0.615753
0.119194 -0.280918 0.364594 0.067145 0.785073 0.615753
-0.071017 -0.176290 -0.199335 0.019553 -0.796207 0.603823
0.018957 -0.303684 -0.404550 -0.025364 0.764235 -0.643491
1.264970 -0.074829 -0.065467 -0.000370 -0.828079 -0.552831
1.298864 0.123992 0.163477 -0.013078 -0.769347 0.638698
-0.269285 0.093549 0.033671 -0.000034 0.955559 0.283317
-0.029707 0.118093 0.173231 0.067145 -0.785073 0.615753
-0.160295 -0.056445 -0.101494 -0.071613 0.751698 -0.655608
1.513688 -0.085306 -0.105639 0.030537 -0.788340 0.614482
1.447893 -0.198524 0.256306 -0.013078 0.769347 0.638698
0.991453 -0.082385 0.107065 -0.013078 0.769347 0.638698
1.420615 -0.131948 -0.175553 0.001463 0.774600 -0.632340
1.329045 -0.209292 0.266843 -0.013078 -0.803610 -0.595012
1.329045 0.209292 -0.266843 -0.013078 0.803610 0.595012
-0.057175 0.174276 0.247858 0.020888 -0.775360 0.630206
0.787349 -0.033784 -0.093509 -0.000057 -0.284132 -0.955281
0.076086 -0.108710 0.128186 0.062868 -0.785292 -0.615925
-0.280692 0.148168 0.184017 -0.067065 0.814172 -0.576738
-0.029491 -0.242619 0.288142 -0.023758 -0.805833 -0.590760
0.142098 0.279055 -0.359720 0.067145 -0.785073 -0.615753
-1.401621 -0.037577 -0.092050 0.000384 -0.366486 -0.926115
-0.034177 -0.164318 0.187831 0.062868 -0.785292 -0.615925
-0.034177 0.164318 -0.187831 0.062868 0.785292 0.615925
-0.388751 0.093473 -0.033883 -0.000179 0.955070 -0.284835
-0.015649 -0.244862 0.333326 0.020888 0.775360 0.630206
1.390507 0.078225 -0.108966 0.030537 -0.784617 -0.619228
-0.057175 -0.174276 0.247858 0.020888 0.775360 0.630206
0.807540 -0.063569 0.076447 0.000350 -0.595540 0.798763
0.035467 0.251111 0.305598 0.062868 0.785292 -0.615925
0.279134 0.049301 0.086340 0.000056 0.392098 0.916288
1.376036 0.121441 -0.147161 -0.013078 0.803610 0.595012
0.128659 -0.100895 0.134035 0.067145 0.785073 0.615753
-1.316263 0.087697 -0.046845 0.000498 0.880930 -0.466297
-0.128831 -0.267795 -0.347257 -0.071613 0.751698 -0.655608
0.070338 -0.348749 -0.433644 0.062868 -0.785292 0.615925
0.178143 0.148398 -0.189205 0.062868 0.785292 0.615925
0.141365 -0.186432 0.233943 0.062868 -0.785292 -0.615925
-0.068161 -0.109785 -0.114834 0.062868 -0.785292 0.615925
-1.559616 0.073574 -0.056633 -0.232151 0.840386 -0.479462
0.005115 -0.252432 0.304184 0.062868 -0.785292 -0.615925
-0.133862 -0.136522 0.150503 -0.067065 -0.814172 -0.576738
-0.054745 0.070443 0.115209 0.067145 -0.785073 0.615753
-0.026589 0.209296 0.245951 0.062868 0.785292 -0.615925
-0.000289 -0.084598 -0.052234 0.001211 -0.885140 -0.456780
-0.366010 -0.111399 -0.142032 -0.071613 0.751698 -0.655608
-1.328452 -0.035104 -0.093021 0.000588 -0.289263 -0.953491
-0.058725 -0.087885 0.046491 0.001083 -0.899194 0.431043
0.086918 0.283667 0.352359 0.062868 0.785292 -0.615925
-0.036412 -0.231565 -0.273341 0.019553 -0.796207 0.603823
0.946004 -0.072256 -0.093933 -0.013078 0.769347 -0.638698
0.179442 -0.049390 0.086289 0.000775 -0.443709 0.892478
0.040896 0.115850 -0.133697 0.062868 0.785292 0.615925
0.548370 0.033683 0.093545 0.000757 0.285143 0.954899
0.086108 -0.306488 0.381372 0.062868 -0.785292 -0.615925
0.978662 0.049669 -0.086129 -0.001503 0.446875 -0.890708
-1.136317 0.097924 -0.017209 -0.000121 0.989566 -0.117479
-0.235966 0.116735 -0.162354 -0.071613 -0.751698 -0.655608
1.186206 0.078264 -0.061319 -0.000610 0.840611 -0.537330
-1.006737 -0.033887 -0.093471 -0.000148 -0.284285 -0.955261
0.004506 0.168190 0.196716 0.062868 0.785292 -0.615925
-1.327865 -0.050395 0.085707 0.000562 -0.599669 0.795978
1.528016 0.079032 0.098302 0.030537 0.788340 -0.614482
1.537287 -0.203802 0.258835 0.030537 -0.788340 -0.614482
-1.195492 0.064425 0.075728 -0.000041 0.605376 0.791829
-0.050254 0.209455 -0.243738 -0.023758 0.805833 0.590760
0.029904 0.063359 -0.076622 0.000798 0.592050 -0.801586
-1.505098 0.055106 0.082756 -0.045844 0.634449 0.766868
-0.897168 -0.049359 -0.086307 -0.000265 -0.442285 -0.893286
0.256408 0.075801 -0.064338 -0.000067 0.721035 -0.687891
-0.203704 -0.075864 -0.119018 -0.071613 0.751698 -0.655608
1.344550 0.076477 -0.087126 -0.013078 0.803610 0.595012
-0.438547 -0.086246 -0.049466 -0.000668 -0.891230 -0.445927
1.237604 0.078918 -0.107928 -0.013078 -0.769347 -0.638698
0.138476 -0.427919 -0.541540 0.062868 -0.785292 0.615925
0.277028 -0.049058 0.086479 0.001395 -0.388530 0.917814
0.947310 0.072105 -0.093778 -0.013078 -0.769347 -0.638698
1.418435 -0.220380 0.279854 -0.013078 -0.803610 -0.595012
-0.279269 0.105161 0.123139 -0.067065 0.814172 -0.576738
-0.121516 0.119433 0.177949 -0.071613 -0.751698 0.655608
0.591289 0.063947 0.076131 -0.000047 0.594816 0.799570
1.315749 -0.086195 0.049555 0.001087 -0.890872 0.446635
0.080815 0.066183 0.074448 0.062868 0.785292 -0.615925
-0.468859 0.092009 0.037677 0.001317 0.871595 0.482388
1.184018 0.167127 0.213083 -0.013078 0.803610 -0.595012
-0.098071 -0.069475 -0.118699 0.067145 0.785073 -0.615753
1.457939 -0.064657 0.076377 0.000000 0.617146 -0.786849
0.056516 0.355378 0.440686 0.062868 0.785292 -0.615925
-0.966850 -0.063411 0.076578 0.000220 -0.590400 0.802985
0.407202 -0.064683 0.075507 0.000035 -0.548420 0.831743
1.059878 -0.075966 0.064144 -0.000689 -0.721048 0.688005
-0.681013 -0.075908 -0.064212 0.002147 -0.679489 -0.729155
-1.036610 0.086342 0.049298 0.000278 0.893191 0.442431
1.177634 0.103051 0.126684 -0.013078 0.803610 -0.595012
-0.744389 0.050310 -0.085757 -0.000356 0.601119 -0.794800
1.039699 0.075957 0.064155 0.000065 0.722412 0.686428
1.129219 -0.124551 0.160676 -0.013078 0.769347 0.638698
1.290942 -0.181573 -0.232673 -0.013078 0.769347 -0.638698
0.950806 0.085829 0.050187 -0.000043 0.795476 0.600236
-0.886928 -0.093552 -0.033665 0.000025 -0.955563 -0.283320
0.885036 -0.034822 -0.093127 -0.000384 -0.396516 -0.914356
0.039734 0.177218 0.241042 0.067145 -0.785073 0.615753
0.107587 -0.077244 0.062598 -0.000484 -0.735337 0.671925
0.355974 0.075910 -0.064209 -0.000307 0.722380 -0.686523
0.030563 -0.068150 0.102982 0.067145 0.785073 0.615753
1.177592 -0.098451 -0.130228 -0.013078 0.769347 -0.638698
0.095089 0.441607 0.554563 0.019553 0.796180 -0.603803
1.552633 -0.103110 0.130417 0.030537 -0.788340 -0.614482
1.123432 -0.063665 -0.076368 0.001061 -0.601265 -0.794075
1.310063 0.133921 -0.175666 -0.013078 -0.769347 -0.638698
-0.089945 0.109674 -0.112468 0.062868 0.785292 0.615925
0.143142 -0.320476 -0.405028 0.062868 -0.785292 0.615925
-0.072436 0.206875 0.242675 -0.067065 0.814172 -0.576738
-0.051456 0.334566 0.432267 -0.071613 -0.751698 0.655608
-0.156254 0.148813 0.207841 -0.071613 -0.751698 0.655608
0.156808 0.254074 0.326266 0.067145 -0.785073 0.615753
0.156808 -0.254074 0.326266 0.067145 0.785073 0.615753
0.051964 0.406215 -0.509616 -0.067065 0.814172 0.576738
1.414434 0.204048 0.262275 -0.013078 -0.769347 0.638698
-0.619376 0.048207 -0.086956 -0.000580 0.387303 -0.918790
-0.323515 0.086342 -0.101717 -0.067065 0.814172 0.576738
-1.036624 -0.097949 -0.017063 0.000019 -0.994993 -0.057557
-0.344018 -0.109435 0.136702 -0.067065 -0.814172 -0.576738
-0.379315 0.079411 0.098422 -0.067065 0.814172 -0.576738
-0.125878 0.118723 -0.124447 -0.067065 0.814172 0.576738
1.461396 -0.158654 0.197142 0.030537 -0.788340 -0.614482
-0.097789 -0.180916 0.251036 -0.071613 0.751698 0.655608
1.116522 0.049369 0.086301 0.000989 0.444905 0.891764
1.135103 -0.065123 0.075128 0.001134 -0.733505 0.675274
0.139211 0.063289 0.076719 0.062868 0.785292 -0.615925
-0.494623 -0.064606 -0.075573 0.000005 -0.689356 -0.719851
1.184283 -0.154008 -0.195359 -0.013078 -0.803610 0.595012
-0.113602 0.176782 -0.244568 -0.071613 -0.751698 -0.655608
1.524043 -0.183253 -0.231814 0.030537 -0.788340 0.614482
1.237604 -0.078918 -0.107928 -0.013078 0.769347 -0.638698
1.516875 -0.058207 0.071031 -0.365669 0.570650 -0.727568
0.080934 0.219506 0.269944 0.062868 0.785292 -0.615925
0.385781 -0.075969 -0.064139 0.000154 -0.798448 -0.596102
-1.618410 -0.050404 -0.050703 -0.449351 -0.521164 -0.718404
0.105840 0.150547 -0.199829 0.067145 -0.785073 -0.615753
0.153696 0.289589 0.366725 0.062868 0.785292 -0.615925
-0.108671 0.180556 0.209735 -0.067065 0.814172 -0.576738
1.383154 0.152795 0.189351 -0.013078 0.803610 -0.595012
-0.116398 0.130579 -0.191288 -0.071613 -0.751698 -0.655608
1.576418 -0.086153 -0.109843 0.030537 -0.788340 0.614482
0.017270 -0.196967 0.268671 0.067145 0.785073 0.615753
-1.075327 -0.051684 -0.084935 -0.001255 -0.555340 -0.826603
-0.029707 -0.118093 0.173231 0.067145 0.785073 0.615753
0.155183 0.217844 0.280251 0.067145 -0.785073 0.615753
0.062330 0.191267 -0.232041 0.062868 0.785292 0.615925
0.827716 -0.050205 -0.085818 -0.000188 -0.552634 -0.829380
0.082128 -0.448485 -0.577474 -0.071613 0.751698 -0.655608
0.896294 -0.085043 0.051507 0.003271 -0.886072 0.455013
0.127992 0.314947 -0.407020 0.067145 -0.785073 -0.615753
-0.060108 -0.371605 0.473789 -0.067065 -0.814172 -0.576738
-0.847210 -0.093516 -0.033763 0.000352 -0.969698 -0.230226
1.451706 0.148386 -0.183487 0.030537 0.788340 0.614482
1.022635 -0.106380 0.134587 -0.013078 -0.803610 -0.595012
1.303614 0.158214 -0.204797 -0.013078 -0.769347 -0.638698
1.335525 -0.149195 -0.194586 -0.013078 0.769347 -0.638698
-0.269383 -0.106728 0.124201 -0.067065 -0.814172 -0.576738
1.345616 -0.076507 -0.063497 0.000302 -0.802822 -0.590578
-0.044511 0.085213 -0.132924 0.067145 -0.785073 -0.615753
-0.929660 0.073654 -0.066785 -0.001113 0.789150 -0.607188
1.226054 -0.033434 -0.093635 0.000008 -0.390589 -0.916919
-0.043333 -0.220510 0.258540 -0.023758 -0.805833 -0.590760
-1.281527 0.011711 -0.098732 -0.000939 0.198688 -0.977508
-0.224341 0.193514 0.251656 -0.071613 -0.751698 0.655608
-0.311858 0.111387 -0.147933 -0.071613 -0.751698 -0.655608
-0.077939 -0.138983 0.205124 0.020888 0.775360 0.630206
-0.158446 -0.084874 -0.051784 -0.000492 -0.912606 -0.399411
-0.258751 -0.117784 -0.161068 -0.071613 0.751698 -0.655608
-0.042216 -0.186887 0.215785 0.062868 -0.785292 -0.615925
-0.042216 -0.186887 -0.215785 0.062868 -0.785292 0.615925
-0.278507 -0.074198 -0.108936 -0.071613 0.751698 -0.655608
0.138476 -0.423853 0.544730 0.067145 0.785073 0.615753
-1.201186 0.034865 0.093111 0.000166 0.405743 0.910118
0.747439 -0.033638 -0.093561 -0.000022 -0.227552 -0.970361
-0.186455 0.128000 -0.180678 -0.071613 -0.751698 -0.655608
0.097584 0.254610 0.333407 0.067145 -0.785073 0.615753
-0.525300 -0.050192 -0.085825 -0.000203 -0.545846 -0.833408
-0.200655 -0.100724 0.107733 -0.067065 -0.814172 -0.576738
0.996668 0.086224 -0.049504 -0.000702 0.891146 -0.446143
-1.275759 -0.086224 0.049504 0.000224 -0.891010 0.446384
1.453655 -0.087954 -0.046360 -0.000003 -0.831224 -0.549954
-0.109658 -0.093521 0.033751 -0.000065 -0.955225 0.284317
-0.907067 -0.033649 0.093557 0.000007 -0.283041 0.955651
-0.368797 0.033705 0.093537 -0.000067 0.283792 0.955396
0.837259 -0.086342 -0.049298 -0.000007 -0.892335 -0.443940
-0.976625 0.017087 0.097945 -0.000001 0.114567 0.990082
0.408667 0.033680 -0.093546 0.000444 0.284077 -0.955283
0.059999 -0.017087 0.097945 -0.000001 -0.114567 0.990082
0.109643 -0.033666 -0.093551 -0.000000 -0.283027 -0.955658
0.209318 -0.033666 -0.093551 -0.000000 -0.283027 -0.955658
1.086462 -0.000000 -0.099424 0.000000 0.057287 -0.995040
-0.049838 -0.000000 0.099424 -0.000000 -0.057287 0.995040
1.235784 0.097944 -0.017092 0.000007 0.990079 -0.114545
0.687760 -0.000000 -0.099424 0.000002 0.057346 -0.995030
0.000188 -0.049250 -0.086369 -0.000006 -0.443118 -0.892764
0.398514 -0.017096 -0.097944 0.000006 -0.114642 -0.990069
-0.258980 -0.097941 0.017113 -0.000019 -0.990053 0.114734
-0.278899 -0.017090 0.097945 -0.000006 -0.114615 0.990074
1.285822 0.093548 -0.033675 -0.000056 0.955392 -0.283780
-0.556233 0.017357 -0.097898 -0.000358 0.115725 -0.989899
0.448384 -0.033683 0.093545 0.000020 -0.283414 0.955530
1.285792 0.033716 -0.093533 0.000011 0.283399 -0.955538
-1.385488 -0.000000 0.099424 -0.000269 -0.055886 0.995191
1.036624 0.017063 0.097949 -0.000002 0.057346 0.995030
0.309089 -0.093463 -0.033911 -0.000789 -0.954755 -0.285698
1.550624 -0.047328 -0.058752 0.030537 -0.788340 0.614482
0.209413 -0.093463 0.033911 -0.000043 -0.955165 0.284575
-1.470458 -0.055106 -0.082756 0.000072 -0.551108 -0.830418
1.584373 0.036456 0.088487 1.000000 -0.000000 -0.000000
1.126332 0.099424 0.000000 0.000002 0.995030 -0.057346
-1.226007 -0.099424 0.000000 -0.000002 -0.995030 -0.057346
1.355519 -0.017216 -0.097923 -0.000469 -0.117265 -0.989603
-0.448539 0.099424 -0.000000 -0.000402 0.995015 -0.056674
-0.036412 0.231565 0.273341 0.019553 0.796207 -0.603823
-0.170979 -0.198444 0.242232 -0.067065 -0.814172 -0.576738
0.048263 -0.335550 0.414563 0.062868 -0.785292 -0.615925
-1.344657 0.093960 0.032509 0.000010 0.972237 0.221217
-1.048943 -0.076264 0.063788 0.000931 -0.832057 0.548536
-0.488348 -0.093554 0.033657 0.000169 -0.916266 0.392156
-0.229396 0.093486 0.033847 0.000109 0.955414 0.283794
1.204678 -0.158122 0.202659 -0.013078 0.769347 0.638698
-0.538462 0.064161 0.075951 0.000823 0.685931 0.722970
1.166370 0.033692 0.093542 -0.000048 0.228053 0.970238
0.438701 -0.086326 -0.049325 -0.000219 -0.916050 -0.392531
1.116364 -0.097949 0.017063 0.000019 -0.994993 0.057556
1.335668 -0.017209 0.097924 0.000071 -0.114761 0.990048
0.598034 0.097924 0.017209 -0.000120 0.990038 0.114820
0.328929 -0.000000 0.099424 -0.000018 -0.057481 0.995007
