-0.790236 0.096492 0.039571 0.000108 0.929352 0.367191
-0.508966 0.091438 0.050158 0.000443 0.857296 0.513381
-0.222373 0.158454 0.226047 -0.020458 -0.799106 0.600842
0.003725 0.432187 -0.585912 0.113081 0.801721 0.586904
-1.514390 -0.101460 -0.024134 0.000166 -0.960746 -0.274789
0.948188 -0.045313 -0.093933 0.000394 -0.437215 -0.898547
1.657068 -0.150742 -0.207998 0.015087 0.805361 -0.592593
-1.203606 0.017694 0.102779 -0.000080 0.222724 0.974092
-1.501620 0.000000 -0.104291 -0.000626 0.048814 -0.998177
1.405344 0.138085 0.188626 -0.007257 0.814747 -0.579771
1.653280 0.217101 -0.296563 -0.007257 0.814747 0.579771
-0.028758 -0.192358 -0.252044 0.113081 -0.801721 0.586904
-0.145620 0.043219 -0.094915 -0.000162 0.394400 -0.918162
-0.259763 -0.081499 0.065074 -0.000076 -0.754824 0.654785
-0.045639 -0.214169 0.278585 0.113081 -0.801721 -0.586904
0.026883 -0.091165 0.124533 0.113081 -0.801721 -0.586904
0.026883 0.156199 -0.213370 0.048204 -0.805958 -0.590006
-1.824852 -0.010225 0.055154 -0.568038 -0.234563 0.786019
-1.030898 -0.055343 -0.088396 -0.000326 -0.549324 -0.834874
1.687841 0.080668 -0.108395 0.015087 0.808244 0.588655
-0.043894 -0.512700 0.703263 -0.020458 0.799106 0.600842
1.771552 -0.009970 -0.089098 0.161654 -0.031599 -0.985128
0.963237 -0.098989 0.032831 -0.000106 -0.937327 0.346270
1.389162 0.060426 0.079696 -0.000000 -0.590693 -0.806896
0.504784 0.097512 -0.036988 0.000256 0.919388 -0.391495
1.684549 -0.200532 -0.272887 0.000191 -0.812621 0.582763
-0.276538 0.213207 -0.276780 -0.048182 0.823387 0.565431
-0.041514 0.221126 -0.288884 0.113081 0.801721 0.586904
-0.321609 -0.330977 0.452120 -0.020458 0.799106 0.600842
-0.070178 0.541645 -0.737472 -0.048182 0.823387 0.565431
1.567963 -0.093731 -0.124261 -0.007257 -0.814747 0.579771
-1.341388 -0.067306 0.079665 -0.000109 -0.621061 0.782830
0.340453 -0.063400 -0.082808 0.000326 -0.627264 -0.777912
-0.862083 0.025019 -0.101246 -0.000263 0.272188 -0.961465
1.386961 0.094612 -0.043877 0.000437 0.907521 -0.418504
-0.477078 0.151640 -0.204216 -0.048182 0.823387 0.565431
-0.432326 0.192497 0.264175 -0.020458 -0.799106 0.600842
0.432521 -0.055959 0.088007 -0.000233 -0.486929 0.872577
0.690745 0.104291 -0.000000 0.000002 0.998457 -0.034268
0.458012 -0.015061 -0.103198 0.000193 -0.197315 -0.979608
-0.675606 -0.067747 -0.079291 -0.000773 -0.670008 -0.741316
-0.385428 0.118494 -0.148138 -0.048182 0.823387 0.565431
-1.024420 -0.052416 0.090162 -0.000173 -0.454629 0.889877
-1.387032 0.037526 -0.097306 0.000103 0.405240 -0.913413
1.402733 -0.122264 0.167582 -0.007257 0.798857 0.601477
-1.658715 -0.099685 -0.030651 -0.000019 -0.940155 -0.338500
-0.402724 -0.180585 0.240029 -0.048182 -0.823387 -0.565431
-0.234037 -0.250191 -0.347658 -0.020458 0.799106 -0.600842
-0.993253 0.074901 0.072570 0.000232 0.731873 0.680468
1.008851 0.036308 0.097767 0.000013 0.394232 0.918180
-0.528593 -0.051585 0.090640 -0.000062 -0.500483 0.864909
0.093133 0.097566 0.036845 -0.000751 0.928026 0.369612
1.082784 0.079720 0.067241 0.000001 0.733742 0.678315
1.492067 0.022595 0.101814 0.000049 0.220393 0.974649
-1.745518 0.088044 0.034189 -0.259151 0.883193 0.387990
-0.902568 0.102138 -0.021085 -0.000376 0.985013 -0.167150
-0.221628 0.134321 0.157227 -0.048182 0.823387 -0.565431
-0.319072 -0.119791 -0.144373 -0.048182 -0.823387 0.565431
0.306715 -0.094644 0.043808 -0.000126 -0.901309 0.431407
-1.423087 -0.094567 0.043975 0.000038 -0.893954 0.446476
-1.077079 0.007302 0.104035 -0.000135 0.045592 0.998374
1.755470 0.090017 0.122965 0.015087 0.808244 -0.588655
-0.251237 0.101315 -0.024739 0.000008 0.956157 -0.290236
-0.597723 0.031705 0.099355 -0.000333 0.256568 0.965822
-1.117669 0.093308 -0.046587 0.000249 0.870333 -0.490923
0.026883 0.493192 0.673709 0.113081 0.801721 -0.586904
-0.272226 -0.317265 -0.435565 -0.020458 0.799106 -0.600842
-0.411582 0.216161 -0.292590 -0.048182 0.823387 0.565431
-0.262149 0.028358 0.100362 -0.000206 0.316774 0.947725
0.626825 0.065664 -0.081024 -0.000526 0.630790 -0.775028
-0.062432 0.081664 -0.064867 -0.000345 0.756688 -0.652996
-0.140267 0.430513 -0.581613 -0.048182 0.823387 0.565431
-0.046598 0.388560 -0.536782 0.048204 -0.805958 -0.590006
-1.370391 -0.089401 -0.053704 -0.000251 -0.879916 -0.473591
1.145064 -0.044839 -0.094160 0.000126 -0.432133 -0.900986
-1.245578 0.064007 -0.082340 0.001826 0.568584 -0.821237
-0.051968 -0.510956 -0.700669 -0.020458 0.799106 -0.600842
-0.465901 -0.096866 -0.123500 -0.048182 -0.823387 0.565431
-0.937136 -0.103805 0.010065 0.001233 -0.986935 0.155183
-0.034562 -0.436439 -0.584343 0.113081 -0.801721 0.586904
1.020087 -0.103009 -0.016306 -0.001210 -0.987729 -0.150579
1.365590 -0.032699 -0.099032 0.000246 -0.310668 -0.949806
0.864848 0.054363 0.089002 0.000275 0.562067 0.826208
1.623960 0.103011 0.016288 -0.000627 0.976654 0.211491
-0.092180 0.493599 0.669382 -0.048182 0.823387 -0.565431
-0.452291 -0.031505 -0.099419 -0.000324 -0.276055 -0.960369
-0.727599 0.033489 -0.098768 -0.000455 0.267734 -0.962753
-0.042975 0.462149 -0.636063 -0.020458 -0.799106 -0.600842
1.583683 -0.103808 0.010024 0.000699 -0.987556 0.151610
0.030032 -0.104291 -0.000000 0.000526 -0.998895 -0.026771
-0.280981 -0.095729 -0.041385 0.000016 -0.905687 -0.422145
-0.482613 -0.131924 -0.181902 -0.020458 0.799106 -0.600842
-0.355544 0.224585 0.309466 -0.020458 -0.799106 0.600842
1.175093 0.103791 0.010203 -0.000296 0.986844 0.155273
-0.450486 -0.104291 0.000000 -0.000079 -0.998232 -0.047952
1.035321 0.103754 -0.010576 0.000480 0.992100 -0.119350
-0.602418 0.094340 -0.044459 -0.001070 0.912284 -0.407851
-0.425313 0.083567 -0.100675 -0.048182 0.823387 0.565431
-0.725533 -0.100706 0.027110 0.000372 -0.958332 0.282631
1.771552 -0.009517 0.044881 1.000000 0.000000 0.000000
-0.043586 -0.443106 0.591713 0.059400 -0.810776 -0.581046
1.711591 0.038127 0.050594 0.015087 0.808244 -0.588655
0.018127 0.349282 -0.475439 0.113081 0.801721 0.586904
-0.028944 -0.305990 -0.407231 0.113081 -0.801721 0.586904
0.991476 0.064074 -0.082287 0.000356 0.578177 -0.815058
-0.808904 -0.101752 -0.022874 -0.000037 -0.967186 -0.251045
0.193827 0.078633 -0.068510 0.000038 0.767056 -0.640391
1.008560 -0.071096 -0.076302 0.000276 -0.682834 -0.729680
-0.195410 -0.087166 0.057260 -0.000113 -0.842074 0.537960
1.229972 0.080510 0.066293 0.000007 0.774222 0.631709
-0.665154 -0.026274 0.100928 0.000056 -0.303967 0.951867
-0.172324 -0.075382 0.117267 -0.020458 0.799106 0.600842
-1.304956 0.060435 0.084996 0.000063 0.554040 0.831619
-0.134532 -0.315613 0.438056 -0.020458 0.799106 0.600842
-0.163227 -0.419543 -0.567594 -0.048182 -0.823387 0.565431
-1.731971 0.046690 -0.086084 -0.201294 0.444734 -0.871380
-0.400177 0.022591 0.101815 0.000902 0.226467 0.973229
0.615725 -0.103940 -0.008559 0.000590 -0.994919 -0.094809
0.371545 0.026562 0.100852 -0.000057 0.259124 0.965034
-0.083289 -0.035427 0.098090 -0.000291 -0.328022 0.943809
0.704475 -0.103680 0.011277 0.002038 -0.987726 0.149566
0.386064 0.104027 0.007418 0.000117 0.993306 0.109337
1.668313 0.168072 -0.231264 0.015087 -0.805361 -0.592593
0.877104 -0.087065 -0.057413 -0.000164 -0.841599 -0.538766
1.468096 0.056168 -0.087874 -0.000051 0.536397 -0.843078
0.413954 0.044388 -0.094374 -0.000086 0.470843 -0.881402
1.710010 -0.130826 0.177832 0.015087 -0.808244 -0.588655
0.738285 0.042317 0.095320 -0.000039 0.447650 0.893369
-0.724563 0.006335 0.104099 0.000137 0.089043 0.995518
-0.907041 -0.089830 -0.052983 -0.000041 -0.844762 -0.533748
0.510551 -0.104291 -0.000000 -0.000499 -0.997035 -0.063449
-0.092050 0.157617 0.192392 0.113081 0.801721 -0.586904
-1.270706 -0.043637 0.094723 0.000315 -0.444591 0.894974
-1.740493 -0.024732 -0.092586 -0.255607 -0.315969 -0.912014
-0.429584 0.154335 0.213514 -0.020458 -0.799106 0.600842
-0.128867 0.346296 -0.479056 -0.020458 -0.799106 -0.600842
-0.039400 -0.277634 0.384667 0.048204 0.805958 0.590006
1.264287 -0.029767 0.099953 0.000027 -0.312483 0.949161
0.445482 0.087471 -0.056794 -0.000038 0.846299 -0.531428
-0.575057 -0.091534 0.125038 -0.020458 0.799106 0.600842
1.614215 0.088559 0.117343 0.015087 0.808244 -0.588655
1.442758 0.101979 0.021838 -0.000422 0.978151 0.204255
-1.182467 -0.092035 0.049052 -0.000142 -0.854920 0.517305
1.590952 -0.145109 0.196174 -0.007257 -0.814747 -0.579771
-0.102017 -0.289771 0.373404 -0.048182 -0.823387 -0.565431
-0.270076 0.340086 -0.460993 -0.048182 0.823387 0.565431
-0.192122 -0.136104 -0.157310 -0.048182 -0.823387 0.565431
-0.053322 0.215771 0.301299 0.048204 -0.805958 0.590006
-0.298358 -0.036728 0.097610 0.000254 -0.307781 0.950844
-0.345288 0.152288 0.193928 -0.048182 0.823387 -0.565431
1.248463 0.087440 -0.056841 0.000324 0.810882 -0.583923
-0.080430 0.081074 0.119516 0.048204 -0.805958 0.590006
-0.951614 -0.051884 -0.090469 0.000728 -0.527136 -0.848954
-0.049379 0.087366 -0.125573 0.048204 -0.805958 -0.590006
-0.166793 0.240690 0.307450 -0.048182 0.823387 -0.565431
1.744212 0.131131 0.179128 0.015087 0.808244 -0.588655
0.671623 -0.034344 -0.098474 0.000162 -0.376390 -0.925681
-0.310872 0.095644 -0.041580 -0.000000 0.892980 -0.448401
-0.514850 0.091389 -0.126894 -0.020458 -0.799106 -0.600842
-0.719777 0.071492 0.075931 0.000172 0.651963 0.757266
-0.354243 -0.085694 0.059441 -0.000870 -0.823807 0.565949
-0.506799 0.103679 -0.011285 0.000774 0.989304 -0.138410
1.205007 -0.046485 0.093359 -0.000308 -0.466617 0.883604
-0.922207 0.010480 -0.103763 -0.001317 0.124004 -0.991373
-0.365766 -0.034760 0.098328 -0.000042 -0.322541 0.945761
-0.127710 -0.454864 -0.616003 -0.048182 -0.823387 0.565431
1.273147 0.029953 -0.099897 0.000017 0.284754 -0.957840
-1.472250 0.093153 -0.046896 -0.000008 0.893512 -0.447354
-0.157732 0.105349 -0.157620 -0.020458 -0.799106 -0.600842
-1.839463 -0.016405 -0.041693 -0.639327 -0.373987 -0.667786
-0.127445 -0.231347 -0.326225 -0.020458 0.799106 -0.600842
-0.078892 -0.081296 -0.065327 0.000673 -0.760758 -0.648033
-0.820432 0.073136 -0.074349 -0.000028 0.716699 -0.696280
-0.264640 0.008948 -0.103907 0.000082 0.112546 -0.992865
-1.551308 -0.101113 0.025550 -0.000015 -0.961158 0.273249
-0.278546 0.078380 0.068799 0.000128 0.749685 0.660648
-0.171678 0.054420 0.089411 -0.000000 -0.590693 -0.806896
1.554824 -0.179162 -0.244481 -0.007257 -0.814747 0.579771
-0.684499 -0.100406 -0.028200 -0.000059 -0.953619 -0.298579
0.780446 0.065502 -0.081155 -0.000596 0.667181 -0.744002
1.635105 0.096671 -0.135073 0.015087 -0.805361 -0.592593
-0.245906 0.233511 0.325070 -0.020458 -0.799106 0.600842
-0.377476 0.103641 0.011630 -0.000296 0.987233 0.154240
0.500540 -0.000000 0.104291 0.000660 -0.040789 0.998501
0.207152 -0.084601 0.060987 -0.000418 -0.789875 0.611942
1.429466 -0.057476 -0.081856 -0.007257 0.798857 -0.601477
1.280310 -0.079133 0.067931 0.000348 -0.722711 0.690185
0.026883 0.268530 0.366816 0.113081 0.801721 -0.586904
-0.157974 0.100007 0.029586 -0.000463 0.945421 0.323574
-1.302011 -0.043877 -0.094612 -0.000211 -0.417049 -0.908074
-1.611508 -0.034723 0.098341 0.000031 -0.304922 0.951631
-0.570147 -0.103240 -0.014768 -0.000049 -0.994923 -0.095037
0.121573 0.014726 0.103246 -0.000379 0.143035 0.989040
-1.235950 -0.076835 -0.070520 -0.000012 -0.768412 -0.638723
1.120565 0.073209 -0.074277 -0.000124 0.668785 -0.742467
-0.960343 -0.025499 0.101126 -0.000376 -0.230273 0.972279
0.180632 0.029008 0.100176 0.000069 0.324931 0.944982
0.025479 0.100147 0.029109 -0.000331 0.944988 0.324739
-1.153911 -0.016810 0.102928 -0.000422 -0.212000 0.976552
-0.081526 -0.100936 0.026243 0.000056 -0.969088 0.244171
1.724913 -0.201613 0.275407 0.015087 -0.808244 -0.588655
1.361070 -0.123975 -0.169352 -0.007257 -0.814747 0.579771
-0.183191 -0.239906 0.335711 -0.020458 0.799106 0.600842
0.124823 -0.081682 0.064843 0.000365 -0.793478 0.607499
1.588381 -0.038024 -0.097113 -0.000023 -0.407429 -0.912403
0.171910 0.096805 0.038801 0.000045 0.927145 0.372681
0.026883 -0.357212 -0.487958 0.113081 -0.801721 0.586904
0.026883 0.505017 -0.689861 0.048204 -0.805958 -0.590006
0.026883 -0.410422 -0.560643 0.113081 -0.801721 0.586904
-0.359305 -0.234371 -0.322353 -0.020458 0.799106 -0.600842
-0.189854 0.097436 -0.100807 -0.048182 0.823387 0.565431
0.143496 -0.097469 -0.037101 0.000040 -0.921185 -0.387157
-1.396677 0.102523 0.019123 0.000145 0.987545 0.151706
1.468900 -0.075069 0.072397 -0.000512 -0.754803 0.654750
-0.354626 -0.202425 -0.267734 -0.048182 -0.823387 0.565431
-0.139531 -0.167597 0.198688 -0.048182 -0.823387 -0.565431
0.210275 0.103640 -0.011634 -0.000649 0.985407 -0.166349
0.703824 -0.067020 0.079906 -0.000186 -0.682769 0.729606
-0.571089 0.080307 0.066539 -0.000127 0.802693 0.595129
-0.373344 -0.027636 -0.100563 -0.000019 -0.317539 -0.947514
1.374219 -0.089945 0.121365 -0.007257 -0.814747 -0.579771
-0.630005 0.044706 -0.094224 -0.000054 0.473874 -0.879802
-0.077388 -0.391011 -0.518732 -0.048182 -0.823387 0.565431
-1.750911 -0.092843 0.000000 -0.316370 -0.946164 -0.038713
-0.008067 0.181838 0.241660 0.113081 0.801721 -0.586904
0.039413 -0.069905 -0.077395 -0.000152 -0.628922 -0.776496
0.214140 -0.029474 0.100040 -0.000139 -0.243732 0.969032
-0.299721 -0.289365 0.389659 -0.048182 -0.823387 -0.565431
1.596791 -0.092920 0.130950 0.007639 0.803234 0.595585
0.015237 -0.040415 0.096142 0.000363 -0.420305 0.906568
-0.110101 -0.085083 0.127416 0.048204 0.805958 0.590006
-0.152596 0.287066 0.399475 -0.020458 -0.799106 0.600842
-0.048698 -0.261517 -0.342674 0.113081 -0.801721 0.586904
-1.523833 0.054734 -0.088774 0.000028 0.565942 -0.823562
-1.374278 0.030070 0.099862 0.000275 0.303947 0.951927
0.099734 -0.103614 0.011870 0.001582 -0.989706 0.136404
-0.395300 -0.101271 -0.024917 0.000158 -0.976898 -0.210419
-1.183159 0.079377 0.067646 -0.000021 0.724044 0.688648
-1.098873 0.100715 0.027075 -0.000073 0.955891 0.291148
-0.366531 0.085929 0.124683 -0.020458 -0.799106 0.600842
1.502583 0.103028 0.016185 -0.000409 0.979397 0.198366
-1.591914 0.102135 -0.021097 -0.000290 0.968103 -0.247531
-1.007446 0.102927 0.016816 -0.000450 0.990678 0.130812
1.711660 -0.095168 -0.028774 0.161188 -0.944195 -0.284309
-1.835268 -0.047570 0.007886 -0.639509 -0.739912 0.194508
-0.256252 -0.162257 -0.200859 -0.048182 -0.823387 0.565431
0.396552 -0.075682 -0.071756 -0.000264 -0.731728 -0.680500
-0.166793 0.240690 -0.307450 -0.048182 0.823387 0.565431
-0.331541 0.171517 -0.239704 -0.020458 -0.799106 -0.600842
1.699341 -0.078704 -0.109018 0.015087 0.805361 -0.592593
-0.580337 -0.086546 -0.118223 -0.048182 -0.823387 0.565431
-1.419039 -0.069429 -0.077823 -0.001274 -0.668360 -0.742898
-0.269951 -0.120722 0.174245 -0.020458 0.799106 0.600842
-0.340666 -0.087318 -0.057029 -0.000020 -0.851812 -0.522410
-0.140677 0.350695 0.465416 -0.048182 0.823387 -0.565431
1.100825 -0.087659 0.056503 0.000371 -0.810280 0.584812
-0.127099 -0.463782 0.635370 -0.020458 0.799106 0.600842
0.330356 0.000000 -0.104291 0.001270 0.028532 -0.998776
0.241996 0.040340 -0.096174 0.000902 0.355892 -0.933533
-0.451408 0.123200 0.160613 -0.048182 0.823387 -0.565431
-0.025495 -0.007986 -0.103985 -0.000810 -0.096696 -0.994668
-0.302921 -0.190021 -0.245265 -0.048182 -0.823387 0.565431
-1.626457 -0.102953 0.016655 0.000008 -0.990262 0.133833
-0.317209 0.286309 0.386699 -0.048182 0.823387 -0.565431
1.488144 -0.122769 0.169283 -0.007257 0.798857 0.601477
1.737458 -0.063368 0.085913 0.015087 -0.808244 -0.588655
0.870474 0.019777 -0.102399 -0.000599 0.231084 -0.972258
-0.656579 0.104053 -0.007044 0.000475 0.992529 -0.117160
-0.402701 -0.213006 0.287239 -0.048182 -0.823387 -0.565431
-0.198571 -0.306451 0.423690 -0.020458 0.799106 0.600842
1.326294 0.086228 0.116742 -0.007257 0.814747 -0.579771
-0.102535 0.394572 -0.526060 -0.048182 0.823387 0.565431
-0.146722 -0.170662 -0.203764 -0.048182 -0.823387 0.565431
-0.466480 0.039659 -0.096456 -0.000131 0.330935 -0.942903
0.538979 0.021025 -0.102150 0.000306 0.215283 -0.975749
0.218851 -0.029842 -0.099931 -0.000591 -0.229654 -0.972379
-0.362508 -0.130435 -0.184011 -0.020458 0.799106 -0.600842
-1.729015 0.028008 0.094524 -0.191766 0.268467 0.942854
-1.204728 0.024807 -0.101298 0.000342 0.280727 -0.959009
-0.157989 -0.379987 0.522873 -0.020458 0.799106 0.600842
-1.736541 -0.075171 0.061057 -0.240567 -0.711192 0.658688
0.512626 -0.087609 0.056580 0.000254 -0.821573 0.568768
-0.360562 -0.127109 0.158564 -0.048182 -0.823387 -0.565431
1.181274 -0.104291 -0.000000 0.000400 -0.999100 -0.022028
1.204871 0.048508 -0.092324 -0.000036 0.464444 -0.884769
-0.212610 -0.375542 0.507728 -0.048182 -0.823387 -0.565431
0.667342 0.090990 -0.050966 0.000213 0.851752 -0.522482
-1.463442 0.077332 0.069975 -0.000059 0.759948 0.648945
-0.020740 -0.543570 -0.736063 0.000000 -0.590693 -0.806896
0.026883 0.233057 -0.318360 0.048204 -0.805958 -0.590006
-0.832204 0.033246 0.098850 -0.000123 0.326012 0.944549
-0.026928 0.341161 0.455663 0.113081 0.801721 -0.586904
1.468096 -0.131845 -0.179072 -0.007257 -0.814747 0.579771
-1.270296 0.099291 0.031906 0.000406 0.939412 0.340500
-0.268983 0.088887 -0.131938 -0.020458 -0.799106 -0.600842
-0.522563 0.078669 0.109714 -0.020458 -0.799106 0.600842
-1.301404 -0.104291 0.000000 -0.000679 -0.997194 -0.060616
-1.842670 0.034606 0.023963 -0.658070 0.558163 0.500166
0.739645 0.028061 -0.100445 -0.000205 0.279092 -0.959611
-0.190053 -0.144085 0.168755 -0.048182 -0.823387 -0.565431
1.303060 0.077139 -0.104260 -0.007257 0.814747 0.579771
-0.304696 0.180163 0.231062 -0.048182 0.823387 -0.565431
-0.340242 0.128036 -0.181579 -0.020458 -0.799106 -0.600842
-0.436652 -0.185783 -0.250490 -0.048182 -0.823387 0.565431
-0.439895 0.092951 -0.047296 -0.000075 0.879135 -0.475130
-0.027270 0.154326 -0.200378 0.113081 0.801721 0.586904
-1.268724 0.018017 0.102723 0.000058 0.190389 0.980931
-0.221174 0.247192 -0.321553 -0.048182 0.823387 0.565431
0.017089 -0.336306 0.460199 0.048204 0.805958 0.590006
-1.651634 -0.076901 0.070448 0.000008 -0.717980 0.694965
-0.190140 -0.095930 -0.040916 -0.000243 -0.907182 -0.419049
0.687159 0.062305 0.083635 -0.000168 0.554537 0.831279
1.269674 0.050697 0.091140 -0.000004 0.524589 0.850459
0.026883 0.091165 -0.124533 0.048204 -0.805958 -0.590006
-1.511631 0.104291 -0.000000 0.000309 0.999399 -0.018517
-0.363346 -0.262038 0.359011 -0.020458 0.799106 0.600842
-0.966374 0.048194 -0.092488 -0.000437 0.488128 -0.872011
-0.416235 0.184728 -0.247214 -0.048182 0.823387 0.565431
0.937291 -0.031028 0.099569 0.000137 -0.266542 0.963075
-1.778039 0.059055 -0.057948 -0.419581 0.670192 -0.609333
1.453725 -0.087353 -0.121830 -0.007257 0.798857 -0.601477
-1.556784 0.057771 0.086828 0.000011 0.598608 0.800089
1.528730 0.063764 0.091405 -0.007257 -0.798857 0.601477
-0.082633 0.029395 0.100063 -0.000067 0.280557 0.959028
1.752253 0.101764 -0.139011 0.015087 0.808244 0.588655
1.518631 -0.101420 -0.024304 0.000019 -0.959253 -0.279896
-0.010852 -0.543955 0.735781 0.068382 -0.809467 -0.582170
1.442407 0.045251 0.093963 0.000084 0.438351 0.897969
0.358774 -0.100775 0.026852 -0.001246 -0.950907 0.306992
1.547022 0.183237 -0.250304 -0.007257 0.814747 0.579771
0.122338 0.083447 -0.062556 -0.000025 0.779078 -0.625707
-0.168484 0.475640 -0.649733 -0.020458 -0.799106 -0.600842
0.586445 0.088895 0.054537 0.000676 0.854405 0.518063
-0.832007 -0.021616 -0.102027 -0.000028 -0.260673 -0.964652
1.642705 0.121546 0.163365 0.015087 0.808244 -0.588655
1.448256 -0.100425 0.028132 0.000001 -0.958834 0.281263
1.371480 -0.104291 -0.000000 0.000252 -0.997572 -0.057737
-0.365652 0.057320 -0.087127 0.000192 0.571983 -0.819367
-0.326540 0.243576 -0.325265 -0.048182 0.823387 0.565431
0.202765 -0.100013 -0.029566 0.000348 -0.964155 -0.262314
1.129472 0.036278 0.097778 -0.000062 0.389120 0.920375
-0.767296 0.103780 -0.010310 0.000368 0.987592 -0.151630
1.708252 0.074182 0.100013 0.015087 0.808244 -0.588655
-0.475579 0.033702 0.098696 -0.000120 0.366395 0.929656
-0.461459 -0.117815 0.163858 -0.020458 0.799106 0.600842
1.476616 -0.033914 -0.098623 0.000128 -0.326028 -0.944577
-0.127542 -0.248205 0.348643 -0.020458 0.799106 0.600842
-1.579113 0.063702 -0.082576 -0.000628 0.570362 -0.820213
1.301404 0.104291 -0.000000 -0.001305 0.999087 -0.019586
1.681814 0.091998 -0.049123 0.056406 0.855389 -0.511610
-1.474579 -0.032997 0.098934 -0.000031 -0.290228 0.956173
-1.336749 0.085973 -0.059037 0.000650 0.795390 -0.604972
1.343649 -0.083398 -0.112548 -0.007257 -0.814747 0.579771
0.783684 0.097413 0.037247 -0.000115 0.915068 0.401461
-0.438958 -0.150757 -0.208436 -0.020458 0.799106 -0.600842
-1.623002 0.034661 -0.098363 -0.000381 0.330553 -0.943051
-0.012292 0.291455 -0.390584 0.113081 0.801721 0.586904
-0.117759 0.082758 -0.063465 0.000261 0.775943 -0.629764
-1.557213 -0.009971 0.103814 0.000023 -0.149092 0.987995
1.548312 -0.082634 0.108912 -0.007257 -0.814747 -0.579771
-0.066415 0.254713 -0.329966 0.113081 0.801721 0.586904
-0.214177 -0.204788 0.259208 -0.048182 -0.823387 -0.565431
-1.681814 0.066184 -0.080600 -0.014909 0.593263 -0.803855
-0.092492 0.211981 -0.266569 0.113081 0.801721 0.586904
-0.036214 0.149293 0.209092 0.048204 -0.805958 0.590006
-0.019360 0.084817 0.119640 0.048204 -0.805958 0.590006
-0.474043 -0.078638 0.068503 0.000111 -0.746040 0.664795
-0.103411 0.367501 0.508126 -0.020458 -0.799106 0.600842
-0.268001 0.103104 0.150879 -0.020458 -0.799106 0.600842
-0.015463 -0.238565 0.317725 0.113081 -0.801721 -0.586904
1.301014 -0.090972 0.123724 -0.007257 -0.814747 -0.579771
1.050772 0.023320 -0.101651 0.000096 0.271684 -0.961636
1.371480 -0.000000 0.104291 -0.000463 -0.017569 0.999498
0.019443 -0.401680 0.547267 0.113081 -0.801721 -0.586904
-0.244635 0.326697 0.439329 -0.048182 0.823387 -0.565431
0.562947 0.101336 -0.024650 0.000162 0.961195 -0.273142
-0.985008 -0.095229 0.042523 -0.000722 -0.900436 0.433613
-0.126242 0.515548 0.704246 -0.048182 0.823387 -0.565431
-0.503102 -0.054543 -0.088891 -0.000232 -0.543566 -0.838551
1.719056 -0.006490 -0.098002 0.160097 -0.111382 -0.980194
1.536985 -0.068414 -0.089071 -0.007257 -0.814747 0.579771
-0.253412 -0.218100 -0.304319 -0.020458 0.799106 -0.600842
-0.282135 0.281412 -0.387543 -0.020458 -0.799106 -0.600842
1.432806 0.116566 -0.158043 -0.007257 0.814747 0.579771
-0.444322 0.087065 0.057413 -0.000164 0.841599 0.538766
-0.188887 0.292411 -0.405347 -0.020458 -0.799106 -0.600842
-0.189062 -0.185240 -0.262806 -0.020458 0.799106 -0.600842
-0.163761 0.405893 0.547763 -0.048182 0.823387 -0.565431
-0.290126 -0.102985 0.016453 -0.000824 -0.983825 0.175046
0.560605 -0.000000 0.104291 -0.001978 -0.020543 0.999290
1.740996 0.142878 -0.195174 0.015087 0.808244 0.588655
-0.909721 -0.040398 0.096149 0.000002 -0.436515 0.898863
0.622827 0.036646 0.097641 -0.000009 0.392772 0.918809
-0.349393 -0.165655 0.231300 -0.020458 0.799106 0.600842
0.591999 -0.070006 0.077303 0.000139 -0.689043 0.723843
-0.417129 0.101035 0.125415 -0.048182 0.823387 -0.565431
-0.279615 -0.349513 0.478202 -0.020458 0.799106 0.600842
-1.073387 -0.018916 -0.102562 -0.000150 -0.236735 -0.970623
1.588725 0.075629 -0.098935 0.015087 0.808244 0.588655
0.716543 -0.069637 -0.077636 -0.000236 -0.636869 -0.769758
-0.330383 0.071615 0.075815 -0.000383 0.649755 0.759223
-0.559843 0.018648 -0.102610 -0.000068 0.205790 -0.977832
-0.853921 -0.081613 -0.064931 -0.000113 -0.760752 -0.647888
0.049265 0.071101 -0.076297 0.000118 0.654990 -0.754638
-1.681814 -0.057907 -0.086738 -0.037634 -0.513152 -0.856294
1.771552 0.043083 0.010175 1.000000 0.000000 -0.000000
0.512205 -0.080829 -0.065904 0.000175 -0.806069 -0.590554
-0.179705 -0.373021 -0.512869 -0.020458 0.799106 -0.600842
-0.630643 -0.073416 0.074072 0.000343 -0.663726 0.746982
0.086072 0.051494 0.090692 0.000420 0.533614 0.844803
-0.105876 0.124877 0.145005 0.113081 0.801721 -0.586904
-1.126573 -0.094969 -0.043100 0.000088 -0.888573 -0.457129
-0.221286 -0.425757 -0.581590 -0.048182 -0.823387 0.565431
-0.175876 -0.058451 -0.086372 -0.000321 -0.512521 -0.857813
-0.295759 -0.222551 0.292026 -0.048182 -0.823387 -0.565431
-0.020900 0.326168 -0.449455 0.048204 -0.805958 -0.590006
-0.267780 -0.091732 -0.099142 -0.048182 -0.823387 0.565431
-1.137197 0.037842 -0.097184 0.000008 0.366127 -0.929751
1.630470 -0.097836 0.036123 0.000070 -0.933896 0.355548
-0.620670 -0.104291 0.000000 -0.000427 -0.997029 -0.064656
-1.371338 -0.023071 0.101708 -0.000500 -0.194362 0.980232
-0.545260 0.087675 -0.056479 0.000016 0.810670 -0.584274
-1.094060 -0.088890 0.054546 0.000832 -0.840190 0.540934
0.292332 0.092054 0.049017 0.000474 0.858194 0.511882
-1.071527 0.075250 -0.072208 0.000175 0.722598 -0.690216
-1.170038 0.098966 -0.032901 0.000017 0.947124 -0.318470
-0.097964 0.331537 -0.433879 -0.048182 0.823387 0.565431
-0.020637 -0.225954 -0.312539 0.048204 0.805958 -0.590006
-0.234086 0.268654 -0.372212 -0.020458 -0.799106 -0.600842
-1.666791 0.025635 0.101092 0.000072 0.272998 0.961229
1.068666 -0.104054 0.007029 -0.000487 -0.992480 0.117494
-0.173897 0.171317 0.244805 -0.020458 -0.799106 0.600842
0.485718 -0.054747 0.088766 0.001953 -0.525868 0.849921
-0.867551 0.087587 -0.056615 0.000037 0.808198 -0.587614
-1.343735 0.100727 0.027032 -0.000022 0.960722 0.274763
1.510633 0.096982 -0.038355 -0.000045 0.927515 -0.371757
-0.883308 0.100730 0.027022 0.000109 0.948881 0.313294
0.017980 0.019445 0.102463 0.000577 0.189636 0.981179
-1.636992 0.070799 0.076578 0.000013 0.636821 0.770022
-0.083593 -0.319847 -0.415630 0.005646 -0.817998 0.573888
1.196272 -0.052947 -0.089851 -0.000133 -0.506506 -0.861374
0.198172 0.071728 0.075709 0.000063 0.651679 0.757499
0.788978 -0.063020 0.083097 -0.000031 -0.623449 0.780887
1.529293 0.090014 -0.126276 -0.007257 -0.798857 -0.601477
-0.149909 0.255124 0.357083 -0.020458 -0.799106 0.600842
-1.279037 0.090057 -0.052597 0.000204 0.862882 -0.503955
1.771552 0.019888 0.087420 1.000000 -0.000000 -0.000000
-0.021943 -0.320101 0.427856 0.113081 -0.801721 -0.586904
1.311738 -0.102241 -0.020578 0.000104 -0.982290 -0.184190
-0.062346 0.322278 0.423045 0.113081 0.801721 -0.586904
0.275799 0.059638 0.085557 0.000064 0.572377 0.819068
0.386558 -0.022722 0.101786 0.000275 -0.189148 0.981283
-0.427169 0.140909 -0.195739 -0.020458 -0.799106 -0.600842
1.120169 -0.090690 -0.051498 -0.000168 -0.870019 -0.491606
0.403473 -0.091291 0.050425 -0.000082 -0.851765 0.522513
1.594566 0.158983 0.215625 -0.007257 0.814747 -0.579771
-0.211580 0.017242 0.102856 0.000246 0.167412 0.985053
-0.434778 -0.073645 0.106021 -0.020458 0.799106 0.600842
0.260281 0.104291 -0.000000 0.002490 0.997863 -0.049343
1.759950 0.038296 -0.052065 0.015087 0.808244 0.588655
1.688308 -0.178946 0.245533 0.015087 0.805361 0.592593
-0.882245 0.043609 0.094736 0.000378 0.429067 0.902445
0.456843 -0.101780 -0.022751 -0.000156 -0.961227 -0.273016
0.660308 -0.043951 0.094578 0.000074 -0.443411 0.895486
0.745633 0.103680 -0.011273 0.000317 0.989077 -0.140920
-0.080758 -0.202036 -0.255245 0.113081 -0.801721 0.586904
1.698202 0.144772 0.196677 0.015087 0.808244 -0.588655
-0.152802 -0.099937 0.029819 0.000496 -0.962044 0.269862
0.932167 0.084419 -0.061239 -0.000023 0.779537 -0.625149
-0.093988 -0.348057 0.457597 -0.048182 -0.823387 -0.565431
1.694497 -0.098754 0.026403 0.161929 -0.955114 0.244496
-0.097559 -0.212409 0.266178 0.113081 -0.801721 -0.586904
-0.050640 0.278253 0.386432 0.048204 -0.805958 0.590006
0.970788 -0.072045 0.075407 0.000024 -0.728439 0.684015
0.007841 -0.093861 -0.045462 0.000626 -0.881374 -0.470771
0.319507 0.088739 -0.054790 -0.000809 0.861261 -0.507000
-0.217062 -0.104623 -0.113591 -0.048182 -0.823387 0.565431
1.520465 0.124750 -0.168446 -0.007257 0.814747 0.579771
1.621704 -0.094695 -0.043698 0.000379 -0.903684 -0.426559
-0.067408 0.100511 0.027826 0.000290 0.971789 0.231786
-0.300219 0.056543 -0.087857 0.000000 -0.590693 0.806896
0.104357 -0.044549 0.094298 0.000045 -0.439471 0.897449
-0.709699 0.098859 -0.033220 -0.000204 0.935903 -0.350138
-0.085428 -0.397194 0.548228 -0.020458 0.799106 0.600842
1.703661 -0.085412 0.118026 0.015087 0.805361 0.592593
1.641636 -0.046113 0.059766 0.015087 -0.808244 -0.588655
1.700393 0.205742 -0.281642 0.015087 -0.805361 -0.592593
0.352175 0.094208 0.044739 0.000110 0.881306 0.470982
1.611656 0.045752 0.066467 0.015087 -0.805361 0.592593
-0.021090 -0.127970 0.165566 0.113081 -0.801721 -0.586904
0.310755 -0.061832 0.083985 0.000246 -0.560149 0.827516
1.711591 -0.036708 0.051632 -0.170692 0.582024 -0.795055
0.360180 0.045503 -0.093841 0.000672 0.456087 -0.889156
0.453059 0.084598 0.060990 0.000060 0.835645 0.548005
-0.683280 -0.072067 0.075386 0.000449 -0.686060 0.726604
-0.219396 0.374597 -0.513613 -0.020458 -0.799106 -0.600842
0.795909 -0.100878 0.026464 0.000014 -0.958571 0.282175
-1.008584 -0.103934 -0.008624 0.000745 -0.989973 -0.135866
-1.220377 0.101147 0.025417 -0.000312 0.973407 0.225637
1.723305 0.207487 0.283431 0.015087 0.808244 -0.588655
1.536049 0.129064 0.178222 -0.007257 -0.798857 0.601477
-0.113464 0.316673 0.440183 -0.020458 -0.799106 0.600842
-0.206233 0.298099 0.394411 -0.048182 0.823387 -0.565431
-0.247556 -0.371137 -0.504291 -0.048182 -0.823387 0.565431
1.291694 -0.079020 -0.107045 -0.007257 -0.814747 0.579771
-0.164758 -0.434001 0.588779 -0.048182 -0.823387 -0.565431
0.565015 -0.060501 -0.084948 0.000565 -0.545203 -0.837481
-0.093045 -0.508148 0.690642 -0.048182 -0.823387 -0.565431
0.026883 -0.126638 -0.172990 0.113081 -0.801721 0.586904
0.026883 0.238969 0.326436 0.113081 0.801721 -0.586904
0.026883 -0.185760 0.253751 0.113081 -0.801721 -0.586904
0.026883 -0.185760 -0.253751 0.113081 -0.801721 0.586904
1.735780 0.092605 0.023290 0.160840 0.944438 0.283328
0.969726 0.076242 0.071161 -0.000010 0.763724 0.644362
-1.133691 0.083605 0.062345 0.000034 0.780254 0.624248
-0.312001 -0.246364 -0.339914 -0.020458 0.799106 -0.600842
-0.119249 -0.092295 -0.138015 0.048204 0.805958 -0.590006
1.415528 0.046446 -0.093378 -0.000360 0.443234 -0.895280
-0.037114 -0.052479 0.090126 0.000135 -0.508683 0.860067
-0.416925 -0.087681 -0.125297 -0.020458 0.799106 -0.600842
-0.231858 0.375943 0.509953 -0.048182 0.823387 -0.565431
-0.411372 -0.246175 -0.336278 -0.048182 -0.823387 0.565431
1.771552 -0.049808 -0.000000 1.000000 0.000000 -0.000000
-0.269886 -0.086031 0.128108 -0.020458 0.799106 0.600842
1.688078 0.023166 0.100638 0.160609 0.216864 0.962068
-0.143361 0.279137 -0.389244 -0.020458 -0.799106 -0.600842
-0.064688 -0.043823 -0.094637 0.000004 -0.438147 -0.898146
-0.076252 -0.076413 0.070977 -0.000364 -0.758820 0.650080
1.212426 -0.085407 0.059853 0.000019 -0.799467 0.599480
0.859464 -0.051076 0.090928 0.000031 -0.511813 0.858211
0.152803 0.054492 -0.088923 -0.000021 0.567870 -0.822192
0.007841 0.093861 -0.045462 0.000626 0.881374 -0.470771
1.682791 0.175128 0.237962 0.015087 0.808244 -0.588655
-0.361540 -0.232240 0.319443 -0.020458 0.799106 0.600842
0.080086 0.000000 -0.104291 -0.003277 0.035213 -0.998125
-0.081677 -0.127979 -0.183691 0.048204 0.805958 -0.590006
1.468734 0.108230 0.149740 -0.007257 -0.798857 0.601477
0.974984 0.102598 0.018717 -0.000343 0.982361 0.182888
1.587503 -0.035443 0.098084 -0.000077 -0.386705 0.921404
-1.160278 -0.063477 0.082748 0.000106 -0.651282 0.757828
1.549725 -0.086656 0.058029 0.000042 -0.825498 0.563406
1.378752 -0.047711 0.092738 0.000723 -0.472447 0.880509
-0.087749 0.493983 -0.676877 -0.020458 -0.799106 -0.600842
1.561728 0.091351 0.120995 -0.007257 0.814747 -0.579771
-0.339355 0.110143 0.157812 -0.020458 -0.799106 0.600842
-0.821710 -0.069464 0.077791 0.000218 -0.692422 0.720457
-1.285360 0.007095 -0.104050 0.000326 0.103057 -0.994051
-0.137152 -0.082083 -0.064335 0.000253 -0.806572 -0.590006
1.040398 -0.014441 0.103287 0.000690 -0.161256 0.986263
-1.035099 0.025226 -0.101194 -0.000373 0.263558 -0.963883
-0.242406 -0.405803 0.554334 -0.020458 0.799106 0.600842
-0.556014 -0.058089 -0.086616 0.000189 -0.600287 -0.798874
1.763511 -0.060649 -0.082848 0.015087 0.805361 -0.592593
1.442010 0.086667 -0.115911 -0.007257 0.814747 0.579771
-0.181883 -0.324256 -0.447938 -0.020458 0.799106 -0.600842
0.133737 0.010954 -0.103714 0.000798 0.123763 -0.991451
-1.765150 0.087335 -0.010569 -0.332822 0.928529 -0.153857
-1.557771 0.103048 0.016059 -0.000016 0.982462 0.182424
-0.116157 0.170209 0.244194 0.048204 -0.805958 0.590006
-0.312298 -0.123629 0.149383 -0.048182 -0.823387 -0.565431
-0.200570 0.050785 -0.091091 -0.000079 0.533870 -0.844670
1.373234 0.094316 0.127520 -0.007257 0.814747 -0.579771
-0.229974 -0.347953 0.469032 -0.048182 -0.823387 -0.565431
-0.311049 0.340954 0.465749 -0.048182 0.823387 -0.565431
1.606765 -0.161282 -0.221866 -0.007257 0.798857 -0.601477
-0.678941 0.046741 -0.093231 -0.001335 0.471261 -0.881049
0.843934 0.103949 -0.008449 -0.000516 0.992239 -0.119183
-1.825379 0.029910 -0.047006 -0.571224 0.375185 -0.727089
-0.280149 -0.159489 0.225457 -0.020458 0.799106 0.600842
-1.674675 0.095320 -0.042318 -0.000427 0.894876 -0.444533
-0.038567 -0.165135 -0.212967 0.113081 -0.801721 0.586904
-0.078176 -0.440072 -0.605503 -0.020458 0.799106 -0.600842
1.359105 0.068077 -0.079008 0.000164 0.617251 -0.785612
0.026883 0.268530 -0.366816 0.048204 -0.805958 -0.590006
1.643321 -0.073453 0.103308 0.015087 0.805361 0.592593
1.629513 -0.127695 0.171470 0.015087 -0.808244 -0.588655
0.539715 0.078465 0.068701 -0.001023 0.779516 0.625053
-0.163212 -0.292413 -0.406224 -0.020458 0.799106 -0.600842
-0.247163 0.272050 0.359966 -0.048182 0.823387 -0.565431
-0.338842 -0.281947 -0.386325 -0.020458 0.799106 -0.600842
-0.258082 0.189290 0.240381 -0.048182 0.823387 -0.565431
-0.243977 0.181461 -0.255911 -0.020458 -0.799106 -0.600842
1.689531 0.088600 0.052590 0.161490 0.826268 0.538291
-1.471587 -0.104291 0.000000 0.000384 -0.996919 -0.063692
-0.187492 0.175020 -0.249267 -0.020458 -0.799106 -0.600842
-0.399186 -0.064029 -0.082322 0.000217 -0.637907 -0.769194
-0.242855 0.134154 -0.193032 -0.020458 -0.799106 -0.600842
-1.333559 0.007671 -0.104009 0.000312 0.126333 -0.991302
-0.483058 -0.097268 -0.037624 -0.000182 -0.919282 -0.391743
-0.040515 0.539510 0.739035 -0.020458 -0.799106 0.600842
-0.773489 -0.069623 0.077649 -0.000059 -0.691819 0.720934
-1.415462 0.084803 0.060705 0.000333 0.803774 0.593999
-0.372167 0.231316 -0.317852 -0.020458 -0.799106 -0.600842
1.181004 0.041395 0.095724 -0.000464 0.437472 0.898496
-0.023551 0.533148 -0.731151 -0.020458 -0.799106 -0.600842
0.171171 -0.033072 -0.098909 0.000003 -0.336382 -0.940912
-0.008067 0.181838 -0.241660 0.113081 0.801721 0.586904
1.603018 0.100363 -0.028354 0.000397 0.950059 -0.309989
0.961037 0.000000 -0.104291 -0.001708 0.058055 -0.997407
-0.516614 0.046535 -0.093334 0.000359 0.421384 -0.905980
-0.024310 -0.360713 -0.482877 0.113081 -0.801721 0.586904
1.728168 0.088357 -0.039367 0.161199 0.901828 -0.398674
-0.093797 0.219682 0.276838 0.113081 0.801721 -0.586904
-0.184324 0.460675 0.629290 -0.048182 0.823387 -0.565431
1.430840 -0.114688 -0.155428 -0.007257 -0.814747 0.579771
-0.143816 0.249526 -0.349845 -0.020458 -0.799106 -0.600842
1.657793 -0.093852 -0.125727 0.015087 -0.808244 0.588655
-0.106917 0.160228 -0.229806 0.048204 -0.805958 -0.590006
-0.210704 0.346636 0.465473 -0.048182 0.823387 -0.565431
-0.021111 0.362968 -0.499742 0.048204 -0.805958 -0.590006
1.674108 -0.084059 -0.061731 0.000125 -0.776474 -0.628937
-0.392968 0.207949 0.286066 -0.020458 -0.799106 0.600842
-0.136253 -0.397119 -0.532642 -0.048182 -0.823387 0.565431
1.258171 -0.058479 -0.081122 -0.007257 0.798857 -0.601477
0.908828 -0.010358 -0.103776 0.001498 -0.147034 -0.988500
-0.532816 -0.131442 -0.179551 -0.048182 -0.823387 0.565431
0.266264 -0.016087 0.103043 -0.000796 -0.196293 0.979793
-0.290811 0.309325 -0.424372 -0.020458 -0.799106 -0.600842
1.518817 -0.136916 -0.185563 -0.007257 -0.814747 0.579771
-0.024580 -0.101217 -0.142468 0.048204 0.805958 -0.590006
-0.103597 -0.350020 -0.461273 -0.048182 -0.823387 0.565431
1.728130 -0.189866 -0.259361 0.015087 0.805361 -0.592593
-1.230380 -0.099833 0.030166 0.001781 -0.971055 0.235521
1.644425 -0.214279 -0.292708 -0.007257 -0.814747 0.579771
1.584354 0.139046 -0.187736 -0.007257 0.814747 0.579771
1.634254 0.179532 0.246437 -0.007257 -0.798857 0.601477
-0.265767 -0.251392 0.331469 -0.048182 -0.823387 -0.565431
1.137178 0.098830 -0.033307 -0.000111 0.945711 -0.322782
-0.006542 0.133948 0.176535 0.113081 0.801721 -0.586904
-1.429400 0.101640 -0.023367 -0.000008 0.962253 -0.269005
-0.088027 0.273829 0.351915 0.113081 0.801721 -0.586904
-0.183970 0.108585 0.116541 -0.048182 0.823387 -0.565431
-0.432378 0.053720 0.089392 0.000092 0.512502 0.857848
-0.210725 -0.435733 0.595219 -0.020458 0.799106 0.600842
1.392664 -0.086780 -0.057843 0.000594 -0.860036 -0.508712
-0.436409 -0.160066 0.213019 -0.048182 -0.823387 -0.565431
1.627966 -0.187738 0.255617 -0.007257 -0.814747 -0.579771
-0.224033 -0.090429 0.093516 -0.048182 -0.823387 -0.565431
-0.468604 0.082814 -0.117064 -0.020458 -0.799106 -0.600842
-0.053588 0.272821 -0.379253 0.048204 -0.805958 -0.590006
0.830521 0.025784 0.101054 -0.000111 0.250763 0.967279
1.422385 -0.076768 0.107393 -0.007257 0.798857 0.601477
-0.249948 -0.034501 -0.098419 -0.000007 -0.382062 -0.923313
-1.079620 -0.103496 0.012854 -0.000619 -0.983751 0.175965
0.026883 -0.292179 -0.399121 0.113081 -0.801721 0.586904
-0.085900 -0.445582 0.612568 -0.020458 0.799106 0.600842
-0.116599 0.136248 -0.158472 0.113081 0.801721 0.586904
-0.381879 -0.102384 0.019854 0.000640 -0.981068 0.189192
-0.522169 -0.103706 -0.011034 0.001119 -0.993636 -0.107541
-0.130140 0.000000 -0.104291 -0.001907 0.019847 -0.999403
-0.181710 0.116522 0.171663 -0.020458 -0.799106 0.600842
-0.630980 -0.058809 -0.086129 -0.000263 -0.605721 -0.794800
1.475976 0.079866 0.112155 -0.007257 -0.798857 0.601477
-0.156037 -0.475238 -0.648085 -0.048182 -0.823387 0.565431
-0.322930 -0.081154 -0.119817 -0.020458 0.799106 -0.600842
0.654471 -0.103050 0.016042 0.000049 -0.978378 0.203494
-0.094167 0.053343 -0.089617 -0.000413 0.487344 -0.872541
-0.725145 -0.072108 -0.075347 0.000204 -0.728699 -0.683698
0.750810 -0.104291 -0.000000 0.000689 -0.996575 -0.069141
0.105243 0.102888 -0.017048 0.000593 0.982372 -0.182799
-0.564497 0.101511 -0.138666 -0.020458 -0.799106 -0.600842
-0.111303 -0.269827 -0.345152 -0.048182 -0.823387 0.565431
-0.253997 -0.294420 -0.393124 -0.048182 -0.823387 0.565431
1.462515 -0.037254 0.097410 -0.000072 -0.320798 0.946343
-0.208428 -0.281259 -0.370076 -0.048182 -0.823387 0.565431
1.087807 0.095110 -0.042786 -0.000580 0.891421 -0.451671
1.024812 0.089069 -0.054253 -0.000005 0.831956 -0.553749
1.342313 0.076667 0.070703 -0.000031 0.738020 0.673649
-0.096981 -0.498545 -0.676994 -0.048182 -0.823387 0.565431
0.971765 0.010270 0.103784 -0.000576 0.106686 0.993666
1.531652 -0.000000 0.104291 -0.000965 -0.029965 0.998909
-0.045780 -0.410945 -0.547357 0.113081 -0.801721 0.586904
0.140585 -0.067293 -0.079676 0.000042 -0.618399 -0.784895
-0.530472 -0.101285 0.135437 -0.048182 -0.823387 -0.565431
-0.610659 0.104291 -0.000000 -0.000803 0.999465 -0.014019
0.908264 0.069529 0.077733 0.000339 0.701566 0.711537
0.026883 0.315827 0.431425 0.113081 0.801721 -0.586904
1.306787 -0.008011 0.103983 0.001316 -0.049267 0.998157
-0.192307 -0.212380 0.298791 -0.020458 0.799106 0.600842
1.045670 0.060022 0.085288 -0.000030 0.537173 0.842577
-0.495107 -0.009387 0.103868 -0.001366 -0.117109 0.992251
0.780738 0.017219 0.102860 0.000100 0.163869 0.985478
-0.016481 -0.455582 -0.625875 0.048204 0.805958 -0.590006
-1.394788 -0.074280 0.073207 0.000283 -0.733727 0.678364
1.476732 0.014302 -0.103306 -0.000110 0.135600 -0.989848
-0.846314 -0.096871 0.038636 0.000042 -0.907128 0.419089
1.493893 0.166305 0.227175 -0.007257 0.814747 -0.579771
1.119707 0.094082 0.045003 0.000031 0.921965 0.385318
1.476035 -0.103925 -0.008731 -0.000069 -0.994712 -0.096704
-0.899048 0.078704 0.068428 0.000757 0.790547 0.610722
-1.196981 -0.039195 -0.096646 0.000174 -0.419958 -0.906741
-1.458769 -0.069747 0.077537 0.000056 -0.708427 0.704711
1.222436 -0.084905 -0.060563 -0.000238 -0.784425 -0.619021
-0.039873 0.043482 0.094795 0.000053 0.458140 0.888039
1.430138 0.084185 0.061559 0.000038 0.835140 0.548655
-0.681230 0.086861 0.057722 0.000160 0.803829 0.593696
-0.305131 -0.078681 0.068454 0.000112 -0.727070 0.685447
-0.176689 0.144933 -0.168852 -0.048182 0.823387 0.565431
-0.085240 -0.102571 -0.018862 0.000149 -0.977819 -0.205843
1.424755 0.081489 -0.065086 0.000068 0.749626 -0.660737
-0.231005 0.076235 0.073441 -0.048182 0.823387 -0.565431
-1.163149 -0.102798 -0.017584 0.000321 -0.976494 -0.211923
-0.055649 -0.372275 0.515277 0.048204 0.805958 0.590006
0.915068 -0.071186 -0.076218 0.000341 -0.646054 -0.762341
-0.134668 -0.358867 0.476804 -0.048182 -0.823387 -0.565431
-0.379022 0.093420 -0.111079 -0.048182 0.823387 0.565431
-1.263365 -0.101319 -0.024723 -0.000164 -0.971181 -0.235152
1.639667 0.046676 -0.093263 0.000119 0.490462 -0.870611
1.667017 0.088743 0.118949 0.015087 0.808244 -0.588655
-0.471632 0.147945 0.198370 -0.048182 0.823387 -0.565431
1.631103 -0.024107 -0.101467 -0.000020 -0.229260 -0.972591
1.383685 0.015956 -0.103063 -0.001107 0.144534 -0.988802
0.273870 -0.097681 -0.036540 -0.000028 -0.943011 -0.330551
-1.698503 -0.060376 0.083798 -0.088850 -0.535820 0.838449
-0.188838 -0.100886 0.150625 -0.020458 0.799106 0.600842
-0.225485 -0.129022 -0.186797 -0.020458 0.799106 -0.600842
-0.624907 0.063555 0.082689 0.000900 0.576461 0.816202
0.026883 -0.244881 -0.334512 0.113081 -0.801721 0.586904
-1.428407 0.079303 -0.067733 -0.000301 0.730556 -0.681671
-1.701574 -0.101573 -0.016953 -0.116397 -0.973060 -0.193691
1.355020 -0.083343 0.062695 0.000243 -0.782580 0.621321
1.544586 0.099280 0.031939 0.000014 0.934535 0.353725
1.217058 0.100619 -0.027430 0.000476 0.960950 -0.273923
0.601087 -0.091197 -0.050593 0.000538 -0.883726 -0.466266
0.005453 0.367880 0.504280 0.048204 -0.805958 0.590006
-0.098672 -0.219774 0.310473 0.048204 0.805958 0.590006
1.093445 0.036713 -0.097616 0.000209 0.355406 -0.933912
-0.119492 0.100750 0.109423 0.113081 0.801721 -0.586904
0.040563 0.033303 -0.098831 -0.000122 0.336256 -0.940958
1.061126 0.100999 0.025999 -0.000004 0.954027 0.297169
-1.053828 0.100096 0.029282 0.000508 0.965167 0.258508
-0.045614 0.046156 -0.093522 0.000072 0.460625 -0.886813
-0.125274 0.044143 0.094488 0.000060 0.379435 0.924403
-0.226054 0.076837 -0.117373 -0.020458 -0.799106 -0.600842
1.511260 -0.093983 0.131330 -0.007257 0.798857 0.601477
0.493705 0.096702 0.039055 0.000712 0.908513 0.416183
0.898161 0.064222 -0.082172 -0.000035 0.581629 -0.812648
-0.084978 0.431136 0.577810 -0.048182 0.823387 -0.565431
1.028705 -0.064799 0.081718 -0.000090 -0.663524 0.747183
-0.105833 0.293156 -0.409166 -0.020458 -0.799106 -0.600842
1.742604 -0.137005 -0.187151 0.015087 0.805361 -0.592593
1.661623 -0.041230 -0.059050 0.015087 0.805361 -0.592593
-0.772810 0.055011 -0.088603 0.000214 0.507822 -0.860540
0.363055 -0.092751 -0.047686 0.000577 -0.876080 -0.480543
-1.472250 -0.093153 -0.046896 -0.000008 -0.893512 -0.447354
-0.178712 0.203021 0.286807 -0.020458 -0.799106 0.600842
-0.177258 -0.035486 0.098068 0.000108 -0.356136 0.933647
0.423030 -0.046936 -0.093133 -0.000058 -0.460136 -0.887037
1.343344 0.087242 -0.120351 -0.007257 -0.798857 -0.601477
1.771552 -0.029556 0.084642 0.164788 -0.272119 0.946986
1.348223 0.102497 -0.019263 0.000126 0.989006 -0.143129
-0.566110 -0.008770 0.103922 -0.000777 -0.139933 0.989348
-0.770832 -0.104291 0.000000 0.000494 -0.998741 -0.030363
0.845833 -0.101363 0.024540 -0.000012 -0.964976 0.259436
-0.130736 0.432563 0.583786 -0.048182 0.823387 -0.565431
-1.793382 0.069405 0.029478 -0.478625 0.782360 0.393001
-0.170448 0.406471 -0.557672 -0.020458 -0.799106 -0.600842
1.659405 -0.178614 -0.242402 -0.007257 -0.814747 0.579771
-0.263311 0.097492 0.107148 -0.048182 0.823387 -0.565431
0.016759 0.465886 0.637236 0.048204 -0.805958 0.590006
0.934503 0.103896 -0.009071 0.000691 0.990005 -0.135582
1.624943 0.022602 0.101813 0.000559 0.207733 0.977477
0.640691 0.000000 -0.104291 0.000780 0.046988 -0.998300
-0.374411 0.281093 -0.383978 -0.020458 -0.799106 -0.600842
-0.349509 0.250847 0.344599 -0.020458 -0.799106 0.600842
-0.901568 -0.097975 0.035744 -0.000109 -0.950954 0.306886
-1.117343 -0.008693 -0.103928 0.000420 -0.138252 -0.989467
-0.310323 0.157720 -0.198859 -0.048182 0.823387 0.565431
1.124825 -0.053512 0.089516 -0.000203 -0.484547 0.873959
-0.565116 -0.071525 0.075900 -0.000015 -0.672403 0.739145
-1.351094 0.102236 -0.020603 0.000369 0.969699 -0.241016
-0.311412 -0.330659 -0.450788 -0.048182 -0.823387 0.565431
-0.207881 0.103974 -0.008129 -0.000087 0.990582 -0.131642
-1.085826 0.048839 0.092149 0.000557 0.486530 0.872696
1.582971 -0.120712 -0.161989 -0.007257 -0.814747 0.579771
-0.145417 -0.412324 0.555565 -0.048182 -0.823387 -0.565431
-1.635324 0.103517 -0.012686 -0.000013 0.993589 -0.108315
-0.127374 -0.041254 0.095785 -0.000681 -0.412666 0.910136
-0.055066 -0.187784 0.240727 0.113081 -0.801721 -0.586904
-1.040417 0.049194 0.091960 -0.000286 0.483956 0.874277
-0.781440 -0.032349 -0.099147 0.000022 -0.344126 -0.938175
0.409215 0.098445 -0.034427 -0.000562 0.939203 -0.341379
-0.154516 0.077619 -0.120849 0.025322 -0.804001 -0.593861
1.563900 0.086823 -0.057779 -0.000171 0.807532 -0.588593
-0.371119 0.188427 -0.248756 -0.048182 0.823387 0.565431
1.751565 -0.033091 -0.045698 0.015087 0.805361 -0.592593
-1.339885 -0.101375 -0.024491 0.000182 -0.958324 -0.283155
-1.547498 -0.090984 -0.050975 0.000336 -0.871809 -0.488412
1.679973 0.141666 -0.191945 0.015087 0.808244 0.588655
1.468096 0.130863 -0.179791 -0.007257 -0.798857 -0.601477
1.628174 0.087338 0.056997 -0.000709 0.813151 0.580761
-1.641361 -0.006607 -0.104082 -0.000318 -0.110461 -0.993185
-0.006476 0.486008 -0.666620 0.048204 -0.805958 -0.590006
-0.839561 0.100984 0.026057 0.000117 0.953784 0.298004
0.595487 0.086606 -0.058104 0.000333 0.839745 -0.541659
-0.276959 -0.125397 -0.180224 -0.020458 0.799106 -0.600842
0.263278 -0.092419 0.048326 0.000542 -0.865571 0.499314
-0.186802 -0.150880 0.217185 -0.020458 0.799106 0.600842
-1.337045 -0.065994 -0.080755 0.000010 -0.668725 -0.742496
1.162362 0.061254 -0.084407 0.000202 0.590428 -0.806172
1.279166 -0.103174 0.015227 -0.000431 -0.978662 0.201954
-0.287028 0.317267 0.435064 -0.020458 -0.799106 0.600842
-0.715254 0.071037 -0.076357 -0.000145 0.698459 -0.714558
-0.220846 0.087940 -0.056064 -0.000013 0.856776 -0.514207
-1.595501 -0.071697 -0.075737 0.000519 -0.649498 -0.759213
-0.364513 0.049627 0.091727 0.000110 0.476162 0.878468
-0.114509 -0.206111 -0.293102 0.004725 0.801939 -0.597106
-0.384110 0.153342 0.213742 -0.020458 -0.799106 0.600842
0.003693 0.415012 0.568808 0.048204 -0.805958 0.590006
0.073631 -0.045196 -0.093989 -0.000089 -0.481330 -0.875676
-0.398351 -0.060386 0.085031 0.000045 -0.569224 0.821256
-0.104567 -0.124578 0.144849 0.113081 -0.801721 -0.586904
-0.256892 -0.345835 -0.468242 -0.048182 -0.823387 0.565431
-1.789307 -0.035892 0.068660 -0.440918 -0.349396 0.824882
-0.630680 -0.000000 0.104291 0.001912 -0.063605 0.997086
-0.368217 -0.151025 0.194043 -0.048182 -0.823387 -0.565431
-0.076310 0.515316 0.705638 -0.020458 -0.799106 0.600842
-1.647481 -0.079337 -0.067693 -0.000095 -0.763424 -0.644777
0.014422 -0.086150 0.058778 0.000020 -0.853708 0.519338
-0.339040 -0.168227 -0.235073 -0.020458 0.799106 -0.600842
-1.771102 -0.047144 -0.071514 -0.363933 -0.457919 -0.809227
0.689178 0.092702 0.047780 0.001008 0.889433 0.455445
-0.020251 0.207536 0.274416 0.113081 0.801721 -0.586904
-1.324080 -0.092513 0.048146 0.000043 -0.874965 0.482730
-0.747728 0.092932 0.047332 0.000107 0.913687 0.404533
1.693062 -0.037834 0.095215 0.160545 -0.362284 0.917267
-0.352705 0.093704 0.045786 -0.000765 0.907268 0.419173
-0.982822 -0.063734 0.082551 0.000364 -0.587044 0.808476
-0.011832 -0.083532 0.106647 0.113081 -0.801721 -0.586904
0.296493 -0.042801 -0.095104 0.000101 -0.432519 -0.900816
0.877084 -0.088726 0.054812 0.000081 -0.833729 0.550805
0.638596 0.102645 0.018460 0.000138 0.984722 0.169266
-1.146925 -0.050695 -0.091141 -0.000066 -0.445299 -0.894530
1.553885 0.028674 -0.100272 0.000037 0.320889 -0.946316
-0.427423 -0.106087 0.133648 -0.048182 -0.823387 -0.565431
-0.407089 -0.021645 0.102021 0.000250 -0.246853 0.968230
-1.515386 -0.042351 -0.095305 -0.000153 -0.447815 -0.893350
-1.306543 0.089655 0.053279 -0.000365 0.831005 0.554872
0.761226 -0.061658 -0.084113 -0.000613 -0.637160 -0.769613
