1.473843 0.012788 -0.095867 -0.033894 0.107233 -0.990487
0.261666 0.329209 -0.393225 -0.025156 -0.754765 -0.655513
0.419164 0.135795 0.143548 0.104192 0.759428 -0.642194
0.275148 0.109729 -0.141031 -0.025156 -0.754765 -0.655513
-0.253556 -0.093650 0.021813 -0.000821 -0.963309 0.255167
1.493153 0.089959 0.116689 0.085935 -0.775695 0.625230
0.321093 -0.098631 -0.088002 -0.051260 -0.779648 0.624117
0.138151 0.302803 0.358080 -0.051260 0.779648 -0.624117
1.165280 -0.116883 -0.132941 -0.044698 -0.810302 0.584305
1.589075 0.287853 -0.342716 -0.044698 -0.710795 -0.701978
1.588908 -0.287741 0.342592 -0.044698 0.710795 0.701978
-0.632532 -0.026983 0.092293 0.000391 -0.284342 0.954554
-0.961283 -0.040747 -0.087097 -0.000595 -0.423304 -0.902097
-1.576336 -0.042582 -0.052482 -0.491799 -0.490946 -0.712980
0.137775 0.088856 -0.036754 -0.000291 0.875589 -0.475998
-1.184346 0.069889 -0.066043 0.000795 0.720409 -0.688258
-0.228285 0.087479 -0.039920 0.001453 0.875740 -0.476334
0.445559 -0.181303 -0.220652 0.051279 0.762579 -0.644859
1.290848 0.105443 0.139026 -0.044698 -0.710795 0.701978
-1.150868 -0.094551 -0.017502 -0.000285 -0.961591 -0.260955
0.838136 0.061798 -0.073670 -0.000086 0.641973 -0.762104
0.426119 0.355193 -0.427831 0.051279 -0.762579 -0.644859
-0.122128 -0.055188 -0.078743 0.000056 -0.575924 -0.813190
-1.558829 0.058752 0.047861 -0.357085 0.742245 0.557977
0.410628 -0.464661 0.554902 -0.025156 0.754765 0.655513
0.315775 -0.388803 -0.450923 -0.051260 -0.779648 0.624117
0.416784 0.528981 0.629197 -0.025156 -0.754765 0.655513
1.601043 -0.167785 0.198414 0.085935 0.775695 0.625230
1.601043 0.167785 -0.198414 0.085935 0.745402 0.661053
0.447259 0.194251 0.235828 0.051279 -0.762579 0.644859
-1.379251 -0.000000 0.096157 0.001590 0.051736 0.995472
1.319283 0.096157 -0.000000 0.003344 0.991237 -0.105454
-0.346647 -0.067892 0.068095 0.000037 -0.707438 0.701702
0.487515 0.577488 -0.676963 0.104192 0.759428 0.642194
1.545429 0.185335 0.227832 0.085935 -0.775695 0.625230
1.444105 -0.247173 0.292295 -0.044698 -0.810302 -0.584305
1.444105 0.247173 -0.292295 -0.044698 -0.710795 -0.701978
0.992902 0.091164 0.030582 0.001321 0.909978 0.405932
-0.038582 0.085014 0.100534 -0.051260 0.779648 -0.624117
0.249771 -0.440354 0.520741 -0.051260 -0.779648 -0.624117
0.609068 -0.094755 -0.016359 -0.001643 -0.990363 -0.113347
-0.969067 -0.057295 0.077223 -0.000252 -0.675882 0.732156
0.748779 -0.018575 0.094346 -0.000185 -0.214124 0.974122
0.873953 -0.095290 -0.012884 -0.000204 -0.975319 -0.210637
-0.919500 -0.096157 0.000000 0.001555 -0.996442 -0.048709
-0.663764 0.089580 0.034950 0.000901 0.928891 0.359676
0.301636 -0.356853 0.412173 -0.051260 -0.779648 -0.624117
-0.034395 -0.091273 0.030255 -0.000903 -0.909171 0.408058
0.407904 0.533965 -0.624693 -0.051260 0.779648 0.624117
0.773933 -0.094974 -0.015039 0.000036 -0.970064 -0.229905
0.126191 -0.108364 -0.116169 -0.051260 -0.779648 0.624117
-0.421764 0.068085 0.067902 0.000028 0.629200 0.772662
0.331806 0.383166 -0.442565 -0.051260 0.779648 0.624117
0.431820 0.261870 -0.294692 0.104192 0.759428 0.642194
-0.779576 0.000000 -0.096157 -0.000199 0.056100 -0.995977
-1.236064 0.086663 0.041662 -0.000840 0.896973 0.434084
0.407684 -0.505826 -0.589560 -0.051260 -0.779648 0.624117
0.058437 0.085101 0.104357 -0.025156 -0.754765 0.655513
0.370631 -0.106049 0.137618 0.051279 0.762579 0.644859
-1.259316 0.000000 -0.096157 0.000350 0.033821 -0.997313
1.547660 -0.046035 0.043890 1.000000 -0.000000 0.000000
-1.271493 -0.076594 0.058133 -0.000047 -0.792434 0.604133
0.173447 0.237213 -0.273246 -0.051260 0.779648 0.624117
0.102552 0.150420 0.181259 -0.025156 -0.754765 0.655513
0.507758 -0.575852 0.678312 0.104192 -0.759428 -0.642194
0.487212 0.577471 0.676894 0.104192 0.759428 -0.642194
-1.009418 0.094857 0.015758 0.000016 0.964829 0.249098
1.356264 0.158119 -0.175517 -0.044698 0.810302 0.584305
1.488692 -0.205529 -0.231133 -0.044698 -0.810302 0.584305
0.472330 -0.588419 -0.687426 0.000612 -0.774512 0.631463
-0.010676 -0.119402 -0.141199 -0.025156 0.754765 -0.655513
0.481248 0.448953 -0.534323 0.051279 -0.762579 -0.644859
0.279848 -0.096157 0.000000 -0.000794 -0.993587 -0.073194
1.279305 0.000000 -0.096157 -0.000144 0.059827 -0.995783
0.062017 -0.094762 0.104448 -0.051260 -0.779648 -0.624117
0.524171 0.231422 0.273669 0.104192 0.759428 -0.642194
-0.214972 0.080700 0.052285 0.000135 0.775394 0.625878
1.463564 -0.095402 -0.127508 0.085935 0.775695 -0.625230
0.439085 -0.381666 -0.458106 0.051279 0.762579 -0.644859
0.524171 -0.335628 0.396897 0.104192 -0.759428 -0.642194
0.583507 0.071675 0.064100 -0.000240 0.753476 0.652079
0.271934 0.343253 0.397622 -0.051260 0.779648 -0.624117
0.391835 -0.531558 0.623006 -0.051260 -0.779648 -0.624117
0.453019 -0.292583 -0.351653 0.051279 0.762579 -0.644859
-0.799566 0.096157 -0.000000 0.005326 0.992033 -0.096087
0.305602 0.447272 -0.530850 -0.025156 -0.754765 -0.655513
0.337677 -0.239406 0.262497 -0.051260 -0.779648 -0.624117
-0.531135 -0.015891 0.094835 -0.000100 -0.236093 0.968415
-0.836772 0.034741 0.089662 0.000855 0.356519 0.930032
0.311965 -0.196565 -0.242427 -0.025156 0.754765 -0.655513
1.149858 0.065509 -0.070390 -0.000167 0.679673 -0.728533
0.659642 0.000000 0.096157 -0.001008 0.077200 0.991494
0.425907 0.072710 -0.093797 0.051279 -0.762579 -0.644859
0.427407 -0.635982 0.750530 -0.051260 -0.779648 -0.624117
0.073802 0.143313 -0.171972 -0.025156 -0.754765 -0.655513
0.057177 0.081148 -0.087839 -0.051260 0.779648 0.624117
0.504038 -0.460198 0.540941 0.104192 -0.759428 -0.642194
0.524171 -0.218397 0.258266 0.104192 -0.759428 -0.642194
-0.334296 0.022944 0.093380 -0.001407 0.348515 0.931922
-1.339863 0.092719 0.025483 -0.000887 0.961955 0.261215
-0.418108 -0.032304 -0.090568 0.000218 -0.344869 -0.934582
0.409950 -0.272723 0.331592 0.051279 0.762579 0.644859
0.296974 -0.332538 -0.382180 -0.051260 -0.779648 0.624117
-1.476512 -0.091496 0.027427 -0.035985 -0.956541 0.275216
0.524171 0.322602 0.381494 0.104192 0.759428 -0.642194
0.267411 0.220523 0.268303 -0.025156 -0.754765 0.655513
0.170250 0.173451 -0.210375 -0.025156 -0.754765 -0.655513
0.184659 0.360116 -0.425856 -0.025156 -0.754765 -0.655513
0.164568 -0.158715 -0.193190 -0.025156 0.754765 -0.655513
1.486392 -0.109419 0.141761 0.085935 0.775695 0.625230
0.337207 0.449958 0.535155 -0.025156 -0.754765 0.655513
-1.439218 0.000000 -0.096157 -0.014942 0.059358 -0.994624
0.861707 0.028696 0.091775 -0.000871 0.389267 0.917394
-0.259369 -0.072283 -0.063414 -0.000039 -0.751210 -0.654659
1.120467 -0.070990 -0.064858 0.000605 -0.659775 -0.746965
-1.097035 0.074912 -0.060285 0.000011 0.708186 -0.700973
1.117593 0.071904 0.063843 0.000025 0.749774 0.656579
0.424738 0.402067 0.483373 0.025807 -0.760355 0.648737
-1.183053 0.035852 0.089223 0.000550 0.369594 0.924685
0.482916 -0.466787 -0.545306 0.104192 -0.759428 0.642194
-1.096418 0.044300 0.085344 -0.000834 0.459335 0.884176
-0.923223 0.043968 0.085516 0.001658 0.452224 0.887780
-1.047589 -0.050153 -0.082042 0.000304 -0.522442 -0.848263
0.331087 -0.021725 0.093671 0.000702 -0.245848 0.965634
0.138074 -0.086057 0.042900 0.000032 -0.841974 0.532981
1.362117 -0.149003 0.187671 -0.044698 0.710795 0.701978
1.363108 0.160185 0.177858 -0.044698 0.810302 -0.584305
1.043662 0.097178 -0.114918 -0.044698 -0.710795 -0.701978
-0.810819 -0.095126 0.014042 -0.000101 -0.971897 0.222533
-0.780910 -0.038307 0.088197 -0.000174 -0.406789 0.909866
0.711662 -0.065763 -0.070153 0.000285 -0.698704 -0.711266
0.931104 -0.081686 0.050731 -0.000020 -0.791369 0.605488
-0.596804 0.012742 -0.095309 -0.001366 0.218446 -0.972842
0.579035 0.033284 -0.090213 0.000050 0.438648 -0.894686
-0.375657 0.091805 -0.028602 0.000103 0.916037 -0.392429
-0.035055 0.087195 -0.040536 -0.000803 0.902059 -0.423387
1.490144 0.100666 -0.108315 0.085935 0.745402 0.661053
0.191855 -0.269563 -0.321869 -0.025156 0.754765 -0.655513
0.175361 -0.170530 0.207208 -0.025156 0.754765 0.655513
0.899511 0.000000 -0.096157 -0.000743 0.037749 -0.997066
0.440460 -0.152439 0.166686 0.104192 -0.759428 -0.642194
1.202278 -0.105704 0.114608 -0.044698 -0.810302 -0.584305
0.759587 0.096157 -0.000000 0.002800 0.987274 -0.130255
0.190323 0.089016 0.036364 -0.001059 0.880610 0.467002
0.170325 0.248408 0.287487 -0.051260 0.779648 -0.624117
1.284459 0.038180 0.088252 -0.000231 0.488313 0.868421
1.043662 -0.097178 0.114918 -0.044698 -0.810302 -0.584305
1.375096 -0.093197 0.023674 -0.000500 -0.964367 0.252459
-1.052802 -0.052966 0.080254 -0.000623 -0.560550 0.824064
0.413697 -0.093311 -0.023220 -0.001016 -0.951957 -0.290397
0.441598 -0.418445 0.481436 0.104192 -0.759428 -0.642194
1.277695 -0.086139 0.084663 -0.000000 -0.763584 -0.645708
-0.639652 -0.096157 0.000000 0.000233 -0.986596 -0.136554
1.327214 -0.159338 -0.179430 -0.044698 -0.810302 0.584305
1.547660 0.050453 -0.060465 1.000000 -0.000000 0.000000
1.633073 0.243554 -0.288016 0.085935 0.745402 0.661053
1.633073 -0.243554 0.288016 0.085935 0.775695 0.625230
-0.567585 -0.076125 -0.058746 0.000229 -0.791668 -0.605524
0.459750 0.000000 0.096157 -0.000131 0.047615 0.996983
0.054121 -0.080904 -0.087785 -0.051260 -0.779648 0.624117
0.503562 0.456247 0.541175 0.051279 -0.762579 0.644859
1.032835 -0.085465 -0.044066 -0.000060 -0.836773 -0.540713
0.312062 -0.469393 -0.551901 -0.051260 -0.779648 0.624117
0.234187 0.147116 0.155708 -0.051260 0.779648 -0.624117
-1.598052 -0.043006 0.034345 -0.568613 -0.595408 0.560939
-1.477305 0.025703 0.091936 -0.037100 0.272111 0.957329
1.382062 -0.122420 -0.127567 -0.000000 -0.763584 0.645708
1.649088 0.281439 0.332816 0.064186 -0.765724 0.638777
-1.389812 -0.088825 -0.036827 0.001257 -0.880325 -0.467033
0.618665 -0.069811 0.066125 -0.001601 -0.645527 0.759117
0.524171 0.231422 -0.273669 0.104192 0.759428 0.642194
0.524171 -0.205371 -0.242862 0.051279 0.762579 -0.644859
0.524171 0.335628 -0.396897 0.104192 0.759428 0.642194
0.524171 -0.088141 -0.104231 0.051279 0.762579 -0.644859
1.409284 -0.234130 -0.276871 -0.044698 -0.810302 0.584305
1.287410 -0.188479 0.222887 -0.044698 -0.810302 -0.584305
1.547660 0.019203 0.097669 1.000000 -0.000000 -0.000000
0.116368 -0.201829 -0.240982 -0.025156 0.754765 -0.655513
0.203262 -0.383041 -0.452966 -0.025156 0.754765 -0.655513
-0.029280 -0.096477 0.114089 -0.051260 -0.779648 -0.624117
0.407900 0.635217 0.751177 0.000000 0.645708 0.763584
0.045134 0.188177 0.222530 -0.051260 0.779648 -0.624117
-1.518922 -0.000000 -0.088945 -0.270469 0.057120 -0.956926
-0.941143 0.079706 -0.053788 -0.000014 0.826969 -0.555885
0.100944 0.256953 -0.303860 -0.025156 -0.754765 -0.655513
-0.511968 0.057685 -0.076933 0.000011 0.595910 -0.798557
0.533572 -0.078617 0.055367 0.000424 -0.754202 0.651608
1.220649 -0.082203 -0.049888 -0.000309 -0.794230 -0.601765
1.523148 0.169021 -0.210655 0.085935 -0.775695 -0.625230
1.200357 -0.155872 0.184326 -0.044698 -0.810302 -0.584305
0.259079 -0.180124 0.194898 -0.051260 -0.779648 -0.624117
1.513747 -0.273259 0.323143 -0.044698 -0.810302 -0.584305
1.513747 0.273259 -0.323143 -0.044698 -0.710795 -0.701978
-1.441887 -0.045395 0.084767 -0.012677 -0.470207 0.878702
-0.508158 0.085478 0.044042 0.000987 0.887117 0.453763
0.167773 0.037540 -0.088526 0.003039 0.448747 -0.890183
0.314272 0.065126 -0.091175 -0.025156 -0.754765 -0.655513
0.446914 0.636747 -0.749884 0.000000 0.645708 -0.763584
0.446914 -0.636747 -0.749884 0.000000 -0.645708 -0.763584
0.107841 0.085008 0.044943 -0.000340 0.881093 0.465420
1.428796 0.200524 -0.228774 -0.044698 0.810302 0.584305
-1.493240 0.092200 0.017190 -0.112631 0.950689 0.275266
0.421863 0.487241 -0.565179 -0.051260 0.779648 0.624117
0.410017 -0.557881 -0.654395 -0.051260 -0.779648 0.624117
0.202004 -0.094324 0.092404 -0.051260 -0.779648 -0.624117
0.439066 0.301737 -0.363587 0.051279 -0.762579 -0.644859
0.382352 0.163448 0.204563 0.051279 -0.762579 0.644859
0.337207 -0.449958 0.535155 -0.025156 0.754765 0.655513
-1.596915 0.043224 -0.035235 -0.564341 0.603507 -0.554056
-0.168354 -0.054081 0.079507 0.000528 -0.644791 0.759894
0.325093 0.175340 -0.183499 -0.051260 0.779648 0.624117
-0.414359 -0.090294 0.033063 -0.000248 -0.896756 0.434644
0.349092 -0.292543 -0.327938 -0.051260 -0.779648 0.624117
1.130715 0.129786 0.153478 -0.044698 0.810302 -0.584305
1.536670 0.242231 0.278361 -0.044698 0.810302 -0.584305
-0.699620 0.000000 -0.096157 -0.001089 0.120148 -0.989087
1.153564 -0.055688 0.078390 -0.000512 -0.660083 0.746599
0.324235 0.260491 0.316503 -0.025156 -0.754765 0.655513
0.342788 0.554979 -0.656292 -0.025156 -0.754765 -0.655513
1.413669 0.196280 0.238825 -0.044698 -0.710795 0.701978
0.181856 -0.261178 0.311830 -0.025156 0.754765 0.655513
0.684233 0.094642 -0.017001 -0.000721 0.963287 -0.254812
0.320549 0.091196 0.030486 0.000742 0.974741 0.209698
0.452358 -0.241654 -0.274117 0.104192 -0.759428 0.642194
1.476497 0.085350 0.045707 -0.026411 0.878181 0.470616
0.242930 -0.088157 -0.081339 -0.051260 -0.779648 0.624117
-0.291489 0.066282 -0.069662 -0.000484 0.687079 -0.721964
0.259079 -0.180124 -0.194898 -0.051260 -0.779648 0.624117
0.169050 -0.040422 -0.087248 -0.004167 -0.375315 -0.922117
1.545743 -0.222000 -0.273278 -0.001107 0.734119 -0.677905
0.772929 0.049112 0.082669 0.000120 0.516221 0.852054
0.138151 -0.302803 -0.358080 -0.025156 0.754765 -0.655513
1.531407 -0.155534 0.175547 0.085935 -0.745402 -0.661053
1.221245 -0.090734 0.031834 -0.000976 -0.902186 0.423218
1.408527 0.021139 0.093805 0.000531 0.250942 0.964322
0.274788 0.188154 0.203638 -0.051260 0.779648 -0.624117
1.424680 0.104711 0.141028 0.000000 -0.763584 0.645708
-0.899511 0.000000 -0.096157 0.001703 0.126749 -0.987949
0.440460 0.142461 -0.175124 0.051279 -0.762579 -0.644859
-0.699620 0.000000 0.096157 -0.000473 0.058127 0.995484
-0.066338 -0.039337 0.087743 0.000022 -0.498812 0.862428
1.392440 0.016714 -0.094693 -0.002750 0.252484 -0.963727
0.001627 0.030081 -0.091331 -0.000932 0.405113 -0.910378
0.286009 -0.088740 0.078528 -0.051260 -0.779648 -0.624117
0.417039 0.090226 0.033247 0.001128 0.955775 0.282446
-0.189620 -0.090845 -0.031516 0.000588 -0.946926 -0.307668
1.034075 0.042091 0.086455 0.000725 0.527302 0.845186
1.010497 0.087375 -0.040148 -0.000024 0.858916 -0.504771
0.665346 0.043306 -0.085853 -0.000996 0.448284 -0.889917
-0.442364 0.042268 -0.086369 0.000016 0.526940 -0.845709
0.925677 0.079920 0.053469 0.000026 0.833322 0.546322
-1.202988 -0.043409 -0.085801 -0.000067 -0.539879 -0.837569
1.459207 -0.079901 -0.053498 -0.012768 -0.770448 -0.632246
0.526457 0.073107 -0.062463 -0.000036 0.758485 -0.646179
0.203730 0.327225 0.383203 -0.051260 0.779648 -0.624117
-1.339001 0.044260 -0.085365 -0.001066 0.462105 -0.882699
-0.312332 -0.032629 -0.090452 -0.000931 -0.432783 -0.897588
0.191057 0.016101 0.094799 0.000552 0.251317 0.964156
1.574351 -0.104643 -0.123746 0.085935 -0.745402 0.661053
1.084571 -0.081358 0.051254 -0.000422 -0.849089 0.522032
-1.320845 -0.095059 -0.014491 -0.000132 -0.961676 -0.260028
-0.060492 0.092488 0.026307 0.000026 0.960712 0.265613
1.201932 0.130026 -0.148363 -0.044698 0.810302 0.584305
0.146221 -0.214928 0.257209 -0.025156 0.754765 0.655513
-0.266117 0.044543 0.085218 0.000949 0.457744 0.885010
0.400097 -0.043447 0.085782 0.000447 -0.363967 0.926963
-0.647421 0.058097 -0.076622 -0.000273 0.601411 -0.794494
-1.203982 -0.087055 0.040835 0.000130 -0.854590 0.512155
0.249174 -0.320514 0.382734 -0.025156 0.754765 0.655513
1.328625 -0.119690 0.124339 -0.029813 -0.795252 -0.605181
0.888992 0.095207 -0.013486 -0.000211 0.969579 -0.231125
0.116717 -0.084048 -0.046713 -0.000368 -0.869439 -0.486709
-0.731112 0.094760 0.016334 -0.000464 0.965015 0.248292
0.459381 0.409546 -0.473798 0.104192 0.759428 0.642194
1.234484 -0.127920 -0.142953 -0.044698 -0.810302 0.584305
-0.484006 -0.071621 0.064160 0.001344 -0.806626 0.585246
1.119392 0.000000 -0.096157 0.001025 0.108492 -0.989944
1.373662 0.085503 -0.043993 0.000424 0.884622 -0.458503
-0.071674 -0.086618 -0.041754 0.001053 -0.896434 -0.435045
-0.172942 0.061466 -0.073946 0.000358 0.708979 -0.700073
0.978045 0.011048 -0.095520 -0.003034 0.203560 -0.976027
1.482463 0.204450 0.251478 -0.044698 -0.710795 0.701978
0.343152 0.114778 0.106362 0.000612 0.774512 -0.631463
-1.221169 -0.038590 0.088074 -0.000454 -0.493303 0.865944
-0.646414 0.043908 0.085547 0.000062 0.542457 0.835616
0.221181 0.154657 -0.166196 -0.051260 0.779648 0.624117
1.547660 -0.015453 -0.032777 1.000000 -0.000000 0.000000
0.364104 0.256638 -0.313597 -0.025156 -0.754765 -0.655513
0.417302 0.233890 0.285085 0.051279 -0.762579 0.644859
0.302618 -0.118306 -0.151960 -0.025156 0.754765 -0.655513
1.547660 -0.099539 -0.000000 -0.030899 -0.988387 -0.119677
1.421195 0.106046 -0.108203 -0.000000 0.763584 0.645708
0.469922 -0.375522 0.435273 0.104192 -0.759428 -0.642194
0.351042 0.543980 0.643944 -0.025156 -0.754765 0.655513
0.759587 0.000000 -0.096157 -0.001187 0.075718 -0.991625
1.004653 -0.043117 0.085948 -0.000343 -0.539032 0.837944
-1.322276 -0.037939 0.088356 -0.000307 -0.390342 0.916972
0.255108 0.391159 0.464302 -0.025156 -0.754765 0.655513
0.761284 -0.076636 0.058078 -0.000163 -0.795408 0.600214
0.433647 -0.018582 -0.094344 -0.003373 -0.118152 -0.989929
0.276459 -0.391623 0.465656 -0.025156 0.754765 0.655513
0.527148 0.093308 0.023233 -0.002134 0.933155 0.345162
1.408261 -0.056090 0.083530 0.009557 0.765156 0.643622
1.520979 0.149395 0.167270 0.085935 0.745402 -0.661053
-1.321444 0.053501 0.079898 0.000268 0.637382 0.766088
1.514924 0.096778 -0.017159 -0.037303 0.990730 -0.106149
-0.180319 0.035299 0.089443 0.001181 0.459364 0.884215
1.304780 0.073114 -0.062454 -0.000036 0.760504 -0.644050
0.524171 0.166294 -0.196652 0.104192 0.759428 0.642194
0.418683 -0.136541 -0.169856 0.051279 0.762579 -0.644859
-0.785629 0.073091 -0.062480 0.000071 0.757898 -0.646914
1.157877 0.025342 0.092757 -0.000106 0.351056 0.932287
-1.083926 -0.090373 0.032846 0.001162 -0.936952 0.338837
0.216928 0.106349 -0.106200 -0.051260 0.779648 0.624117
0.430789 -0.086172 0.042668 -0.000089 -0.900646 0.426385
-1.080962 -0.088625 -0.037306 -0.000318 -0.874875 -0.477039
1.323435 -0.069835 -0.066100 0.000320 -0.647853 -0.757200
-0.004383 -0.087031 -0.040888 0.000217 -0.856701 -0.508594
0.967587 -0.094940 -0.015253 -0.002709 -0.996031 -0.051428
0.350715 -0.319736 0.385735 -0.025156 0.754765 0.655513
0.909588 -0.018044 0.094449 -0.002796 -0.293776 0.952316
0.128486 0.197080 0.226805 -0.051260 0.779648 -0.624117
-1.536955 -0.083887 0.000000 -0.305346 -0.938645 -0.124203
0.446543 -0.557631 0.651083 -0.051260 -0.779648 -0.624117
1.310023 0.112625 -0.147520 -0.044698 -0.710795 -0.701978
0.082940 -0.147642 0.168788 -0.051260 -0.779648 -0.624117
-0.592551 0.094685 0.016759 0.000089 0.963978 0.252543
0.385326 0.192887 -0.205573 0.104192 0.759428 0.642194
0.355574 0.483451 -0.565889 -0.051260 0.779648 0.624117
0.163744 0.143405 0.156858 -0.051260 0.779648 -0.624117
1.649088 -0.281439 -0.332816 0.064186 -0.757104 0.648970
0.267732 -0.251625 0.304126 -0.025156 0.754765 0.655513
0.073237 0.021794 0.093655 0.000751 0.345067 0.933253
0.882524 -0.059909 -0.075213 -0.000432 -0.538199 -0.838432
0.370631 -0.106049 -0.137618 0.051279 0.762579 -0.644859
-0.490829 0.035068 0.089534 -0.000150 0.454062 0.886783
1.547660 -0.019203 -0.097669 -0.030513 -0.116327 -0.988999
0.372341 0.488224 0.580564 -0.025156 -0.754765 0.655513
0.467275 0.495921 0.590977 0.051279 -0.762579 0.644859
1.149799 0.095289 0.012889 -0.000168 0.976283 0.204528
0.294789 -0.033466 -0.090145 0.000868 -0.444515 -0.892372
0.390744 0.289278 0.320438 -0.004586 0.775156 -0.630832
0.317793 0.051089 0.081462 0.001365 0.628006 0.773847
0.223494 -0.091182 0.030529 -0.001345 -0.945995 0.310001
0.450946 -0.597754 0.700843 -0.051260 -0.779648 -0.624117
-1.613145 0.025430 0.036553 -0.615467 0.519703 0.585058
1.559140 -0.190931 -0.219067 0.085935 -0.745402 0.661053
0.225018 0.288974 -0.345491 -0.025156 -0.754765 -0.655513
1.432213 -0.130658 0.171712 -0.000000 0.763584 0.645708
1.493786 -0.069015 0.068841 -0.038030 -0.706287 0.702343
0.310177 0.283875 -0.342889 -0.025156 -0.754765 -0.655513
0.254989 -0.360676 -0.420779 -0.051260 -0.779648 0.624117
1.239688 0.086377 0.084944 -0.029813 0.795252 -0.605181
0.008088 0.044968 0.084995 0.000156 0.456741 0.885396
1.508333 -0.189015 0.237496 -0.001107 0.734119 0.677905
1.390216 0.094738 0.016458 0.000313 0.965401 0.247459
0.293551 0.298254 0.358806 -0.025156 -0.754765 0.655513
0.372085 0.352741 0.424557 -0.025156 -0.754765 0.655513
1.521951 0.129391 -0.161651 0.085935 -0.775695 -0.625230
1.606381 0.180413 0.213348 0.085935 -0.775695 0.625230
0.333486 -0.543517 0.642737 -0.051260 -0.779648 -0.624117
-1.288200 -0.053313 -0.080024 0.000056 -0.544028 -0.834693
-1.083340 0.016686 -0.094698 0.000340 0.253441 -0.963715
0.035832 0.176715 -0.208975 -0.025156 -0.754765 -0.655513
0.370347 -0.214492 -0.228691 0.000612 -0.774512 0.631463
0.571815 -0.059290 -0.075703 -0.000283 -0.570057 -0.817232
0.265349 -0.227019 -0.275703 -0.025156 0.754765 -0.655513
1.563675 0.079387 0.093879 0.085935 -0.775695 0.625230
0.378324 -0.389896 -0.447151 -0.051260 -0.779648 0.624117
0.054435 -0.199640 -0.236085 -0.025156 0.754765 -0.655513
0.381219 -0.055554 -0.078485 0.000504 -0.611190 -0.787808
0.214554 -0.138408 0.171726 -0.025156 0.754765 0.655513
0.166168 -0.233164 -0.278972 -0.025156 0.754765 -0.655513
1.482675 -0.154186 -0.167692 0.085935 -0.745402 0.661053
0.468907 -0.309394 0.356908 0.104192 -0.759428 -0.642194
0.316090 -0.427256 -0.498933 -0.051260 -0.779648 0.624117
0.478365 -0.057614 -0.076985 0.000187 -0.558473 -0.825667
1.306056 0.178583 -0.214053 -0.044698 -0.710795 -0.701978
-1.399240 0.096157 -0.000000 -0.000364 0.991417 -0.075132
0.480015 0.129443 0.145909 0.104192 0.759428 -0.642194
0.457863 0.607633 0.721334 -0.025156 -0.754765 0.655513
0.464731 0.310916 0.372401 0.051279 -0.762579 0.644859
-0.414872 -0.080281 -0.052925 0.000024 -0.833907 -0.544816
0.457617 -0.432975 -0.501218 0.104192 -0.759428 0.642194
0.346782 -0.094975 -0.015031 -0.000567 -0.974771 -0.209461
0.426870 0.573222 -0.680524 -0.025156 -0.754765 -0.655513
1.233990 0.122370 0.152546 -0.044698 -0.710795 0.701978
1.654426 -0.294067 0.347750 0.064186 0.765724 0.638777
1.654426 0.294067 -0.347750 0.064186 0.757104 0.648970
1.617058 -0.205669 0.243215 0.085935 0.775695 0.625230
1.617058 0.205669 -0.243215 0.085935 0.745402 0.661053
1.633073 -0.243554 -0.288016 0.085935 -0.745402 0.661053
-0.046156 0.017622 0.094529 -0.000340 0.268596 0.959867
0.433282 0.096506 0.099377 0.104192 0.759428 -0.642194
1.085504 -0.094923 -0.015356 -0.000785 -0.967267 -0.240541
0.254926 0.056092 -0.078496 -0.000000 -0.645708 0.763584
0.524171 -0.101166 0.119634 0.104192 -0.759428 -0.642194
0.669269 -0.093136 -0.023912 0.002127 -0.966018 -0.247179
0.426870 0.573222 0.680524 -0.025156 -0.754765 0.655513
0.524171 0.270499 0.319880 0.104192 0.759428 -0.642194
0.524171 -0.374704 -0.443108 0.051279 0.762579 -0.644859
0.524171 0.361679 0.427704 0.104192 0.759428 -0.642194
0.524171 -0.296551 -0.350687 0.051279 0.762579 -0.644859
0.524171 0.192346 0.227459 0.104192 0.759428 -0.642194
1.008841 -0.084135 -0.099494 -0.044698 -0.810302 0.584305
1.182947 0.149350 0.176614 -0.044698 0.810302 -0.584305
1.287410 0.188479 0.222887 -0.044698 0.810302 -0.584305
1.287410 -0.188479 -0.222887 -0.044698 -0.810302 0.584305
1.600799 0.305866 0.361703 -0.022902 0.800370 -0.597805
0.355989 -0.495062 0.580359 -0.051260 -0.779648 -0.624117
-0.530523 0.094645 -0.016983 -0.000553 0.951239 -0.294358
-0.139924 0.000000 -0.096157 0.000648 0.077163 -0.994151
-0.038582 0.085014 -0.100534 -0.025156 -0.754765 -0.655513
0.342788 -0.554979 -0.656292 -0.025156 0.754765 -0.655513
0.110246 0.268415 0.317415 -0.051260 0.779648 -0.624117
0.277676 0.474741 0.561406 -0.051260 0.779648 -0.624117
0.128849 -0.291340 0.344525 -0.051260 -0.779648 -0.624117
1.202068 0.040957 -0.086998 0.000080 0.515214 -0.852783
1.415078 -0.207824 0.239947 -0.044698 -0.810302 -0.584305
1.496336 0.266737 0.315431 -0.044698 0.810302 -0.584305
-0.959074 0.024333 -0.093027 -0.000067 0.347661 -0.933505
0.442789 -0.339888 -0.408407 0.051279 0.762579 -0.644859
-0.839544 0.000000 -0.096157 -0.000349 0.053425 -0.996310
0.785806 0.081034 -0.051765 -0.000059 0.840128 -0.535715
-1.061482 0.085605 0.043794 0.000015 0.835654 0.542740
-0.296042 -0.041869 0.086563 -0.000561 -0.439228 0.894399
-1.044763 0.089504 -0.035146 0.000939 0.885322 -0.457239
0.297405 0.225303 -0.248188 -0.051260 0.779648 0.624117
-1.476512 0.045034 -0.084236 -0.035952 0.467950 -0.878918
1.184358 0.074302 0.061036 0.000466 0.822636 0.563041
0.631298 0.090104 0.033576 0.000718 0.897143 0.433415
-1.237262 0.093509 -0.022412 -0.000237 0.966436 -0.244781
-0.957784 0.085483 0.044032 0.000051 0.833956 0.545359
1.316965 0.088130 0.087017 -0.000000 0.763584 -0.645708
0.396147 -0.371762 0.447381 -0.025156 0.754765 0.655513
1.091416 0.078137 -0.084859 -0.044698 0.810302 0.584305
1.252703 0.088354 -0.037944 -0.000216 0.917032 -0.390220
-0.467365 -0.061561 -0.073867 0.000798 -0.643265 -0.761251
1.063840 0.086190 0.042632 0.001484 0.895766 0.436040
0.812350 -0.090987 0.031105 -0.000610 -0.947035 0.307426
0.017896 -0.078492 0.055544 -0.000240 -0.818502 0.568187
-0.909037 -0.077866 -0.056418 0.000225 -0.806680 -0.585083
0.261725 0.030949 0.091040 -0.000885 0.285366 0.954610
-0.704199 -0.093999 -0.020255 0.001368 -0.942105 -0.321185
1.070839 -0.045471 -0.084726 0.000279 -0.564738 -0.821180
1.346412 0.126353 0.132218 -0.029813 0.795252 -0.605181
0.319672 -0.125203 0.160556 -0.025156 0.754765 0.655513
0.320741 -0.247476 -0.273970 -0.051260 -0.779648 0.624117
-1.186341 0.018174 -0.094424 -0.001097 0.275402 -0.957800
-1.459207 0.088907 -0.036629 -0.035964 0.956453 -0.275464
-0.836718 0.080488 0.052611 -0.000045 0.834425 0.544306
0.337254 0.335567 -0.403446 -0.025156 -0.754765 -0.655513
0.175357 -0.348653 0.412301 -0.051260 -0.779648 -0.624117
0.377253 -0.158400 0.163480 0.104192 -0.759428 -0.642194
-0.854566 0.092199 -0.027306 -0.000175 0.955246 -0.282396
0.485715 -0.184857 0.212363 0.104192 -0.759428 -0.642194
0.141911 -0.082882 0.105005 -0.025156 0.754765 0.655513
0.388301 -0.189226 0.234574 0.051279 0.762579 0.644859
1.265358 -0.056090 -0.083530 -0.000000 0.763584 -0.645708
0.182708 -0.096514 -0.096725 -0.051260 -0.779648 0.624117
0.294858 -0.202182 0.248238 -0.025156 0.754765 0.655513
-0.914697 -0.075109 0.060039 -0.000026 -0.784860 0.613912
0.060894 0.127089 0.144924 -0.051260 0.779648 -0.624117
1.482463 0.204450 -0.251478 -0.044698 -0.710795 -0.701978
1.111875 -0.084968 0.106898 -0.044698 0.710795 0.701978
-0.290619 0.094734 -0.016482 -0.000933 0.952585 -0.290094
-0.112378 0.067970 0.068017 -0.000287 0.774167 0.627493
0.412203 0.208073 -0.254961 0.051279 -0.762579 -0.644859
0.035832 -0.176715 0.208975 -0.051260 -0.779648 -0.624117
1.425593 -0.202105 -0.231212 -0.044698 -0.810302 0.584305
1.392039 -0.089959 -0.033964 0.000572 -0.935851 -0.338680
0.413879 -0.098395 0.098463 0.104192 -0.759428 -0.642194
-0.857606 -0.091007 -0.031045 -0.001093 -0.906136 -0.414682
-0.959479 -0.000000 0.096157 0.000245 0.151546 0.983864
0.476158 -0.117143 -0.130738 0.104192 -0.759428 0.642194
0.216928 0.106349 0.106200 -0.051260 0.779648 -0.624117
1.441887 0.061084 -0.074263 -0.012895 0.633354 -0.769539
0.371197 0.056092 -0.078496 -0.000000 -0.645708 0.763584
-0.514352 -0.095271 0.013023 0.000013 -0.973488 0.215714
0.481485 0.087542 -0.096598 0.104192 0.759428 0.642194
-1.424567 -0.053295 -0.080036 0.000108 -0.549884 -0.831243
0.256866 0.368664 -0.438470 -0.025156 -0.754765 -0.655513
1.357812 -0.083581 0.081638 -0.000000 -0.763584 -0.645708
0.073039 -0.222565 0.263195 -0.051260 -0.779648 -0.624117
0.141242 0.044451 0.085266 0.000528 0.547762 0.832536
0.298350 0.419501 0.490702 -0.051260 0.779648 -0.624117
1.335436 -0.012030 -0.095401 0.000432 -0.209077 -0.975506
0.325772 0.122242 -0.117113 -0.051260 0.779648 0.624117
0.524171 0.544038 -0.643353 0.104192 0.759428 0.642194
0.236200 0.214967 -0.260708 -0.025156 -0.754765 -0.655513
0.524171 -0.557063 -0.658756 0.051279 0.762579 -0.644859
0.071493 -0.116691 -0.131064 -0.051260 -0.779648 0.624117
0.225509 -0.291747 0.337095 -0.051260 -0.779648 -0.624117
0.331508 0.419493 -0.487969 -0.051260 0.779648 0.624117
1.182947 -0.149350 -0.176614 -0.044698 -0.810302 0.584305
-0.191445 -0.056936 -0.077489 0.000194 -0.670551 -0.737204
-0.862723 -0.088826 0.036825 0.000223 -0.877235 0.472738
1.353691 0.036050 0.089144 -0.000063 0.371266 0.924110
1.618210 -0.312388 -0.369415 -0.022902 -0.800370 0.597805
-0.070953 -0.012918 -0.095285 0.000789 -0.211564 -0.974518
0.640126 0.051415 0.081257 -0.003562 0.574178 0.815078
0.471398 -0.247659 0.297066 0.051279 0.762579 0.644859
0.422834 -0.470468 -0.544146 -0.051260 -0.779648 0.624117
-0.646994 0.091168 -0.030572 0.000275 0.947425 -0.309773
0.475605 0.420076 0.500624 0.051279 -0.762579 0.644859
0.524171 0.426807 -0.504721 0.104192 0.759428 0.642194
-1.186601 0.095153 0.013855 0.000183 0.972097 0.221821
0.253892 -0.300769 -0.360180 -0.025156 0.754765 -0.655513
-0.978053 -0.088579 -0.037417 -0.000501 -0.917096 -0.389958
1.476497 0.045491 0.085465 -0.025914 0.467600 0.879803
0.699620 0.000000 -0.096157 -0.001023 0.059392 -0.995115
0.109079 0.096203 -0.102383 -0.051260 0.779648 0.624117
-0.965486 -0.090885 0.031401 0.001363 -0.908586 0.409908
0.991431 0.077614 -0.091782 -0.044698 -0.710795 -0.701978
0.007082 0.085552 0.043899 0.000315 0.887760 0.452353
-0.646415 -0.080169 0.053095 -0.000326 -0.770006 0.633223
1.165807 0.096552 -0.122062 -0.044698 -0.710795 -0.701978
1.308035 0.153292 0.172512 -0.044698 0.810302 -0.584305
0.991431 0.077614 0.091782 -0.044698 0.810302 -0.584305
-0.236015 -0.067927 0.068060 -0.000584 -0.775309 0.626131
-0.122979 0.083055 -0.048457 0.000966 0.853632 -0.513284
-1.059424 -0.000000 0.096157 0.001038 0.074991 0.994714
0.339753 -0.102314 0.091071 0.052430 -0.767772 -0.637488
0.442160 0.155408 0.190300 0.051279 -0.762579 0.644859
0.071150 -0.043085 0.085964 -0.000035 -0.447566 0.890112
-1.356147 0.089747 -0.034521 0.000934 0.930736 -0.354944
-1.619908 -0.008014 -0.038448 -0.642196 -0.106387 -0.755187
0.698186 -0.047327 0.083704 0.000570 -0.491277 0.866941
0.376803 0.423728 0.506474 -0.025156 -0.754765 0.655513
0.524171 -0.491935 0.581739 0.104192 -0.759428 -0.642194
0.475243 0.382049 0.455683 0.051279 -0.762579 0.644859
0.404342 0.339135 0.381603 0.000612 0.774512 -0.631463
0.398976 0.396195 -0.453323 -0.051260 0.779648 0.624117
-0.879522 0.000000 0.096157 -0.003570 0.130563 0.986883
0.524171 -0.596140 -0.704967 0.051279 0.762579 -0.644859
0.364104 -0.271792 0.300783 -0.051260 -0.779648 -0.624117
1.583152 0.262407 0.302784 -0.001107 0.790439 -0.611305
1.520169 -0.114196 -0.127474 0.085935 -0.745402 0.661053
0.326188 0.170636 0.213118 -0.025156 -0.754765 0.655513
-1.575664 0.000000 0.067929 -0.482831 0.065064 0.867533
1.215545 -0.085263 -0.113798 -0.044698 0.710795 -0.701978
0.206978 0.326386 -0.387875 -0.025156 -0.754765 -0.655513
0.503228 -0.033179 0.090251 -0.000307 -0.436339 0.895958
0.397543 -0.299112 -0.363785 0.000329 0.757750 -0.652288
1.595705 -0.155156 -0.183480 0.085935 -0.745402 0.661053
0.249771 0.440354 -0.520741 -0.025156 -0.754765 -0.655513
-1.019446 0.000000 -0.096157 -0.002849 0.128620 -0.987454
0.419781 0.089937 -0.034022 0.000181 0.909961 -0.405995
0.483968 0.366961 -0.427428 0.104192 0.759428 0.642194
-0.367022 -0.021125 0.093808 -0.000580 -0.343630 0.933526
0.048122 -0.017873 -0.094481 0.000149 -0.200689 -0.977009
0.365593 -0.477827 -0.568334 -0.025156 0.754765 -0.655513
0.290107 0.098715 0.128923 -0.025156 -0.754765 0.655513
-1.150761 -0.066860 -0.069108 0.000048 -0.697524 -0.711633
-0.405783 0.022717 0.093435 0.000397 0.254598 0.963451
-0.405703 0.093464 0.022597 0.000385 0.964014 0.252609
0.476182 0.087139 0.040657 -0.000471 0.907812 0.410959
1.433957 0.085544 0.083959 0.028673 0.758024 -0.651257
0.799566 0.000000 0.096157 -0.004300 0.053831 0.995600
1.493786 -0.037133 -0.090130 -0.036742 -0.379903 -0.920935
0.535346 0.043970 0.085515 0.000133 0.549761 0.831114
-0.325215 -0.092785 0.025241 -0.003112 -0.958111 0.273191
0.003405 0.107820 0.125575 -0.051260 0.779648 -0.624117
1.113304 -0.123264 -0.145766 -0.044698 -0.810302 0.584305
0.117936 0.173037 -0.197636 -0.051260 0.779648 0.624117
0.336424 -0.349950 -0.419975 -0.025156 0.754765 -0.655513
-0.176967 0.092907 -0.024790 0.000047 0.930835 -0.354890
0.151152 0.269895 -0.320689 -0.025156 -0.754765 -0.655513
1.269635 0.087272 0.040370 0.000063 0.903735 0.419526
-0.188313 -0.093450 0.022656 -0.000024 -0.965897 0.245892
0.524171 -0.491935 -0.581739 0.051279 0.762579 -0.644859
0.359975 0.514655 -0.610522 -0.025156 -0.754765 -0.655513
0.440433 0.106566 -0.132679 0.051279 -0.762579 -0.644859
0.482684 -0.091206 0.030458 -0.001045 -0.907278 0.412333
0.705182 0.027865 0.092031 0.000409 0.380884 0.921471
0.404342 0.339135 -0.381603 0.052430 0.767772 0.637488
0.140914 0.204300 -0.244769 -0.025156 -0.754765 -0.655513
1.578726 0.214447 0.259374 0.085935 -0.775695 0.625230
1.541735 -0.075123 0.091605 0.085935 0.775695 0.625230
-1.424930 0.035783 0.089251 -0.000082 0.462641 0.882540
0.430164 -0.509903 0.592806 -0.051260 -0.779648 -0.624117
0.567403 -0.094586 0.017312 0.000542 -0.950962 0.295988
0.812657 -0.082515 -0.049370 -0.000191 -0.860540 -0.502307
0.186656 0.290548 0.338788 -0.051260 0.779648 -0.624117
0.524171 0.478909 -0.566335 0.104192 0.759428 0.642194
0.174663 -0.046619 0.084100 0.000222 -0.484479 0.870638
0.394091 -0.426129 0.509901 -0.025156 0.754765 0.655513
0.255108 -0.391159 -0.464302 -0.025156 0.754765 -0.655513
-1.235764 0.046116 -0.084377 -0.000099 0.473541 -0.876784
1.133823 0.097908 0.109033 -0.044698 0.810302 -0.584305
-1.136264 -0.087062 0.040821 -0.000434 -0.854119 0.512953
0.462132 -0.543631 -0.647806 0.000329 0.757750 -0.652288
0.204880 0.078775 -0.055142 0.001255 0.816301 -0.571913
-0.806466 -0.077250 -0.057259 -0.000171 -0.734729 -0.673205
1.559270 -0.191938 0.220219 0.085935 -0.745402 -0.661053
-0.369802 0.074788 0.060440 -0.000035 0.774407 0.627037
0.890210 0.054600 -0.079152 0.000019 0.566775 -0.819553
0.017050 0.083237 -0.048143 -0.000032 0.860984 -0.501609
1.531418 -0.265121 -0.310505 -0.044698 -0.810302 0.584305
-0.698346 0.052561 0.080520 0.000006 0.543940 0.834879
0.481886 -0.124176 0.150207 0.051279 0.762579 0.644859
1.169642 -0.080173 -0.081699 -0.044698 -0.810302 0.584305
-0.363945 -0.042729 -0.086142 -0.000006 -0.444967 -0.891572
1.087007 0.036892 0.088798 -0.000930 0.394367 0.915192
0.085774 0.091847 -0.028465 -0.000400 0.917018 -0.389989
-1.525220 -0.049522 -0.071942 -0.223526 -0.540491 -0.806467
0.180943 -0.123649 -0.153443 -0.025156 0.754765 -0.655513
1.184510 0.088372 -0.037902 0.000407 0.871382 -0.483022
0.370244 0.124774 0.159791 0.051279 -0.762579 0.644859
0.764184 -0.062819 -0.072801 0.000857 -0.652934 -0.752767
-0.583501 -0.057592 0.077002 0.000388 -0.504966 0.858691
-1.151063 0.090987 -0.031106 -0.000252 0.944414 -0.314791
0.837436 0.093123 -0.023964 -0.000643 0.965027 -0.250278
1.539379 0.110595 0.135937 0.085935 -0.775695 0.625230
-0.785785 0.022412 0.093509 0.001281 0.345183 0.933207
-1.389534 0.017093 -0.094626 -0.000149 0.256464 -0.962734
-1.288536 0.095065 0.014447 -0.000221 0.968036 0.236935
-1.132165 0.044745 -0.085112 -0.000149 0.461382 -0.882968
-0.293243 -0.091880 -0.028360 -0.000091 -0.916643 -0.391017
-1.006853 -0.022548 0.093476 0.000448 -0.348233 0.932291
-1.148157 0.068511 0.067472 -0.000384 0.712440 0.696184
-0.704071 -0.062977 -0.072664 0.000234 -0.728188 -0.680278
1.399774 0.129379 -0.170198 -0.029813 -0.728880 -0.683668
0.217201 0.235491 0.267501 -0.051260 0.779648 -0.624117
1.323504 -0.090526 0.032422 -0.001077 -0.897827 0.432268
-0.224060 0.052225 -0.080739 0.000729 0.528949 -0.844684
-0.266407 0.085647 0.043712 0.000949 0.888128 0.451855
0.482811 0.539425 0.641187 0.051279 -0.762579 0.644859
0.786162 0.084308 0.046242 -0.000033 0.878143 0.470878
-0.906912 0.051265 -0.081351 0.000009 0.531691 -0.842727
0.939490 0.096157 -0.000000 0.001963 0.996187 -0.046769
1.288540 -0.016780 0.094682 -0.000809 -0.290804 0.952421
-0.085293 -0.086880 0.041207 -0.000014 -0.904799 0.417641
1.232346 0.030517 0.091186 0.000134 0.408746 0.908728
0.504943 -0.175576 -0.204508 0.104192 -0.759428 0.642194
-1.269628 0.062210 0.073321 0.000509 0.641685 0.762318
-0.813436 -0.071442 0.064360 -0.000203 -0.743345 0.663902
-1.323205 -0.081950 0.050303 -0.000079 -0.790299 0.606953
-1.372931 0.060292 0.074907 0.000638 0.627270 0.774294
-0.456262 0.089619 0.034850 -0.001085 0.933099 0.345471
-0.992978 0.085116 -0.044737 -0.000025 0.830658 -0.550013
-0.426156 0.079647 -0.053874 -0.000168 0.823490 -0.561026
-1.201905 -0.085054 -0.044855 -0.001196 -0.882583 -0.462336
0.912568 0.041904 0.086546 0.000313 0.526582 0.845726
0.823849 0.060818 0.074480 -0.000079 0.637837 0.765555
0.952859 -0.047633 0.083530 0.000535 -0.583801 0.807562
0.487893 0.258062 -0.308057 0.051279 -0.762579 -0.644859
-0.398860 -0.061782 0.073682 0.000522 -0.643994 0.760140
0.317525 0.360615 0.415567 -0.051260 0.779648 -0.624117
-0.138462 -0.087423 -0.040042 -0.000350 -0.905463 -0.415944
0.722035 -0.092367 -0.026730 0.002234 -0.954058 -0.286684
-0.291423 0.014700 -0.095027 0.000458 0.249678 -0.965012
0.289609 -0.082025 -0.050180 -0.001458 -0.885142 -0.457771
1.547660 0.000000 0.019908 1.000000 0.000000 -0.000000
-1.016819 -0.079574 0.053982 0.000213 -0.834547 0.544095
0.874814 0.071043 0.064800 -0.000014 0.743348 0.663607
0.560748 0.092212 -0.027261 0.000087 0.957633 -0.275803
0.467275 -0.495921 -0.590977 0.051279 0.762579 -0.644859
0.559665 -0.090059 -0.033697 -0.000157 -0.952933 -0.291303
-0.759587 -0.096157 0.000000 -0.000287 -0.989306 -0.111799
1.441887 -0.027724 -0.092074 -0.015639 -0.280500 -0.956115
-1.564591 0.016676 -0.071334 -0.447360 0.136295 -0.878050
0.371835 -0.526395 -0.624495 -0.025156 0.754765 -0.655513
-1.099435 -0.059343 -0.075661 -0.000045 -0.531714 -0.842751
1.340949 -0.093242 -0.023496 0.000626 -0.935937 -0.341446
0.620797 -0.073365 -0.062158 -0.000011 -0.799979 -0.594078
0.805495 0.023423 -0.093261 0.000194 0.262284 -0.961237
0.458732 0.530762 -0.632857 0.002150 -0.757933 -0.652031
-0.163387 0.074579 0.060697 -0.000159 0.774102 0.627533
-0.118020 -0.062781 0.072833 0.000296 -0.653947 0.751983
0.100625 -0.049564 -0.082399 -0.000190 -0.597979 -0.797090
0.086580 -0.079893 0.053510 -0.000048 -0.832011 0.548371
-1.391468 -0.054194 0.079430 -0.000170 -0.644171 0.760397
-1.555554 0.077137 -0.000000 -0.418528 0.899458 -0.063433
0.103224 0.110711 0.120988 -0.051260 0.779648 -0.624117
-1.426244 -0.081189 0.051522 0.000282 -0.779045 0.621567
-0.038582 -0.085014 -0.100534 -0.025156 0.754765 -0.655513
-1.339785 -0.074420 -0.060891 0.000080 -0.831471 -0.549187
-0.617938 -0.081927 -0.050340 -0.000009 -0.847986 -0.523383
0.214072 0.251811 -0.302281 -0.025156 -0.754765 -0.655513
0.880340 -0.084859 0.045223 0.001100 -0.883032 0.461510
-0.751306 0.041574 -0.086705 -0.000065 0.519930 -0.849824
0.065012 0.110448 -0.133794 -0.025156 -0.754765 -0.655513
0.479129 0.607979 -0.722548 0.000329 -0.757750 -0.652288
-0.579685 0.000000 0.096157 -0.001601 0.064588 0.994985
0.057206 0.080609 0.052425 -0.000171 0.774371 0.627149
0.914691 -0.085589 -0.043826 -0.000030 -0.835671 -0.542491
0.466701 0.246539 0.282221 0.104192 0.759428 -0.642194
-1.119392 -0.000000 0.096157 -0.000889 0.131708 0.986103
-1.441887 -0.092003 -0.027957 -0.012980 -0.956230 -0.279100
0.311490 0.202916 0.249721 -0.025156 -0.754765 0.655513
-1.510749 0.057426 0.070308 -0.181150 0.540798 0.816952
1.039111 0.061744 -0.078749 -0.000000 -0.645708 0.763584
-0.567497 -0.029040 -0.091667 -0.000100 -0.396320 -0.914383
1.021232 -0.035829 -0.089233 -0.001395 -0.381275 -0.921054
1.493786 0.069015 -0.068841 -0.037990 0.706244 -0.702389
-0.682151 -0.053397 0.079968 -0.000434 -0.641627 0.762844
-0.517714 -0.081256 -0.051416 0.000160 -0.849892 -0.520645
0.215912 0.056841 0.077862 -0.025156 -0.754765 0.655513
0.303849 -0.151471 -0.190194 -0.025156 0.754765 -0.655513
0.255469 0.093898 0.020720 0.000939 0.972444 0.220043
1.203402 -0.062951 0.072686 -0.000219 -0.656664 0.749567
1.458481 -0.098100 0.101305 0.085935 -0.745402 -0.661053
-0.563617 0.048618 -0.082960 0.000357 0.501817 -0.860948
-0.342262 0.073502 -0.061996 0.000485 0.689323 -0.719668
0.104703 0.050421 -0.081877 0.000100 0.518204 -0.850909
-0.919047 -0.030778 0.091098 -0.001397 -0.303166 0.948888
-1.253396 -0.095069 0.014426 -0.000566 -0.968154 0.238540
0.017229 -0.153790 -0.181864 -0.025156 0.754765 -0.655513
0.282943 0.147973 -0.185364 -0.025156 -0.754765 -0.655513
1.461900 -0.229421 -0.266316 -0.044698 -0.810302 0.584305
0.125815 -0.165587 0.187683 -0.051260 -0.779648 -0.624117
0.368973 0.084282 0.046289 -0.000584 0.920888 0.381669
1.463404 -0.217194 0.249245 -0.044698 -0.810302 -0.584305
1.570746 0.140374 -0.163568 0.085935 0.745402 0.661053
0.524171 -0.544038 0.643353 0.104192 -0.759428 -0.642194
0.524171 0.596140 0.704967 0.104192 0.759428 -0.642194
1.502108 0.183181 0.202914 0.085935 0.745402 -0.661053
0.372742 0.102567 -0.096723 0.104192 0.759428 0.642194
-0.050494 0.038106 -0.088284 0.000074 0.487029 -0.869121
1.418196 -0.093698 -0.093601 0.000000 -0.763584 0.645708
0.320719 0.259661 -0.289192 -0.051260 0.779648 0.624117
-0.761284 -0.076636 0.058078 0.000163 -0.795408 0.600214
1.331675 -0.130464 -0.139047 -0.044698 -0.810302 0.584305
0.412203 -0.208073 -0.254961 0.051279 0.762579 -0.644859
0.524171 0.596140 -0.704967 0.104192 0.759428 0.642194
0.123515 -0.148808 -0.166911 -0.051260 -0.779648 0.624117
-0.533172 -0.066387 0.069563 -0.000039 -0.684493 0.724291
0.277676 0.474741 -0.561406 -0.025156 -0.754765 -0.655513
-1.319283 0.000000 -0.096157 0.003335 0.136764 -0.985624
1.472225 0.124059 0.161872 0.085935 -0.775695 0.625230
1.558834 -0.262915 0.305349 -0.044698 -0.810302 -0.584305
1.558834 0.262915 -0.305349 -0.044698 0.810302 0.584305
-0.585755 -0.094982 -0.014987 0.000351 -0.968547 -0.235580
-0.832275 -0.014907 0.094994 -0.000789 -0.232884 0.969329
-0.730996 -0.046292 0.084281 0.000078 -0.487590 0.869102
0.378177 -0.308895 0.345976 -0.051260 -0.779648 -0.624117
0.474136 -0.271028 -0.312387 0.104192 -0.759428 0.642194
-0.772485 -0.047386 -0.083670 -0.000256 -0.579049 -0.811019
-1.520824 -0.073640 0.049045 -0.272101 -0.844168 0.453430
0.145140 0.095435 0.011757 0.002679 0.978308 0.196049
0.169035 0.216378 0.247581 -0.051260 0.779648 -0.624117
0.797581 -0.047774 0.083449 -0.000261 -0.504355 0.859563
1.052802 -0.052966 0.080254 0.000623 -0.560550 0.824064
0.458111 -0.452481 0.524365 0.104192 -0.759428 -0.642194
1.352260 -0.084473 -0.117095 0.000000 0.763584 -0.645708
-1.029963 -0.084111 -0.046599 0.000441 -0.817205 -0.570208
0.607001 0.014649 0.095035 0.000361 0.226539 0.970683
0.448034 0.028775 -0.091750 -0.000353 0.359417 -0.929592
0.328810 0.129558 -0.165921 -0.025156 -0.754765 -0.655513
0.546821 -0.013914 -0.095145 0.000199 -0.089624 -0.992551
0.328908 -0.375139 0.448689 -0.025156 0.754765 0.655513
0.379794 0.000000 0.096157 -0.000534 0.115200 0.989687
1.253517 0.050126 -0.082058 -0.000071 0.605355 -0.791501
0.463663 -0.088388 -0.037865 -0.000139 -0.864106 -0.496028
0.298221 0.090460 -0.032605 0.002100 0.970990 -0.222571
1.274299 -0.153242 -0.175024 -0.044698 -0.810302 0.584305
-0.939490 0.096157 -0.000000 0.002726 0.985803 -0.135736
1.493108 -0.096033 -0.016576 -0.037880 -0.976727 -0.199047
-1.526276 0.013877 0.085940 -0.296583 0.235444 0.920278
0.434936 0.451313 -0.519223 0.052430 0.767772 0.637488
-0.750909 0.091946 -0.028145 -0.000177 0.917922 -0.387990
1.391873 0.227608 0.269159 -0.044698 0.810302 -0.584305
0.408078 -0.408276 -0.489882 -0.025156 0.754765 -0.655513
1.291820 0.077753 -0.109149 -0.000000 -0.763584 -0.645708
0.266802 0.261101 0.295420 -0.051260 0.779648 -0.624117
-1.169331 -0.013344 0.095227 0.000121 -0.214818 0.973645
-1.079414 0.096157 -0.000000 -0.000061 0.995761 -0.053410
0.298974 -0.434690 0.509625 -0.051260 -0.779648 -0.624117
0.853586 0.017860 -0.094484 0.000255 0.275805 -0.957585
0.400623 -0.240762 0.294538 0.051279 0.762579 0.644859
0.187080 0.095221 -0.013381 -0.000365 0.973436 -0.217585
0.644246 -0.094589 0.017292 0.001914 -0.958126 0.273234
-0.379794 -0.096157 0.000000 0.001103 -0.985792 -0.145087
1.378601 -0.180524 -0.204878 -0.044698 -0.810302 0.584305
1.564717 0.163859 0.189265 0.085935 0.745402 -0.661053
0.524171 0.101166 0.119634 0.104192 0.759428 -0.642194
0.310416 -0.088987 0.036435 0.000966 -0.877716 0.471377
0.284751 0.017136 -0.094618 0.003402 0.200620 -0.977080
1.501928 0.235142 -0.283795 -0.044698 -0.710795 -0.701978
0.209973 -0.164030 -0.178826 -0.051260 -0.779648 0.624117
-0.696546 0.094669 -0.016849 -0.000546 0.976948 -0.200979
0.472832 -0.489186 0.570158 0.104192 -0.759428 -0.642194
1.271672 -0.098260 0.130532 -0.044698 0.710795 0.701978
0.235609 -0.362388 0.424509 -0.051260 -0.779648 -0.624117
0.245602 -0.079812 0.105450 -0.025156 0.754765 0.655513
1.471203 0.114329 -0.149940 0.085935 -0.775695 -0.625230
1.322592 0.033629 -0.090085 -0.001097 0.348261 -0.933432
0.167859 0.085681 -0.084411 -0.051260 0.779648 0.624117
1.397517 0.173571 -0.193789 -0.044698 0.810302 0.584305
-0.784893 0.085450 0.044095 0.000176 0.834486 0.544178
0.391275 0.202115 0.249579 0.051279 -0.762579 0.644859
0.219061 -0.107193 0.135958 -0.025156 0.754765 0.655513
0.119935 -0.096157 0.000000 0.004398 -0.992846 -0.075909
-1.493240 -0.092200 -0.017190 -0.112638 -0.950951 -0.274443
0.480015 0.129443 -0.145909 0.104192 0.759428 0.642194
-0.150696 -0.011656 0.095448 -0.002126 -0.201767 0.976767
1.533000 -0.028577 0.094764 -0.029928 -0.290036 0.953699
0.409690 -0.286136 -0.319797 0.104192 -0.759428 0.642194
0.425482 -0.187070 0.205208 0.104192 -0.759428 -0.642194
0.424709 -0.589672 -0.699382 -0.025156 0.754765 -0.655513
1.310378 -0.165080 0.188679 -0.044698 -0.810302 -0.584305
1.338837 0.086498 0.042003 -0.000070 0.894614 0.438794
0.428562 -0.069738 -0.066956 0.000000 0.645708 0.763584
-0.471074 -0.012030 -0.095401 -0.000760 -0.200653 -0.977185
1.437627 -0.132776 -0.139813 0.000000 -0.763584 0.645708
0.173494 0.142566 -0.174939 -0.025156 -0.754765 -0.655513
0.337067 -0.307348 -0.370947 -0.025156 0.754765 -0.655513
0.404554 -0.183606 -0.197717 0.104192 -0.759428 0.642194
0.462238 -0.154134 -0.172224 0.104192 -0.759428 0.642194
0.289698 -0.467294 0.553293 -0.025156 0.754765 0.655513
1.527834 0.086857 0.047049 -0.032516 0.876410 0.473087
1.038275 -0.011029 0.095522 -0.000279 -0.209621 0.975120
1.554923 0.194745 -0.238201 0.085935 -0.775695 -0.625230
1.188004 -0.095072 -0.014406 -0.000400 -0.970625 -0.227517
1.308206 0.145674 -0.180868 -0.044698 -0.710795 -0.701978
1.417561 0.136041 0.178077 -0.029813 -0.728880 0.683668
1.364199 -0.116053 0.154440 -0.014914 0.746477 0.664912
0.202149 0.202781 -0.227877 -0.051260 0.779648 0.624117
0.151797 0.162953 0.197579 -0.025156 -0.754765 0.655513
0.013962 -0.090903 -0.109330 -0.025156 0.754765 -0.655513
0.429361 0.609034 -0.716707 -0.051260 0.779648 0.624117
1.382062 0.122420 -0.127567 0.000000 0.763584 0.645708
0.264086 -0.093969 -0.122459 -0.025156 0.754765 -0.655513
-0.089044 0.095057 -0.014501 0.000000 0.970028 -0.229545
0.445513 0.043096 0.085959 0.001123 0.513784 0.854217
0.474261 0.235126 -0.269952 0.104192 0.759428 0.642194
1.359811 -0.181869 0.220803 -0.044698 0.710795 0.701978
1.359811 0.181869 -0.220803 -0.044698 -0.710795 -0.701978
0.017130 0.094227 -0.107467 -0.051260 0.779648 0.624117
-1.608921 -0.046415 -0.010700 -0.604002 -0.783510 -0.116524
0.436954 -0.122537 0.130756 0.104192 -0.759428 -0.642194
0.472209 0.323966 -0.387239 0.051279 -0.762579 -0.644859
0.372085 0.363867 -0.415148 -0.051260 0.779648 0.624117
0.484865 0.171971 0.196988 0.104192 0.759428 -0.642194
0.482528 -0.625812 0.733299 0.052430 -0.767772 -0.637488
-1.287272 0.036159 -0.089099 -0.001106 0.467611 -0.879800
0.101349 -0.111476 0.122097 -0.051260 -0.779648 -0.624117
0.299705 0.179183 -0.221943 -0.025156 -0.754765 -0.655513
0.363549 -0.170417 -0.214300 0.000329 0.757750 -0.652288
-1.477288 -0.025703 -0.091937 -0.036325 -0.272349 -0.957320
0.242782 0.308062 0.368151 -0.025156 -0.754765 0.655513
1.618210 -0.312388 0.369415 -0.022902 -0.800370 -0.597805
