0.319308 0.117765 -0.000000 0.000009 0.996426 -0.048679
-1.626600 -0.087691 -0.078606 -0.001062 -0.801992 -0.593595
0.239481 -0.117765 -0.000000 -0.000098 -0.996442 -0.048570
0.109862 0.050063 -0.106594 -0.000015 0.379550 -0.922595
-1.796107 0.058747 0.102066 -0.076886 0.563043 0.818830
-0.658573 0.112762 -0.033958 0.000002 0.968118 -0.240832
-1.267611 -0.087248 -0.079097 0.000121 -0.772396 -0.631430
0.429017 0.078581 -0.087713 -0.000681 0.631633 -0.771975
1.421462 0.231471 -0.171139 -0.074101 0.701271 0.707156
1.811789 0.186971 0.130066 0.143137 0.621550 -0.768458
1.794863 0.252818 0.208118 0.143137 -0.583053 0.798062
-0.002642 -0.485882 -0.377704 0.081749 0.607539 -0.790072
0.089677 -0.017162 -0.116508 0.000001 -0.097152 -0.992883
1.501720 0.153818 -0.104572 -0.000000 0.609580 0.792725
-0.638616 0.000000 -0.117765 0.000007 -0.048587 -0.996440
-0.708506 0.017249 -0.116495 -0.000004 0.097488 -0.992834
-1.137784 0.112760 -0.033968 -0.000030 0.968121 -0.240828
-0.039910 0.112756 -0.033979 -0.000006 0.968067 -0.241022
0.698486 0.033958 0.112762 -0.000004 0.240842 0.968115
0.040021 -0.112764 -0.033955 0.000001 -0.968104 -0.240885
1.645273 -0.208983 0.146992 -0.000000 -0.609580 -0.792725
1.828715 -0.094625 -0.086473 0.076906 0.596433 -0.797031
1.885349 0.086001 0.000000 1.000000 0.000000 -0.000000
-0.917927 -0.075288 -0.090556 0.000131 -0.674701 -0.734893
-1.247297 -0.116511 -0.017136 0.000003 -0.996424 -0.048693
0.948016 0.087684 -0.078613 0.001061 0.770234 -0.633604
0.937810 0.098146 0.065084 0.000942 0.879134 0.471251
-0.002968 0.483954 -0.376255 0.081749 -0.607539 -0.790072
-0.079549 -0.098152 -0.065074 0.000747 -0.804148 -0.590675
-1.130942 -0.086644 -0.079758 -0.000110 -0.767939 -0.637078
1.446600 -0.108870 0.097426 0.000000 0.609580 0.792725
1.499216 -0.228981 0.162370 0.000000 -0.609580 -0.792725
-0.588655 -0.106579 -0.050094 0.000202 -0.922642 -0.379479
0.488847 -0.106573 0.050107 0.001461 -0.922296 0.380233
1.815751 0.076804 -0.045351 -0.036304 -0.792202 0.609178
-0.558778 0.098124 0.065117 0.000237 0.857770 0.509474
-0.968000 0.049996 -0.106625 0.000205 0.333532 -0.940260
0.718466 0.112722 -0.034092 -0.000008 0.968432 -0.239890
1.861635 -0.178990 0.137637 0.214061 -0.623825 -0.751678
1.725163 0.154247 -0.104902 -0.000000 0.609580 0.792725
1.057708 0.117765 -0.000000 0.000012 0.996426 -0.048679
-0.042154 0.706341 0.546349 -0.065009 -0.569270 0.816944
-1.835198 -0.112178 0.000000 -0.179668 -0.976035 -0.069068
1.353010 0.199264 0.146373 -0.077812 0.705691 -0.702647
1.628857 -0.235924 -0.195126 0.000000 0.609580 -0.792725
0.770485 0.088172 -0.078065 0.000655 0.721392 -0.690423
-0.156260 -0.098712 0.064821 0.045481 -0.608949 -0.791905
-0.681297 -0.090113 -0.075817 0.000023 -0.699858 -0.711380
-1.506615 -0.106507 -0.050246 0.003101 -0.885073 -0.461995
-1.337102 0.000000 -0.117765 0.000018 -0.048473 -0.996457
-1.606651 -0.087629 0.078674 0.000026 -0.804116 0.590620
-1.756271 -0.075149 -0.090671 -0.000079 -0.674689 -0.735008
-0.001944 0.392722 -0.305994 0.081749 -0.607539 -0.790072
-0.548943 -0.050116 -0.106569 -0.000124 -0.378391 -0.923148
0.628632 0.050016 -0.106616 0.000000 0.333996 -0.940055
-0.289283 -0.106591 -0.050069 -0.000006 -0.922644 -0.379438
-0.459005 0.112762 -0.033959 -0.000009 0.968095 -0.240909
-0.299351 0.000000 -0.117765 -0.000014 -0.048715 -0.996421
-0.429080 0.017242 -0.116496 -0.000087 0.097322 -0.992858
-0.598698 0.098143 -0.065089 0.000016 0.858245 -0.508743
0.009978 0.017136 0.116511 -0.000012 0.048680 0.996426
0.848120 -0.017249 -0.116495 0.000006 -0.097279 -0.992864
0.159654 0.117765 -0.000000 0.000013 0.996412 -0.048779
-0.638616 -0.000000 0.117765 -0.000006 -0.048603 0.996438
-1.596540 0.033963 0.112761 0.000000 0.240844 0.968116
-0.977952 0.098157 0.065067 -0.000022 0.857480 0.509874
-1.366909 -0.017162 0.116508 0.000004 -0.097173 0.992880
0.977938 -0.034023 0.112743 -0.000016 -0.241155 0.968029
-0.628528 -0.106576 0.050100 0.000128 -0.922566 0.379614
-1.486650 -0.017163 0.116507 -0.000000 -0.097156 0.992883
0.608681 0.116511 -0.017136 0.000009 0.996426 -0.048679
-1.307246 -0.106592 0.050066 0.000056 -0.939923 0.334361
0.011708 0.080768 0.085703 0.001487 0.710832 0.700303
-1.097629 0.098155 0.065070 0.000035 0.857434 0.509959
1.256192 0.119937 -0.078519 0.000000 0.609580 0.792725
1.608947 0.138392 0.092710 0.000000 0.609580 -0.792725
0.868072 -0.106579 0.050094 0.000098 -0.939768 0.334761
-0.121424 -0.472459 -0.354221 -0.039321 -0.630000 0.774960
0.348353 -0.087263 0.079080 0.000726 -0.775128 0.628383
-0.838789 -0.098129 -0.065109 -0.000005 -0.801935 -0.593451
1.616596 0.290827 -0.237345 -0.074101 -0.503332 -0.859365
1.616596 -0.304076 0.220116 -0.074101 -0.701271 -0.707156
-1.050553 -0.064180 -0.098740 0.000071 -0.578476 -0.812890
-0.178234 0.204645 0.179609 0.081749 -0.607539 0.790072
1.327030 -0.106573 0.050107 -0.000024 -0.922384 0.380072
-1.606616 0.049996 -0.106625 0.000061 0.333795 -0.940136
-0.977881 0.117765 -0.000000 0.000001 0.996433 -0.048637
-1.267343 0.050069 -0.106591 0.000311 0.378176 -0.923234
0.159654 -0.065041 -0.098175 -0.000310 -0.508754 -0.858221
-1.217362 0.117765 -0.000000 0.000000 0.996441 -0.048579
-0.124541 0.500114 0.395980 -0.145803 -0.544174 0.826206
1.275398 -0.072648 -0.069573 0.000000 0.792725 0.609580
-1.696324 -0.117765 0.000000 -0.000007 -0.996440 -0.048587
-0.003645 -0.398007 -0.303735 0.045481 -0.608949 0.791905
-0.029101 0.555039 -0.423025 0.045481 0.608949 0.791905
-1.656572 0.064896 0.098270 0.000972 0.511624 0.856273
-0.179611 0.117765 -0.000000 0.000012 0.996426 -0.048679
-0.449027 -0.017136 0.116511 0.000041 -0.048557 0.996444
-0.238740 0.131034 -0.084939 0.045481 0.608949 0.791905
1.483892 -0.203908 -0.143090 -0.000000 -0.609580 0.792725
0.109804 -0.116495 -0.017249 0.000004 -0.992834 -0.097488
-0.841061 0.090108 -0.075823 0.000190 0.699305 -0.711918
1.197410 0.065048 0.098170 -0.000282 0.509522 0.857719
1.446738 0.050062 -0.106594 -0.000000 0.379555 -0.922597
-1.039595 0.075800 0.090127 -0.000418 0.677061 0.732917
-1.067696 -0.116496 0.017242 0.000029 -0.992828 0.097525
-0.082844 0.460065 0.346906 0.045481 0.608949 -0.791905
-0.202382 -0.202867 0.180741 0.081749 0.607539 0.790072
-0.270723 -0.185513 0.130355 -0.081682 -0.639131 -0.764748
-1.200104 -0.032845 -0.113092 0.001098 -0.185852 -0.980543
1.840267 0.017103 -0.100604 0.336263 0.052390 -0.937367
-0.120768 0.388493 0.289692 0.045481 0.608949 -0.791905
0.677646 0.088990 0.077132 -0.002635 0.740579 0.667531
1.706256 -0.106579 -0.050094 -0.000417 -0.940135 -0.333933
1.738742 -0.310281 -0.224887 0.000000 -0.609580 0.792725
-0.163983 -0.287619 -0.241939 0.081749 0.607539 -0.790072
-0.025573 -0.154131 -0.124970 0.081749 0.607539 -0.790072
-0.048525 0.358797 0.271005 0.045481 0.608949 -0.791905
-0.222852 0.315113 0.256781 -0.145803 -0.544174 0.826206
1.173307 0.085897 -0.052343 -0.000000 -0.792725 0.609580
1.835486 -0.076236 0.044914 0.147884 -0.621680 -0.767306
0.854864 -0.089840 -0.076140 0.000460 -0.729964 -0.680456
-0.047782 0.106989 0.049212 0.000168 0.925536 0.372961
0.003944 -0.661408 0.511995 0.081749 0.607539 0.790072
-1.297220 -0.062791 0.099629 0.000567 -0.501200 0.862920
0.036750 -0.692128 -0.532224 0.081749 0.607539 -0.790072
0.821090 0.076091 0.089881 -0.000062 0.679100 0.731256
0.012796 0.213080 0.162475 0.045481 0.608949 -0.791905
-0.275310 -0.243206 -0.200163 -0.145803 0.544174 -0.826206
-0.173586 -0.365561 -0.298702 -0.145803 0.544174 -0.826206
1.572958 0.244932 0.174636 0.000000 0.609580 -0.792725
-0.778288 -0.034094 0.112722 -0.000180 -0.334635 0.939857
-0.130557 0.344373 -0.255202 0.045481 0.608949 0.791905
1.626608 -0.136310 0.091109 -0.000000 -0.609580 -0.792725
-1.277373 0.064939 0.098242 0.000140 0.509751 0.857560
-0.568496 -0.087662 0.078638 0.000010 -0.803800 0.590917
-1.954756 -0.028698 0.040200 -0.698586 -0.426142 0.569157
-0.026143 -0.643826 -0.501589 0.081749 0.607539 -0.790072
-1.127654 0.049996 -0.106625 -0.000001 0.333894 -0.940090
0.568849 0.078678 0.087626 -0.000006 0.590527 0.804178
0.112246 -0.088639 0.077535 0.000025 -0.784310 0.617382
-0.848291 0.106604 0.050042 -0.000742 0.922023 0.380759
-0.019885 0.065139 -0.098110 0.000049 0.468400 -0.880831
1.702748 -0.209928 0.175136 0.000000 0.609580 0.792725
-0.184246 -0.144790 -0.098647 0.045481 -0.608949 0.791905
1.336653 0.085897 -0.052343 -0.000000 -0.792725 0.609580
-0.137680 0.293509 0.243748 0.081749 -0.607539 0.790072
1.697345 0.080214 -0.047973 -0.036304 -0.792202 0.609178
-0.289339 0.087628 -0.078676 0.000046 0.775374 -0.627873
1.012446 0.102586 0.057833 -0.000944 0.810427 0.580085
1.462027 0.231350 0.164192 -0.074101 0.701271 -0.707156
-0.260015 -0.131568 0.084128 0.003067 -0.619939 -0.784012
1.076308 -0.077948 -0.062681 -0.110818 0.447029 -0.887628
-0.069739 -0.106576 0.050100 0.000129 -0.922550 0.379647
1.618407 -0.082487 -0.049721 0.000000 -0.609580 0.792725
1.881961 0.084006 0.064598 0.214061 -0.566251 0.795950
1.757509 0.337011 0.245442 0.000000 0.609580 -0.792725
-0.182485 -0.353585 0.289244 -0.145803 0.544174 0.826206
1.803512 -0.374032 0.282952 0.214061 -0.623825 -0.751678
1.429203 0.137027 0.091661 0.000000 0.609580 -0.792725
-0.016858 0.193932 -0.146049 0.045481 0.608949 0.791905
-0.055142 -0.628348 0.492687 0.005744 0.589187 0.806003
1.234562 0.085897 0.052343 0.000000 0.609580 -0.792725
1.798895 -0.162616 -0.111338 0.000000 -0.609580 0.792725
1.768470 -0.116277 0.018662 -0.000155 -0.991558 0.105811
-0.025013 0.704797 -0.548357 0.056478 -0.601751 -0.795799
1.718533 0.179283 0.124154 0.000000 0.609580 -0.792725
-0.011567 0.298513 0.226772 0.045481 0.608949 -0.791905
1.603206 -0.166764 -0.141945 -0.000000 0.609580 -0.792725
1.741026 -0.131294 0.114670 -0.000000 0.609580 0.792725
1.320794 0.125403 0.082722 -0.000000 0.609580 -0.792725
-0.186330 0.248823 -0.214419 0.081749 -0.607539 -0.790072
0.588678 -0.106579 -0.050094 0.000037 -0.939810 -0.334676
-1.418784 0.077613 0.088570 -0.000059 0.620558 0.781568
0.848290 -0.050032 0.106609 -0.000010 -0.375376 0.924533
0.558810 -0.098118 0.065126 0.000476 -0.882071 0.466278
1.717079 -0.066397 0.064766 0.000000 0.609580 0.792725
1.357059 0.117765 -0.000000 0.000021 0.996426 -0.048680
-1.796107 -0.058950 0.101948 -0.033143 -0.452159 0.887598
-0.223861 0.200233 -0.180938 0.005744 -0.589187 -0.806003
-1.466949 0.116508 -0.017162 0.000003 0.992866 -0.097270
-0.104092 -0.360990 0.292162 0.081749 0.607539 0.790072
1.393329 -0.199027 0.139336 -0.074101 -0.701271 -0.707156
-1.646528 0.105853 -0.051611 -0.000395 0.879092 -0.471777
-1.097628 -0.033952 0.112764 -0.000000 -0.239176 0.968614
1.858248 -0.194821 -0.149811 0.214061 -0.623825 0.751678
1.861635 0.178990 -0.137637 0.214061 0.623825 0.751678
-1.367153 0.106612 -0.050024 -0.000271 0.923113 -0.378443
-1.736205 -0.075191 0.090636 -0.000192 -0.674436 0.735177
-0.788292 -0.017136 -0.116511 0.000007 -0.048587 -0.996440
1.037990 0.065130 0.098116 0.000038 0.510390 0.857177
1.496376 -0.234262 -0.193849 -0.074101 0.503332 -0.859365
-0.103968 0.636428 -0.489393 -0.081682 0.639131 0.764748
-0.443479 -0.093355 0.071787 -0.000000 0.792725 -0.609580
-0.148641 -0.564971 0.434445 -0.145803 0.544174 0.826206
-0.398807 0.164812 -0.126735 -0.081682 0.639131 0.764748
1.517555 0.295891 0.227531 -0.110818 0.743047 -0.660000
1.526597 0.050073 -0.106589 0.000016 0.379622 -0.922565
1.397125 0.065115 0.098125 -0.002182 0.515362 0.853958
0.648478 -0.017180 -0.116505 0.000010 -0.097262 -0.992867
-0.309451 0.116506 -0.017173 -0.000029 0.992882 -0.097158
0.379177 0.112749 0.034002 0.000519 0.967299 0.243572
-1.516800 0.098120 -0.065123 -0.000039 0.859596 -0.506686
-0.868247 0.116508 -0.017162 -0.000002 0.992880 -0.097172
0.758357 0.033958 0.112762 -0.000001 0.240822 0.968121
-0.109634 0.017162 0.116507 -0.000001 0.097152 0.992883
0.778313 -0.033959 0.112762 -0.000000 -0.240821 0.968122
-1.596540 0.117765 -0.000000 0.000001 0.996441 -0.048582
0.848162 0.116511 -0.017136 0.000007 0.996440 -0.048587
1.277232 -0.000000 0.117765 -0.000001 -0.048584 0.996440
-0.045816 0.178917 0.146125 0.081749 -0.607539 0.790072
-1.536785 0.098124 0.065117 -0.001454 0.856615 0.511185
0.219663 -0.098190 0.065017 0.000003 -0.857606 0.509676
-0.987756 -0.087460 0.078862 -0.000233 -0.772934 0.630732
1.347081 -0.017136 -0.116511 -0.000041 -0.048557 -0.996444
-0.089882 -0.050078 -0.106587 0.000273 -0.334120 -0.940063
1.524771 0.136223 0.118460 0.000000 -0.609580 0.792725
-0.780334 -0.075095 -0.090715 0.002255 -0.706460 -0.704277
-1.946555 0.017850 -0.053808 -0.614895 0.261631 -0.737784
1.650945 -0.320237 -0.232543 -0.074101 -0.701271 0.707156
1.613167 0.214721 -0.178822 -0.000000 -0.609580 -0.792725
0.036750 0.581828 -0.447407 0.045481 0.608949 0.791905
0.036750 -0.566071 0.435290 0.081749 0.607539 0.790072
0.036750 0.298199 -0.229305 0.045481 0.608949 0.791905
-0.091296 0.546565 0.412937 -0.039321 0.630000 -0.774960
0.748408 -0.106519 0.050221 -0.000421 -0.921879 0.381167
1.546521 -0.017163 -0.116507 0.000000 -0.097165 -0.992881
0.648722 -0.017162 0.116508 0.000000 -0.097157 0.992882
-0.379178 -0.000000 0.117765 -0.000032 -0.048753 0.996416
0.658563 -0.112733 -0.034057 -0.000571 -0.967302 -0.243585
-0.748368 -0.116496 0.017242 0.000064 -0.992753 0.098031
1.756277 0.408212 0.313902 -0.110818 0.743047 -0.660000
1.261782 -0.175547 -0.134990 -0.110818 -0.743047 0.660000
1.295885 0.191593 -0.147329 -0.110818 0.743047 0.660000
0.738310 0.034044 -0.112737 -0.000011 0.241227 -0.968017
-0.927989 -0.116511 0.017136 -0.000007 -0.996440 0.048587
0.000128 -0.112768 0.033941 -0.000025 -0.968088 0.240936
1.447014 -0.050118 0.106568 0.000328 -0.468056 0.881032
1.157661 -0.034042 0.112737 -0.000020 -0.241247 0.968002
-0.957810 -0.112701 -0.034161 -0.000065 -0.968006 -0.241291
1.097740 -0.034035 0.112739 0.000000 -0.241103 0.968040
-0.229375 -0.017163 0.116507 -0.000001 -0.097163 0.992882
-1.067814 0.116508 -0.017162 0.000009 0.992869 -0.097251
0.489068 -0.017163 0.116507 -0.000000 -0.097158 0.992882
0.508991 -0.106573 -0.050107 0.000002 -0.923066 -0.378617
-1.426890 -0.106606 0.050038 0.000005 -0.939959 0.334262
-1.536670 0.000000 -0.117765 0.000007 -0.048587 -0.996440
0.768335 -0.017136 -0.116511 -0.000024 -0.048566 -0.996443
0.319276 0.033815 0.112805 -0.000030 0.333675 0.940163
1.626354 -0.017173 -0.116506 0.000006 -0.097219 -0.992873
1.546880 -0.050099 0.106577 0.000031 -0.379669 0.922553
-0.112903 0.622137 0.478403 -0.081682 0.639131 -0.764748
1.415869 0.191520 0.133564 0.000000 0.609580 -0.792725
1.559203 0.084192 -0.051032 -0.036304 -0.792202 0.609178
1.677610 0.067533 0.065640 0.000000 -0.609580 0.792725
1.756277 -0.408212 -0.313902 -0.110818 -0.743047 0.660000
1.582247 0.274666 0.224918 -0.074101 -0.503332 0.859365
-1.853298 0.061379 0.088209 -0.255941 0.630541 0.726167
1.885349 0.018899 0.083899 1.000000 -0.000000 0.000000
-0.237814 -0.328578 0.246405 -0.081682 -0.639131 -0.764748
-0.323812 -0.197922 0.161777 -0.145803 0.544174 0.826206
0.458586 -0.090348 -0.075537 -0.000125 -0.732081 -0.677860
-0.073219 0.582479 -0.459286 0.005744 -0.589187 -0.806003
-0.025626 0.459080 0.359471 0.081749 -0.607539 0.790072
1.708850 0.239971 -0.170821 0.000000 0.609580 0.792725
-0.257198 0.089785 0.076205 -0.000414 0.696657 0.714563
1.825330 0.110445 0.098637 0.148259 -0.581991 0.798106
1.798248 0.250248 -0.178724 0.143137 0.621550 0.768458
1.794863 -0.252818 0.208118 0.143137 0.583053 0.798062
-0.069412 -0.237563 0.176581 0.045481 -0.608949 -0.791905
1.781321 0.329344 -0.239546 0.138006 0.621184 0.769410
-0.115388 -0.388624 -0.290102 0.045481 -0.608949 0.791905
-0.019298 0.663837 -0.507250 0.045481 0.608949 0.791905
1.758955 -0.252388 -0.207787 -0.000000 0.609580 -0.792725
1.517627 0.206956 0.145433 0.000000 0.609580 -0.792725
-0.064649 0.465846 -0.352397 0.045481 0.608949 0.791905
1.401654 -0.103617 -0.093387 -0.000000 0.609580 -0.792725
0.159565 0.090643 -0.075183 0.002517 0.748201 -0.658505
-0.217805 0.375063 0.297157 -0.145803 -0.544174 0.826206
0.638694 0.098112 -0.065136 -0.000710 0.858889 -0.507809
1.364092 -0.223685 -0.172006 -0.110818 -0.743047 0.660000
1.194787 -0.113071 0.032917 0.000058 -0.979765 0.189346
-0.130682 -0.281363 0.206743 0.045481 -0.608949 -0.791905
-0.195013 -0.335960 -0.248004 -0.081682 -0.639131 0.764748
-0.061400 -0.157407 0.115404 0.045481 -0.608949 -0.791905
1.701472 0.238056 0.196766 -0.000000 -0.609580 0.792725
1.265161 -0.098284 0.061869 0.000000 -0.609580 -0.792725
-0.000972 -0.270703 0.205995 0.045481 -0.608949 -0.791905
-0.380938 0.193395 0.148714 -0.081682 0.639131 -0.764748
-0.155190 -0.472266 0.372229 -0.145803 0.544174 0.826206
0.548714 0.050081 -0.106586 0.000019 0.379699 -0.922530
1.735763 -0.173113 -0.146827 -0.000000 0.609580 -0.792725
1.705122 -0.384143 -0.295394 -0.110818 -0.743047 0.660000
-0.047722 -0.461102 -0.349721 0.045481 -0.608949 0.791905
-0.189703 0.050168 -0.106544 0.000155 0.380051 -0.922398
-0.382006 -0.089880 -0.076093 0.000328 -0.729246 -0.681284
-1.891498 -0.089051 -0.025442 -0.409947 -0.840245 -0.339865
1.137535 0.117765 -0.000000 0.000006 0.996439 -0.048597
1.702468 -0.331231 -0.268414 -0.074101 0.503332 -0.859365
1.335161 -0.143140 -0.123779 0.000000 0.609580 -0.792725
-1.741873 0.053682 -0.104818 0.000212 0.452715 -0.889044
-1.683686 -0.048937 0.107115 0.000096 -0.329013 0.942156
-0.083911 0.265128 -0.196945 0.045481 0.608949 0.791905
1.405011 0.119544 -0.105635 0.000000 -0.609580 -0.792725
-1.414389 -0.063712 0.099042 -0.001026 -0.504793 0.860734
1.602813 -0.336006 -0.258378 -0.110818 -0.743047 0.660000
-0.027273 -0.532682 -0.405938 0.045481 -0.608949 0.791905
1.551659 -0.311937 -0.239869 -0.110818 -0.743047 0.660000
-0.266541 -0.053468 -0.104927 -0.000094 -0.347287 -0.934061
0.616123 0.098749 0.064165 0.000309 0.883200 0.464622
1.547899 -0.258504 -0.212490 -0.076753 0.499417 -0.861603
-1.038067 0.065094 -0.098139 -0.001635 0.513826 -0.854894
1.513550 0.255592 -0.182833 -0.074101 0.701271 0.707156
1.466401 0.271822 0.209023 -0.110818 0.743047 -0.660000
-0.130420 -0.514584 -0.404473 -0.145803 0.544174 -0.826206
0.030169 -0.087515 0.078801 0.000221 -0.776385 0.626799
1.808404 0.189541 -0.159460 0.071783 -0.597495 -0.796987
-0.101530 0.373943 -0.301858 0.081749 -0.607539 -0.790072
-0.224955 -0.142890 -0.136957 0.081749 0.607539 -0.790072
-1.312267 -0.048882 -0.107141 0.000093 -0.376303 -0.924019
-1.961224 0.030555 0.030499 -0.716494 0.529497 0.445682
1.244731 -0.167525 0.128821 -0.110818 -0.743047 -0.660000
-0.110376 0.548944 -0.430641 -0.145803 -0.544174 -0.826206
1.696705 -0.119116 0.077888 -0.000000 -0.609580 -0.792725
1.688071 -0.376120 0.289224 -0.110818 -0.743047 -0.660000
1.688071 0.376120 -0.289224 -0.110818 0.743047 0.660000
-1.017680 -0.112701 -0.034161 -0.000040 -0.967888 -0.241683
-0.273068 0.297304 -0.224034 -0.081682 0.639131 0.764748
-0.080402 -0.321139 -0.240217 0.045481 -0.608949 0.791905
-0.314490 0.210720 -0.171852 -0.145803 -0.544174 -0.826206
-0.272066 -0.077914 0.091867 -0.006970 0.585489 0.807806
1.760475 0.113149 -0.032649 -0.000013 0.980038 -0.188147
-0.282658 -0.350600 0.269600 -0.145803 0.544174 0.826206
1.740723 -0.244425 0.201663 0.000000 0.609580 0.792725
1.436570 -0.176627 -0.149529 0.000000 0.609580 -0.792725
-0.888075 -0.017136 -0.116511 -0.000199 -0.048191 -0.996498
1.638141 -0.081919 0.049284 -0.036304 0.792202 -0.609178
-0.199460 -0.112764 0.033955 0.000005 -0.968096 0.240911
-0.029242 -0.236604 -0.188769 0.081749 0.607539 -0.790072
1.796107 -0.040327 0.110645 0.056697 -0.347641 0.930165
1.444852 -0.223269 0.157978 -0.074101 -0.701271 -0.707156
0.430637 0.079574 0.086813 -0.002043 0.621340 0.780747
-0.237986 -0.422057 -0.324548 -0.081682 -0.639131 0.764748
-0.780858 0.098970 -0.063824 0.000821 0.868910 -0.491445
-0.019455 0.607821 0.464167 0.045481 0.608949 -0.791905
-0.237986 -0.422057 0.324548 -0.145803 0.544174 0.826206
-0.001944 0.392722 0.305994 0.081749 -0.607539 0.790072
-0.204371 0.405786 -0.319764 -0.145803 -0.544174 -0.826206
0.036750 0.613342 0.471640 0.045481 0.608949 -0.791905
-0.098357 0.097105 0.066911 0.045481 0.608949 -0.791905
-1.956617 -0.045772 -0.013234 -0.707281 -0.658210 -0.242174
-1.736237 0.117765 -0.000000 0.000153 0.996522 -0.047705
1.783788 0.049869 0.106685 -0.000734 0.375300 0.923946
-0.116826 0.199758 -0.144787 0.045481 0.608949 0.791905
1.780090 0.099428 0.063108 0.058457 0.867343 0.484782
-0.238005 0.353479 -0.267236 -0.081682 0.639131 0.764748
1.339904 0.064213 0.098718 0.003129 0.509210 0.857884
1.247424 -0.050042 0.106604 0.000002 -0.379428 0.922652
-1.711571 0.108001 -0.046949 -0.000976 0.882926 -0.465392
1.756277 -0.408212 0.313902 -0.110818 -0.743047 -0.660000
1.756277 0.408212 -0.313902 -0.110818 0.743047 0.660000
-1.178517 -0.097871 0.065497 0.000451 -0.856498 0.511569
-0.323463 0.116350 0.108112 -0.145803 -0.544174 0.826206
1.479582 0.085897 0.052343 0.000000 0.609580 -0.792725
-0.076264 -0.321125 0.240444 0.045481 -0.608949 -0.791905
1.545408 -0.185670 0.156483 0.000000 0.609580 0.792725
-0.156888 -0.164509 0.146538 0.081749 0.607539 0.790072
1.290283 0.137294 -0.119283 -0.074101 -0.503332 -0.859365
1.619771 0.150248 -0.101827 -0.000000 0.609580 0.792725
1.456851 -0.065059 -0.098163 -0.000169 -0.509291 -0.857883
1.818325 -0.202728 0.166173 0.214061 0.566251 0.795950
-0.736949 -0.098372 -0.064741 -0.000443 -0.856457 -0.511849
-0.016535 -0.311631 0.236574 0.045481 -0.608949 -0.791905
-0.064603 -0.554654 -0.436998 0.081749 0.607539 -0.790072
1.295817 0.085897 0.052343 0.000000 0.609580 -0.792725
1.536685 -0.112718 0.034107 -0.000043 -0.967921 0.241587
-1.877054 -0.058763 -0.079746 -0.385077 -0.464612 -0.793450
1.449349 -0.263800 -0.202853 -0.110818 -0.743047 0.660000
-0.117865 0.343050 0.254914 0.045481 0.608949 -0.791905
0.062717 0.096010 0.068195 -0.001308 0.851088 0.519565
-0.538832 0.117765 -0.000000 0.000000 0.996441 -0.048578
-1.891503 0.089049 -0.025442 -0.411917 0.834665 -0.350964
-1.318254 0.098870 0.063978 0.000391 0.861793 0.503107
1.781321 -0.316095 -0.256776 0.066652 0.598509 -0.796877
-0.950563 -0.049050 0.107064 0.000420 -0.372765 0.925635
1.735763 -0.173113 0.146827 -0.000000 0.609580 0.792725
0.718466 0.112722 0.034092 0.000156 0.967960 0.241460
0.239610 -0.098174 -0.065042 -0.000746 -0.859200 -0.507274
0.508790 0.116503 0.017191 0.000015 0.992855 0.097344
1.606647 -0.050072 0.106590 -0.000004 -0.379620 0.922569
1.746322 0.050183 -0.106538 0.000041 0.380384 -0.922251
-1.237321 -0.033998 0.112751 -0.000003 -0.241017 0.968073
-1.047601 0.017163 0.116507 0.000004 0.097174 0.992880
-1.476804 0.065067 0.098157 -0.000006 0.509395 0.857806
1.147640 -0.050032 -0.106609 0.000008 -0.379436 -0.922645
-0.758357 0.117765 -0.000000 -0.000000 0.996441 -0.048579
-1.646554 0.106594 0.050063 0.000562 0.921563 0.381748
-0.379071 -0.112764 0.033955 0.000001 -0.968104 0.240885
0.299359 -0.033958 0.112763 0.000033 -0.240883 0.968101
1.396988 -0.112718 -0.034107 -0.000043 -0.967921 -0.241587
-0.768309 0.050347 0.106460 0.000002 0.468508 0.880846
-0.399451 0.065094 -0.098139 0.001152 0.511172 -0.856663
0.069745 0.078728 -0.087581 -0.000005 0.628638 -0.774742
1.726217 -0.017249 -0.116495 -0.000010 -0.097686 -0.992804
0.199567 -0.000000 0.117765 -0.000003 -0.048693 0.996424
0.957934 -0.033950 -0.112765 -0.000002 -0.240823 -0.968120
0.109869 -0.017191 0.116503 -0.000016 -0.097319 0.992858
-1.456941 0.033958 -0.112763 -0.000048 0.193369 -0.978706
-0.251305 -0.332864 -0.263451 -0.145803 0.544174 -0.826206
-0.216516 0.109719 0.110576 0.081749 -0.607539 0.790072
0.538835 0.112742 -0.034025 -0.000353 0.968337 -0.240157
0.568767 -0.050005 0.106621 -0.000001 -0.333895 0.940091
1.524140 -0.273157 0.216903 -0.076753 0.499417 0.861603
-0.808207 -0.116495 0.017249 -0.000022 -0.992824 0.097555
0.036750 0.313956 0.241422 0.045481 0.608949 -0.791905
-0.738490 0.065113 -0.098126 -0.000164 0.509805 -0.857554
-0.459105 -0.065143 -0.098107 -0.000092 -0.510339 -0.857210
0.049882 0.116496 -0.017242 -0.000007 0.992851 -0.097373
1.456755 0.112774 -0.033920 -0.000002 0.978737 -0.193220
1.007806 -0.116496 0.017242 -0.000024 -0.992842 0.097430
-0.109751 0.106622 -0.050002 -0.000002 0.940095 -0.333883
0.419102 0.112733 -0.034057 0.000511 0.968187 -0.240682
1.636521 0.065135 -0.098112 0.000006 0.510325 -0.857209
0.678565 -0.065206 -0.098065 -0.000040 -0.510863 -0.856882
1.087643 -0.116511 -0.017136 0.001636 -0.996032 -0.051252
-1.197405 -0.117765 0.000000 0.000005 -0.996422 -0.048706
-1.167518 0.087595 -0.078713 -0.001123 0.783239 -0.618655
-0.628638 -0.116511 -0.017136 -0.000001 -0.996440 -0.048589
-1.157493 0.033961 0.112762 -0.000260 0.241480 0.967923
0.578742 -0.065133 -0.098113 -0.000637 -0.508963 -0.858111
1.706421 0.050171 0.106543 -0.000176 0.380252 0.922281
0.838183 -0.117765 -0.000000 0.000042 -0.996411 -0.048783
1.247190 0.017191 -0.116503 0.000026 0.097315 -0.992859
-1.706231 0.017229 0.116498 -0.000467 0.096672 0.992836
1.137588 0.065089 -0.098143 -0.000099 0.509933 -0.857450
-0.678637 -0.033955 -0.112764 -0.000067 -0.241042 -0.968057
-1.107636 -0.106497 0.050268 -0.000204 -0.921890 0.381148
-0.688401 -0.017191 0.116503 -0.000015 -0.097325 0.992858
-0.918124 0.034161 -0.112701 0.000023 0.241380 -0.967979
-0.468974 -0.116496 -0.017242 0.000087 -0.992857 -0.097329
-1.417150 0.112749 0.034002 0.000017 0.968043 0.241102
-0.528864 0.017242 -0.116496 -0.000087 0.097329 -0.992857
-0.728504 -0.050137 0.106559 -0.001102 -0.376799 0.923841
0.458997 -0.065065 0.098158 0.000167 -0.509735 0.857580
-0.209671 0.050033 0.106608 -0.000003 0.379401 0.922661
-1.496779 -0.112722 0.034092 -0.000020 -0.967889 0.241694
1.616752 0.033960 0.112762 -0.000002 0.240823 0.968122
-0.488945 0.078687 0.087618 -0.002336 0.627681 0.775460
-0.339427 -0.064896 0.098271 0.000102 -0.509304 0.857827
-0.658573 0.112762 0.033958 0.000001 0.968120 0.240826
0.379178 -0.033958 -0.112762 -0.000000 -0.240817 -0.968123
0.329414 0.050029 -0.106610 0.000004 0.379359 -0.922680
-0.429198 0.116507 0.017163 0.000000 0.992882 0.097158
0.598702 -0.000000 0.117765 -0.000000 -0.048578 0.996441
0.009850 -0.017162 -0.116508 -0.000004 -0.097173 -0.992880
1.077793 0.033933 0.112770 0.000010 0.193420 0.978686
1.047601 0.017163 -0.116507 0.000000 0.097155 -0.992883
-1.616497 -0.033966 0.112760 -0.000001 -0.240826 0.968122
1.696578 -0.033962 0.112762 0.000006 -0.240904 0.968097
-0.938024 0.112743 -0.034023 0.000016 0.968029 -0.241155
0.937967 -0.000000 0.117765 0.000002 -0.048595 0.996439
0.219414 0.065348 0.097970 -0.000665 0.508780 0.858284
-0.290391 -0.268132 0.201504 -0.081682 -0.639131 -0.764748
-1.237321 0.033998 0.112751 -0.000003 0.241017 0.968073
0.818230 0.112717 0.034109 0.000006 0.967906 0.241646
1.221586 -0.104971 -0.094428 -0.074101 0.503332 -0.859365
0.109759 0.078672 0.087632 0.000287 0.590829 0.803921
0.518875 0.000000 -0.117765 0.000000 -0.048587 -0.996440
-1.087685 0.017249 -0.116495 -0.000007 0.097483 -0.992834
-1.656296 -0.112701 -0.034161 -0.000039 -0.967982 -0.241370
0.049915 -0.050092 -0.106580 -0.001008 -0.381438 -0.921690
-0.588734 -0.017242 -0.116496 -0.000087 -0.097322 -0.992858
-1.347039 -0.116495 0.017249 -0.000018 -0.992828 0.097526
-0.299475 0.065015 0.098192 -0.000033 0.467258 0.881435
-1.646442 0.017242 -0.116496 -0.000087 0.097329 -0.992857
-1.406993 -0.017249 -0.116495 -0.000072 -0.095728 -0.993091
1.536914 0.033975 0.112757 -0.000008 0.240933 0.968091
-1.157476 -0.112718 -0.034107 0.000291 -0.967496 -0.242986
0.858100 0.034110 -0.112717 0.000038 0.241709 -0.967881
-0.611087 0.088066 0.078185 0.000060 0.805955 0.588280
0.788282 -0.116496 0.017242 -0.000018 -0.992840 0.097445
-1.735990 -0.112767 0.033945 -0.000005 -0.922657 0.379431
-0.838277 0.065192 0.098074 0.000598 0.513158 0.855302
-1.027482 -0.106440 0.050389 0.000004 -0.922033 0.380915
1.117837 0.065212 0.098061 0.000011 0.510098 0.857361
-0.276822 0.171581 0.152720 -0.145803 -0.544174 0.826206
0.678532 0.033998 -0.112750 0.000000 0.241168 -0.968027
-1.147574 0.087588 0.078721 0.000624 0.775810 0.627411
-0.029071 0.555122 0.423090 0.045481 0.608949 -0.791905
0.059870 -0.000000 0.117765 -0.000013 -0.048777 0.996412
1.576612 0.065067 0.098157 -0.000724 0.505791 0.860095
0.299351 -0.117765 -0.000000 -0.000020 -0.996413 -0.048772
-0.718557 0.065189 0.098076 -0.001049 0.511813 0.856239
1.566506 0.106583 0.050086 -0.000000 0.922605 0.379545
-1.536670 -0.117765 0.000000 -0.000018 -0.996430 -0.048657
0.019979 -0.034052 0.112734 0.000295 -0.334627 0.939847
-1.107728 0.116508 0.017162 0.000008 0.992873 0.097223
1.516670 0.112748 -0.034007 -0.000246 0.968178 -0.240652
1.358981 0.169616 -0.144138 -0.077812 -0.497840 -0.862478
-0.528854 -0.116511 -0.017136 -0.000001 -0.996440 -0.048589
-1.407079 0.116508 -0.017162 0.000005 0.992876 -0.097203
-0.369210 -0.017242 -0.116496 -0.000087 -0.097329 -0.992857
0.409123 -0.116496 0.017242 0.000044 -0.992833 0.097490
-0.528726 -0.017163 0.116507 0.000006 -0.097208 0.992875
0.169756 0.050036 -0.106607 -0.000004 0.379382 -0.922671
0.209418 0.017162 -0.116508 0.000000 0.097156 -0.992882
-0.698486 0.117765 -0.000000 -0.000000 0.996441 -0.048578
-0.179611 -0.033958 0.112763 0.000003 -0.240834 0.968118
0.428942 0.017162 -0.116507 -0.000034 0.097099 -0.992891
1.324632 0.166704 0.114481 -0.071445 0.698047 -0.710305
-1.706312 0.017242 -0.116496 -0.000043 0.097221 -0.992873
-0.848162 -0.116511 -0.017136 0.000008 -0.996423 -0.048701
-0.159659 0.065055 0.098165 0.000179 0.511066 0.856692
0.888204 -0.017162 0.116508 0.000001 -0.097165 0.992881
-1.207509 0.106610 0.050029 0.000088 0.923320 0.377993
0.339265 0.000000 -0.117765 0.000000 -0.048578 -0.996441
0.279395 -0.033958 -0.112762 -0.000000 -0.240817 -0.968123
-0.049764 0.017162 0.116508 0.000000 0.097146 0.992884
0.020115 -0.352713 0.272946 0.081749 0.607539 0.790072
-0.309208 0.017173 0.116506 0.000002 0.097084 0.992893
1.783773 -0.050331 -0.106468 -0.000863 -0.472528 -0.878425
1.717254 0.113292 0.073409 -0.000000 0.609580 -0.792725
-0.247963 -0.139074 0.136402 0.005744 0.589187 0.806003
-0.193262 -0.254092 0.182178 0.045481 -0.608949 -0.791905
-1.356909 -0.098170 -0.065048 -0.000026 -0.881155 -0.467805
0.269441 0.078757 0.087555 -0.000575 0.629156 0.774231
-0.129676 -0.106559 -0.050138 0.000078 -0.880718 -0.468586
-0.181681 -0.324245 0.236789 0.003067 -0.619939 -0.784012
1.653968 0.360075 0.276886 -0.110818 0.743047 -0.660000
-0.211182 -0.464932 -0.357517 -0.081682 -0.639131 0.764748
-0.996871 -0.033037 -0.113036 0.001243 -0.235505 -0.969645
-0.282221 0.229321 0.189798 -0.145803 -0.544174 0.826206
-0.209685 0.106514 -0.050233 0.000085 0.922472 -0.379883
1.885349 -0.067162 0.053716 1.000000 0.000000 -0.000000
-0.336908 -0.114512 -0.078086 -0.081682 -0.639131 0.764748
1.067781 0.090794 -0.075000 -0.000428 0.814202 -0.578192
1.466727 -0.106573 0.050107 -0.000024 -0.922384 0.380072
1.757509 -0.337011 0.245442 -0.000000 -0.609580 -0.792725
-0.007284 0.322613 -0.252635 0.081749 -0.607539 -0.790072
-0.239488 0.112755 0.033982 0.000054 0.968126 0.240821
-1.307295 0.116508 0.017162 -0.000016 0.992878 0.097185
-0.134078 -0.208732 -0.150697 0.045481 -0.608949 0.791905
-0.217339 0.175307 0.161096 0.081749 -0.607539 0.790072
1.825330 0.123694 -0.081408 0.148259 0.621866 0.767443
1.656411 0.112755 -0.033983 -0.000008 0.968565 -0.239364
1.878574 -0.099837 -0.076771 0.214061 -0.623825 0.751678
1.771165 0.376802 0.276040 -0.014059 0.709500 -0.700098
0.036750 -0.581828 -0.447407 0.081749 0.607539 -0.790072
1.637073 0.293441 0.211938 0.000000 0.609580 -0.792725
1.757683 -0.110560 -0.040559 -0.002482 -0.900494 -0.427798
-0.201758 -0.218956 -0.154672 0.045481 -0.608949 0.791905
0.209546 0.116511 0.017136 0.000013 0.996428 0.048669
-1.387141 0.078675 -0.087628 0.000623 0.592471 -0.802341
1.624435 -0.212360 -0.149589 0.000000 -0.609580 0.792725
0.508804 0.050071 0.106590 0.000016 0.379612 0.922568
-0.159654 -0.034009 -0.112747 0.000474 -0.195426 -0.978050
-1.556722 0.065062 -0.098161 0.000011 0.467141 -0.881584
1.445557 -0.128450 -0.085065 -0.000000 -0.609580 0.792725
-0.011667 0.123520 0.099993 0.081749 -0.607539 0.790072
-0.309384 0.050207 -0.106526 -0.000457 0.377803 -0.923422
1.746462 -0.050103 0.106575 0.000190 -0.378819 0.922895
1.796107 0.058950 -0.101948 0.056431 0.495141 -0.860940
1.885349 0.000000 -0.043001 1.000000 0.000000 -0.000000
-0.399037 -0.112763 -0.033958 0.000048 -0.978706 -0.193369
-0.358897 -0.147040 0.107619 -0.081682 -0.639131 -0.764748
-1.526778 -0.078725 0.087584 -0.000530 -0.619562 0.782454
0.635976 -0.098752 0.064160 0.000471 -0.858968 0.507570
0.351918 -0.107081 -0.049013 -0.000104 -0.941652 -0.330434
-0.079842 0.034069 -0.112729 0.000040 0.241476 -0.967949
-0.059704 -0.075078 0.090730 0.002458 -0.658306 0.748411
0.508837 0.078812 -0.087505 -0.000081 0.630204 -0.773358
-1.337112 0.034108 0.112717 0.000062 0.241367 0.967977
0.875661 0.076131 0.089847 -0.000022 0.680612 0.729811
-1.706421 0.106608 0.050033 0.000007 0.922618 0.379505
0.970728 -0.077791 0.088415 -0.000170 -0.623165 0.779426
-0.096070 -0.259975 -0.192284 0.045481 -0.608949 0.791905
1.690084 -0.116110 -0.102993 -0.000000 0.609580 -0.792725
-0.139720 0.065281 -0.098015 0.000181 0.509911 -0.857538
1.780185 -0.112757 -0.100415 0.000000 0.609580 -0.792725
-0.069445 0.306105 -0.229286 0.045481 0.608949 0.791905
0.818271 0.098117 -0.065128 -0.000052 0.880895 -0.468261
-1.914711 0.069707 0.039017 -0.487131 0.716963 0.487025
-0.030729 -0.119843 -0.088280 0.045481 -0.608949 0.791905
-0.338240 0.173936 -0.143433 -0.145803 -0.544174 -0.826206
-0.195279 0.109998 -0.108593 0.081749 -0.607539 -0.790072
-0.019854 0.243824 -0.184241 0.045481 0.608949 0.791905
-0.175105 -0.113381 0.109107 0.081749 0.607539 0.790072
-1.487159 -0.078866 -0.087457 0.000086 -0.634387 -0.769598
-0.018990 0.448002 -0.341298 0.045481 0.608949 0.791905
1.227679 0.159502 0.122652 -0.110818 0.743047 -0.660000
-0.211809 0.250139 0.178073 -0.039321 0.630000 -0.774960
1.647336 0.109979 0.070861 -0.000000 0.609580 -0.792725
-0.055142 0.628348 0.492687 -0.107955 -0.556120 0.822127
-1.814587 0.096480 0.064196 -0.162741 0.875361 0.446261
-1.904461 -0.036110 0.077929 -0.496541 -0.269524 0.821047
-1.197472 -0.065116 0.098125 0.000480 -0.506518 0.859576
-0.618493 -0.075078 0.090730 -0.000696 -0.675556 0.734311
-0.147349 0.161905 0.113927 0.045481 0.608949 -0.791905
-0.356276 0.089835 0.076146 0.000029 0.729610 0.680794
-0.123921 0.234488 -0.196939 0.081749 -0.607539 -0.790072
1.327310 -0.111816 0.099692 -0.000000 0.609580 0.792725
1.531141 -0.163538 -0.139464 -0.000000 0.609580 -0.792725
-0.260015 -0.131568 -0.084128 -0.039321 -0.630000 0.774960
-0.798272 0.112762 0.033962 -0.000002 0.968117 0.240840
1.164768 -0.110694 0.078266 -0.110818 -0.743047 -0.660000
0.754683 -0.076664 0.089394 0.000102 -0.681607 0.728952
-0.012690 -0.460276 0.351098 0.045481 -0.608949 -0.791905
-1.107600 -0.116511 -0.017136 -0.000044 -0.996402 -0.048847
1.768133 0.116379 0.018010 0.001468 0.996140 0.051299
-0.055142 0.628348 -0.492687 0.000290 -0.587640 -0.806830
0.399118 -0.112711 -0.034128 -0.000298 -0.967758 -0.242130
-0.080806 0.254509 0.207872 0.081749 -0.607539 0.790072
-0.199758 -0.279781 -0.201560 -0.042355 -0.630711 0.774300
-1.577172 -0.087578 -0.078731 0.000461 -0.693384 -0.718659
-0.189656 -0.403558 0.303926 -0.081682 -0.639131 -0.764748
1.569317 -0.101271 -0.064165 0.000000 -0.609580 0.792725
-1.815650 0.115737 -0.000000 -0.179681 0.976033 0.069068
1.462275 0.124818 -0.109690 -0.000000 -0.609580 -0.792725
-0.408997 0.106602 -0.050046 0.000163 0.922749 -0.379218
1.418327 -0.072648 0.069573 -0.000000 0.609580 0.792725
1.238760 -0.113052 0.100642 -0.074101 0.503332 0.859365
0.967912 -0.116496 -0.017242 -0.000770 -0.992931 -0.096810
1.798248 -0.250248 -0.178724 0.143137 -0.621550 0.768458
-0.156888 0.164509 -0.146538 0.081749 -0.607539 -0.790072
1.237331 0.112733 -0.034054 0.000010 0.967980 -0.241370
1.470057 0.170230 -0.144610 0.000000 -0.609580 -0.792725
0.301196 -0.076734 0.089334 -0.002014 -0.679264 0.730861
1.076308 -0.077948 0.062681 -0.110818 0.447029 0.887628
1.829165 -0.033623 -0.100525 0.337253 -0.257693 -0.902437
0.678526 -0.112742 0.034025 -0.000030 -0.967994 0.241297
1.684053 0.201222 0.168442 0.000000 -0.609580 0.792725
1.708144 0.261988 -0.215169 0.000000 -0.609580 -0.792725
1.575891 -0.121993 0.107518 0.000000 0.609580 0.792725
-0.173220 0.393853 0.294059 -0.081682 0.639131 -0.764748
1.341806 -0.174785 0.120695 -0.074101 -0.701271 -0.707156
1.125370 0.111364 0.085635 -0.110818 0.743047 -0.660000
-0.061201 -0.459157 0.363212 0.081749 0.607539 0.790072
1.247255 0.116495 0.017249 -0.000008 0.992846 0.097403
-0.175655 0.322552 -0.270009 0.005744 -0.589187 -0.806003
-1.756184 0.034097 0.112721 0.000049 0.242166 0.967764
-0.128662 0.503909 -0.397752 -0.145803 -0.544174 -0.826206
-1.796107 -0.040106 -0.110725 -0.017311 -0.341515 -0.937471
-0.073219 -0.582479 0.459286 0.007930 0.589710 0.805538
-0.032147 -0.332625 -0.251821 0.045481 -0.608949 0.791905
1.798913 -0.382762 -0.299472 0.214061 0.566251 -0.795950
1.680483 -0.221000 -0.183651 0.000000 0.609580 -0.792725
1.558080 0.204370 -0.170863 0.000000 -0.609580 -0.792725
-1.909489 0.000000 -0.083022 -0.469089 -0.072371 -0.873495
1.664514 0.225645 -0.159805 -0.000000 0.609580 0.792725
1.685149 0.280487 0.229394 0.000000 -0.609580 0.792725
0.036750 0.124869 0.096021 0.045481 0.608949 -0.791905
-0.223020 0.191946 -0.132681 0.045481 0.608949 0.791905
1.254980 0.072648 -0.069573 -0.000000 -0.792725 0.609580
-0.635880 -0.098832 -0.064038 0.000073 -0.862581 -0.501837
1.402920 -0.127143 0.084060 0.000000 -0.609580 -0.792725
-0.187707 0.309424 0.225046 -0.063536 0.635276 -0.769194
-0.358897 0.147040 -0.107619 -0.081682 0.639131 0.764748
0.036750 -0.376984 -0.289889 0.081749 0.607539 -0.790072
-0.149703 0.106567 0.050120 -0.002037 0.923829 0.376705
1.613167 0.214721 0.178822 -0.000000 -0.609580 0.792725
0.918107 -0.098149 0.065079 -0.000339 -0.857389 0.510088
1.802284 -0.124948 0.082372 -0.000000 -0.609580 -0.792725
1.617074 0.158010 0.135214 0.000000 -0.609580 0.792725
-0.185211 -0.091261 -0.074510 -0.000000 0.792725 0.609580
1.852107 -0.073549 -0.047417 0.214061 -0.623825 0.751678
1.152888 -0.085897 -0.052343 -0.083989 -0.712993 0.695071
1.739251 0.315658 -0.256439 0.000000 -0.609580 -0.792725
1.538866 0.119234 -0.077979 0.000000 0.609580 0.792725
0.139815 -0.098120 -0.065123 -0.000803 -0.808978 -0.584466
-0.110634 0.432554 -0.347870 0.081749 -0.607539 -0.790072
-0.025013 -0.704797 0.548357 0.056478 0.601751 0.795799
-0.016678 -0.383477 0.291813 0.045481 -0.608949 -0.791905
-1.166124 -0.062470 -0.099830 -0.000716 -0.566633 -0.821393
-0.143532 -0.147621 0.103162 0.045481 -0.608949 -0.791905
-0.229886 -0.205675 0.142844 0.003067 -0.619939 -0.784012
0.169731 -0.087613 0.078692 -0.000057 -0.774827 0.628507
-0.381647 -0.114320 0.082704 -0.081682 -0.639131 -0.764748
1.600485 -0.256078 0.183207 -0.000000 -0.609580 -0.792725
-0.145527 -0.399001 -0.325679 0.005744 0.589187 -0.806003
-0.009949 0.502416 0.383660 0.045481 0.608949 -0.791905
-0.074099 0.172029 -0.125919 0.045481 0.608949 0.791905
-1.267378 0.087627 -0.078676 0.000841 0.775613 -0.627620
0.369248 0.078750 -0.087562 -0.001395 0.630420 -0.773108
1.531141 0.163538 -0.139464 0.000000 -0.609580 -0.792725
-0.247963 0.161211 0.107614 -0.039321 0.630000 -0.774960
1.516722 -0.065066 -0.098158 0.000263 -0.509080 -0.858017
-0.004425 -0.537012 0.410580 0.045481 -0.608949 -0.791905
1.691114 -0.280623 0.202081 -0.000000 -0.609580 -0.792725
-0.095034 -0.650720 0.500382 -0.145803 0.544174 0.826206
0.021102 -0.175511 -0.136581 0.081749 0.607539 -0.790072
1.756548 0.065260 -0.063892 -0.036304 -0.792202 0.609178
1.411170 0.076518 -0.089518 -0.000704 0.608656 -0.791225
-0.290646 -0.218693 -0.160213 -0.081682 -0.639131 0.764748
-0.089518 0.208386 0.173307 0.081749 -0.607539 0.790072
-0.104957 -0.417090 0.312590 0.045481 -0.608949 -0.791905
1.721979 0.099724 -0.090393 -0.000000 -0.609580 -0.792725
1.316235 -0.085897 -0.052343 0.000000 0.792725 0.609580
-0.021065 0.262889 0.198833 0.045481 0.608949 -0.791905
-1.848722 -0.094739 0.053472 -0.320355 -0.826644 0.453655
1.486510 0.138593 0.092864 -0.000000 0.609580 -0.792725
1.498515 -0.192456 0.134283 0.000000 -0.609580 -0.792725
-0.247963 0.139074 -0.136402 0.005744 -0.589187 -0.806003
1.585949 -0.210874 0.148447 0.000000 -0.609580 -0.792725
-0.015267 -0.226930 0.179884 0.081749 0.607539 0.790072
-0.196076 0.450351 0.343718 -0.081682 0.639131 -0.764748
-0.235979 0.266384 -0.222369 -0.145803 -0.544174 -0.826206
-0.178019 -0.429512 0.340041 -0.145803 0.544174 0.826206
0.042856 -0.086697 -0.079701 0.000757 -0.718085 -0.693380
1.234562 -0.085897 -0.052343 0.000000 0.792725 0.609580
1.788092 0.297706 0.215217 0.143137 0.621550 -0.768458
1.801633 0.234429 0.166559 0.143137 0.621550 -0.768458
1.791477 0.268638 -0.220282 0.071783 -0.597495 -0.796987
1.771467 0.172342 0.146234 -0.000000 -0.609580 0.792725
1.037753 0.065063 -0.098160 0.000913 0.507739 -0.858894
-0.029902 0.106748 -0.078257 0.045481 0.608949 0.791905
-0.049058 -0.405857 -0.307163 0.045481 -0.608949 0.791905
-0.125441 -0.297349 -0.219337 0.045481 -0.608949 0.791905
-0.122749 0.107701 -0.099322 0.081749 -0.607539 -0.790072
1.623676 -0.159557 0.136403 -0.000000 0.609580 0.792725
0.007878 0.126917 -0.100582 0.081749 -0.607539 -0.790072
-0.153306 0.278760 0.203442 0.045481 0.608949 -0.791905
0.766771 -0.098811 -0.064070 -0.000348 -0.858493 -0.508301
-0.380938 -0.193395 -0.148714 -0.081682 -0.639131 0.764748
-0.294798 -0.177218 -0.125994 -0.081682 -0.639131 0.764748
1.582247 -0.274666 0.224918 -0.074101 0.503332 0.859365
1.290283 0.137294 0.119283 -0.074101 -0.503332 0.859365
1.221586 0.104971 0.094428 -0.074101 -0.503332 0.859365
-0.529235 0.078866 -0.087457 -0.001056 0.642235 -0.762532
-1.854625 0.075765 -0.075642 -0.250709 0.646438 -0.714616
0.309265 0.106479 -0.050306 -0.000910 0.882448 -0.465682
0.905039 -0.100247 -0.061799 0.000739 -0.823290 -0.563968
-0.336025 -0.135226 -0.118328 -0.145803 0.544174 -0.826206
1.796017 -0.077372 -0.045788 0.000000 -0.609580 0.792725
-0.121424 0.460160 0.370214 -0.070106 -0.568066 0.818048
-0.022095 0.362980 -0.275741 0.045481 0.608949 0.791905
-0.145000 -0.138576 -0.125366 0.081749 0.607539 -0.790072
1.684324 -0.160175 -0.109460 0.000000 -0.609580 0.792725
1.411534 -0.155908 0.133597 0.000000 0.609580 0.792725
-0.309462 0.307726 0.236631 -0.081682 0.639131 -0.764748
1.596608 -0.125101 -0.109907 0.000000 0.609580 -0.792725
-1.879691 0.018025 0.096288 -0.349675 0.206163 0.911257
0.202431 0.098314 -0.064829 -0.001857 0.865770 -0.496643
1.393329 -0.185778 -0.156566 -0.071445 0.507203 -0.857057
1.393329 0.199027 -0.139336 -0.071445 0.698047 0.710305
-0.211809 0.250139 -0.178073 0.003067 0.619939 0.784012
1.461856 0.214494 -0.151230 0.000000 0.609580 0.792725
-0.171978 0.191810 0.135508 0.045481 0.608949 -0.791905
1.835486 0.076236 0.044914 0.190531 0.623345 -0.757602
1.650945 0.320237 -0.232543 -0.074101 0.701271 0.707156
1.706376 0.311327 0.253109 0.000000 -0.609580 0.792725
-0.246299 -0.269688 0.198095 -0.081682 -0.639131 -0.764748
1.366813 0.120078 0.078627 0.000000 0.609580 -0.792725
1.107548 -0.106531 0.050196 -0.001104 -0.922438 0.379986
1.813956 -0.000000 0.111412 0.335611 0.049708 0.938022
-0.245080 0.258888 0.215826 -0.145803 -0.544174 0.826206
-0.155311 -0.213211 0.152921 0.045481 -0.608949 -0.791905
-0.172896 0.131367 0.088977 0.045481 0.608949 -0.791905
-0.216121 -0.131072 0.086267 0.045481 -0.608949 -0.791905
1.656422 -0.098011 -0.065286 0.000389 -0.856202 -0.511931
1.702890 0.205536 -0.144342 -0.000000 0.609580 0.792725
-0.273068 -0.297304 -0.224034 -0.081682 -0.639131 0.764748
1.343100 -0.121681 -0.079860 -0.000000 -0.609580 0.792725
1.564627 0.121824 0.107387 -0.000000 -0.609580 0.792725
1.760280 0.236771 -0.195778 0.000000 -0.609580 -0.792725
1.784707 -0.300276 0.244611 0.143137 0.583053 0.798062
-0.020990 0.514571 -0.401663 0.081749 -0.607539 -0.790072
-0.170604 0.295735 -0.215501 0.045481 0.608949 0.791905
1.204411 0.110139 -0.070985 -0.071445 0.698047 0.710305
1.607596 0.259393 -0.185756 0.000000 0.609580 0.792725
1.757100 0.265642 0.190562 0.000000 0.609580 -0.792725
1.841050 0.064588 -0.078646 0.337400 0.536279 -0.770100
1.702468 -0.344479 0.251185 -0.074101 -0.701271 -0.707156
1.702468 0.344479 -0.251185 -0.074101 0.701271 0.707156
-0.297510 0.245429 -0.197709 -0.145803 -0.544174 -0.826206
-0.003812 -0.454775 -0.347378 0.045481 -0.608949 0.791905
1.558080 0.204370 0.170863 0.000000 -0.609580 0.792725
-0.142619 -0.370812 0.274841 0.045481 -0.608949 -0.791905
-0.008861 0.428231 0.334015 0.081749 -0.607539 0.790072
-0.091296 -0.546565 0.412937 0.003067 -0.619939 -0.784012
-0.009860 -0.158263 0.119022 0.045481 -0.608949 -0.791905
1.528503 -0.120275 -0.106196 0.000000 0.609580 -0.792725
1.804540 0.333321 0.249458 0.214061 0.623825 -0.751678
-0.061269 0.382250 -0.288308 0.045481 0.608949 0.791905
-0.104610 -0.216807 -0.181344 0.081749 0.607539 -0.790072
-0.175628 0.436490 -0.329950 -0.081682 0.639131 0.764748
-0.266199 0.306207 0.243265 -0.145803 -0.544174 0.826206
-0.164035 -0.462316 -0.364115 -0.145803 0.544174 -0.826206
-1.859784 0.019792 -0.103551 -0.265032 0.230992 -0.931332
1.885349 -0.021500 -0.000000 1.000000 0.000000 -0.000000
0.036750 -0.629099 0.483757 0.081749 0.607539 0.790072
1.299886 0.122141 -0.080214 0.000000 0.609580 0.792725
1.828004 -0.279910 0.211814 0.214061 -0.623825 -0.751678
1.831391 0.260770 -0.203951 0.214061 -0.566251 -0.795950
1.451806 -0.153994 0.104708 -0.000000 -0.609580 -0.792725
-1.970004 0.030372 -0.015248 -0.727657 0.562269 -0.381255
1.753635 0.161932 -0.138229 -0.000000 -0.609580 -0.792725
-0.014173 -0.296316 -0.233127 0.081749 0.607539 -0.790072
1.423324 -0.144444 -0.124782 0.000000 0.609580 -0.792725
1.630249 0.117464 -0.076617 -0.000000 0.609580 0.792725
-0.312008 0.217651 0.161624 -0.081682 0.639131 -0.764748
1.489004 -0.107380 -0.096281 -0.000000 0.609580 -0.792725
-1.228634 -0.061790 -0.100252 0.000861 -0.601672 -0.795841
1.885349 -0.020766 0.043294 1.000000 0.000000 0.000000
1.619159 -0.064029 -0.098837 -0.000590 -0.502861 -0.861943
-0.017158 -0.076088 0.089885 -0.001193 -0.681195 0.729269
-0.119204 0.429442 0.321270 0.045481 0.608949 -0.791905
0.381080 -0.066846 0.096955 0.003453 -0.510303 0.857164
1.637073 -0.280193 -0.229168 0.000000 0.609580 -0.792725
1.489004 -0.107380 0.096281 0.000000 0.609580 0.792725
-0.281164 0.131165 -0.086050 -0.081682 0.639131 0.764748
-0.446383 0.088394 0.077814 0.000009 0.781036 0.621219
1.592515 -0.251151 -0.179418 0.000000 -0.609580 0.792725
-0.516536 0.099951 0.062277 0.001707 0.804453 0.591103
1.532549 -0.244821 -0.174551 0.000000 -0.609580 0.792725
1.368342 -0.096626 0.060593 -0.000000 -0.609580 -0.792725
-1.426463 -0.060632 -0.100957 -0.001812 -0.554487 -0.829318
-0.067946 0.538737 -0.425104 0.081749 -0.607539 -0.790072
0.013770 0.678741 0.524307 0.081749 -0.607539 0.790072
-0.281407 -0.092598 -0.099889 -0.145803 0.544174 -0.826206
-0.688590 0.087593 -0.078714 -0.000736 0.780886 -0.621301
-0.089404 0.132766 -0.115146 0.081749 -0.607539 -0.790072
-0.399082 0.065164 0.098093 0.000260 0.510493 0.857129
1.547899 0.271753 0.195261 -0.076753 0.704440 -0.703947
-0.176572 0.479159 -0.372996 -0.145803 -0.544174 -0.826206
1.622168 -0.217665 0.181086 0.000000 0.609580 0.792725
1.057713 -0.065055 -0.098165 0.000341 -0.509714 -0.857591
-1.756318 0.098052 0.065226 -0.000525 0.857850 0.509394
1.742209 -0.098466 -0.089426 0.000000 0.609580 -0.792725
-0.238009 0.353505 0.267259 -0.081682 0.639131 -0.764748
-0.117658 -0.085635 0.081827 0.081749 0.607539 0.790072
-0.212411 -0.181160 -0.124996 0.045481 -0.608949 0.791905
-0.287473 -0.101083 0.060421 0.000048 -0.821317 0.566505
-0.938294 0.074990 0.090802 0.001001 0.678578 0.731565
-1.469764 0.078136 -0.088109 0.001783 0.616613 -0.784935
-1.074979 -0.033272 -0.112967 -0.000001 -0.236823 -0.969257
1.682744 0.166197 0.141509 -0.000000 -0.609580 0.792725
-1.387008 0.049998 0.106624 -0.000079 0.333028 0.940492
-0.079709 -0.629957 -0.489411 -0.145803 0.544174 -0.826206
1.719052 0.128840 0.112783 0.000000 -0.609580 0.792725
-0.106394 -0.556256 -0.436160 -0.145803 0.544174 -0.826206
-0.058946 -0.380583 0.302557 0.081749 0.607539 0.790072
-0.243115 0.090617 -0.075347 0.000000 -0.792725 0.609580
