0.060286 0.169814 -0.169903 0.059467 -0.674440 -0.735931
1.040241 0.018376 -0.093801 -0.000802 0.312826 -0.945032
-0.207594 0.122516 0.122402 -0.046712 -0.646123 0.761802
0.152711 0.291989 0.258923 0.075617 0.673701 -0.735125
0.236983 -0.346578 0.317619 0.075617 -0.673701 -0.735125
-0.200189 -0.218192 0.204003 -0.046712 0.646123 0.761802
0.236983 0.128597 0.117852 0.075617 0.673701 -0.735125
0.001347 -0.374917 -0.335730 -0.059396 -0.709592 0.702105
1.098777 -0.093495 -0.078936 -0.034656 -0.707849 0.705513
0.111170 -0.293195 0.278863 0.059467 0.674440 0.735931
1.169881 -0.120112 0.117372 -0.034656 0.641229 0.766566
-1.128184 0.086052 0.041610 -0.000438 0.901254 0.425473
-0.074579 -0.390175 0.357573 -0.059396 -0.709592 -0.702105
1.455592 -0.351953 0.324223 -0.034656 0.641229 0.766566
0.281618 -0.048290 -0.082489 -0.001939 -0.447253 -0.890122
1.062704 -0.113513 0.100792 -0.034656 -0.707849 -0.705513
0.322205 -0.047548 0.082919 0.000322 -0.503747 0.859559
0.144378 -0.122481 0.119730 0.059467 0.674440 0.735931
-1.472816 0.094807 -0.000000 -0.113328 0.988827 -0.037971
1.450577 -0.141746 -0.123180 0.056801 -0.677497 0.733329
1.336741 -0.077140 -0.084816 -0.000000 0.675635 -0.737236
1.437223 -0.278879 -0.262266 0.028505 0.662733 -0.747985
1.437223 0.278879 -0.262266 0.028505 -0.662733 -0.747985
0.047931 -0.206701 0.169983 0.075617 -0.673701 -0.735125
0.443227 0.031188 0.090353 0.000484 0.323605 0.941158
0.039872 -0.492937 -0.451749 -0.059396 -0.709592 0.702105
1.211478 -0.039332 -0.087117 0.000676 -0.408107 -0.909086
1.253530 -0.172760 -0.165194 -0.034656 0.641229 -0.766566
0.731604 -0.000000 0.095584 0.005132 -0.102942 0.991327
-0.397065 0.066112 -0.069033 0.002837 0.672197 -0.736592
-0.815827 -0.063784 0.071190 0.000019 -0.584039 0.807259
-0.100831 -0.282153 -0.264345 -0.046712 0.646123 -0.761802
0.873275 -0.071207 0.063765 -0.000440 -0.749156 0.657271
-0.867614 0.055721 -0.077663 -0.000047 0.579792 -0.810350
0.197819 -0.552034 -0.501880 0.060639 -0.678214 0.732011
0.023712 0.208899 0.169506 0.075617 0.673701 -0.735125
0.100248 0.057440 -0.076400 -0.000031 0.605918 -0.790973
0.695366 -0.086142 -0.041424 -0.001212 -0.899212 -0.429391
-0.489682 -0.043519 -0.085103 -0.000920 -0.451414 -0.888251
-1.111757 -0.073479 -0.061133 0.000025 -0.760928 -0.643312
0.785863 -0.081081 0.050618 -0.000193 -0.789782 0.607487
-0.137990 -0.020711 -0.093313 0.000208 -0.308819 -0.947028
0.641744 0.090611 0.030431 -0.000516 0.950041 0.298919
-1.230758 -0.060581 0.073935 0.000127 -0.707770 0.701392
-1.366777 0.043007 0.085363 0.000351 0.537176 0.839113
0.506489 -0.083447 0.046615 0.000287 -0.820425 0.565504
-0.924546 0.070807 0.064208 0.000346 0.805010 0.587331
1.489389 -0.241445 0.218294 0.056801 -0.677497 -0.733329
-0.034995 0.411096 -0.377744 -0.046712 -0.646123 -0.761802
1.274598 0.158095 0.153879 -0.034656 -0.641229 0.766566
-0.729768 0.083212 -0.047033 -0.000442 0.867268 -0.490250
0.087090 0.081511 0.086812 0.059467 -0.674440 0.735931
-0.101740 0.132723 -0.137550 -0.046712 -0.646123 -0.761802
1.455085 -0.161750 0.142011 0.056801 -0.677497 -0.733329
-0.421938 -0.093337 -0.020603 -0.000260 -0.967978 -0.237012
0.866814 -0.044981 -0.084339 -0.000020 -0.555362 -0.827060
-0.786409 0.042365 0.085683 -0.000085 0.531557 0.842540
1.358121 0.095548 -0.101686 0.018941 -0.674466 -0.737941
0.598793 -0.059072 0.075146 0.000116 -0.626876 0.774542
1.229718 0.163057 -0.156000 -0.034656 -0.641229 -0.766566
0.175526 -0.422325 -0.380715 0.075617 -0.673701 0.735125
0.174461 -0.497386 0.449395 0.075617 -0.673701 -0.735125
-0.255812 0.125396 -0.121888 -0.046712 -0.646123 -0.761802
0.065998 -0.103531 -0.077292 0.075617 -0.673701 0.735125
0.137544 -0.021640 -0.093103 0.001828 -0.343985 -0.933687
-0.233212 -0.123326 -0.121518 -0.046712 0.646123 -0.761802
0.267288 0.063064 0.071828 0.000054 0.660125 0.746367
-0.214464 0.264576 0.242469 -0.059396 0.709592 -0.702105
-0.061202 0.094590 -0.013751 -0.001211 0.971030 -0.226424
-0.151607 -0.229681 -0.216727 -0.046712 0.646123 -0.761802
1.433141 -0.095584 -0.000000 0.008677 -0.994513 -0.059282
0.375372 -0.071188 -0.063786 -0.000462 -0.731084 -0.677458
0.005065 -0.317547 0.300857 -0.046712 0.646123 0.761802
-0.100013 0.367338 0.336645 -0.059396 0.709592 -0.702105
-1.078250 -0.094353 0.015295 0.000171 -0.967940 0.237764
0.368822 0.093509 0.019809 -0.001058 0.950875 0.299141
0.152711 0.291989 -0.258923 0.075617 0.673701 0.735125
-0.286538 -0.116093 0.112113 -0.046712 0.646123 0.761802
-0.207783 -0.166688 0.142972 -0.059396 -0.709592 -0.702105
-1.144295 0.034748 -0.089045 -0.000921 0.344248 -0.933313
-0.278048 0.207485 0.190148 -0.059396 0.709592 -0.702105
0.052589 -0.504355 0.462213 -0.059396 -0.709592 -0.702105
-0.459021 0.060279 0.074181 0.000068 0.631265 0.770870
1.384307 0.088670 0.035693 -0.001184 0.881001 0.465371
-0.200189 0.218192 -0.204003 -0.046712 -0.646123 -0.761802
0.133849 0.419503 0.373843 0.075617 0.673701 -0.735125
0.141902 0.215378 0.205065 0.059467 -0.674440 0.735931
0.159215 0.181104 -0.172255 0.059467 -0.674440 -0.735931
-0.139230 0.243079 0.228849 -0.046712 -0.646123 0.761802
1.005548 -0.074005 -0.060495 -0.000001 -0.701251 -0.707862
0.592730 -0.062882 -0.071988 -0.000366 -0.653570 -0.752316
1.347989 -0.016530 0.094144 0.000310 -0.254004 0.963599
0.236983 0.375642 -0.344255 0.075617 0.673701 0.735125
0.236983 0.186725 0.171123 0.075617 0.673701 -0.735125
0.057611 0.381267 0.358123 -0.046712 -0.646123 0.761802
0.052589 0.504355 0.462213 -0.059396 0.709592 -0.702105
1.273495 0.109981 -0.113582 -0.034656 -0.641229 -0.766566
-1.588807 0.031012 -0.047582 -0.561836 0.447594 -0.680527
-0.033343 0.155619 0.161163 -0.046712 -0.646123 0.761802
-0.165578 0.091539 -0.098705 -0.046712 -0.646123 -0.761802
0.622736 0.037498 -0.087922 -0.003222 0.291146 -0.952590
0.144954 0.094063 -0.016986 -0.001543 0.961013 -0.264957
0.063917 -0.108815 0.081921 0.075617 -0.673701 -0.735125
0.161733 -0.353686 -0.316393 0.075617 -0.673701 0.735125
0.055440 -0.437023 -0.393922 -0.059396 -0.709592 0.702105
1.437223 -0.278879 0.262266 -0.004161 0.651898 0.757927
-1.213858 0.089629 0.033212 0.001519 0.932876 0.349451
-0.631384 0.095584 -0.000000 -0.001005 0.989908 -0.121955
1.447540 0.110300 0.093893 0.056801 0.677497 -0.733329
1.527560 0.244067 0.223673 0.056801 -0.671581 0.738751
1.527560 -0.244067 -0.223673 0.056801 0.671581 -0.738751
1.527560 0.244067 -0.223673 0.056801 -0.671581 -0.738751
-0.528463 -0.055647 0.077716 -0.000635 -0.578072 0.810263
-0.571252 -0.095584 0.000000 -0.000670 -0.991302 -0.082992
-0.379783 -0.116141 -0.106436 -0.059396 -0.709592 0.702105
0.236983 0.114065 -0.104534 0.075617 0.673701 0.735125
-0.959895 -0.094628 -0.013486 -0.000129 -0.973377 -0.215731
-1.052307 -0.000000 0.095584 -0.002039 -0.139698 0.985940
-0.062351 0.199687 -0.164020 -0.059396 0.709592 0.702105
-0.679917 -0.078654 0.054313 -0.000417 -0.817291 0.570165
1.123039 0.111787 0.108291 -0.034656 -0.641229 0.766566
-0.139779 0.088394 0.097620 -0.046712 -0.646123 0.761802
-0.580615 0.024279 -0.092449 0.000604 0.379756 -0.918532
1.533140 -0.049365 -0.079234 0.025440 -0.478376 -0.874468
-0.405402 -0.080050 0.052233 0.001774 -0.788046 0.611509
0.072752 0.301648 0.289714 0.059467 -0.674440 0.735931
0.153844 -0.244819 0.231081 0.059467 0.674440 0.735931
0.087870 0.345342 -0.301148 0.075617 0.673701 0.735125
0.097620 -0.243992 -0.234867 0.059467 0.674440 -0.735931
-0.478184 0.094025 -0.017196 -0.002409 0.967436 -0.239401
-0.043512 -0.182733 0.183536 -0.046712 0.646123 0.761802
1.534565 0.170953 0.156669 0.056801 -0.671581 0.738751
1.534565 0.170953 -0.156669 0.056801 -0.671581 -0.738751
1.242335 0.075708 0.083504 -0.023108 -0.652876 0.756993
0.575014 0.058040 0.075945 -0.000968 0.603846 0.793172
1.229464 0.038339 -0.087558 0.000790 0.403993 -0.910851
-0.148547 -0.084562 0.044560 0.000015 -0.850775 0.518632
1.270826 -0.123950 -0.101041 -0.034656 -0.707849 0.705513
0.498624 0.071319 -0.063639 -0.000043 0.748295 -0.657898
0.077531 -0.352672 0.306802 0.031915 -0.686478 -0.725635
0.394717 0.066305 -0.068848 -0.000030 0.610033 -0.787832
-0.071534 0.301882 0.282874 -0.046712 -0.646123 0.761802
-0.992175 0.095584 -0.000000 0.002184 0.989360 -0.117530
0.093604 0.483070 -0.446675 -0.046712 -0.646123 -0.761802
-0.096958 -0.167536 -0.134453 -0.059396 -0.709592 0.702105
0.218624 0.094655 -0.013296 0.002380 0.974207 -0.213285
-1.249158 -0.070550 -0.064490 -0.000428 -0.659025 -0.747529
0.054534 0.111436 -0.116868 0.059467 -0.674440 -0.735931
0.163960 0.022455 0.092909 0.001103 0.347159 0.932400
-0.138183 -0.251426 0.222725 -0.059396 -0.709592 -0.702105
-0.267571 -0.087140 0.039281 -0.000324 -0.863382 0.497246
0.084252 -0.403825 0.357933 -0.059396 -0.709592 -0.702105
0.417474 -0.094739 0.012687 -0.002028 -0.974257 0.213598
1.453185 -0.053179 0.079425 0.008649 -0.469607 0.879165
0.774547 0.089932 -0.032383 -0.001080 0.896938 -0.433920
-1.435865 0.060533 0.073974 -0.014670 0.631441 0.770999
1.474671 0.087038 -0.084989 0.056801 -0.671581 -0.738751
1.152335 0.181008 0.167518 -0.034656 -0.641229 0.766566
-1.498336 -0.028009 -0.087141 -0.224633 -0.326857 -0.911070
0.164810 0.526322 0.474921 -0.014378 0.698821 -0.714351
-0.936964 -0.070108 0.064971 0.000007 -0.729128 0.679098
0.180863 -0.067169 0.068005 -0.000005 -0.628280 0.773373
1.109150 -0.082681 0.047961 0.000135 -0.804426 0.588022
1.161265 -0.087698 -0.038018 -0.000707 -0.913850 -0.397324
0.217519 0.223765 -0.203066 0.075617 0.673701 0.735125
-1.004635 -0.022456 -0.092909 0.000374 -0.260910 -0.961448
1.394448 -0.169044 -0.165707 0.056801 0.671581 -0.738751
-1.488879 -0.043685 0.082156 -0.142288 -0.370565 0.912851
0.085102 0.173437 0.171218 0.059467 -0.674440 0.735931
1.211228 -0.168396 0.148561 -0.034656 -0.707849 -0.705513
0.160320 -0.179335 -0.156464 0.075617 -0.673701 0.735125
0.901350 0.013117 0.094680 0.000055 0.228668 0.970132
1.153398 0.149022 -0.140810 -0.034656 -0.641229 -0.766566
-0.195359 0.022384 -0.092926 -0.002480 0.271704 -0.957978
-1.264540 0.022816 -0.092821 -0.000247 0.349760 -0.931397
-0.131427 0.318238 -0.289678 -0.059396 0.709592 0.702105
-0.008528 -0.096628 -0.063300 0.075617 -0.673701 0.735125
0.052998 -0.342423 -0.298520 -0.059396 -0.709592 0.702105
1.170802 -0.175769 -0.157944 -0.034656 -0.707849 0.705513
1.194618 -0.046078 0.083745 0.000318 -0.565789 0.819991
1.022085 -0.065243 0.069855 -0.000148 -0.678090 0.730203
0.032878 -0.180497 -0.144420 0.075617 -0.673701 0.735125
1.544373 -0.057504 0.042940 1.000000 0.000000 0.000000
1.499933 0.354594 -0.323646 0.056801 0.677497 0.733329
1.247182 -0.080964 0.050806 0.000043 -0.844790 0.528050
1.156974 0.089598 -0.033296 -0.001047 0.892853 -0.442259
0.236983 0.462835 0.424162 0.075617 0.673701 -0.735125
1.296458 -0.221808 -0.197963 -0.034656 -0.707849 0.705513
0.042345 0.423518 -0.381381 -0.059396 0.709592 0.702105
-1.272790 -0.000000 0.095584 0.002854 -0.126072 0.986537
1.352905 -0.094463 -0.014596 0.000034 -0.963548 -0.254110
0.763631 -0.093442 -0.020122 0.000073 -0.940789 -0.324628
0.077799 -0.158879 0.129230 0.075617 -0.673701 -0.735125
-0.286538 0.122570 0.105046 -0.059396 0.709592 -0.702105
0.273025 0.067326 -0.067849 -0.000033 0.707695 -0.701383
1.394448 0.179791 -0.153981 0.056801 0.677497 0.733329
1.337109 -0.241599 0.215823 -0.034656 -0.707849 -0.705513
-0.036603 -0.125591 0.086955 0.035138 -0.685634 -0.726436
1.544373 0.048428 -0.049531 1.000000 -0.000000 0.000000
1.544373 0.048428 0.049531 1.000000 -0.000000 -0.000000
0.761047 0.044871 -0.084398 0.000271 0.358957 -0.927756
-0.119416 0.205172 0.174391 -0.059396 0.709592 -0.702105
-0.798886 0.082818 -0.047724 0.000268 0.862694 -0.498163
-0.266370 -0.090896 -0.029567 -0.000666 -0.948736 -0.302040
0.158096 -0.505747 -0.469863 0.024081 0.665704 -0.745352
1.361226 0.263103 0.245634 -0.034656 -0.641229 0.766566
-0.238658 -0.176705 -0.166458 -0.046712 0.646123 -0.761802
0.189698 0.371184 0.335305 0.075617 0.673701 -0.735125
0.797502 0.065917 0.069220 -0.000001 0.758301 0.646311
0.900415 0.033621 -0.089476 0.000116 0.339779 -0.935242
0.866640 0.065978 0.069161 -0.000066 0.687335 0.721385
-1.272790 0.095584 -0.000000 0.001025 0.995373 -0.055841
-0.712604 0.031922 -0.090096 -0.001072 0.425582 -0.900946
-1.111919 0.038842 0.087336 -0.000824 0.406502 0.909745
0.088231 -0.228752 0.221658 0.059467 0.674440 0.735931
0.524918 -0.062978 -0.071904 -0.000496 -0.654144 -0.751899
-1.604164 0.016455 0.043470 -0.562476 0.427578 0.692133
1.499933 0.354594 0.323646 0.041563 0.682847 -0.728995
1.499933 -0.354594 -0.323646 0.041563 -0.682847 0.728995
1.349822 0.051899 0.080267 -0.000424 0.543333 0.835089
0.152694 0.108609 0.106345 0.059467 -0.674440 0.735931
0.220484 -0.017153 -0.094033 -0.001143 -0.119296 -0.989287
-0.014496 -0.242856 -0.236309 -0.046712 0.646123 -0.761802
1.074262 0.051001 0.080841 -0.000927 0.441594 0.893191
0.170101 -0.411975 0.370672 0.075617 -0.673701 -0.735125
1.315652 -0.067964 0.067210 0.000005 -0.710362 0.698750
0.132119 -0.109366 -0.108701 0.059467 0.674440 -0.735931
-0.562738 0.084052 -0.045515 0.000736 0.869388 -0.486823
0.004687 0.332287 -0.292362 -0.059396 0.709592 0.702105
-0.887731 -0.083359 -0.046772 -0.000278 -0.868740 -0.487658
1.408862 0.199688 0.192456 0.056801 -0.671581 0.738751
-1.333144 0.026034 -0.091971 -0.000785 0.364643 -0.926854
0.171524 0.539680 -0.487853 0.033632 0.685967 0.725999
-0.132790 -0.080405 -0.051685 -0.000382 -0.844459 -0.529610
-0.130114 -0.033768 0.089421 -0.000212 -0.293454 0.952217
-0.239924 -0.047316 0.083051 0.001526 -0.461523 0.883754
0.217051 0.325542 -0.296290 0.075617 0.673701 0.735125
0.174373 0.407677 -0.367172 0.075617 0.673701 0.735125
-0.159640 -0.136619 0.108510 -0.059396 -0.709592 -0.702105
-0.096102 0.083934 0.049887 -0.059396 0.709592 -0.702105
-0.161499 0.155801 0.153459 -0.046712 -0.646123 0.761802
0.236983 -0.433771 -0.397526 0.075617 -0.673701 0.735125
-1.418545 0.088378 -0.036411 0.000381 0.923823 -0.372624
0.264933 -0.088845 -0.035256 0.001127 -0.936952 -0.335192
-0.525582 -0.084834 -0.044041 -0.000603 -0.884368 -0.458546
-0.010022 -0.000000 -0.095584 0.001833 -0.052572 -0.996169
-0.371043 0.017938 0.093886 -0.002825 0.202955 0.976300
1.281461 0.089115 0.034567 0.000330 0.931910 0.348568
0.044328 0.245875 -0.205514 0.075617 0.673701 0.735125
-0.035714 0.365352 -0.329198 -0.059396 0.709592 0.702105
-0.138163 -0.333084 0.305253 -0.059396 -0.709592 -0.702105
1.533164 -0.185576 -0.170070 0.056801 0.671581 -0.738751
1.455085 0.155550 0.148777 0.056801 -0.671581 0.738751
-0.003034 0.170421 -0.175576 0.024081 -0.665704 -0.745352
-0.301026 0.081886 -0.082213 -0.046712 -0.646123 -0.761802
1.247260 -0.238429 0.217056 -0.034656 -0.707849 -0.705513
0.170673 -0.281866 -0.251493 0.075617 -0.673701 0.735125
0.045293 -0.039341 0.087113 0.000319 -0.422544 0.902487
0.236983 -0.215789 -0.197759 0.075617 -0.673701 0.735125
-0.306719 0.165477 -0.152761 -0.046712 -0.646123 -0.761802
-0.026630 -0.169591 -0.173425 -0.046712 0.646123 -0.761802
0.194375 -0.164736 0.146588 0.075617 -0.673701 -0.735125
1.166401 0.079351 0.061423 -0.034656 0.707849 -0.705513
1.391176 -0.108333 -0.087710 0.056801 -0.677497 0.733329
-1.607598 -0.042255 -0.012072 -0.588319 -0.730129 -0.330237
1.268733 0.206134 0.193798 -0.034656 -0.641229 0.766566
-0.855825 0.057440 0.076400 -0.000150 0.600649 0.795102
0.861626 0.088048 -0.037201 0.000465 0.871855 -0.482091
0.176746 -0.318782 0.285949 0.075617 -0.673701 -0.735125
-0.210461 0.095584 -0.000000 0.000829 0.987544 -0.132850
-0.748689 -0.075260 -0.058926 -0.000107 -0.782206 -0.617131
-0.194499 0.063002 0.072728 -0.046712 -0.646123 0.761802
0.096878 0.020342 0.093395 -0.000095 0.325413 0.940624
-0.061000 -0.137762 0.144321 -0.046712 0.646123 0.761802
0.002275 0.227918 0.224667 -0.046712 -0.646123 0.761802
0.178238 -0.553038 0.500785 0.000000 -0.737236 0.675635
-0.700032 0.035739 0.088651 -0.000655 0.379452 0.921520
0.097673 0.392745 -0.345599 0.030627 0.686857 0.725357
1.432089 -0.112935 0.111805 0.056801 0.671581 0.738751
0.439540 0.079883 0.052489 -0.000011 0.834339 0.544054
-0.000498 0.279257 -0.239206 -0.059396 0.709592 0.702105
-0.250575 0.162249 0.142106 -0.059396 0.709592 -0.702105
-0.065975 0.109744 -0.073424 -0.059396 0.709592 0.702105
-0.820083 -0.092862 -0.022650 -0.001012 -0.961649 -0.260507
0.119492 -0.076488 -0.058012 0.075617 -0.673701 0.735125
-0.351933 -0.067979 -0.067296 -0.000000 0.737236 0.675635
0.986383 0.046585 -0.083464 0.000171 0.489532 -0.867682
1.453185 0.088285 0.036634 0.018670 0.878897 0.469786
1.453873 0.306888 0.286448 0.026325 -0.662015 0.748655
0.281729 -0.085250 0.043230 -0.000924 -0.894053 0.439986
-0.341698 -0.078570 0.076906 -0.046712 0.646123 0.761802
1.332468 -0.119816 0.095683 -0.000000 -0.675635 -0.737236
-0.086263 -0.071601 0.063344 -0.000000 0.737236 -0.675635
-0.444661 0.020666 -0.093323 -0.001521 0.330813 -0.938775
-0.056938 -0.321100 -0.286269 -0.059396 -0.709592 0.702105
1.138104 -0.137943 -0.121599 -0.034656 -0.707849 0.705513
1.264815 -0.066689 -0.075239 -0.006604 0.669169 -0.742923
0.034946 0.349650 0.307351 -0.059396 0.709592 -0.702105
1.374160 -0.276733 0.249253 -0.034656 -0.707849 -0.705513
-0.030066 -0.000000 0.095584 0.000017 -0.045225 0.996141
0.377916 -0.022511 0.092896 -0.000127 -0.352509 0.930269
-0.102470 0.270842 -0.254650 -0.046712 -0.646123 -0.761802
0.185801 -0.135945 -0.119321 0.075617 -0.673701 0.735125
-0.651428 -0.000000 0.095584 -0.001691 -0.133922 0.986987
1.374160 0.276736 -0.249256 -0.034656 0.707849 0.705513
-0.054726 0.105391 0.117251 -0.046712 -0.646123 0.761802
-0.851867 0.000000 -0.095584 0.000635 -0.064444 -0.995516
1.338884 -0.266656 -0.247595 -0.034656 0.641229 -0.766566
1.485278 -0.088718 0.033093 0.030323 -0.942863 0.316723
-1.334062 -0.084408 -0.044852 -0.001325 -0.885570 -0.456898
-0.261345 0.018478 -0.093781 0.000954 0.231809 -0.969469
-1.549724 -0.076674 0.000000 -0.340012 -0.930106 -0.078082
0.672249 -0.032251 0.089979 -0.000634 -0.422808 0.902138
0.185442 -0.471883 -0.427152 0.075617 -0.673701 0.735125
-0.030066 -0.095584 0.000000 -0.000742 -0.996515 -0.038006
0.651428 -0.095584 -0.000000 0.002500 -0.989156 -0.119254
-0.150880 -0.321666 -0.294789 -0.059396 -0.709592 0.702105
-0.036429 -0.424429 0.388965 -0.059396 -0.709592 -0.702105
-0.328916 -0.161813 0.148292 -0.059396 -0.709592 -0.702105
-0.061862 0.401593 0.368037 -0.059396 0.709592 -0.702105
0.014439 0.470101 0.430821 -0.059396 0.709592 -0.702105
-0.061862 -0.401593 -0.368037 -0.059396 -0.709592 0.702105
0.109916 0.488997 0.452702 -0.046712 -0.646123 0.761802
-0.191207 -0.107371 -0.081620 -0.059396 -0.709592 0.702105
-0.241112 0.175794 -0.154995 -0.059396 0.709592 0.702105
-0.137342 0.195481 -0.166113 -0.059396 0.709592 0.702105
0.032698 0.093374 0.064558 0.075617 0.673701 -0.735125
0.652475 0.090851 -0.029706 0.000459 0.944820 -0.316502
1.220804 0.185013 0.164762 -0.034656 0.707849 -0.705513
0.448628 0.045244 -0.084198 -0.000033 0.478823 -0.873800
0.340953 0.082557 -0.048173 -0.000058 0.864393 -0.495577
1.369682 0.324357 -0.297255 -0.034656 0.707849 0.705513
-1.161886 -0.074504 0.059880 -0.000357 -0.708949 0.699943
-0.029892 -0.289152 0.251692 -0.059396 -0.709592 -0.702105
1.423933 -0.224705 -0.214039 0.056801 0.671581 -0.738751
1.423933 0.224705 -0.214039 0.056801 -0.671581 -0.738751
-0.065975 -0.109744 -0.073424 -0.059396 -0.709592 0.702105
-0.626093 -0.020167 -0.093433 -0.000374 -0.320912 -0.942213
-0.919138 0.028650 -0.091190 0.000769 0.396622 -0.914223
0.480005 -0.037512 0.087916 -0.000524 -0.404312 0.910811
1.516351 -0.361049 0.330881 0.056801 -0.677497 -0.733329
1.537367 -0.141707 0.129867 0.056801 -0.677497 -0.733329
1.333664 0.156831 0.130944 -0.034656 0.707849 -0.705513
0.043963 -0.268225 -0.261410 0.024081 0.665704 -0.745352
0.302712 0.012675 0.094740 0.000216 0.219822 0.972755
-0.299081 -0.038536 -0.087472 0.000976 -0.399860 -0.912791
0.983417 -0.094159 0.016445 0.004633 -0.960283 0.263968
0.370422 -0.074169 0.060293 0.000141 -0.699641 0.709467
0.111974 -0.206945 -0.176795 0.075617 -0.673701 0.735125
-1.230561 0.044525 0.084581 0.000079 0.550468 0.830225
1.056516 -0.051409 -0.080582 -0.000099 -0.532423 -0.842239
-1.352001 0.090109 -0.031887 0.002148 0.934717 -0.344373
1.340033 -0.194309 0.168233 -0.034656 -0.707849 -0.705513
-1.367143 -0.074653 0.059694 -0.000580 -0.710271 0.698838
0.236983 -0.491899 0.450798 0.075617 -0.673701 -0.735125
0.236983 0.491899 -0.450798 0.075617 0.673701 0.735125
0.236983 0.288450 0.264348 0.075617 0.673701 -0.735125
0.236983 -0.259386 -0.237712 0.075617 -0.673701 0.735125
0.236983 -0.390175 0.357573 0.075617 -0.673701 -0.735125
0.180790 0.101036 -0.086814 0.075617 0.673701 0.735125
-0.405217 0.093304 0.085508 -0.059396 0.709592 -0.702105
-1.435865 -0.084376 0.044911 -0.016893 -0.883149 0.461291
1.493226 -0.101265 -0.089084 0.056801 -0.677497 0.733329
0.180855 -0.449123 0.416132 0.059467 0.674440 0.735931
0.092413 0.146447 0.119339 0.075617 0.673701 -0.735125
-1.477123 -0.074562 -0.057952 -0.125381 -0.697822 -0.697795
1.297958 0.057497 -0.076358 0.000020 0.679795 -0.728432
0.112614 -0.505408 0.466786 -0.046712 0.646123 0.761802
-1.145255 0.094441 -0.014740 0.000564 0.964385 -0.252035
-0.250359 0.031340 0.090301 -0.000911 0.329955 0.940118
-0.746894 -0.077685 0.055691 -0.000203 -0.809097 0.581466
1.227152 0.082239 -0.048715 -0.000016 0.798686 -0.595748
1.159412 0.053322 -0.079329 0.000590 0.461171 -0.882984
-0.119416 -0.205172 -0.174391 -0.059396 -0.709592 0.702105
0.058408 -0.432644 0.401748 -0.046712 0.646123 0.761802
1.315567 0.209740 -0.184916 -0.034656 0.707849 0.705513
1.391176 0.096805 0.100288 0.056801 -0.671581 0.738751
0.020969 -0.115975 -0.123740 0.059467 0.674440 -0.735931
0.057390 -0.312599 0.268006 0.030627 -0.686857 -0.725357
-0.270593 0.095584 -0.000000 0.000204 0.997170 -0.042073
-0.001748 -0.229791 0.189318 -0.059396 -0.709592 -0.702105
1.072481 0.122642 -0.109471 -0.034656 0.707849 0.705513
1.299251 -0.147145 0.145834 -0.034656 0.641229 0.766566
0.920996 -0.088547 0.035998 -0.000722 -0.955083 0.284085
1.005604 -0.118480 0.108580 -0.034656 0.641229 0.766566
0.987705 0.058757 0.075392 0.000032 0.690991 0.717877
1.039287 0.088554 0.035979 -0.000624 0.930319 0.351984
0.473898 -0.037791 -0.087796 -0.000209 -0.397812 -0.913816
-0.458725 -0.066134 0.069012 -0.000592 -0.700950 0.708677
0.236983 -0.114065 -0.104534 0.075617 -0.673701 0.735125
-1.453185 0.018677 -0.093742 -0.038771 0.061747 -0.993551
1.351044 0.094585 -0.013787 -0.001773 0.962660 -0.255706
0.952087 0.095584 0.000000 -0.002671 0.986109 -0.129004
0.552306 0.051138 -0.080754 -0.001000 0.438224 -0.894853
0.189457 0.151245 -0.133718 0.075617 0.673701 0.735125
-1.520590 0.078981 -0.035307 -0.307545 0.874029 -0.363464
1.435865 0.045125 -0.084262 0.008968 0.471031 -0.878454
-1.334188 0.084675 0.044345 -0.000022 0.830047 0.551346
-0.164576 0.087171 -0.039212 -0.000016 0.859352 -0.504324
-0.339544 0.090468 0.030853 -0.000026 0.906055 0.414499
0.559350 0.093885 0.017944 -0.000794 0.973835 0.214778
1.486421 0.050687 0.079943 0.030043 0.620390 0.778834
1.085815 0.093982 -0.017428 -0.001423 0.957714 -0.275545
-0.613394 -0.087040 0.039501 -0.000276 -0.861370 0.501541
-0.380891 0.015607 -0.094302 -0.000413 0.199150 -0.977089
0.236983 -0.085000 0.077898 0.075617 -0.673701 -0.735125
-1.317227 -0.089199 0.034349 0.000114 -0.933313 0.347767
-0.303185 0.056240 0.077288 -0.000027 0.589222 0.803512
1.462198 -0.320892 -0.298539 0.026325 0.662015 -0.748655
1.462198 0.320892 -0.298539 0.024144 -0.661286 -0.749311
0.591559 -0.011304 -0.094914 -0.000694 -0.211442 -0.974526
-1.512191 -0.077358 0.043300 -0.220578 -0.912043 0.325697
-0.591296 -0.000000 0.095584 -0.002141 -0.089864 0.989956
-0.771692 0.095584 -0.000000 0.000604 0.991625 -0.099109
0.176431 0.322213 0.300183 0.059467 -0.674440 0.735931
0.318049 0.082915 0.047556 -0.000022 0.809423 0.581062
0.711560 0.095584 0.000000 0.002799 0.991379 -0.080664
-1.074924 0.053640 -0.079115 0.000002 0.557080 -0.826143
0.110254 0.088490 0.036138 0.001195 0.928992 0.355937
0.085975 -0.089238 0.034248 0.000822 -0.890878 0.446004
-1.512185 0.077359 0.043301 -0.220534 0.911989 0.325883
-0.851205 0.093340 -0.020590 -0.000857 0.971321 -0.225791
-0.100831 -0.282153 0.264345 -0.046712 0.646123 0.761802
0.958115 -0.091626 -0.083970 -0.034656 -0.707849 0.705513
-0.062197 0.254784 -0.219691 -0.059396 0.709592 0.702105
-1.332922 -0.000000 0.095584 -0.000687 -0.141878 0.984048
-0.044377 0.277140 0.240778 -0.059396 0.709592 -0.702105
-1.550762 0.000000 -0.076250 -0.346640 0.083493 -0.927949
-1.467470 0.074697 -0.058967 -0.095070 0.760302 -0.637851
-0.973006 -0.062948 -0.071930 0.000014 -0.654555 -0.751260
1.212933 -0.094863 -0.011721 -0.000165 -0.972741 -0.218831
-0.562717 0.057268 0.076529 -0.000005 0.601158 0.794630
-0.818229 -0.013578 0.094615 0.000353 -0.121224 0.989092
-1.557795 0.041151 0.060585 -0.388256 0.452674 0.798356
-0.531164 -0.000000 -0.095584 0.000561 -0.122252 -0.988037
0.052153 0.092013 -0.065313 0.075617 0.673701 0.735125
0.025705 0.420931 0.380174 -0.059396 0.709592 -0.702105
1.471592 0.241216 0.225385 0.056801 -0.671581 0.738751
0.898550 0.094201 0.016205 0.003884 0.955954 0.279985
0.170980 0.248944 -0.221353 0.075617 0.673701 0.735125
1.215397 -0.108826 0.088589 -0.034656 -0.707849 -0.705513
1.154966 -0.168668 0.151597 -0.034656 -0.707849 -0.705513
0.931737 -0.043580 0.085071 0.002486 -0.533460 0.841890
0.731604 -0.000000 -0.095584 0.001793 -0.043189 -0.994746
0.676730 0.057768 0.076153 0.000046 0.602886 0.793389
0.174450 0.448801 -0.404869 0.075617 0.673701 0.735125
1.401627 -0.026816 0.091746 0.000242 -0.376117 0.922975
1.046429 0.070910 -0.070634 -0.000000 -0.737236 0.675635
-1.418545 -0.088285 -0.036634 -0.000615 -0.924647 -0.370383
1.451125 -0.212432 0.188526 0.056801 -0.677497 -0.733329
-1.180625 -0.071863 -0.063024 -0.000080 -0.743375 -0.663550
0.117814 -0.421916 -0.396292 0.024081 0.665704 -0.745352
0.216413 0.036381 0.088390 -0.001223 0.466874 0.880035
1.321285 0.255845 -0.237757 -0.034656 -0.641229 -0.766566
-0.044817 -0.354621 0.329243 -0.046712 0.646123 0.761802
0.021583 -0.081505 0.052538 0.075617 -0.673701 -0.735125
-0.009748 -0.179022 0.138684 0.030627 -0.686857 -0.725357
-0.252615 -0.230321 0.211077 -0.059396 -0.709592 -0.702105
1.258197 0.118790 0.120259 -0.034656 -0.641229 0.766566
0.259558 0.020488 -0.093363 0.001151 0.246620 -0.965519
1.074263 -0.138097 -0.124889 -0.034656 -0.707849 0.705513
0.792831 -0.036816 0.088210 -0.002236 -0.399234 0.913249
0.531164 -0.095584 -0.000000 0.000633 -0.996182 -0.051170
0.591296 -0.000000 0.095584 0.000711 -0.038825 0.996654
1.022201 0.020392 0.093384 0.000207 0.236512 0.968306
-0.010499 0.094826 0.012016 -0.000801 0.972097 0.221204
0.496513 0.094807 -0.012169 -0.001479 0.974174 -0.213126
-0.990959 0.056488 0.077107 -0.002342 0.663811 0.744559
-1.124891 -0.015409 -0.094334 0.000569 -0.235544 -0.968502
-0.645261 -0.064937 -0.070139 -0.000033 -0.674917 -0.733172
-0.099153 0.275705 0.243961 -0.059396 0.709592 -0.702105
0.175506 0.247599 0.231878 0.059467 -0.674440 0.735931
0.218625 -0.239335 0.217449 0.075617 -0.673701 -0.735125
1.403954 -0.194613 0.168410 0.056801 -0.677497 -0.733329
-1.368416 -0.026162 -0.091934 -0.000160 -0.362505 -0.927849
0.339650 -0.039219 -0.087168 0.000761 -0.413983 -0.906558
-0.699775 -0.094529 -0.014165 0.000045 -0.971489 -0.224306
-0.113258 0.092072 -0.025672 -0.000080 0.929242 -0.358747
0.087409 -0.511790 -0.470654 -0.046712 0.646123 -0.761802
1.340033 -0.194309 -0.168233 -0.034656 -0.707849 0.705513
1.142069 -0.038650 0.087422 -0.000751 -0.396948 0.914012
-0.272110 -0.161825 0.143499 -0.059396 -0.709592 -0.702105
-0.204308 -0.250943 -0.227831 -0.059396 -0.709592 0.702105
-0.069877 -0.122004 -0.130412 -0.046712 0.646123 -0.761802
-0.479053 -0.021708 0.093087 -0.000607 -0.262429 0.960921
1.091104 0.033036 -0.089694 -0.000433 0.346830 -0.933798
1.248330 -0.235982 -0.217844 -0.034656 0.641229 -0.766566
-1.196268 0.044038 -0.084835 -0.000045 0.548615 -0.831736
-1.060761 0.093946 0.017623 0.000069 0.972806 0.218310
0.885010 -0.089534 -0.033468 0.001023 -0.892530 -0.442971
-1.057766 -0.061711 0.072994 0.000087 -0.641803 0.762197
0.154288 0.034943 -0.088968 0.000072 0.368731 -0.925218
0.780701 0.019540 0.093566 -0.000292 0.321493 0.941970
0.217051 -0.340074 -0.309608 0.075617 -0.673701 0.735125
-0.141496 0.040603 -0.086532 0.000068 0.429180 -0.899017
1.159863 -0.049366 -0.081850 -0.000364 -0.510415 -0.855571
-0.062351 0.199687 0.164020 -0.059396 0.709592 -0.702105
-0.867804 -0.070507 0.064538 0.000049 -0.734492 0.673302
-0.179665 -0.050115 0.081393 0.000050 -0.468378 0.879381
-0.511182 0.066347 0.068807 0.000011 0.614925 0.784031
-1.023807 0.086104 -0.041502 -0.000005 0.898307 -0.430756
-0.473936 -0.089240 -0.034242 0.000932 -0.889896 -0.448074
0.086001 0.273813 -0.235404 0.075617 0.673701 0.735125
-1.178963 0.068517 0.066647 -0.000031 0.716421 0.692523
-0.781654 -0.022410 -0.092920 0.000481 -0.254144 -0.963338
0.121449 -0.098782 0.078644 0.075617 -0.673701 -0.735125
1.373774 0.133359 -0.134856 0.056801 -0.671581 -0.738751
-1.059095 -0.052672 -0.079762 0.000066 -0.630866 -0.771260
0.737785 -0.056954 0.076763 -0.000320 -0.604758 0.791812
-0.691516 0.095584 -0.000000 0.003286 0.991166 -0.103238
-0.283696 -0.140702 -0.133160 -0.046712 0.646123 -0.761802
1.384110 -0.052882 -0.079623 -0.000880 -0.550068 -0.831180
1.109823 -0.091518 -0.027584 0.000464 -0.919829 -0.381721
1.123896 -0.097324 0.096231 -0.034656 0.641229 0.766566
0.108705 0.192170 -0.162917 0.075617 0.673701 0.735125
0.546235 -0.061599 0.073089 -0.000043 -0.721977 0.686692
0.380771 0.019368 -0.093601 0.000648 0.234336 -0.968723
0.918502 -0.052922 -0.079597 -0.000006 -0.550512 -0.830498
-0.438389 -0.068342 -0.066826 0.000038 -0.710544 -0.698513
0.674007 0.049167 -0.081969 -0.000028 0.518648 -0.850766
-0.833727 -0.090792 0.029885 0.000859 -0.945263 0.315225
0.231454 0.086193 0.041318 0.000067 0.849753 0.520370
1.471592 -0.245524 -0.220685 0.056801 -0.677497 0.733329
1.471592 0.245524 -0.220685 0.056801 0.677497 0.733329
-0.598679 0.082715 0.047902 -0.000187 0.865077 0.494134
-1.012219 -0.095584 0.000000 -0.000717 -0.986226 -0.138121
-0.891086 0.090979 0.029313 0.000158 0.911316 0.403386
-0.954463 0.076279 -0.057601 0.000013 0.728084 -0.680217
-0.227181 0.253158 -0.232005 -0.046712 -0.646123 -0.761802
-0.061048 -0.268418 -0.233373 -0.059396 -0.709592 0.702105
1.214774 0.215907 -0.199534 -0.034656 -0.641229 -0.766566
-0.667440 0.081383 0.050131 0.000180 0.788524 0.609173
1.498277 0.133900 -0.125775 0.056801 -0.671581 -0.738751
1.298229 0.059887 0.074498 -0.000194 0.701986 0.707151
0.643967 -0.070216 -0.064855 -0.000124 -0.727641 -0.680792
-0.004897 0.140065 0.103481 0.075617 0.673701 -0.735125
1.405524 -0.321808 -0.292937 -0.034656 -0.707849 0.705513
-0.919138 -0.028650 0.091190 0.000769 -0.396622 0.914223
0.097806 -0.342568 -0.325190 0.059467 0.674440 -0.735931
-0.090198 -0.000000 -0.095584 0.004265 -0.062172 -0.994489
-1.127271 0.074775 -0.059541 -0.000258 0.778712 -0.621533
0.648838 -0.070926 0.064077 -0.000245 -0.749767 0.656296
-0.478111 0.088919 0.035069 0.000788 0.883386 0.460690
1.213312 0.014331 0.094504 0.000927 0.247938 0.965151
0.815566 -0.068793 -0.066362 0.000094 -0.717626 -0.691310
-1.247669 0.068250 -0.066921 0.000274 0.707267 -0.702092
1.004112 -0.021881 -0.093046 -0.000064 -0.340796 -0.934881
-1.213977 -0.089351 0.033951 0.000240 -0.931300 0.353503
1.037263 0.136382 0.124986 -0.034656 0.707849 -0.705513
1.471462 -0.309395 0.287375 0.056801 0.671581 0.738751
-0.124786 0.123223 -0.092022 -0.059396 0.709592 0.702105
-0.594709 -0.083990 -0.045630 0.000568 -0.919172 -0.385210
0.729416 -0.062363 -0.072438 -0.000209 -0.648546 -0.756547
-0.868698 -0.049930 -0.081507 0.000050 -0.516994 -0.851575
0.324833 -0.078108 -0.055096 0.000808 -0.748312 -0.657968
-1.178832 -0.035184 0.088873 0.000601 -0.360246 0.928584
-0.146553 0.034525 0.089131 -0.000634 0.360691 0.928457
0.495334 0.045541 0.084038 -0.000145 0.490337 0.867862
1.394707 -0.263165 -0.234631 -0.034656 -0.707849 0.705513
1.333460 0.084839 0.044032 -0.000432 0.831597 0.549091
0.762064 0.093969 0.017498 -0.000257 0.959963 0.266390
1.220761 -0.093382 -0.072830 -0.034656 -0.707849 0.705513
0.191385 -0.113564 0.099384 0.075617 -0.673701 -0.735125
1.485278 -0.033093 -0.088718 0.030331 -0.316660 -0.942886
-0.770948 0.079237 0.053459 0.000105 0.830698 0.549964
0.048515 -0.400946 -0.358045 -0.059396 -0.709592 0.702105
-0.018756 0.331351 0.293400 -0.059396 0.709592 -0.702105
0.425095 -0.062258 -0.072528 0.000933 -0.722896 -0.686169
1.142092 0.107087 -0.090445 -0.034656 0.707849 0.705513
-0.179722 -0.049000 -0.082069 -0.000732 -0.596797 -0.798089
-1.420427 0.016123 0.094215 -0.001294 0.264285 0.961031
-0.036603 0.100562 -0.114266 0.027625 -0.666635 -0.744473
1.384110 0.067062 -0.068110 -0.000665 0.701226 -0.707967
-0.662569 0.022010 -0.093016 -0.000410 0.339092 -0.935735
1.159426 -0.104228 -0.086725 -0.034656 -0.707849 0.705513
-0.367066 0.127559 0.116900 -0.059396 0.709592 -0.702105
1.405524 0.321808 0.292937 -0.034656 0.707849 -0.705513
0.833903 -0.088764 0.035460 0.000103 -0.876637 0.473586
-1.609666 0.042377 -0.000000 -0.627187 0.772801 -0.054081
1.470511 -0.083836 -0.044897 0.018263 -0.878131 -0.471238
1.544373 -0.000000 -0.074433 1.000000 -0.000000 0.000000
-0.044818 -0.354621 -0.329243 -0.046712 0.646123 -0.761802
0.095655 0.091136 -0.028819 -0.001468 0.949980 -0.297950
1.453185 -0.000000 0.095584 0.008603 -0.059345 0.994513
0.558773 -0.086121 -0.041468 -0.001381 -0.899893 -0.428264
0.202446 0.219327 0.197448 0.075617 0.673701 -0.735125
-0.147042 -0.150774 -0.121750 -0.059396 -0.709592 0.702105
1.544373 -0.048454 -0.019940 1.000000 0.000000 -0.000000
0.015172 -0.054594 -0.078459 -0.000481 -0.656960 -0.749276
1.401627 -0.084737 -0.044226 -0.000341 -0.830358 -0.550952
-0.354888 -0.029809 0.090817 -0.000723 -0.430605 0.898500
0.387820 0.072914 0.061806 -0.000169 0.687415 0.721332
0.065306 0.515773 -0.472677 -0.046712 -0.646123 -0.761802
1.498277 0.136951 0.122445 0.056801 0.677497 -0.733329
-1.127851 -0.092458 0.024246 -0.000286 -0.933407 0.347815
-1.264655 -0.030313 -0.090650 0.000899 -0.298401 -0.950487
-0.207594 0.133977 -0.109896 -0.059396 0.709592 0.702105
-0.988433 -0.046149 0.083706 -0.000069 -0.568391 0.818393
-0.011475 -0.217427 -0.177645 -0.059396 -0.709592 0.702105
0.197819 0.548451 0.505789 -0.000000 0.737236 0.675635
0.022461 0.165348 -0.129466 0.075617 0.673701 0.735125
-0.440087 0.082747 -0.047846 0.000568 0.810416 -0.580107
0.178891 -0.094790 -0.012297 -0.002303 -0.979097 -0.189299
-0.070309 -0.032268 0.089973 -0.001507 -0.227948 0.969850
0.049160 0.045618 -0.083996 -0.000040 0.483919 -0.870987
1.544373 0.055824 -0.000000 1.000000 -0.000000 -0.000000
0.078194 0.209028 -0.204394 0.059467 -0.674440 -0.735931
-1.216538 -0.090074 -0.031984 0.000637 -0.941298 -0.327282
0.831823 -0.000000 -0.095584 0.000503 -0.077654 -0.993886
-0.145866 -0.155808 0.154424 -0.046712 0.646123 0.761802
1.106758 0.015534 0.094314 0.000341 0.241249 0.967021
1.274705 0.270650 -0.248035 -0.034656 0.707849 0.705513
0.184680 -0.385796 -0.348180 0.075617 -0.673701 0.735125
-0.008756 0.055881 0.077548 -0.000037 0.664692 0.742304
0.200136 0.103291 0.090870 0.075617 0.673701 -0.735125
-0.148323 0.256353 -0.239550 -0.046712 -0.646123 -0.761802
0.097082 0.309020 -0.268808 0.075617 0.673701 0.735125
-0.105232 -0.152496 0.119954 -0.059396 -0.709592 -0.702105
0.454696 -0.085006 0.043708 -0.000035 -0.837995 0.539104
0.059010 0.213029 0.209610 0.059467 -0.674440 0.735931
0.625382 0.065460 0.069651 0.000401 0.752232 0.653893
-0.241582 -0.191885 0.179153 -0.046712 0.646123 0.761802
0.000564 0.110313 -0.076776 0.075617 0.673701 0.735125
0.726739 -0.094766 0.012479 0.001214 -0.975312 0.207582
-0.108120 -0.215562 0.207419 -0.046712 0.646123 0.761802
0.073848 -0.092931 -0.022365 0.002431 -0.962415 -0.258574
0.197760 0.494742 0.456572 0.059467 -0.674440 0.735931
1.428052 0.102636 -0.085303 0.056801 0.677497 0.733329
0.129350 0.059436 0.074858 -0.000040 0.698796 0.710312
0.071874 -0.468281 0.432799 -0.046712 0.646123 0.761802
-0.101472 -0.053647 -0.079110 0.000337 -0.566963 -0.819657
1.322077 0.120800 -0.124828 -0.011557 -0.664345 -0.747216
1.108161 -0.041528 -0.086092 0.000160 -0.521878 -0.848668
0.180261 0.432940 0.401349 0.059467 -0.674440 0.735931
1.469013 0.090444 -0.029531 0.016520 0.952450 -0.291184
1.271225 0.189574 -0.180058 -0.034656 -0.641229 -0.766566
-0.232779 0.229089 0.211247 -0.046712 -0.646123 0.761802
-0.159640 0.136619 0.108510 -0.059396 0.709592 -0.702105
1.392609 0.242677 0.214178 -0.034656 0.707849 -0.705513
0.037249 0.254253 0.249148 -0.011312 -0.656265 0.753976
1.544373 0.000000 0.055824 1.000000 -0.000000 -0.000000
1.515718 -0.047236 0.081085 0.027828 -0.533816 0.842152
0.194282 -0.371164 0.343601 0.059467 0.674440 0.735931
-0.192715 -0.203440 -0.191950 -0.046712 0.646123 -0.761802
0.076594 0.154099 -0.124725 0.075617 0.673701 0.735125
0.071115 0.456761 -0.412544 -0.059396 0.709592 0.702105
0.090572 -0.190017 0.185970 0.059467 0.674440 0.735931
0.236983 0.375642 0.344255 0.075617 0.673701 -0.735125
0.484333 0.011824 -0.094850 0.001229 0.209149 -0.975075
1.494654 -0.150155 -0.140831 0.056801 0.671581 -0.738751
1.322908 0.241542 0.225866 -0.034656 -0.641229 0.766566
0.108415 0.273208 0.260769 0.059467 -0.674440 0.735931
1.464659 0.378064 -0.346474 -0.034656 0.707849 0.705513
-0.330956 -0.138062 -0.124460 -0.059396 -0.709592 0.702105
1.418947 -0.017441 -0.093980 0.003971 -0.277116 -0.957125
-0.264700 -0.079996 -0.082837 -0.046712 0.646123 -0.761802
1.333257 -0.025790 -0.092039 -0.000484 -0.374060 -0.922887
-0.056744 0.058646 0.077480 -0.017220 -0.654650 0.755371
-0.216561 -0.090857 0.029688 -0.000630 -0.938623 0.332131
0.010394 0.219095 -0.177480 0.030627 0.686857 0.725357
0.057450 -0.149046 -0.118125 0.075617 -0.673701 0.735125
-0.056729 0.152714 -0.157265 -0.046712 -0.646123 -0.761802
-0.014496 -0.242856 0.236309 -0.046712 0.646123 0.761802
-0.562738 -0.084052 0.045515 0.000736 -0.869388 0.486823
0.072191 -0.469675 -0.425505 -0.059396 -0.709592 0.702105
-0.372914 -0.094574 -0.013859 0.000776 -0.970489 -0.227767
-0.370093 0.089460 -0.033664 -0.000910 0.892800 -0.442755
-0.153338 -0.206164 0.196675 -0.046712 0.646123 0.761802
-0.318090 -0.086818 -0.039988 0.000069 -0.856774 -0.508354
1.074384 0.100677 0.096798 -0.034656 -0.641229 0.766566
-0.194879 -0.150848 -0.125872 -0.059396 -0.709592 0.702105
0.232036 -0.063579 -0.071373 0.000047 -0.612082 -0.786173
-0.392500 0.104722 -0.095972 -0.046712 -0.646123 -0.761802
-0.233212 -0.123326 0.121518 -0.046712 0.646123 0.761802
1.394910 -0.129537 -0.129756 0.056801 0.671581 -0.738751
0.269727 -0.051121 0.080765 0.000059 -0.621494 0.778829
0.973945 0.100577 0.092173 -0.034656 0.707849 -0.705513
0.406743 -0.089428 -0.033750 0.000109 -0.937389 -0.334209
1.375125 -0.104503 0.108520 0.056801 0.671581 0.738751
-0.284886 -0.058631 0.075490 -0.002657 -0.678495 0.730905
1.334050 0.022332 -0.092939 0.000764 0.240090 -0.967235
-0.068571 0.336383 -0.312318 -0.046712 -0.646123 -0.761802
1.126105 0.059391 0.074894 0.000123 0.618689 0.780915
1.485583 -0.280056 0.253672 0.056801 -0.677497 -0.733329
1.438540 0.164506 -0.158191 0.056801 -0.671581 -0.738751
0.125113 0.517736 -0.478009 -0.046712 -0.646123 -0.761802
1.103505 -0.130070 0.122701 -0.034656 0.641229 0.766566
1.290278 -0.145219 -0.143817 -0.034656 0.641229 -0.766566
-0.008091 0.088333 -0.036519 -0.000036 0.874380 -0.477787
-0.923331 0.017726 0.093926 0.000133 0.303185 0.948325
-0.233535 0.093786 0.096444 -0.046712 -0.646123 0.761802
0.114395 0.320686 0.281281 0.075617 0.673701 -0.735125
0.066491 -0.198231 -0.195444 0.059467 0.674440 -0.735931
-0.165578 -0.091539 0.098705 -0.046712 0.646123 0.761802
1.483133 0.277926 0.251514 0.056801 0.677497 -0.733329
1.483133 -0.274748 -0.254981 0.056801 0.671581 -0.738751
1.483133 0.274748 -0.254981 0.056801 -0.671581 -0.738751
1.278539 0.145793 -0.143766 -0.034656 -0.641229 -0.766566
0.162572 -0.286872 0.255248 0.075617 -0.673701 -0.735125
-1.265063 -0.084598 0.044491 -0.000571 -0.886741 0.454194
-0.088765 0.161190 0.162489 -0.046712 -0.646123 0.761802
1.053092 -0.145333 0.133190 -0.034656 0.641229 0.766566
-0.350716 -0.028297 -0.091300 0.001186 -0.283534 -0.955251
-0.062351 -0.199687 -0.164020 -0.059396 -0.709592 0.702105
1.435865 -0.084376 0.044911 0.008968 -0.879640 0.468815
-1.435865 0.091455 0.027790 -0.014837 0.957924 0.273628
0.098935 0.219673 0.187118 0.075617 0.673701 -0.735125
0.139074 0.075485 -0.059106 0.075617 0.673701 0.735125
0.072752 -0.301648 -0.289714 0.059467 0.674440 -0.735931
0.084883 0.012362 -0.094782 0.001667 0.215799 -0.973530
0.113683 0.456734 0.408916 -0.059396 0.709592 -0.702105
-0.002421 -0.328019 -0.309280 -0.046712 0.646123 -0.761802
1.066424 -0.077006 0.063982 -0.000000 0.737236 -0.675635
-0.150330 -0.095584 0.000000 0.001840 -0.985133 -0.145978
-0.771692 -0.000000 0.095584 0.000200 -0.109995 0.990299
-0.067139 -0.223156 0.188144 -0.059396 -0.709592 -0.702105
0.168804 -0.023146 0.092740 0.001329 -0.343591 0.935122
0.018063 -0.172395 0.175680 0.059467 0.674440 0.735931
-0.068555 0.141764 -0.106004 -0.059396 0.709592 0.702105
-0.092936 -0.351932 0.324012 -0.046712 0.646123 0.761802
-0.031618 0.198708 0.197815 -0.046712 -0.646123 0.761802
-0.663453 -0.042868 0.085433 0.000295 -0.438200 0.895016
1.319175 -0.094204 0.016183 0.000173 -0.966017 0.245135
0.178657 -0.200674 0.188620 0.059467 0.674440 0.735931
-0.147254 0.133531 -0.135445 -0.046712 -0.646123 -0.761802
-0.213890 -0.078127 -0.055068 0.000015 -0.749512 -0.656546
-0.003681 0.436653 -0.398549 -0.059396 0.709592 0.702105
0.021671 -0.087483 0.097572 0.059467 0.674440 0.735931
-0.959058 0.090538 0.030647 0.000539 0.906048 0.414906
1.252746 0.095584 0.000000 -0.002795 0.990876 -0.109769
1.354957 0.180626 -0.176359 -0.034656 -0.641229 -0.766566
1.386904 -0.094325 0.015466 -0.002617 -0.963592 0.252517
-0.191207 0.107371 0.081620 -0.059396 0.709592 -0.702105
1.341672 0.080758 -0.059888 -0.000000 0.675635 0.737236
-1.619200 0.000000 -0.034702 -0.624865 0.075160 -0.769331
0.125891 0.255658 0.222869 0.075617 0.673701 -0.735125
1.054121 -0.106191 -0.093867 -0.034656 -0.707849 0.705513
1.230653 -0.141477 -0.137991 -0.034656 0.641229 -0.766566
0.175673 -0.308299 -0.287493 0.059467 0.674440 -0.735931
1.219843 -0.200629 0.186983 -0.034656 0.641229 0.766566
1.318786 0.017514 0.093966 -0.000044 0.267400 0.960173
0.185801 0.135945 0.119321 0.075617 0.673701 -0.735125
0.010753 -0.275209 0.265298 -0.046712 0.646123 0.761802
1.514212 0.081490 0.046619 0.027773 0.908626 0.411081
0.180678 0.398416 0.369676 0.059467 -0.674440 0.735931
0.023532 -0.187443 -0.189029 0.059467 0.674440 -0.735931
-0.100938 -0.248026 -0.235394 -0.046712 0.646123 -0.761802
1.156513 0.140820 0.123581 -0.034656 0.707849 -0.705513
1.526158 -0.258690 0.237074 0.056801 -0.677497 -0.733329
0.138215 -0.326578 0.307271 0.059467 0.674440 0.735931
1.407954 -0.308997 0.279964 -0.034656 -0.707849 -0.705513
1.407954 0.308997 -0.279964 -0.034656 0.707849 0.705513
-1.132482 -0.000000 0.095584 -0.000334 -0.066921 0.995204
1.255728 -0.166833 0.144807 -0.034656 -0.707849 -0.705513
0.085481 0.423386 0.377598 -0.059396 0.709592 -0.702105
-0.172357 0.280463 0.258525 -0.046712 -0.646123 0.761802
-0.005797 0.393459 0.364576 -0.046712 -0.646123 0.761802
0.023736 -0.455672 -0.419153 -0.046712 0.646123 -0.761802
-0.050449 -0.086254 0.041190 -0.003557 -0.845146 0.526991
1.172033 -0.093572 0.075415 -0.034656 -0.707849 -0.705513
0.174671 0.312722 -0.291627 0.059467 -0.674440 -0.735931
0.128724 -0.395574 0.371270 0.059467 0.674440 0.735931
-1.551049 -0.000000 0.076132 -0.344876 0.078009 0.928325
0.077531 0.338084 0.322720 -0.013845 -0.655582 0.754585
0.090613 -0.114730 0.116971 0.059467 0.674440 0.735931
0.045362 0.321503 -0.306683 -0.046712 -0.646123 -0.761802
1.192614 -0.000000 -0.095584 -0.002565 -0.111430 -0.989804
-1.009068 0.086761 0.040111 0.000862 0.903812 0.420528
-1.368416 -0.026395 0.091868 0.000223 -0.364915 0.926735
0.008193 -0.412168 -0.372798 -0.059396 -0.709592 0.702105
1.230315 0.136350 -0.115471 -0.034656 0.707849 0.705513
0.205359 0.470646 -0.428067 0.075617 0.673701 0.735125
-0.084041 0.338964 0.306617 -0.059396 0.709592 -0.702105
1.447540 -0.103137 -0.101710 0.056801 0.671581 -0.738751
-1.413097 0.000000 -0.095584 0.001690 -0.135666 -0.985801
1.332468 -0.119816 -0.095683 -0.000000 -0.675635 0.737236
-0.613394 0.087040 -0.039501 -0.000276 0.861370 -0.501541
-0.207783 0.157983 0.152472 -0.046712 -0.646123 0.761802
0.010778 0.157613 0.162722 0.059467 -0.674440 0.735931
1.439720 -0.179940 -0.172131 0.056801 0.671581 -0.738751
-0.068475 0.212792 -0.207500 -0.046712 -0.646123 -0.761802
1.414098 -0.149869 0.127859 0.056801 -0.677497 -0.733329
0.067647 -0.270285 0.261384 0.059467 0.674440 0.735931
1.189888 0.180164 -0.168510 -0.034656 -0.641229 -0.766566
-0.025623 -0.394206 0.357506 -0.059396 -0.709592 -0.702105
0.870820 -0.094792 0.012281 -0.001625 -0.971527 0.222983
-0.142255 -0.296330 0.268452 -0.059396 -0.709592 -0.702105
0.236983 -0.535496 -0.490751 0.075617 -0.673701 0.735125
1.506343 0.074803 -0.057093 0.029395 0.785909 -0.611403
1.356738 0.124046 0.099559 0.018941 0.676439 -0.736133
1.290049 -0.246350 0.222901 -0.034656 -0.707849 -0.705513
-0.952087 0.000000 -0.095584 0.000815 -0.109461 -0.989332
-0.351933 0.067979 -0.067296 -0.000000 -0.737236 0.675635
-0.046977 0.071579 -0.063368 0.000000 -0.737236 0.675635
1.339768 -0.294950 0.269220 -0.034656 -0.707849 -0.705513
0.027726 -0.415287 0.374299 -0.059396 -0.709592 -0.702105
1.482422 -0.120226 0.114563 0.056801 0.671581 0.738751
0.114766 -0.154966 0.151893 0.059467 0.674440 0.735931
0.097673 0.392745 0.345599 -0.014378 0.698821 -0.714351
1.310206 0.182678 0.158028 -0.034656 0.707849 -0.705513
1.246564 0.236673 0.215329 -0.034656 0.707849 -0.705513
-0.140660 -0.270313 -0.251860 -0.046712 0.646123 -0.761802
0.039724 -0.345702 0.326863 -0.046712 0.646123 0.761802
0.023821 -0.226309 0.224624 -0.011312 0.656265 0.753976
0.611340 0.095584 0.000000 -0.001196 0.996119 -0.056599
0.201076 0.511442 -0.465014 0.075617 0.673701 0.735125
0.201076 -0.511442 -0.465014 0.075617 -0.673701 0.735125
0.881501 -0.036536 0.088326 0.000362 -0.480025 0.872066
-0.661436 0.090512 -0.030723 0.000716 0.949788 -0.299448
-0.098119 -0.323265 -0.299380 -0.046712 0.646123 -0.761802
-0.398254 -0.082678 -0.074180 -0.059396 -0.709592 0.702105
0.054078 0.100694 0.107060 0.059467 -0.674440 0.735931
-0.043316 -0.086590 -0.102004 0.024081 0.665704 -0.745352
-0.183586 0.187310 -0.178829 -0.046712 -0.646123 -0.761802
0.390858 0.094006 -0.017297 0.002474 0.954462 -0.286186
0.958115 0.091626 -0.083970 -0.034656 0.707849 0.705513
-0.212371 0.093117 -0.097174 -0.046712 -0.646123 -0.761802
1.238047 -0.129577 0.128371 -0.034656 0.641229 0.766566
1.303021 0.126686 0.128890 -0.034656 -0.641229 0.766566
-0.065754 -0.087086 0.101049 -0.046712 0.646123 0.761802
0.081190 -0.062906 -0.071967 0.000794 -0.721807 -0.686918
0.196648 0.174463 0.163145 0.059467 -0.674440 0.735931
-0.066463 -0.088918 -0.035072 -0.001625 -0.922372 -0.376883
0.007622 -0.128532 0.094200 0.075617 -0.673701 -0.735125
-0.069866 -0.185014 0.149826 -0.059396 -0.709592 -0.702105
-0.047109 0.146782 0.109261 -0.059396 0.709592 -0.702105
1.370623 0.179432 0.151804 -0.004161 0.698313 -0.715389
-0.254699 0.104816 -0.084409 -0.059396 0.709592 0.702105
0.128013 -0.273704 -0.239625 0.075617 -0.673701 0.735125
-0.029892 -0.277324 -0.264598 -0.046712 0.646123 -0.761802
1.420506 0.078466 0.062389 0.000000 -0.737236 -0.675635
0.222706 -0.090954 -0.029389 -0.000573 -0.903809 -0.419915
0.133725 -0.369982 -0.347412 0.059467 0.674440 -0.735931
0.090613 -0.114730 -0.116971 0.059467 0.674440 -0.735931
0.125794 0.184262 0.177851 0.059467 -0.674440 0.735931
1.494143 -0.199575 0.179981 0.056801 -0.677497 -0.733329
0.194816 0.285549 0.257352 0.075617 0.673701 -0.735125
0.194816 0.285549 -0.257352 0.075617 0.673701 0.735125
1.492050 0.168903 -0.158074 0.056801 -0.671581 -0.738751
0.109936 0.096285 -0.098506 0.059467 -0.674440 -0.735931
-0.564279 -0.035514 0.088742 -0.000411 -0.370451 0.922521
-1.350493 0.067373 -0.067803 -0.000526 0.709761 -0.699330
