-0.043077 -0.220356 -0.207427 -0.038419 0.659895 -0.750375
0.035608 -0.293694 -0.262008 -0.062559 -0.704333 0.707108
-0.673879 0.056779 -0.104283 0.001257 0.452006 -0.891563
-1.259962 -0.117001 -0.020237 0.000416 -0.984722 -0.170876
-1.583970 -0.050935 -0.008878 -0.688283 -0.702628 -0.172800
0.270170 -0.112351 0.109497 0.062606 0.676595 0.733689
0.040494 0.132086 -0.100603 -0.062559 0.704333 0.707108
0.368362 0.080323 0.087447 -0.000302 0.651096 0.758254
1.368116 -0.117891 0.014158 -0.000082 -0.986607 0.159040
1.458146 0.078537 0.084521 0.194837 -0.641321 0.742122
0.255480 0.263473 -0.231320 0.101785 0.674404 0.731313
-0.706596 -0.058738 -0.103192 0.000198 -0.516252 -0.855771
1.133095 -0.163169 -0.165039 0.000000 0.677925 -0.735131
-1.051005 -0.101791 0.061134 0.000463 -0.876713 0.479907
-1.239317 -0.058655 0.103239 0.000077 -0.491328 0.870309
-1.094134 -0.111286 -0.041403 0.000671 -0.943537 -0.329671
0.935052 -0.080773 0.059920 -0.018202 -0.697100 -0.715212
-0.565459 -0.048303 -0.108469 -0.000079 -0.410694 -0.911281
-0.218632 -0.061410 -0.101625 -0.001129 -0.560334 -0.827422
-0.199958 0.131158 0.120952 -0.062559 0.704333 -0.707108
0.339184 -0.543204 0.500934 0.062606 0.676595 0.733689
1.312029 0.008452 0.118437 -0.000062 0.124605 0.991501
1.419015 0.227538 -0.195264 0.130213 0.686799 0.713554
-0.214724 0.054681 -0.105398 0.000002 0.502734 -0.863760
0.334414 -0.110955 -0.042280 -0.000003 -0.950068 -0.310150
0.177960 -0.359710 -0.341294 -0.038419 0.659895 -0.750375
-0.244189 0.011141 0.118214 -0.000111 0.059776 0.997411
0.793512 -0.025740 -0.115915 -0.000004 -0.192862 -0.980626
0.119794 -0.117481 0.017233 0.000004 -0.994703 0.096888
0.374295 0.115917 -0.025731 0.000150 0.984963 -0.169247
1.450150 0.323219 0.298067 0.194837 -0.641321 0.742122
-0.703706 -0.118424 0.008637 -0.000001 -0.999117 0.024253
1.289556 0.240717 -0.236552 0.000000 -0.677925 -0.735131
1.197231 -0.117031 0.122491 0.000000 0.677925 0.735131
-1.008246 0.076220 -0.091046 -0.000004 0.677972 -0.734286
0.307213 -0.191441 -0.179271 0.062606 0.676595 -0.733689
0.246393 -0.116158 -0.024616 0.001433 -0.969403 -0.243527
-0.993161 -0.008646 -0.118423 0.000002 -0.048525 -0.998232
-0.574257 0.023230 0.116444 -0.000617 0.227669 0.973337
0.289762 -0.486311 -0.441589 0.101785 -0.674404 0.731313
1.395229 0.134779 0.138858 -0.000000 -0.677925 0.735131
0.066996 0.450784 -0.415706 -0.062559 0.704333 0.707108
0.573945 -0.008637 -0.118424 0.000001 -0.024253 -0.999117
1.299180 0.106723 0.052048 -0.000000 0.915672 0.400530
0.019887 -0.394380 0.363690 -0.038419 0.659895 0.750375
0.963263 0.042280 0.110956 -0.000002 0.310147 0.950069
1.506511 -0.017217 -0.061862 1.000000 0.000000 -0.000000
1.291636 -0.029047 -0.115131 0.000058 -0.283849 -0.958259
0.275467 -0.609643 -0.555497 -0.062559 -0.704333 0.707108
0.283736 0.126800 -0.109215 0.101785 0.674404 0.731313
0.042583 0.237181 -0.226609 -0.038419 -0.659895 -0.750375
1.091621 0.155927 0.129226 -0.000000 0.677925 -0.735131
0.224454 0.314789 0.274324 0.101785 0.674404 -0.731313
1.031189 -0.116422 -0.121929 0.000000 0.677925 -0.735131
0.158447 -0.496182 -0.452834 -0.062559 -0.704333 0.707108
1.332276 -0.080773 0.059920 0.000000 -0.677925 -0.735131
-0.703938 0.008048 0.118465 0.000583 0.023410 0.999200
1.197231 0.117031 -0.122491 -0.000000 -0.677925 -0.735131
0.164418 -0.179278 0.180240 0.062606 0.676595 0.733689
1.282641 -0.244396 -0.239945 -0.072628 0.590292 -0.802552
1.333878 0.053206 -0.106150 -0.000046 0.445666 -0.894604
-1.267905 0.117047 0.019971 -0.000013 0.979810 0.197804
1.129673 0.069783 -0.096068 0.000117 0.592003 -0.805231
1.099675 -0.121206 0.097207 -0.000000 -0.677925 -0.735131
0.551005 -0.098064 -0.066949 0.000012 -0.809730 -0.585803
1.109743 0.111441 0.040984 -0.000169 0.936624 0.348642
1.003310 -0.043542 -0.110466 0.000257 -0.337615 -0.940603
0.112348 -0.100034 -0.063969 -0.000439 -0.824489 -0.564977
-1.385357 -0.116011 -0.025304 0.000070 -0.967387 -0.251096
0.315998 -0.565706 -0.518457 0.101785 -0.674404 0.731313
0.152461 -0.083131 0.084782 0.000050 -0.685032 0.727710
0.168318 -0.257913 0.251278 -0.038419 0.659895 0.750375
-1.530645 0.087704 -0.016866 -0.450553 0.869270 -0.198365
-0.142491 -0.126460 -0.111188 -0.062559 -0.704333 0.707108
0.276721 0.611811 0.568054 -0.038419 -0.659895 0.750375
-1.204678 0.063051 0.100614 -0.000159 0.539642 0.841245
0.267849 -0.317286 0.298683 0.062606 0.676595 0.733689
1.241862 -0.199971 0.198977 -0.000000 0.677925 0.735131
-0.012024 0.215139 0.187976 -0.062559 0.704333 -0.707108
0.911690 -0.118562 0.006470 -0.000005 -0.998990 0.035060
1.342207 0.066253 0.075665 -0.000000 -0.735131 -0.677925
-0.958282 0.113738 0.034095 0.000002 0.963997 0.263689
-1.587778 0.007213 -0.047603 -0.685827 0.173271 -0.704915
0.598887 0.117480 0.017238 -0.000004 0.992053 0.121047
0.254776 0.241788 0.211225 0.101785 0.674404 -0.731313
1.450496 0.085219 -0.071328 0.312867 0.727645 -0.609600
0.117005 -0.167576 -0.169207 -0.038419 0.659895 -0.750375
-0.778485 -0.099157 -0.065319 0.000129 -0.860066 -0.508987
-0.354319 -0.115915 -0.025740 0.000004 -0.980626 -0.192862
-0.069932 0.107586 -0.050239 0.000002 0.915527 -0.400790
-0.921201 -0.091246 0.075980 -0.000020 -0.739694 0.672069
0.050561 -0.112880 0.036834 -0.001761 -0.961517 0.271873
-0.126676 -0.218899 0.201865 -0.038419 0.659895 0.750375
0.263017 -0.406648 -0.381503 0.062606 0.676595 -0.733689
1.129395 -0.056283 -0.104551 0.000011 -0.507558 -0.860939
0.257440 -0.312433 -0.295095 0.062606 0.676595 -0.733689
-0.337990 -0.054259 -0.105616 -0.000267 -0.441332 -0.896777
-1.477403 0.110033 0.008198 -0.274815 0.954187 0.110283
1.408625 0.215905 0.213671 -0.000000 -0.677925 0.735131
0.489101 -0.000000 0.118738 -0.000001 0.024253 0.999117
-1.309787 -0.099014 -0.065536 -0.000295 -0.835169 -0.549034
-0.623719 -0.072307 0.094183 -0.000642 -0.568159 0.822248
0.284885 0.326768 0.305973 0.062606 -0.676595 0.733689
0.449174 0.118738 -0.000000 0.000001 0.999117 0.024253
-0.007930 0.128844 0.101657 -0.062559 0.704333 -0.707108
1.223678 -0.059344 0.102845 0.000931 -0.502137 0.864014
-0.016555 -0.111805 0.113322 -0.038419 0.659895 0.750375
0.138764 -0.338670 -0.297682 -0.062559 -0.704333 0.707108
0.078530 -0.252097 -0.216778 -0.062559 -0.704333 0.707108
1.277276 0.174722 0.175693 -0.000000 -0.677925 0.735131
1.406043 0.271725 -0.265147 0.130213 -0.655702 -0.742232
-1.384251 0.101916 0.060926 0.000204 0.878715 0.476109
1.450089 0.152378 -0.150447 0.194837 -0.641321 -0.742122
0.146816 -0.060153 -0.102374 0.000137 -0.469830 -0.882096
-1.177849 0.117481 -0.017233 -0.000004 0.994703 -0.096888
-0.114789 -0.008637 -0.118424 0.000694 -0.025639 -0.999055
1.267952 -0.112772 -0.037165 -0.001702 -0.941399 -0.335754
1.358830 -0.065593 -0.098976 -0.000219 -0.548536 -0.835453
0.040494 -0.132086 0.100603 -0.062559 -0.704333 -0.707108
0.201257 -0.211848 -0.207132 0.062606 0.676595 -0.733689
0.064119 -0.376310 -0.341778 -0.062559 -0.704333 0.707108
0.126797 0.251569 -0.243573 -0.038419 -0.659895 -0.750375
1.106009 -0.111507 -0.117397 -0.000000 0.677925 -0.735131
0.449246 0.099324 0.065066 0.000008 0.821819 0.568723
1.338290 0.325468 0.300141 -0.108672 0.785724 -0.608956
1.388584 0.349851 0.322627 -0.108672 0.785724 -0.608956
-1.418652 0.013695 -0.117946 -0.028455 0.117029 -0.991912
1.435632 0.111195 0.033114 0.209741 0.933774 0.278205
1.151464 -0.118315 0.010011 0.001866 -0.993884 0.104402
-0.139728 -0.117481 0.017233 0.000004 -0.994703 0.096888
0.169957 0.433283 0.405586 -0.038419 -0.659895 0.750375
-0.079567 0.275303 0.253880 -0.062559 0.704333 -0.707108
-0.131911 0.212632 0.196085 -0.062559 0.704333 -0.707108
-0.069098 0.287838 -0.265439 -0.062559 0.704333 0.707108
-0.763596 -0.118424 -0.008637 0.000001 -0.999117 -0.024253
-1.494130 -0.081060 -0.067031 -0.345979 -0.702944 -0.619806
1.302485 0.080773 -0.059920 -0.000000 0.677925 0.735131
1.409286 0.271567 0.235868 0.065268 0.683490 -0.725527
1.247291 0.016294 0.117615 0.000284 0.143304 0.989056
0.279296 -0.133965 -0.115204 0.101785 -0.674404 0.731313
-0.144479 -0.009982 0.118318 -0.000377 -0.050877 0.998056
-0.833468 -0.008637 -0.118424 0.000001 -0.024253 -0.999117
-0.753661 0.110952 -0.042289 -0.000004 0.942258 -0.333126
1.506511 0.036011 0.049289 1.000000 0.000000 0.000000
1.232359 0.109377 0.046210 0.000381 0.904741 0.424665
0.788550 0.118738 -0.000000 0.000257 0.999053 0.025376
1.330089 -0.186599 0.157511 0.000000 -0.677925 -0.735131
-1.333331 0.068907 -0.096699 0.000152 0.580531 -0.813520
1.143595 0.066253 0.075665 -0.000000 -0.735131 -0.677925
0.623845 0.057940 -0.103642 0.000003 0.444756 -0.894994
1.348271 -0.285325 0.248554 0.000000 -0.677925 -0.735131
0.081579 -0.152677 -0.117478 -0.062559 -0.704333 0.707108
1.162925 -0.057942 0.103641 -0.000013 -0.466293 0.883966
0.339184 -0.197590 0.182214 0.062606 0.676595 0.733689
-0.788683 0.046865 -0.109098 0.000195 0.438263 -0.898174
0.102460 -0.247070 0.238370 -0.038419 0.659895 0.750375
0.181446 -0.317449 0.272768 -0.062559 -0.704333 -0.707108
-0.449160 0.017233 0.117481 0.000018 0.096585 0.994722
0.553981 -0.118424 -0.008637 -0.000001 -0.999117 -0.024253
1.198452 0.047446 -0.108847 -0.000197 0.355465 -0.933954
0.339184 0.182883 0.168652 0.101785 0.674404 -0.731313
1.418716 0.043125 0.110630 0.105588 0.359970 0.923332
0.998165 0.118738 -0.000000 0.002188 0.999411 0.021467
1.258373 -0.198564 -0.197679 -0.000000 0.677925 -0.735131
0.218113 -0.390127 0.370099 -0.004733 0.666062 0.745480
0.279566 0.350906 -0.315302 0.101785 0.674404 0.731313
0.111870 -0.349979 0.311326 -0.062559 -0.704333 -0.707108
-0.983554 -0.118221 0.011070 0.000393 -0.988732 0.144282
1.229320 0.272639 -0.251423 -0.108672 0.785724 0.608956
-1.418716 -0.068970 -0.096653 -0.029949 -0.580266 -0.812854
-0.063255 -0.266169 -0.246683 -0.038419 0.659895 -0.750375
-0.059744 -0.046869 -0.109096 -0.000342 -0.416055 -0.908696
-0.389246 -0.113739 0.034090 0.000172 -0.964114 0.263297
1.299343 0.267013 0.231667 -0.036404 0.716276 -0.695293
0.280845 -0.529314 -0.480005 0.101785 -0.674404 0.731313
-1.410056 0.104444 -0.056481 0.000020 0.879137 -0.475373
0.888301 -0.065324 -0.099154 -0.000004 -0.508672 -0.860276
0.106917 0.417754 0.388702 -0.038419 -0.659895 0.750375
-1.276659 0.086837 -0.080982 0.000371 0.758490 -0.650833
-0.519196 0.030537 -0.114744 0.000261 0.303175 -0.952294
0.279899 0.169778 -0.148315 0.101785 0.674404 0.731313
-1.193874 -0.088149 -0.079551 0.000739 -0.755965 -0.653687
0.868881 0.097896 0.090278 -0.108672 0.785724 -0.608956
0.139256 -0.437294 -0.395875 -0.062559 -0.704333 0.707108
0.176062 0.353816 0.309468 -0.062559 0.704333 -0.707108
-1.123876 -0.063615 0.100259 0.000404 -0.537943 0.842293
0.091533 0.107863 -0.115390 -0.038419 -0.659895 -0.750375
1.333215 0.289147 -0.254182 -0.108672 0.785724 0.608956
1.424721 -0.142360 -0.145849 -0.000000 0.677925 -0.735131
0.217083 0.313061 -0.271706 0.101785 0.674404 0.731313
0.258520 -0.607741 0.555102 -0.062559 -0.704333 -0.707108
0.040152 0.172853 0.141240 -0.062559 0.704333 -0.707108
0.114671 0.054681 -0.105398 0.000054 0.502506 -0.863842
0.339184 0.557911 0.514496 0.101785 0.674404 -0.731313
1.351188 -0.052802 0.106352 -0.000403 -0.405778 0.913355
1.401791 -0.080773 -0.059920 0.000000 -0.677925 0.735131
1.139948 0.122848 0.127855 -0.000000 -0.677925 0.735131
1.133664 -0.080773 0.059920 -0.000000 -0.677925 -0.735131
-1.568769 0.036732 0.053106 -0.634385 0.465129 0.614400
0.239713 0.083058 0.085083 -0.000000 -0.735131 -0.677925
0.218113 0.403673 0.355409 -0.007731 0.696002 -0.716893
0.311759 -0.090232 0.077181 -0.000602 -0.741174 0.670544
-0.092126 -0.199347 -0.179333 -0.062559 -0.704333 0.707108
0.239614 -0.113734 0.034107 -0.000147 -0.964184 0.263071
1.234528 -0.115856 0.026001 -0.000125 -0.974359 0.222027
0.198077 0.394918 -0.373287 -0.038419 -0.659895 -0.750375
-0.169753 0.099154 -0.065324 -0.000004 0.860276 -0.508672
0.136262 0.151501 -0.111468 -0.007731 0.696002 0.716893
0.244729 -0.461279 -0.412237 0.101785 -0.674404 0.731313
-1.370556 -0.111936 0.039611 -0.000036 -0.942140 0.333535
0.444142 0.072027 -0.094398 -0.000110 0.567510 -0.822668
0.197804 -0.478477 0.446757 -0.038419 0.659895 0.750375
0.006179 -0.208574 -0.179826 -0.062559 -0.704333 0.707108
0.201212 -0.536429 -0.489139 -0.062559 -0.704333 0.707108
0.316777 -0.369393 0.342560 0.062606 0.676595 0.733689
-1.515450 0.010579 0.096157 -0.429934 0.134408 0.891421
1.329908 -0.321405 0.296394 -0.108672 -0.785724 -0.608956
-0.169593 -0.088628 -0.079018 -0.000002 -0.761875 -0.646814
-0.973170 -0.103682 -0.057869 0.000022 -0.884137 -0.465967
0.284839 0.460125 0.416756 0.101785 0.674404 -0.731313
0.070771 0.079274 0.089185 0.000000 -0.735131 -0.677925
1.174905 0.201029 -0.197565 -0.108672 -0.543449 -0.832378
-1.088133 0.046865 0.109098 0.000181 0.438863 0.897916
1.272255 -0.260711 0.228371 -0.108672 -0.785724 -0.608956
0.501536 0.071407 -0.094867 0.000578 0.562061 -0.826490
-0.703895 -0.094218 0.072262 -0.000127 -0.821812 0.568736
-1.232271 0.008558 -0.118429 -0.000687 0.119124 -0.992305
0.949802 -0.113152 -0.035991 0.000810 -0.962080 -0.270207
0.262642 -0.222019 -0.194089 0.101785 -0.674404 0.731313
1.388584 -0.349851 0.322627 -0.108672 -0.785724 -0.608956
0.328776 0.193433 -0.179269 0.062606 -0.676595 -0.733689
0.155861 0.166885 0.169541 0.062606 -0.676595 0.733689
0.925121 0.080773 -0.059920 -0.018202 0.697100 0.715212
1.019763 -0.171044 -0.157734 -0.108672 -0.785724 0.608956
-0.343288 -0.041854 0.111117 -0.000394 -0.380673 0.924068
1.320375 0.206852 0.205323 0.000000 -0.677925 0.735131
-0.384429 0.038807 -0.112218 0.000002 0.372066 -0.927572
0.074849 -0.008646 -0.118423 -0.000003 -0.048525 -0.998232
0.888529 0.114743 0.030541 -0.000002 0.959272 0.280391
1.048134 -0.050239 0.107586 -0.000002 -0.400790 0.915527
-0.254464 -0.094141 -0.072361 -0.000002 -0.820992 -0.569908
0.668836 -0.065324 0.099154 -0.000196 -0.508941 0.860099
-0.504103 0.115915 -0.025740 -0.000004 0.980626 -0.192862
-0.319427 0.117481 0.017233 -0.000004 0.994703 0.096888
-0.464248 0.069397 0.096347 0.000002 0.622758 0.781662
0.095939 0.224201 0.187451 -0.062559 0.704333 -0.707108
1.053115 0.057934 0.103646 0.000398 0.445480 0.894617
0.559039 -0.065211 0.099229 -0.000042 -0.528897 0.847994
1.409439 0.008792 -0.118412 0.001588 0.116348 -0.992579
0.331905 -0.400212 -0.369690 0.062606 0.676595 -0.733689
-0.863442 0.115915 -0.025740 -0.000004 0.980626 -0.192862
-0.569243 -0.088753 0.078878 -0.000130 -0.778533 0.626670
-1.553347 -0.064733 0.039327 -0.538330 -0.696410 0.471548
0.658789 -0.118738 -0.000000 -0.000001 -0.999117 -0.024253
0.718410 -0.107880 0.049605 -0.000494 -0.916753 0.398105
0.439219 -0.017229 -0.117482 0.000002 -0.120998 -0.992059
1.180960 -0.210361 -0.204449 -0.108672 0.543449 -0.832378
-0.144109 0.041726 -0.111165 0.000290 0.369805 -0.928611
0.039923 0.107610 0.050187 -0.000028 0.915608 0.400608
1.120350 0.219810 0.202705 -0.108672 0.785724 -0.608956
-0.574059 0.069389 -0.096353 -0.000004 0.603594 -0.796553
-0.134799 0.110952 0.042289 -0.000004 0.942258 0.333126
-1.508611 -0.006002 -0.099506 -0.388461 -0.096438 -0.915704
0.873407 -0.008646 0.118423 0.000004 -0.048510 0.998233
0.793621 -0.072369 0.094136 0.000004 -0.589675 0.806911
0.329394 -0.000000 0.118738 0.000289 0.024748 0.999080
0.107373 -0.425990 0.387437 -0.062559 -0.704333 -0.707108
1.008069 0.065320 -0.099157 0.000002 0.529406 -0.847674
0.216846 -0.256415 0.219434 0.101785 -0.674404 -0.731313
0.174561 0.054681 0.105398 0.000275 0.502347 0.863960
-1.466743 -0.112987 0.000000 -0.196417 -0.979439 -0.025951
-1.182893 0.094141 -0.072361 0.000197 0.821492 -0.569192
0.204123 0.193387 -0.189863 0.062606 -0.676595 -0.733689
1.371999 0.080773 -0.059920 0.000000 0.677925 0.735131
1.353343 0.194165 -0.193622 -0.000000 -0.677925 -0.735131
-0.508267 -0.076342 -0.090943 -0.000092 -0.623618 -0.780987
1.341485 0.291931 0.256298 -0.108672 0.785724 -0.608956
0.064254 0.333684 0.312585 -0.038419 -0.659895 0.750375
-1.178061 0.018270 0.117324 0.000923 0.124663 0.991552
1.440094 0.132141 0.107291 0.065268 0.683490 -0.725527
0.329482 0.325977 -0.299260 0.101785 0.674404 0.731313
0.149259 0.207750 -0.206188 -0.038419 -0.659895 -0.750375
1.384581 -0.132445 0.136705 -0.000000 0.677925 0.735131
0.986233 0.154789 0.142744 -0.108672 0.785724 -0.608956
-1.435470 0.008786 0.117733 -0.115630 0.088581 0.988716
-1.437324 -0.083313 0.083378 -0.118697 -0.728943 0.673059
-1.021280 -0.086937 -0.080874 0.000055 -0.698263 -0.715016
0.031110 -0.098673 -0.068151 0.000000 0.735131 0.677925
1.090564 -0.165795 0.138326 -0.036404 -0.716276 -0.695293
1.386403 0.192377 0.162840 0.000000 0.677925 -0.735131
-1.325696 0.087031 0.080774 -0.000305 0.703547 0.709854
0.040493 0.315624 -0.283421 -0.062559 0.704333 0.707108
1.474444 0.100135 -0.025171 0.312785 0.908396 -0.274953
-1.014287 -0.061161 0.101775 -0.000103 -0.518913 0.854147
-0.023465 -0.256282 0.229970 -0.062559 -0.704333 -0.707108
-0.448694 -0.031631 -0.114448 0.000446 -0.312460 -0.949347
1.237789 0.105553 0.111906 0.000000 -0.677925 0.735131
-0.348639 -0.087698 0.080049 -0.000469 -0.702457 0.710708
1.038091 -0.118738 -0.000000 -0.000299 -0.997810 -0.052148
-0.140739 -0.123514 0.117262 -0.038419 0.659895 0.750375
1.237702 -0.276703 -0.255171 -0.108672 -0.785724 0.608956
1.036307 0.106235 -0.053036 -0.001072 0.877881 -0.477617
0.289219 -0.524646 0.488083 0.062606 0.676595 0.733689
1.217636 0.115072 -0.029279 -0.000246 0.969784 -0.241701
0.264958 -0.414065 0.388178 0.062606 0.676595 0.733689
0.266427 0.453314 -0.407912 0.101785 0.674404 0.731313
0.042574 -0.182891 0.178864 -0.038419 0.659895 0.750375
-0.761867 0.027603 0.115485 -0.001289 0.200177 0.979028
1.390444 -0.236373 -0.203412 0.000000 -0.677925 0.735131
-0.060228 0.187419 0.177583 -0.038419 -0.659895 0.750375
1.365078 0.133439 -0.137622 -0.000000 -0.677925 -0.735131
0.704824 0.095283 -0.070851 -0.000084 0.788507 -0.614133
1.250149 0.202363 -0.172048 0.000000 0.677925 0.735131
1.362924 -0.198475 0.197598 -0.000000 0.677925 0.735131
0.234508 0.580713 0.538544 -0.038419 -0.659895 0.750375
1.475915 0.206614 0.190536 0.194837 -0.641321 0.742122
0.979289 0.112165 -0.114009 -0.108672 -0.543449 -0.832378
-0.948351 0.088628 -0.079018 -0.000610 0.763683 -0.644753
1.123969 0.167471 -0.169006 -0.036404 -0.635117 -0.770136
-1.023119 -0.008637 0.118424 0.000454 -0.024512 0.999097
0.793558 0.025731 0.115917 -0.000002 0.168993 0.985020
-0.813458 -0.110952 0.042289 -0.000182 -0.942099 0.333541
-0.873381 -0.118423 -0.008646 0.000001 -0.998231 -0.048528
0.524037 0.008637 -0.118424 -0.000002 0.024261 -0.999116
-0.613901 -0.025740 -0.115915 -0.000004 -0.192862 -0.980626
-0.414289 0.103646 0.057934 0.000002 0.895005 0.444735
-1.137956 0.107584 0.050243 0.000237 0.925346 0.377583
-0.643884 0.094141 0.072361 0.000002 0.820992 0.569908
-0.339488 0.076223 -0.091043 0.000002 0.659947 -0.750528
-0.903390 0.057934 -0.103646 0.000002 0.444735 -0.895005
-0.194545 -0.082637 0.085263 0.000004 -0.712798 0.700529
0.259496 0.117482 -0.017229 0.000001 0.992058 -0.121006
0.044854 0.110947 -0.042304 -0.000195 0.943073 -0.330830
0.688719 0.117481 -0.017233 0.000015 0.994699 -0.096918
1.215670 -0.107071 -0.084172 -0.000000 -0.677925 0.735131
0.454277 -0.104046 -0.057211 0.000443 -0.896594 -0.441715
-1.063046 0.118424 0.008637 0.000001 0.999117 0.024253
-0.054836 -0.103641 -0.057942 0.000004 -0.883941 -0.466337
0.678813 -0.107586 -0.050239 -0.000002 -0.915527 -0.400790
-0.918389 0.099157 0.065320 0.000002 0.847674 0.529406
-0.129701 -0.107586 -0.050239 -0.000002 -0.915527 -0.400790
1.474476 -0.097791 -0.033095 0.312970 -0.899050 -0.304194
-0.089545 -0.159171 -0.139086 -0.062559 -0.704333 0.707108
0.153532 0.242089 0.236606 -0.038419 -0.659895 0.750375
1.242901 0.080773 -0.059920 -0.000000 0.677925 0.735131
0.983222 -0.025740 0.115915 0.000004 -0.192862 0.980626
-1.083133 -0.082132 -0.085751 -0.000068 -0.680610 -0.731839
-0.369352 0.113737 -0.034099 -0.000004 0.970114 -0.240210
0.590250 0.092584 -0.074344 0.000235 0.773423 -0.632961
-1.118090 0.046869 -0.109096 0.000201 0.416333 -0.908555
1.070056 -0.195427 -0.180219 -0.108672 -0.785724 0.608956
0.974068 -0.115089 -0.093690 -0.108672 -0.785724 0.608956
-0.828763 -0.088845 -0.078774 0.000070 -0.763534 -0.644866
-0.069772 -0.076220 0.091046 0.000004 -0.677972 0.734286
0.960895 0.090895 0.069254 -0.000000 0.677925 -0.735131
0.339184 -0.249065 0.229683 0.062606 0.676595 0.733689
0.023718 -0.332507 -0.301722 -0.062559 -0.704333 0.707108
0.177753 0.135370 -0.138611 0.062606 -0.676595 -0.733689
-0.254912 0.020928 -0.116879 0.000029 0.229242 -0.972601
-0.623899 0.042289 -0.110952 -0.000217 0.334046 -0.941905
0.306359 -0.641077 -0.586621 0.101785 -0.674404 0.731313
-0.284426 -0.103646 0.057934 -0.000002 -0.895005 0.444735
0.059374 0.194128 -0.189607 -0.038419 -0.659895 -0.750375
-0.743695 -0.069834 0.096031 -0.000022 -0.606760 0.794167
-0.464127 -0.110954 -0.042285 -0.000001 -0.942291 -0.333037
-1.013150 0.118423 -0.008646 -0.000004 0.998233 -0.048510
-0.524019 -0.025731 0.115917 0.000311 -0.167254 0.985371
-0.159561 -0.046869 -0.109096 -0.000214 -0.416315 -0.908563
-0.359485 0.046869 0.109096 0.000002 0.416629 0.908428
0.256962 -0.025913 -0.115876 0.000700 -0.251588 -0.967288
1.227963 0.152468 0.155171 0.000000 -0.677925 0.735131
0.211383 0.213794 0.208063 0.062606 -0.676595 0.733689
0.384845 -0.096267 -0.069508 -0.000214 -0.794817 -0.605872
0.219143 -0.341700 0.298402 0.101785 -0.674404 -0.731313
-0.917628 -0.098645 -0.066090 -0.000655 -0.858160 -0.512022
1.277276 -0.189241 0.159948 0.000000 -0.677925 -0.735131
1.334002 0.113672 -0.034314 0.000043 0.957251 -0.287341
0.434202 -0.008637 0.118424 0.000002 -0.024261 0.999116
0.229580 -0.017247 0.117479 -0.000005 -0.121042 0.992054
0.509037 0.117482 -0.017229 0.000001 0.992059 -0.121004
-0.973194 0.025731 0.115917 -0.000339 0.169542 0.984897
-0.823587 0.069397 0.096347 0.000002 0.622758 0.781662
1.170644 0.244193 -0.225190 -0.108672 0.785724 0.608956
0.192283 -0.461069 -0.431164 -0.038419 0.659895 -0.750375
1.170452 0.108889 0.085848 -0.000000 0.677925 -0.735131
0.012064 0.319287 0.297251 -0.038419 -0.659895 0.750375
0.758666 -0.107586 -0.050239 -0.000002 -0.915527 -0.400790
0.084396 -0.423672 -0.392753 -0.038419 0.659895 -0.750375
0.121512 0.316460 -0.277086 -0.062559 0.704333 0.707108
0.127168 0.099759 0.110088 -0.004733 -0.666062 0.745480
0.006366 -0.154502 -0.152044 -0.038419 0.659895 -0.750375
0.340537 0.034381 -0.113652 0.000288 0.315067 -0.948402
1.315732 -0.187322 -0.187312 0.000000 0.677925 -0.735131
1.169706 0.041044 0.111419 -0.000268 0.389382 0.920449
1.312415 -0.066253 -0.075665 -0.000000 0.735131 0.677925
0.274509 0.008646 0.118423 0.000004 0.048510 0.998233
1.415545 -0.270573 0.261657 0.194837 0.641321 0.742122
0.212820 -0.292574 -0.252219 0.101785 -0.674404 0.731313
0.388929 -0.078401 0.089174 0.000034 -0.680101 0.732333
1.147138 -0.105471 0.111830 -0.000000 0.677925 0.735131
-0.027183 0.178069 -0.171052 -0.038419 -0.659895 -0.750375
-0.827370 -0.033298 0.113974 0.000038 -0.259149 0.965276
0.454178 -0.118423 -0.008646 0.000004 -0.998233 -0.048510
0.174930 -0.142771 -0.108800 0.101785 -0.674404 0.731313
1.064150 0.080773 0.059920 -0.000000 0.677925 -0.735131
-0.046860 -0.167963 0.144067 -0.062559 -0.704333 -0.707108
0.291565 -0.350783 -0.316858 0.101785 -0.674404 0.731313
0.881925 -0.082892 0.068590 -0.108672 -0.785724 -0.608956
0.412991 0.061439 0.101607 -0.000458 0.504340 0.862929
0.990089 0.110084 0.114060 -0.108672 -0.543449 0.832378
0.499082 -0.117480 0.017237 0.000004 -0.994701 0.096914
-0.043644 0.254502 -0.237426 -0.038419 -0.659895 -0.750375
0.230325 -0.533759 0.483904 -0.062559 -0.704333 -0.707108
1.506511 -0.056225 -0.025608 1.000000 0.000000 0.000000
0.079059 -0.216448 -0.181222 -0.062559 -0.704333 0.707108
0.339184 -0.477023 -0.439902 0.101785 -0.674404 0.731313
0.908361 0.034099 0.113737 0.000004 0.240210 0.970114
1.470417 -0.048380 -0.092711 0.313370 -0.480006 -0.818632
1.485577 0.162887 0.150212 0.194837 -0.641321 0.742122
1.458201 0.286780 0.264464 0.194837 -0.641321 0.742122
1.490408 -0.141023 0.130049 0.194837 0.641321 0.742122
1.495239 -0.119160 -0.109887 0.194837 -0.687853 0.699212
-1.040969 -0.117835 0.014620 0.000977 -0.986015 0.163207
1.406688 0.347945 -0.316936 -0.108672 0.785724 0.608956
0.885646 0.106023 -0.097773 -0.108672 0.785724 0.608956
-0.069897 0.065264 -0.099194 -0.000006 0.508174 -0.860571
0.299436 -0.259440 -0.233719 0.101785 -0.674404 0.731313
-0.467774 -0.081359 0.086483 -0.000541 -0.719172 0.694020
-0.013972 -0.275071 -0.247845 -0.062559 -0.704333 0.707108
0.100016 0.291782 0.277566 -0.038419 -0.659895 0.750375
-0.174026 0.149436 -0.138353 -0.038419 -0.659895 -0.750375
-0.126676 0.218899 -0.201865 -0.062559 0.704333 0.707108
0.155981 0.557326 0.513957 -0.062559 0.704333 -0.707108
0.339184 0.396135 0.365309 0.101785 0.674404 -0.731313
0.339184 0.116702 -0.107621 0.062606 -0.676595 -0.733689
0.339184 0.477023 0.439902 0.101785 0.674404 -0.731313
0.339184 -0.160823 0.148308 0.062606 0.676595 0.733689
-0.082480 0.119035 -0.098482 -0.062559 0.704333 0.707108
1.066884 -0.109558 -0.045780 -0.000070 -0.923564 -0.381916
0.293633 0.531705 0.483989 0.101785 0.674404 -0.731313
1.329249 -0.236093 0.232288 0.000000 0.677925 0.735131
0.189607 0.113738 0.034095 0.000002 0.963997 0.263689
0.723699 -0.025740 0.115915 0.000004 -0.192862 0.980626
0.958173 0.065324 -0.099154 -0.000004 0.508672 -0.860276
-0.439275 0.088625 -0.079021 -0.000004 0.777353 -0.628128
0.209600 0.117481 -0.017233 -0.000004 0.994703 -0.096888
-0.943279 -0.008646 -0.118423 -0.000004 -0.048510 -0.998233
-1.211817 -0.112062 -0.039255 0.000002 -0.957051 -0.288118
0.844588 0.118364 -0.009421 -0.000150 0.994367 -0.101055
0.404377 0.042328 -0.110937 -0.000037 0.333069 -0.942279
1.329908 -0.321405 -0.296394 -0.108672 -0.785724 0.608956
0.005060 0.042252 -0.110966 0.000015 0.309884 -0.950156
0.389142 -0.050773 -0.107335 0.000041 -0.470979 -0.881498
-0.209615 0.118738 -0.000000 0.000001 0.999117 0.024253
0.144763 -0.115915 -0.025740 0.000004 -0.980626 -0.192862
0.129761 -0.000000 0.118738 0.000002 0.024261 0.999116
0.359339 -0.118738 -0.000000 0.000002 -0.999116 -0.024261
-0.593954 0.110952 0.042289 -0.000004 0.942258 0.333126
-0.583922 -0.115917 -0.025732 0.000002 -0.980634 -0.192825
-0.918372 -0.050239 -0.107586 0.000002 -0.400790 -0.915527
1.073040 -0.008646 0.118423 0.000004 -0.048510 0.998233
1.282623 -0.080773 0.059920 -0.000000 -0.677925 -0.735131
-0.937569 -0.113535 0.034764 0.000016 -0.963090 0.266752
0.284396 0.153818 0.146523 0.062606 -0.676595 0.733689
0.085052 -0.127611 0.132425 -0.038419 0.659895 0.750375
1.007053 -0.125308 0.100990 -0.036404 -0.716276 -0.695293
0.053275 -0.357841 0.324341 -0.062559 -0.704333 -0.707108
0.424670 0.105206 -0.055049 -0.000520 0.862560 -0.504723
0.078300 -0.280692 0.266702 -0.038419 0.659895 0.750375
-0.059283 -0.229391 0.206353 -0.062559 -0.704333 -0.707108
0.261357 -0.253674 0.240574 0.062606 0.676595 0.733689
1.215960 0.219368 0.214899 -0.108672 -0.543449 0.832378
0.218113 -0.390127 -0.370099 0.028942 0.671629 -0.739918
0.339184 -0.447609 0.412777 0.062606 0.676595 0.733689
0.496996 -0.090230 -0.077184 0.000887 -0.741723 -0.669889
1.427376 -0.009808 0.118332 0.208910 -0.024369 0.974216
0.014652 0.388113 -0.357911 -0.062559 0.704333 0.707108
1.321525 0.317341 -0.292646 -0.108672 0.785724 0.608956
-0.002331 0.118668 -0.120086 -0.038419 -0.659895 -0.750375
-1.073112 0.082644 -0.085257 0.000002 0.729598 -0.683015
0.047633 0.266734 0.234091 -0.062559 0.704333 -0.707108
0.181200 0.162616 0.127973 0.101785 0.674404 -0.731313
0.099408 0.130869 0.136025 -0.038419 -0.659895 0.750375
1.232970 -0.080773 0.059920 -0.000000 -0.677925 -0.735131
0.171827 0.457828 -0.427268 -0.038419 -0.659895 -0.750375
-1.268224 -0.115215 0.028711 -0.000009 -0.960585 0.276154
1.174369 -0.036266 -0.113064 -0.000440 -0.332225 -0.942707
-0.106031 -0.162067 0.143429 -0.062559 -0.704333 -0.707108
-1.589208 -0.030816 0.035187 -0.696081 -0.398536 0.593275
1.412306 -0.285233 -0.275176 0.194837 0.641321 -0.742122
0.923138 0.116663 -0.022102 -0.001054 0.976725 -0.211868
0.171744 -0.130135 0.096704 0.101785 -0.674404 -0.731313
1.132320 -0.171519 0.172739 -0.036404 0.635117 0.770136
-1.282655 0.115678 -0.026782 0.000495 0.973163 -0.227435
0.544381 0.099846 0.064261 0.000516 0.812713 0.581635
0.208182 0.105398 -0.108375 0.062606 -0.676595 -0.733689
1.195504 -0.136323 -0.140282 -0.000000 0.677925 -0.735131
0.179604 0.099154 -0.065324 -0.000004 0.860276 -0.508672
0.134983 -0.178599 0.138574 -0.062559 -0.704333 -0.707108
1.506511 0.051499 -0.000000 1.000000 0.000000 -0.000000
1.331401 -0.136973 -0.140882 0.000000 0.677925 -0.735131
-1.156560 -0.116316 0.023863 -0.000002 -0.970422 0.239119
0.263744 0.076595 -0.090730 0.000682 0.628549 -0.776967
0.018356 -0.301261 0.281722 -0.038419 0.659895 0.750375
0.903402 -0.057942 0.103641 0.000004 -0.466337 0.883941
0.320531 0.105419 0.098807 0.062606 -0.676595 0.733689
0.114106 -0.507189 -0.467721 -0.062559 -0.704333 0.707108
0.302965 0.265336 -0.239648 0.101785 0.674404 0.731313
-0.259499 -0.034100 0.113736 0.000002 -0.240217 0.970112
1.084115 0.131713 -0.136030 -0.000000 -0.677925 -0.735131
0.244874 -0.182313 0.154999 0.101785 -0.674404 -0.731313
-0.855830 -0.075969 0.091255 0.000448 -0.677288 0.734949
1.341673 -0.116319 0.092701 0.000000 -0.677925 -0.735131
1.282030 -0.142457 0.116804 -0.000000 -0.677925 -0.735131
-1.353001 0.118410 -0.008825 0.000178 0.993266 -0.108660
1.419217 -0.344915 -0.310792 0.094070 -0.727363 0.675240
0.228260 0.330831 -0.314552 0.062606 -0.676595 -0.733689
0.225538 -0.602283 -0.557054 -0.038419 0.659895 -0.750375
0.165000 -0.299882 -0.256725 -0.062559 -0.704333 0.707108
-0.154585 -0.054672 0.105403 0.000004 -0.481612 0.875713
1.051915 0.114962 0.091449 0.000000 0.677925 -0.735131
0.232898 0.478186 0.428322 -0.062559 0.704333 -0.707108
0.308348 0.395655 -0.360575 0.101785 0.674404 0.731313
1.506511 0.028595 -0.088177 0.315746 0.339447 -0.885117
0.107819 0.388851 0.350404 -0.062559 0.704333 -0.707108
0.866889 0.069883 -0.071729 -0.000000 -0.735131 0.677925
1.186589 -0.150983 0.153801 0.000000 0.677925 0.735131
-0.051224 0.141194 0.117789 -0.062559 0.704333 -0.707108
0.231406 0.154123 0.127129 0.101785 0.674404 -0.731313
0.305322 -0.572851 0.523560 0.101785 -0.674404 -0.731313
1.019763 -0.171044 0.157734 -0.108672 -0.785724 -0.608956
0.310119 -0.102573 -0.097071 0.062606 0.676595 -0.733689
0.480060 -0.089477 0.078056 0.000301 -0.738308 0.673855
0.960441 -0.108405 0.109093 -0.108672 0.543449 0.832378
0.202712 0.263809 -0.254926 0.062606 -0.676595 -0.733689
0.058441 -0.169698 0.136480 -0.062559 -0.704333 -0.707108
0.498022 0.088198 0.079497 -0.000343 0.729002 0.683764
-0.068144 0.223818 -0.209187 -0.038419 -0.659895 -0.750375
0.071687 -0.119701 -0.085506 -0.062559 -0.704333 0.707108
1.179955 -0.229469 0.204531 -0.108672 -0.785724 -0.608956
-1.156716 -0.033800 -0.113826 -0.000619 -0.238682 -0.970503
-0.424203 -0.025742 0.115914 -0.000091 -0.193497 0.980485
0.993292 -0.105398 0.054681 -0.000002 -0.863760 0.502734
-1.264426 0.053325 0.106091 0.000766 0.482539 0.875332
-0.137145 -0.206364 -0.190306 -0.062559 -0.704333 0.707108
0.127902 -0.375053 0.352224 -0.038419 0.659895 0.750375
-1.509673 -0.040213 0.090732 -0.368494 -0.391489 0.842522
1.436601 -0.175281 0.173780 0.194837 0.641321 0.742122
0.184009 0.298601 0.253767 -0.003805 0.695270 -0.717454
-0.179020 -0.156227 -0.144070 -0.062559 -0.704333 0.707108
0.282793 -0.161239 -0.153504 0.062606 0.676595 -0.733689
-0.107702 0.083928 0.084140 0.000000 -0.735131 -0.677925
1.348525 0.036885 0.112864 0.000038 0.346476 0.937531
1.174905 0.201029 0.197565 -0.108672 -0.543449 0.832378
-0.189925 0.018543 0.117281 0.000413 0.124934 0.991490
-0.020855 -0.120352 -0.120619 -0.038419 0.659895 -0.750375
0.114473 -0.208525 0.170197 -0.062559 -0.704333 -0.707108
0.600598 -0.091905 0.075182 -0.000077 -0.758379 0.650542
-1.221772 -0.091581 0.075575 -0.000035 -0.798520 0.600993
0.778714 0.109096 0.046869 -0.000049 0.909239 0.414735
0.094777 0.103646 0.057934 0.000002 0.895004 0.444735
-0.936006 -0.051636 0.106923 0.000006 -0.471127 0.881397
-1.445102 0.078103 -0.087003 -0.115168 0.667628 -0.734487
0.569638 0.038831 0.112209 -0.001097 0.334776 0.941621
0.165635 -0.401373 -0.377303 -0.038419 0.659895 -0.750375
1.503290 0.082721 0.076284 0.194837 -0.641321 0.742122
0.107291 -0.361079 -0.322788 -0.062559 -0.704333 0.707108
0.099246 -0.475480 0.437451 -0.062559 -0.704333 -0.707108
0.529453 0.096926 -0.068586 -0.001148 0.802826 -0.595195
0.266669 0.620597 -0.575265 -0.038419 -0.659895 -0.750375
0.025121 0.400647 0.369470 -0.062559 0.704333 -0.707108
1.161983 -0.113342 -0.035388 -0.000001 -0.941719 -0.334652
1.451175 0.109321 -0.112953 0.194837 -0.641321 -0.742122
1.291469 0.020253 -0.116998 0.000505 0.176481 -0.983677
-1.109415 -0.095479 0.070587 0.000115 -0.828588 0.558804
-1.325267 -0.078399 0.089176 -0.000367 -0.663595 0.747412
-0.231364 0.093555 -0.086275 -0.062559 0.704333 0.707108
1.434980 0.194714 -0.167423 0.194837 0.687853 0.699212
1.084092 0.109475 -0.086389 0.000000 0.677925 0.735131
-1.287633 -0.000000 0.118738 -0.000094 0.024747 0.999027
-1.392795 -0.028950 -0.115155 0.000062 -0.284053 -0.958208
-1.018138 0.034055 -0.113750 0.000381 0.241032 -0.969976
0.708792 0.079018 0.088628 -0.000204 0.647058 0.761657
-0.848535 0.088628 -0.079018 0.000002 0.761875 -0.646814
-0.528983 -0.113738 0.034095 -0.000002 -0.963997 0.263689
0.027880 0.190810 0.185076 -0.038419 -0.659895 0.750375
-0.873381 0.008646 0.118423 -0.000084 0.047616 0.998297
-0.304427 -0.118423 -0.008646 0.000004 -0.998233 -0.048510
-0.923332 0.115915 -0.025740 -0.000004 0.980626 -0.192862
1.033087 0.008646 -0.118423 0.000000 0.048510 -0.998233
-1.068036 -0.000000 0.118738 0.000304 0.025967 0.999073
-0.788550 0.000000 -0.118738 -0.000002 -0.024261 -0.999116
-0.184643 -0.115917 0.025731 -0.000002 -0.985020 0.168993
0.818510 -0.017233 0.117481 0.000004 -0.096888 0.994703
1.093109 -0.105398 0.054681 -0.000002 -0.863760 0.502734
0.084857 0.008646 0.118423 0.000004 0.048510 0.998233
-0.424220 0.118424 0.008637 0.000001 0.999117 0.024253
0.119753 0.117482 0.017229 0.000001 0.992058 0.121006
-0.239448 -0.076223 0.091043 -0.001324 -0.656286 0.753598
-1.003253 0.082637 0.085263 -0.000004 0.712798 0.700529
-1.093037 0.110952 -0.042289 -0.000004 0.942258 -0.333126
-0.114835 0.110952 -0.042289 -0.000004 0.942258 -0.333126
0.111007 0.184140 -0.183466 -0.038419 -0.659895 -0.750375
0.103574 0.374988 -0.350922 -0.038419 -0.659895 -0.750375
-0.229566 -0.017238 -0.117480 -0.000104 -0.121504 -0.991986
-0.069838 0.050255 0.107579 -0.000000 0.400808 0.915519
0.349343 0.117481 0.017233 -0.000004 0.994703 0.096888
-0.549119 0.062205 0.101140 0.000002 0.544047 0.838352
-0.039912 -0.117481 0.017233 0.000004 -0.994703 0.096888
-0.648839 0.113737 -0.034099 -0.000004 0.970114 -0.240210
-0.718679 0.118738 -0.000000 -0.000001 0.999116 0.024257
0.843462 -0.118423 -0.008646 -0.000013 -0.998223 -0.045980
0.823587 -0.096347 0.069397 -0.000002 -0.781662 0.622758
0.317301 0.640318 0.587444 0.101785 0.674404 -0.731313
0.265871 -0.289340 -0.256620 0.101785 -0.674404 0.731313
1.461601 0.231965 -0.211486 0.194837 0.687853 0.699212
0.793506 0.025700 -0.115924 -0.000007 0.192535 -0.980693
0.014972 -0.118424 0.008637 0.000002 -0.999116 0.024261
-0.723737 0.094141 0.072361 0.000002 0.820992 0.569908
-0.853448 0.115917 0.025731 0.000002 0.985020 0.168993
0.763634 0.096268 -0.069507 0.000653 0.780757 -0.623881
0.484080 -0.025740 -0.115915 -0.000008 -0.192867 -0.980625
0.289453 0.117481 0.017233 -0.000004 0.994703 0.096888
-1.058166 0.076223 0.091043 0.000002 0.659947 0.750528
-0.662083 -0.102976 -0.059116 0.000143 -0.879370 -0.474564
1.471274 -0.188187 -0.171115 0.194837 -0.687853 0.699212
0.298032 -0.058955 -0.103068 0.000180 -0.512850 -0.857867
0.054908 0.042319 0.110941 -0.000582 0.335628 0.941300
0.144197 0.491308 0.455296 -0.038419 -0.659895 0.750375
0.321780 0.272498 0.252778 0.062606 -0.676595 0.733689
0.143741 -0.242311 -0.236299 -0.038419 0.659895 -0.750375
0.688765 0.034099 0.113737 0.000004 0.240210 0.970114
-0.638760 -0.034060 0.113748 -0.000013 -0.263492 0.964054
1.092944 0.042289 -0.110952 -0.000004 0.333126 -0.942258
-0.618877 -0.117481 0.017233 0.000003 -0.994704 0.096889
1.008207 0.050239 0.107586 -0.000002 0.400790 0.915527
0.169749 -0.107586 0.050239 0.000107 -0.915665 0.400494
0.083064 0.260220 -0.224467 -0.062559 0.704333 0.707108
1.024427 -0.066253 -0.075665 -0.000000 0.735131 0.677925
0.027160 -0.055225 -0.105114 0.000131 -0.462767 -0.885816
-1.256381 -0.029848 -0.114926 0.000189 -0.291577 -0.955936
-0.037692 -0.325441 0.300116 -0.038419 0.659895 0.750375
0.024941 0.118423 0.008646 -0.000004 0.998233 0.048510
0.154451 -0.186870 -0.188091 0.031350 0.672021 -0.739513
0.837908 0.072061 0.069367 -0.000000 -0.735131 -0.677925
-0.274575 0.094136 -0.072369 -0.000004 0.806911 -0.589675
0.295579 -0.383878 -0.347936 0.101785 -0.674404 0.731313
0.762313 -0.118311 0.010067 0.001180 -0.993771 0.105750
0.209623 -0.557323 0.516700 -0.038419 0.659895 0.750375
0.280585 0.360228 0.337196 0.062606 -0.676595 0.733689
0.628871 -0.017229 0.117482 -0.000001 -0.121006 0.992058
1.257229 -0.031287 0.114542 0.000048 -0.303908 0.952122
0.219818 -0.082212 -0.086000 -0.000000 0.735131 0.677925
1.237016 -0.169394 -0.141645 -0.000000 -0.677925 0.735131
0.166621 0.330378 -0.286958 -0.062559 0.704333 0.707108
0.078796 -0.290004 -0.274917 -0.038419 0.659895 -0.750375
-1.358410 0.028709 0.115215 0.000070 0.242118 0.969644
0.918377 -0.099154 -0.065324 -0.000347 -0.860001 -0.509019
-0.150704 0.141941 0.132956 -0.038419 -0.659895 0.750375
-1.367518 0.096332 -0.069419 0.000150 0.786373 -0.616859
1.182867 0.158246 0.160499 0.000000 -0.677925 0.735131
1.061445 -0.098643 0.105534 0.000000 0.677925 0.735131
1.179026 -0.248256 -0.228938 -0.108672 -0.785724 0.608956
0.209019 -0.375654 0.328305 -0.007731 -0.696002 -0.716893
0.339184 -0.322600 -0.297496 0.101785 -0.674404 0.731313
0.339184 -0.631446 0.582309 0.062606 0.676595 0.733689
0.296980 0.225998 0.212012 0.062606 -0.676595 0.733689
1.158222 0.133605 -0.137776 -0.000000 -0.677925 -0.735131
1.384541 -0.113838 -0.033758 0.000021 -0.958704 -0.282374
-0.623984 0.054672 0.105403 -0.000004 0.481612 0.875713
1.325373 0.242871 -0.209405 0.000000 0.677925 0.735131
1.246085 -0.280767 0.258918 -0.108672 -0.785724 -0.608956
1.410524 -0.115240 0.028608 -0.000030 -0.958732 0.282297
-0.518985 -0.107586 -0.050239 -0.000003 -0.915526 -0.400791
0.340433 0.100319 -0.063520 -0.000124 0.829196 -0.558020
1.027762 0.113969 0.033315 0.000562 0.964245 0.262776
-1.418716 -0.043174 0.110611 -0.027651 -0.364134 0.930134
-0.214177 0.098564 0.091559 -0.038419 -0.659895 0.750375
1.481366 -0.073956 0.068746 0.312930 -0.661353 0.680593
-0.146813 0.108089 -0.103385 -0.038419 -0.659895 -0.750375
1.247866 0.073513 0.067793 0.000000 -0.735131 -0.677925
1.132934 -0.025731 0.115917 -0.000002 -0.168993 0.985020
1.292371 -0.231056 -0.198508 0.000000 -0.677925 0.735131
1.166451 -0.194948 -0.165210 -0.000000 -0.677925 0.735131
-0.752167 -0.075044 -0.092017 0.000877 -0.621227 -0.782926
0.211047 -0.350474 -0.305366 0.101785 -0.674404 0.731313
0.052067 -0.417558 0.383930 -0.062559 -0.704333 -0.707108
-1.470585 -0.103153 0.043853 -0.222910 -0.914235 0.335485
0.105429 0.469365 -0.430813 -0.062559 0.704333 0.707108
0.284585 0.083727 0.084193 0.000047 0.717886 0.695457
1.079082 0.111123 -0.041838 -0.000127 0.920759 -0.388660
0.210175 0.503576 0.469462 -0.038419 -0.659895 0.750375
-0.287560 -0.066029 -0.098686 0.000159 -0.595874 -0.802328
0.023613 0.131481 0.132683 -0.038419 -0.659895 0.750375
0.720651 0.035227 -0.113392 0.000029 0.340073 -0.939782
1.061445 -0.113162 -0.089789 -0.000000 -0.677925 0.735131
0.249527 -0.458318 0.430304 0.062606 0.676595 0.733689
0.200504 -0.192772 0.158469 0.101785 -0.674404 -0.731313
0.289512 -0.113738 -0.034095 -0.000142 -0.963888 -0.264051
0.948322 -0.065324 0.099154 0.000004 -0.508672 0.860276
0.296207 0.230536 -0.206615 0.101785 0.674404 0.731313
0.224448 0.223926 -0.216291 0.062606 -0.676595 -0.733689
1.422024 -0.253349 0.221495 0.194837 -0.687853 -0.699212
1.173554 0.115721 -0.026599 0.000622 0.980484 -0.193426
1.097028 0.188716 0.166747 -0.108672 0.785724 -0.608956
0.194950 0.088945 0.078699 -0.000000 -0.735131 -0.677925
-0.085916 0.154918 -0.147685 -0.038419 -0.659895 -0.750375
0.713794 -0.054680 -0.105398 -0.000308 -0.480786 -0.876139
0.703676 0.115914 0.025744 -0.000003 0.980616 0.192911
0.046354 0.144834 -0.145589 -0.038419 -0.659895 -0.750375
-0.848074 -0.049169 -0.108079 -0.000029 -0.389467 -0.920516
1.214699 0.173544 -0.174606 -0.000000 -0.677925 -0.735131
1.434290 -0.111352 0.088120 -0.000000 -0.677925 -0.735131
0.187016 -0.221437 0.217190 0.062606 0.676595 0.733689
1.165048 0.116038 -0.092441 0.000000 0.677925 0.735131
0.643816 0.118424 -0.008637 0.000001 0.999117 -0.024253
0.257481 -0.095520 0.070531 0.000045 -0.791876 0.609775
1.282030 -0.142457 -0.116804 0.000000 -0.677925 0.735131
1.373595 -0.195067 -0.194454 -0.000000 0.677925 -0.735131
0.250237 0.547800 0.496129 -0.062559 0.704333 -0.707108
-1.487347 0.077628 0.074256 -0.322746 0.693799 0.642391
1.385538 -0.252199 -0.247141 -0.000000 0.677925 -0.735131
1.226139 0.092740 -0.100090 0.000000 -0.677925 -0.735131
-0.028380 0.081860 0.086382 0.000000 -0.735131 -0.677925
0.261648 0.414219 -0.388602 0.062606 -0.676595 -0.733689
0.090601 -0.078757 0.089746 -0.038419 0.659895 0.750375
0.103819 0.418419 -0.380210 -0.062559 0.704333 0.707108
-1.351535 -0.106940 -0.051600 -0.000014 -0.879517 -0.474693
-1.320412 -0.110726 0.042879 -0.000027 -0.934524 0.354321
0.220408 0.362596 -0.344515 0.062606 -0.676595 -0.733689
0.130498 -0.164895 -0.125320 -0.062559 -0.704333 0.707108
-0.103698 -0.107410 0.088781 -0.062559 -0.704333 -0.707108
1.337756 0.182440 -0.153676 -0.000000 0.677925 0.735131
1.313387 0.160966 0.133873 -0.000000 0.677925 -0.735131
0.155981 -0.557326 0.513957 -0.038419 0.659895 0.750375
-1.393013 -0.099421 -0.064917 -0.000031 -0.836131 -0.547512
-1.048073 0.000000 -0.118738 0.000001 -0.024253 -0.999117
0.020832 0.093210 -0.074074 -0.000000 -0.735131 0.677925
0.149248 -0.316878 0.302157 -0.038419 0.659895 0.750375
0.219238 0.471927 -0.442093 -0.038419 -0.659895 -0.750375
0.910966 0.109065 0.097179 -0.108672 0.785724 -0.608956
0.158447 -0.496182 0.452834 -0.062559 -0.704333 -0.707108
0.226808 -0.112719 0.113537 0.062606 0.676595 0.733689
0.234506 0.188303 -0.159081 0.101785 0.674404 0.731313
-0.101433 0.121986 0.117930 -0.038419 -0.659895 0.750375
0.179914 -0.434633 0.407283 -0.038419 0.659895 0.750375
1.493560 0.090777 -0.085800 0.194837 -0.641321 -0.742122
1.272991 -0.110512 -0.087345 -0.000000 -0.677925 0.735131
-0.209549 -0.099154 -0.065324 0.000004 -0.860276 -0.508672
-0.289533 0.099154 0.065324 -0.000004 0.860276 0.508672
-0.543987 -0.008646 -0.118423 0.000188 -0.047730 -0.998235
0.808676 -0.114743 0.030541 0.000527 -0.958480 0.283264
-0.374396 0.082644 0.085257 0.000002 0.729598 0.683015
-0.279501 0.117481 -0.017233 -0.000004 0.994703 -0.096888
-0.299565 0.062201 0.101143 0.000334 0.563765 0.825189
0.268927 -0.200506 0.190898 0.062606 0.676595 0.733689
0.294609 0.570542 -0.519940 0.101785 0.674404 0.731313
0.548964 0.117482 0.017229 0.000580 0.991920 0.121940
0.683743 0.008637 -0.118424 -0.000002 0.024261 -0.999116
-0.464147 -0.118424 0.008637 0.000000 -0.999116 0.024264
0.718744 -0.099154 -0.065324 0.000004 -0.860276 -0.508672
-0.918428 0.062201 0.101143 -0.000004 0.564238 0.824898
-0.509096 0.113737 0.034099 -0.000004 0.970114 0.240210
-0.703711 0.025732 -0.115917 -0.000593 0.193789 -0.980417
-0.054950 0.103646 0.057934 0.000002 0.895005 0.444735
0.399245 -0.034097 0.113737 -0.000003 -0.263652 0.964007
-0.593954 0.110952 -0.042289 -0.000004 0.942258 -0.333126
0.943236 0.025740 -0.115915 -0.000004 0.192862 -0.980626
-1.217761 0.118738 -0.000000 0.001560 0.999052 0.027756
-0.219596 -0.118738 -0.000000 0.000001 -0.999116 -0.024257
0.274445 0.103646 -0.057934 0.000002 0.895005 -0.444735
0.524042 0.025733 0.115916 -0.000004 0.169011 0.985017
0.419244 -0.117481 0.017233 0.000004 -0.994703 0.096888
0.334414 -0.110955 0.042280 -0.000003 -0.950068 0.310150
0.608881 0.017237 -0.117480 -0.000004 0.096914 -0.994701
-0.044917 0.118424 -0.008637 0.000001 0.999117 -0.024253
-0.099780 0.034089 -0.113739 0.000004 0.240179 -0.970123
0.893344 0.008646 -0.118423 0.000000 0.048510 -0.998233
-1.142933 0.110956 -0.042280 0.000002 0.950069 -0.310147
0.141343 0.361874 -0.320567 -0.062559 0.704333 0.707108
-0.858349 -0.107577 -0.050258 -0.000054 -0.895157 -0.444442
-0.559050 0.099157 0.065320 0.000002 0.847674 0.529406
1.299941 -0.100420 0.107173 0.000000 0.677925 0.735131
-0.603890 -0.008637 0.118424 -0.000001 -0.024253 0.999117
1.393479 -0.064973 0.099384 0.000001 -0.582215 0.812333
0.165985 0.429823 -0.386068 -0.062559 0.704333 0.707108
1.281185 0.115069 0.091547 0.000000 0.677925 -0.735131
0.418500 -0.099915 0.064154 -0.001228 -0.862203 0.505795
-0.074862 0.008637 0.118424 -0.000001 0.024253 0.999117
0.603872 0.115914 -0.025742 -0.000000 0.980621 -0.192889
-0.174793 0.069389 -0.096353 -0.000004 0.603594 -0.796553
0.743620 0.118423 0.008646 -0.000004 0.998233 0.048510
0.823368 -0.105398 -0.054681 0.000476 -0.864130 -0.502018
-0.708724 -0.017229 -0.117482 0.000034 -0.123080 -0.991761
0.105830 -0.097585 -0.107083 -0.038419 0.659895 -0.750375
-1.003219 0.103641 -0.057942 -0.000004 0.883941 -0.466337
-0.698798 0.088625 -0.079021 -0.000004 0.777353 -0.628128
0.044900 0.025742 -0.115914 -0.000006 0.192903 -0.980617
0.628898 -0.088629 -0.079017 -0.000431 -0.728893 -0.683720
0.803513 0.072300 -0.094188 0.000012 0.569369 -0.821366
0.013290 0.195772 -0.188693 -0.038419 -0.659895 -0.750375
0.339184 0.550558 -0.507715 0.062606 -0.676595 -0.733689
0.002716 -0.082885 0.085023 -0.000269 -0.714099 0.699289
-0.424255 -0.103685 -0.057864 0.000111 -0.884407 -0.465458
0.250037 -0.141017 0.137650 0.062606 0.676595 0.733689
0.187920 0.554002 -0.512668 -0.038419 -0.659895 -0.750375
1.393203 0.117201 0.019041 0.000068 0.986382 0.161138
-0.120725 0.181371 0.163957 -0.062559 0.704333 -0.707108
1.404837 0.258733 -0.224032 -0.000000 0.677925 0.735131
-0.603852 -0.103663 0.057903 -0.000026 -0.895165 0.444419
-1.553288 -0.064247 -0.040192 -0.537058 -0.697901 -0.470732
0.104356 -0.039413 -0.112006 -0.000512 -0.367675 -0.929320
-1.282335 -0.061002 0.101870 -0.000000 -0.546823 0.836580
0.339184 -0.271125 -0.250027 0.101785 -0.674404 0.731313
1.410512 0.099697 -0.064492 -0.000029 0.815042 -0.578416
1.285954 0.170836 -0.172109 -0.000000 -0.677925 -0.735131
0.638799 -0.050220 -0.107595 -0.000004 -0.378292 -0.925051
1.314803 -0.268347 -0.259781 -0.108672 0.543449 -0.832378
-1.095843 -0.047963 -0.108620 0.000098 -0.433272 -0.900616
0.224587 0.008637 -0.118424 0.000001 0.024253 -0.999117
0.010006 0.034066 0.113747 0.000014 0.309999 0.950117
-0.748655 -0.034099 -0.113737 -0.000155 -0.239946 -0.970193
0.188320 0.372765 0.353305 -0.038419 -0.659895 0.750375
0.138831 0.286795 0.246004 -0.062559 0.704333 -0.707108
1.460887 -0.107458 0.007379 0.311453 -0.944427 0.099729
0.127660 0.196316 0.195027 -0.038419 -0.659895 0.750375
0.290929 0.423730 0.394874 0.062606 -0.676595 0.733689
1.421652 0.080773 0.059920 0.000000 0.677925 -0.735131
1.265948 0.234151 -0.201363 -0.000000 0.677925 0.735131
-0.029933 -0.017238 -0.117480 -0.000207 -0.123571 -0.991694
0.788451 -0.091046 -0.076220 -0.000004 -0.734286 -0.677972
1.323185 -0.118347 -0.009625 -0.000014 -0.991735 -0.123145
1.224873 -0.058180 -0.103508 -0.000005 -0.524452 -0.850843
1.446478 -0.073513 -0.067793 0.000000 0.735131 0.677925
-0.419437 -0.063326 -0.100442 0.000204 -0.551824 -0.833287
1.443887 0.053941 -0.099641 0.312939 0.452516 -0.834431
-1.491574 0.071028 -0.078755 -0.288385 0.657759 -0.694517
0.217047 -0.164599 -0.134791 0.101785 -0.674404 0.731313
-1.233405 0.106701 0.052094 0.000101 0.878834 0.476020
1.506511 -0.037823 0.019712 1.000000 0.000000 0.000000
0.118833 0.328265 0.289081 -0.062559 0.704333 -0.707108
1.376336 0.115243 -0.028599 -0.000017 0.958817 -0.282047
0.303662 0.497556 0.453894 0.101785 0.674404 -0.731313
