-0.087737 0.082407 0.055376 0.000032 0.830145 0.551524
0.277291 -0.180697 -0.158586 0.040655 -0.659081 0.750972
0.277291 0.453462 0.397975 0.040655 0.659081 -0.750972
0.277291 0.195851 -0.171886 0.040655 0.659081 0.750972
0.277291 -0.559537 0.491071 0.077070 0.657665 0.749358
0.101015 -0.388124 0.331089 0.040655 -0.659081 -0.750972
1.287844 -0.108658 0.104365 -0.023846 0.639472 0.768444
-0.504671 0.013025 0.098426 -0.000372 0.207660 0.975399
-0.070916 -0.084843 -0.110274 -0.070956 0.611293 -0.786194
1.010584 0.042722 -0.089623 0.001198 0.428869 -0.899902
1.493357 0.089754 0.014670 0.210775 0.972919 0.054381
0.519731 -0.047103 -0.087400 -0.000062 -0.474903 -0.876077
-1.058584 0.062986 0.076747 -0.000063 0.633030 0.769892
0.070747 -0.415249 -0.356837 -0.076984 -0.692282 0.717508
1.488807 -0.238873 0.209643 0.034929 -0.663866 -0.747036
-0.171154 0.081228 -0.089477 -0.144724 -0.583625 -0.799022
1.256573 -0.285279 0.250372 -0.023846 -0.678951 -0.733796
0.166444 -0.620152 -0.544269 -0.000000 -0.751593 -0.659627
-0.039782 -0.366417 0.321581 -0.076984 -0.692282 -0.717508
-0.039782 0.366417 -0.321581 -0.076984 0.692282 0.717508
-0.204764 0.163429 0.143431 -0.144724 -0.583625 0.799022
-0.092166 -0.242240 0.207391 -0.076984 -0.692282 -0.717508
0.607988 0.089665 0.042633 0.000823 0.901028 0.426104
-1.014263 -0.096872 -0.021752 0.000854 -0.947602 -0.309394
0.135357 0.105681 0.085066 0.040655 0.659081 -0.750972
1.485338 0.253579 0.222551 0.034929 0.663866 -0.747036
1.485338 0.253579 -0.222551 0.034929 0.663866 0.747036
0.178441 0.366066 -0.315922 0.040655 0.659081 0.750972
0.107843 0.442856 0.379494 0.002541 0.670711 -0.741093
-1.596912 -0.046017 0.028389 -0.557452 -0.638921 0.521903
1.275295 -0.235869 -0.209836 -0.023846 0.639472 -0.768444
0.074357 0.440772 -0.396566 -0.144724 -0.583625 -0.799022
0.107104 -0.226722 0.216483 0.077070 0.657665 0.749358
-1.494563 0.000000 -0.095605 -0.209197 -0.072633 -0.969715
1.119778 -0.121067 0.109475 -0.023846 0.639472 0.768444
-0.143280 -0.161289 0.134770 -0.076984 -0.692282 -0.717508
0.082707 0.224157 0.186194 0.040655 0.659081 -0.750972
0.144708 0.309263 0.285057 0.077070 -0.657665 0.749358
0.198153 0.360844 0.312406 0.040655 0.659081 -0.750972
-0.066921 0.056768 -0.081455 0.003168 0.600076 -0.796350
0.672021 0.000000 -0.099285 0.001210 -0.134620 -0.987089
1.440181 -0.130648 0.111194 0.034929 -0.663866 -0.747036
1.502682 0.180046 0.158015 0.034929 0.663866 -0.747036
1.502682 0.180046 -0.158015 0.034929 0.663866 0.747036
-0.035050 -0.117092 0.134888 0.077070 0.657665 0.749358
1.125732 0.029339 0.094851 0.000157 0.285817 0.954076
0.491478 -0.099285 -0.000000 0.002219 -0.992703 -0.095343
0.109487 -0.130870 0.105772 0.040655 -0.659081 -0.750972
0.156133 -0.607465 0.533134 -0.076984 -0.692282 -0.717508
-1.495305 0.038236 0.087486 -0.184931 0.491516 0.846615
0.087791 0.302330 -0.284826 0.077070 -0.657665 -0.749358
-1.467501 -0.075668 -0.063496 -0.093925 -0.734694 -0.665474
0.042686 0.071977 -0.068504 0.000000 -0.751593 0.659627
-1.125796 -0.022679 -0.096660 0.001262 -0.353459 -0.929849
0.911754 0.039366 -0.091147 -0.000401 0.484438 -0.870496
-0.174562 0.085649 0.050216 -0.000044 0.806415 0.585712
1.366431 0.184259 -0.167968 0.034929 -0.654557 -0.755205
1.530434 -0.055222 0.020261 1.000000 0.000000 -0.000000
-1.267622 -0.072856 0.067449 -0.000265 -0.649509 0.756002
-0.626783 0.039187 0.091224 -0.000607 0.393525 0.915767
1.164365 -0.098366 -0.013477 0.000953 -0.974119 -0.213611
0.894270 -0.055497 -0.082325 -0.000383 -0.575691 -0.813823
1.070798 0.109065 0.097967 -0.023846 -0.639472 0.768444
1.007317 0.115182 -0.101088 -0.023846 0.678951 0.733796
1.251660 0.214911 0.185422 -0.023846 0.678951 -0.733796
-0.276160 -0.014032 0.098288 -0.000839 -0.222684 0.972489
-0.992986 0.000000 0.099285 -0.000918 0.095655 0.992094
0.204670 0.616449 0.548488 0.000000 0.751593 0.659627
1.400506 -0.273059 0.243358 0.034929 0.654557 0.755205
1.419891 -0.091836 -0.037731 0.000302 -0.880259 -0.467149
0.191435 0.170406 0.158385 0.077070 -0.657665 0.749358
-0.904013 0.083338 0.053964 0.000084 0.777909 0.623106
0.241368 -0.097927 -0.016363 -0.001204 -0.963742 -0.254811
-0.391176 0.099285 -0.000000 0.006597 0.987066 0.133743
0.033667 0.120545 0.092605 0.040655 0.659081 -0.750972
1.269354 -0.135326 -0.111211 -0.023846 -0.678951 0.733796
0.010124 -0.097164 0.020412 -0.000102 -0.950395 0.300358
0.761823 0.022925 -0.096601 0.001297 0.244134 -0.966607
0.107089 0.045442 -0.088275 -0.001710 0.541038 -0.836629
-0.270631 0.081229 -0.057089 0.002039 0.810546 -0.579407
-0.828249 0.094665 -0.029931 -0.001427 0.950043 -0.298221
1.479261 0.074049 -0.067228 0.000000 -0.751593 0.659627
0.530497 0.079978 -0.058830 -0.000069 0.736129 -0.671953
-1.147688 0.082527 -0.055197 0.000454 0.767429 -0.636078
-0.081028 0.315670 -0.277044 -0.076984 0.692282 0.717508
0.260615 -0.292756 -0.258649 0.077070 0.657665 -0.749358
1.446669 0.102589 0.093471 0.034929 -0.654557 0.755205
-1.144044 -0.049779 0.085904 0.000119 -0.446752 0.890916
0.095855 -0.180358 -0.148467 0.040655 -0.659081 0.750972
-0.761734 -0.061259 0.078133 0.001357 -0.521524 0.849613
0.277291 0.271619 0.238383 0.040655 0.659081 -0.750972
0.115291 -0.444036 -0.406364 -0.058188 0.615462 -0.783222
0.236946 0.072564 -0.067835 0.077070 -0.657665 -0.749358
-0.851983 0.029056 0.094938 -0.001166 0.282991 0.954947
1.004231 -0.081954 -0.056044 -0.001171 -0.834511 -0.544704
-1.162119 -0.098715 -0.010616 0.002731 -0.979236 -0.190399
-0.009799 -0.329904 -0.283135 -0.076984 -0.692282 0.717508
1.188862 -0.190430 0.164812 -0.023846 -0.678951 -0.733796
-0.263212 -0.056573 -0.081590 0.000017 -0.493675 -0.865783
-0.098597 -0.197530 -0.164942 -0.076984 -0.692282 0.717508
0.108624 -0.515363 -0.457256 -0.144724 0.583625 -0.799022
0.403282 0.079735 0.059158 0.000328 0.798906 0.596118
0.414831 0.049581 -0.086018 0.000501 0.482643 -0.871892
0.993770 -0.061514 0.077932 0.000066 -0.533366 0.842059
0.763142 0.085008 0.051294 0.000068 0.797341 0.598017
-0.000558 -0.109752 -0.124899 0.077070 0.657665 -0.749358
0.277291 0.332233 0.291580 0.040655 0.659081 -0.750972
-0.658280 -0.074422 -0.065717 0.000100 -0.790644 -0.606804
-0.395592 -0.014715 -0.098188 0.000219 -0.183302 -0.980548
0.417838 -0.022561 -0.096687 0.000419 -0.248349 -0.965246
0.621335 0.049696 -0.085952 -0.000123 0.487566 -0.869305
1.007491 0.098118 0.015177 -0.002603 0.964064 0.253070
-0.906129 -0.054311 0.083113 0.000045 -0.591299 0.802419
-0.294287 0.062900 0.076818 0.000101 0.636379 0.766862
-0.544377 0.097749 -0.017396 -0.000408 0.953238 -0.288745
1.437054 -0.046650 -0.087642 0.070548 -0.466610 -0.876545
-0.001495 -0.281583 0.266551 -0.144724 0.583625 0.799022
0.109617 -0.234100 -0.196378 0.040655 -0.659081 0.750972
-0.675082 -0.093881 0.032308 0.001111 -0.900651 0.427114
-0.144415 -0.097211 0.020186 0.000202 -0.969767 0.231156
0.193973 -0.042152 0.089892 -0.001455 -0.422336 0.902835
-0.506104 0.088817 0.044373 -0.000244 0.893497 0.441248
-0.439861 -0.097958 -0.016177 0.002102 -0.959293 -0.270929
0.217384 -0.167751 0.153386 0.077070 0.657665 0.749358
1.197302 -0.087881 0.046199 0.000204 -0.831465 0.549626
1.036929 -0.034032 -0.093270 -0.000147 -0.438242 -0.895475
-0.108671 -0.250364 -0.224336 -0.144724 0.583625 -0.799022
1.126367 -0.120763 -0.102383 -0.023846 -0.678951 0.733796
0.161843 0.465433 0.420355 0.077070 -0.657665 0.749358
-0.422551 0.069595 -0.070809 0.000273 0.687965 -0.721167
1.520027 -0.106512 0.093479 0.034929 -0.663866 -0.747036
-1.011491 0.038028 -0.091713 0.000100 0.386678 -0.918731
-1.350662 0.037188 0.092057 0.000286 0.365539 0.926519
-1.368293 0.028356 -0.095149 -0.000244 0.275486 -0.957254
0.025472 -0.178283 -0.142835 0.040655 -0.659081 0.750972
0.501857 -0.008088 0.098955 -0.001911 -0.172531 0.982821
0.067582 -0.298688 0.250787 0.040655 -0.659081 -0.750972
-0.885667 -0.035620 -0.092675 -0.003184 -0.457899 -0.885485
-0.001715 0.089217 0.043563 -0.000103 0.894832 0.438477
0.204670 0.616449 -0.548488 0.052433 -0.650791 -0.756513
-0.706493 0.044044 -0.088980 0.000398 0.527468 -0.846080
0.301469 0.096803 0.022057 0.000579 0.938909 0.330636
0.310001 -0.093395 -0.033687 -0.000764 -0.939491 -0.332182
0.026323 0.230955 0.228507 0.077070 -0.657665 0.749358
1.441095 0.360115 0.315157 0.034929 0.663866 -0.747036
1.441095 0.360115 -0.315157 0.034929 0.663866 0.747036
1.110677 0.118500 -0.100800 -0.023846 0.678951 0.733796
-1.591989 0.015848 0.055133 -0.566843 0.296444 0.761174
0.839312 -0.095610 0.026762 -0.000139 -0.926566 0.367608
-0.096969 0.210099 0.197045 -0.144724 -0.583625 0.799022
1.223186 0.154964 -0.130882 -0.023846 0.678951 0.733796
-0.533963 -0.096575 0.023037 -0.000784 -0.963639 0.255362
0.952880 0.049280 0.086191 -0.000020 0.493469 0.865924
1.354072 0.099285 -0.000000 0.000427 0.997471 0.034709
1.376747 -0.301471 -0.261448 -0.023846 -0.678951 0.733796
0.126675 -0.346298 -0.295770 0.040655 -0.659081 0.750972
-0.018242 -0.213881 0.214067 -0.144724 0.583625 0.799022
1.436377 -0.095584 0.026855 0.070249 -0.954550 0.272128
1.333270 0.028101 0.095225 0.000531 0.376248 0.923019
-0.374007 0.068967 0.071421 -0.001200 0.613619 0.785592
1.252149 0.070383 -0.071405 -0.000000 -0.751593 0.659627
0.240585 -0.382706 0.333890 0.040655 -0.659081 -0.750972
0.143409 -0.109492 -0.109864 0.077070 0.657665 -0.749358
1.120111 -0.021224 -0.096989 -0.002609 -0.315598 -0.944445
1.344135 0.184948 0.169597 -0.004253 -0.644709 0.764276
-1.253770 0.000000 -0.099285 -0.001194 -0.036824 -0.997452
-0.623599 0.056959 -0.081321 -0.000905 0.562052 -0.821974
0.708532 0.014146 0.098272 0.000616 0.231564 0.970001
0.277291 0.529230 0.464472 0.040655 0.659081 -0.750972
1.530434 -0.018242 0.080984 0.208589 -0.064448 0.971570
0.217074 0.247647 0.223537 0.077070 -0.657665 0.749358
-1.437054 0.046872 -0.087524 -0.021970 0.465250 -0.880408
1.260038 0.107597 0.085858 -0.023846 0.678951 -0.733796
1.126643 0.088444 -0.045112 0.000129 0.838100 -0.539248
0.153308 -0.154170 0.148057 0.077070 0.657665 0.749358
1.460459 -0.119884 -0.102577 0.034929 -0.663866 0.747036
1.343720 -0.094225 0.074316 0.034929 -0.663866 -0.747036
0.001744 0.030932 0.094343 0.000346 0.403840 0.911171
0.539346 0.089607 0.042754 -0.001021 0.901583 0.424987
0.187490 0.083791 0.053259 0.000358 0.843224 0.531992
-1.603371 -0.035028 -0.034962 -0.554961 -0.532633 -0.627448
-0.055149 0.232869 -0.194377 -0.076984 0.692282 0.717508
1.356753 -0.166401 -0.139066 0.034929 -0.663866 0.747036
0.197636 -0.442529 -0.384068 0.040655 -0.659081 0.750972
1.059830 0.089013 -0.043978 -0.001255 0.892781 -0.443086
0.075567 -0.080036 -0.059322 0.040655 -0.659081 0.750972
-1.414253 0.099285 -0.000000 -0.005838 0.991874 0.102501
1.530434 -0.032130 -0.039533 1.000000 0.000000 -0.000000
1.022026 0.048869 0.086425 -0.000023 0.574189 0.814660
-0.443168 -0.054364 -0.083078 0.000066 -0.502374 -0.860471
1.386421 0.089440 -0.072061 0.034929 0.663866 0.747036
-0.951410 -0.022740 -0.096645 -0.001280 -0.210407 -0.975586
0.624225 0.019874 0.097275 0.000193 0.310143 0.946060
-0.792383 0.000000 -0.099285 -0.003762 -0.119142 -0.989407
-0.154356 0.146121 -0.121323 -0.076984 0.692282 0.717508
1.230241 -0.183376 -0.164754 -0.023846 0.639472 -0.768444
0.223932 -0.449391 0.391514 0.040655 -0.659081 -0.750972
0.217304 -0.369454 -0.320999 0.040655 -0.659081 0.750972
0.123845 -0.334099 0.308999 0.077070 0.657665 0.749358
0.277291 -0.574691 -0.504370 0.040655 -0.659081 0.750972
1.329717 -0.117359 -0.111683 0.034929 0.654557 -0.755205
0.033406 0.226605 -0.185674 0.040655 0.659081 0.750972
-0.490613 0.064325 -0.075629 -0.001729 0.717363 -0.691835
1.449750 -0.191313 0.165553 0.034929 -0.663866 -0.747036
1.368202 -0.046370 -0.087791 -0.000472 -0.550776 -0.830557
0.009118 -0.166654 0.131743 0.040655 -0.659081 -0.750972
0.145563 0.152720 -0.126901 0.040655 0.659081 0.750972
1.252149 -0.070383 0.071405 -0.000000 0.751593 -0.659627
0.145213 0.272209 0.231750 0.040655 0.659081 -0.750972
0.220032 0.286184 -0.257055 0.077070 -0.657665 -0.749358
-0.064759 0.162772 -0.127776 -0.076984 0.692282 0.717508
-0.054795 -0.019301 -0.097390 -0.001174 -0.203463 -0.976851
0.149244 0.459785 -0.416694 0.077070 -0.657665 -0.749358
-1.611004 0.043679 -0.000000 -0.595111 0.787007 -0.098279
-0.130318 0.161008 0.155147 -0.144724 -0.583625 0.799022
1.058537 -0.093446 0.079313 -0.023846 -0.678951 -0.733796
-0.351933 -0.043046 0.089468 0.000161 -0.511063 0.856054
-0.643928 0.096620 0.022847 -0.001031 0.935702 0.339078
0.220161 -0.198758 -0.171345 0.040655 -0.659081 0.750972
0.003567 -0.249824 -0.204436 0.001418 -0.671055 0.740803
-0.063593 -0.038302 0.091599 0.000023 -0.472111 0.877749
0.330995 0.000000 0.099285 -0.000713 0.112909 0.989014
0.121058 0.543566 -0.475244 -0.076984 0.692282 0.717508
-0.351056 -0.099285 -0.000000 -0.007523 -0.990206 -0.109458
1.437232 0.158664 0.142510 0.034929 -0.654557 0.755205
0.277291 0.453462 -0.397975 0.040655 0.659081 0.750972
1.461056 -0.356526 0.312901 0.034929 -0.663866 -0.747036
1.344135 -0.184948 0.169597 -0.002852 0.645066 0.763958
1.150989 -0.071975 -0.069591 -0.023846 0.639472 -0.768444
0.034715 -0.208888 0.170196 0.040655 -0.659081 -0.750972
0.604761 -0.094664 0.029935 -0.000002 -0.914734 0.395722
0.143272 0.215116 -0.202578 0.077070 -0.657665 -0.749358
0.697840 -0.087681 -0.046577 0.000879 -0.892353 -0.444396
0.277291 -0.256465 0.225083 0.077070 0.657665 0.749358
0.277291 0.165543 0.145287 0.040655 0.659081 -0.750972
0.277291 -0.529230 -0.464472 0.040655 -0.659081 0.750972
1.081020 -0.098238 -0.014377 0.000012 -0.975033 -0.209130
0.221545 -0.123769 -0.105606 0.040655 -0.659081 0.750972
0.236946 -0.075704 0.064257 0.040655 -0.659081 -0.750972
0.651961 0.099285 -0.000000 -0.000613 0.995649 0.062430
-1.193589 0.000000 -0.099285 0.004694 -0.053582 -0.995059
1.459300 0.137581 -0.118250 0.034929 0.663866 0.747036
0.060696 -0.085380 0.050672 0.000770 -0.859049 0.503693
-0.765434 0.071036 0.069363 -0.000027 0.712678 0.696714
-1.248339 0.091649 -0.038181 0.000207 0.921725 -0.379587
1.530434 0.074758 -0.036089 1.000000 -0.000000 0.000000
1.110525 0.077707 0.063060 -0.023846 0.678951 -0.733796
-0.184142 -0.163129 -0.140929 -0.076984 -0.692282 0.717508
-0.557701 0.039482 0.091096 0.000095 0.484297 0.870919
0.329607 -0.060117 0.079015 -0.000025 -0.601494 0.794724
1.520027 -0.106512 -0.093479 0.034929 -0.663866 0.747036
-0.109493 0.096379 -0.068517 -0.076984 0.692282 0.717508
-0.139342 0.223668 -0.199281 -0.144724 -0.583625 -0.799022
-1.133408 0.099285 -0.000000 0.002533 0.982622 0.158348
-0.679439 0.012623 0.098479 -0.000047 0.211897 0.974756
0.441793 0.090474 -0.040888 -0.000109 0.860433 -0.502749
1.139842 0.169611 0.147142 -0.023846 0.678951 -0.733796
1.241910 -0.275273 -0.241590 -0.023846 0.639472 -0.768444
1.139276 -0.205233 -0.180121 -0.023846 0.639472 -0.768444
1.109952 0.185222 -0.162558 -0.023846 0.678951 0.733796
0.022085 -0.442537 -0.388387 -0.144724 0.583625 -0.799022
0.063331 -0.493284 0.432925 -0.076984 -0.692282 -0.717508
-0.070716 0.328357 0.288178 -0.144724 -0.583625 0.799022
0.125199 -0.569405 0.499731 -0.076984 -0.692282 -0.717508
-0.132584 0.252236 0.221372 -0.144724 -0.583625 0.799022
0.034239 0.166433 -0.132909 0.040655 0.659081 0.750972
1.275133 -0.239741 0.213052 -0.023846 0.639472 0.768444
-0.132817 -0.041236 0.090316 0.000359 -0.407496 0.909535
-1.035496 -0.086810 0.048182 0.000145 -0.810363 0.580276
0.126675 0.346298 -0.295770 0.040655 0.659081 0.750972
-0.088449 -0.152681 0.156649 -0.144724 0.583625 0.799022
0.945194 -0.096678 -0.022602 -0.002283 -0.940662 -0.325693
0.312612 -0.041320 -0.090278 -0.001281 -0.415617 -0.905892
-1.107263 0.018265 0.097590 0.000441 0.262209 0.961295
-0.504797 -0.031065 -0.094299 -0.000741 -0.272468 -0.958938
-1.385253 -0.092023 0.037273 0.000520 -0.882631 0.462542
-0.892988 0.071415 -0.068973 -0.000339 0.714670 -0.695049
0.086167 0.110403 0.116551 0.077070 -0.657665 0.749358
-0.077406 0.137337 0.104592 -0.076984 0.692282 -0.717508
1.111630 -0.054461 0.083014 0.000122 -0.550735 0.830820
-1.299540 -0.087631 -0.046672 -0.000165 -0.828401 -0.554204
0.538044 0.014366 -0.098240 0.001621 0.243790 -0.966853
1.387651 0.229834 0.206488 0.034929 -0.654557 0.755205
1.387651 0.229834 -0.206488 0.034929 -0.654557 -0.755205
-1.368341 -0.046102 -0.087932 0.001306 -0.458455 -0.884790
-0.021881 0.166064 0.129547 0.040655 0.659081 -0.750972
0.133620 0.095297 0.027856 -0.000654 0.951180 0.296211
0.209116 -0.038918 -0.091339 0.000772 -0.393766 -0.915600
1.315890 -0.097193 -0.020272 0.000279 -0.976724 -0.202408
0.185014 0.539967 0.468899 0.040655 0.659081 -0.750972
0.570538 -0.072092 -0.068265 0.000025 -0.651629 -0.754036
1.404232 -0.091588 0.074803 0.034929 -0.663866 -0.747036
0.216286 -0.520345 0.453372 0.040655 -0.659081 -0.750972
1.402493 0.087539 0.046844 0.000356 0.880038 0.467789
0.157618 -0.195879 -0.184219 0.077070 0.657665 -0.749358
0.018462 0.361721 -0.310801 -0.076984 0.692282 0.717508
0.064394 -0.321069 -0.270257 0.040655 -0.659081 0.750972
1.434313 0.000000 0.099285 0.070698 0.057553 0.991211
1.336717 0.137777 -0.112692 0.034929 0.663866 0.747036
0.385767 0.023040 0.096574 -0.000197 0.326216 0.941652
1.306526 -0.152266 0.141233 -0.023846 0.639472 0.768444
1.304113 0.200537 -0.170418 -0.023846 0.678951 0.733796
-0.182664 -0.113474 -0.092862 -0.076984 -0.692282 0.717508
-1.544997 0.071183 -0.039843 -0.399425 0.744655 -0.520522
1.264307 -0.086949 -0.047930 0.001400 -0.824568 -0.560236
0.740232 -0.086228 0.049215 -0.000170 -0.871991 0.482987
0.159981 -0.530243 -0.477426 -0.070956 0.611293 -0.786194
0.893542 -0.041891 0.090014 -0.000230 -0.504734 0.859477
-0.238717 -0.076571 0.063270 -0.076984 -0.692282 -0.717508
-0.014777 0.076399 -0.097089 0.077070 -0.657665 -0.749358
-0.194452 -0.176116 0.154566 -0.076984 -0.692282 -0.717508
-0.952865 0.099285 -0.000000 0.002741 0.994619 0.064627
-0.061363 0.250378 0.232915 -0.144724 -0.583625 0.799022
-0.176860 -0.119826 0.098368 -0.076984 -0.692282 -0.717508
0.050151 0.000000 0.099285 0.000324 0.046165 0.996632
1.217311 -0.021180 -0.096999 0.001332 -0.300920 -0.950613
1.283534 0.268161 0.233657 -0.023846 0.678951 -0.733796
1.283533 0.266484 -0.235568 -0.023846 -0.639472 -0.768444
1.208055 0.114155 0.106463 -0.023846 -0.639472 0.768444
0.152532 -0.515875 0.465582 0.002976 0.635972 0.769639
0.145381 -0.091519 0.073179 0.040655 -0.659081 -0.750972
0.022249 0.376957 0.325095 -0.076984 0.692282 -0.717508
1.155082 -0.154348 0.138266 -0.023846 0.639472 0.768444
1.229209 -0.011209 0.098650 0.000702 -0.194732 0.978252
1.252797 0.113593 -0.107384 -0.023846 -0.639472 -0.768444
0.212189 0.150360 -0.138658 0.077070 -0.657665 -0.749358
0.200770 -0.277119 -0.251081 0.077070 0.657665 -0.749358
-0.108200 -0.051874 -0.084655 -0.000114 -0.525853 -0.846900
0.135357 0.105681 -0.085066 0.040655 0.659081 0.750972
-0.037351 0.288519 -0.246161 -0.076984 0.692282 0.717508
0.122972 0.265644 -0.249011 0.077070 -0.657665 -0.749358
-1.327075 -0.070095 0.070314 -0.000236 -0.745821 0.661134
1.191453 0.078981 0.061609 -0.023846 0.678951 -0.733796
-0.128742 0.076627 0.093799 -0.144724 -0.583625 0.799022
1.530434 0.064829 0.051850 0.214243 0.689136 0.686247
0.042825 0.260683 -0.252900 0.077070 -0.657665 -0.749358
0.203363 0.396447 -0.355540 0.077070 -0.657665 -0.749358
-1.004702 -0.052292 0.084397 0.000090 -0.472459 0.877660
0.182325 -0.573346 -0.512957 -0.070956 0.611293 -0.786194
-0.891654 -0.087808 -0.046338 -0.000356 -0.898937 -0.430475
1.373979 -0.314128 0.278022 -0.023846 0.639472 0.768444
-0.077406 -0.137337 0.104592 -0.076984 -0.692282 -0.717508
1.530434 0.021610 -0.055331 1.000000 -0.000000 -0.000000
0.917299 0.098253 -0.014272 0.002203 0.970031 -0.232627
1.453506 -0.168542 -0.145493 0.034929 -0.663866 0.747036
0.032397 -0.455224 0.399522 -0.076984 -0.692282 -0.717508
-0.182445 0.017660 -0.097701 -0.000285 0.206686 -0.975638
1.427859 -0.373506 -0.326438 0.015339 -0.669110 0.742861
-0.225132 0.065302 0.074786 0.000006 0.658731 0.747937
-0.018778 -0.208460 -0.166924 0.001418 -0.671055 0.740803
-0.584324 0.012346 -0.098514 -0.001058 0.189691 -0.979391
-0.698768 0.097658 0.017896 -0.000404 0.961609 0.262794
-0.017183 -0.098550 0.070550 0.040655 -0.659081 -0.750972
1.265736 -0.047555 -0.087154 0.000257 -0.472131 -0.878025
-1.073228 -0.099285 0.000000 -0.001567 -0.996076 -0.054283
0.181095 0.134055 0.112444 0.040655 0.659081 -0.750972
0.447643 -0.016286 0.097940 0.000763 -0.242531 0.966814
0.536503 -0.094364 0.030867 -0.000655 -0.947775 0.308663
-0.733890 -0.092696 0.035564 -0.000774 -0.911498 0.403843
1.334012 0.000000 -0.099285 0.000015 -0.017726 -0.997178
0.224959 0.215863 -0.186617 0.040655 0.659081 0.750972
-0.216323 0.084311 -0.052432 -0.001397 0.789596 -0.608430
-0.598937 0.097902 -0.016514 -0.001082 0.969701 -0.231476
0.176429 0.069479 -0.071351 0.077070 -0.657665 -0.749358
1.350575 -0.199349 -0.181780 -0.002852 0.645066 -0.763958
-0.060405 -0.341043 -0.299312 -0.144724 0.583625 -0.799022
0.277291 0.104929 0.092089 0.040655 0.659081 -0.750972
1.437054 0.046872 -0.087524 0.070101 0.466838 -0.876430
0.080652 -0.249664 -0.239339 0.077070 0.657665 -0.749358
0.005228 -0.038302 -0.091599 0.000895 -0.383101 -0.920349
-0.028136 -0.326197 0.281526 -0.076984 -0.692282 -0.717508
-0.525336 0.022915 -0.096604 0.002041 0.257609 -0.962746
1.354820 0.319704 -0.279031 -0.023846 0.678951 0.733796
0.831988 0.058041 0.080552 -0.000069 0.660392 0.746482
0.140361 -0.037628 -0.091878 -0.001934 -0.380179 -0.921481
0.224151 -0.317418 0.275701 0.040655 -0.659081 -0.750972
0.692019 -0.068768 0.071612 -0.000322 -0.756571 0.648934
0.623253 -0.097146 -0.020496 -0.002277 -0.947637 -0.305085
0.022249 -0.376957 0.325095 -0.076984 -0.692282 -0.717508
0.517673 -0.088257 -0.045477 -0.001120 -0.888659 -0.451138
-1.224349 -0.048208 0.086795 0.000249 -0.381199 0.920797
-0.952865 -0.099285 0.000000 -0.000588 -0.997149 -0.042887
-0.050212 0.113017 -0.081458 0.040655 0.659081 0.750972
1.212220 0.092234 -0.036747 0.000036 0.884253 -0.459787
0.130392 0.000000 0.099285 0.002942 0.097774 0.991303
-0.077406 -0.137337 -0.104592 -0.076984 -0.692282 0.717508
0.432430 -0.074931 0.065137 0.000019 -0.753644 0.652081
-0.181956 -0.087758 -0.046432 -0.001916 -0.920920 -0.380814
-0.394556 0.026218 0.095760 -0.004908 0.271133 0.959018
-0.319736 -0.071369 -0.069021 0.000032 -0.701966 -0.707542
0.105898 0.471033 0.424382 -0.144724 -0.583625 0.799022
0.108599 0.347179 0.295565 0.040655 0.659081 -0.750972
0.236946 -0.075704 -0.064257 0.040655 -0.659081 0.750972
-0.050594 0.038127 0.091672 0.000626 0.387282 0.918342
-0.760930 -0.083360 -0.053931 -0.000069 -0.816063 -0.572079
-0.637668 -0.037665 0.091863 0.001092 -0.316976 0.944188
0.278156 0.035903 -0.092565 0.002053 0.359386 -0.930252
-1.419734 0.082500 0.055238 0.000033 0.829002 0.553248
0.207792 0.485743 -0.433454 0.077070 -0.657665 -0.749358
-0.304173 0.032255 -0.093899 -0.000032 0.414056 -0.906506
-1.512925 0.091768 -0.000000 -0.195261 0.973048 -0.064576
1.177616 0.019648 0.097321 0.000448 0.295722 0.951889
-0.525035 -0.037656 0.091867 -0.000902 -0.400302 0.912452
-1.333695 0.087585 -0.046758 0.000112 0.879068 -0.469670
1.281375 0.037836 0.091793 -0.000130 0.468377 0.879579
-1.316018 0.082739 0.054879 0.000023 0.771244 0.631277
0.277291 0.544384 -0.477772 0.040655 0.659081 0.750972
-1.468026 -0.014535 0.097670 -0.091467 -0.204895 0.971309
-1.247618 -0.070012 -0.070397 0.000159 -0.703140 -0.706325
1.073687 0.039473 0.091101 -0.000045 0.486442 0.869912
-0.622429 -0.043696 -0.089152 0.000746 -0.397239 -0.914227
0.212289 0.525550 -0.467928 0.077070 -0.657665 -0.749358
-1.144009 -0.070099 -0.070310 -0.000016 -0.705231 -0.704339
-0.026737 0.131746 -0.146894 0.077070 -0.657665 -0.749358
0.488532 0.073480 0.066769 -0.000235 0.665829 0.741702
0.220973 -0.496488 -0.441529 0.077070 0.657665 -0.749358
0.162472 -0.242958 0.225038 0.077070 0.657665 0.749358
0.115757 -0.494267 0.428248 -0.076984 -0.692282 -0.717508
-0.436570 0.092059 0.037182 -0.001334 0.924842 0.373324
1.351808 0.323589 0.285207 -0.023846 -0.639472 0.768444
-1.196909 0.076605 0.063159 -0.000008 0.768507 0.634598
-0.053770 -0.098074 -0.015455 -0.002356 -0.963455 -0.256569
-0.219585 -0.035811 0.092601 -0.000640 -0.444696 0.891708
-0.481495 -0.097097 0.020726 -0.001733 -0.966171 0.243602
-1.350888 -0.018141 0.097613 0.000223 -0.282971 0.955920
0.622910 -0.068511 0.071859 -0.000081 -0.756384 0.649059
0.883851 0.065617 0.074511 0.000037 0.658041 0.748559
-0.263705 0.089285 0.043424 -0.001427 0.895215 0.437637
0.396511 -0.090748 -0.040276 -0.000216 -0.867485 -0.490444
1.368390 -0.087810 -0.046334 0.000144 -0.829807 -0.552184
0.226416 0.028348 -0.095152 -0.000965 0.286420 -0.954905
1.381176 0.101078 0.095191 0.034929 -0.654557 0.755205
-0.662883 -0.097454 -0.018979 0.001154 -0.968315 -0.235490
-0.236462 -0.086755 -0.048281 0.000025 -0.861516 -0.500822
1.433720 0.266051 -0.235747 0.034929 -0.654557 -0.755205
-1.437054 0.087642 -0.046650 -0.014632 0.880721 -0.466603
-1.073228 0.000000 -0.099285 -0.000888 -0.038028 -0.996896
0.050502 0.085543 0.050397 0.001272 0.905709 0.415825
0.794729 -0.038115 -0.091677 -0.000722 -0.477902 -0.874333
-0.955064 -0.037753 0.091827 0.000329 -0.430414 0.899031
0.569024 0.053755 -0.083474 -0.000101 0.616010 -0.783516
-0.000647 0.334404 0.305287 -0.144724 -0.583625 0.799022
0.093560 0.082943 -0.054571 0.000117 0.837911 -0.539205
-0.826174 -0.095853 -0.025879 -0.001534 -0.927772 -0.362902
-1.007066 0.055322 0.082443 -0.000108 0.635652 0.767704
0.219931 0.020968 0.097045 0.000092 0.318594 0.943227
-0.555212 -0.087488 -0.046938 0.000048 -0.855063 -0.512298
-0.710234 0.084977 -0.051345 -0.001316 0.900925 -0.427016
1.160305 0.063288 -0.076499 -0.000023 0.708914 -0.700549
0.227494 -0.229802 0.206805 0.077070 0.657665 0.749358
0.468206 -0.036512 -0.092327 0.002275 -0.348391 -0.931940
0.359804 0.068327 -0.072034 0.000504 0.750468 -0.655862
0.062837 0.019620 -0.097327 0.001511 0.323591 -0.940941
0.345037 -0.097321 0.019649 0.000447 -0.946741 0.308479
0.825987 0.065936 -0.074229 0.000197 0.656197 -0.750324
1.424256 -0.318200 -0.277121 0.034929 -0.663866 0.747036
1.172704 -0.115611 0.096110 -0.023846 -0.678951 -0.733796
0.651983 0.080742 -0.057777 -0.000075 0.805893 -0.586405
0.992986 0.000000 0.099285 0.000761 0.099463 0.990671
1.071176 -0.137015 -0.121238 -0.023846 0.639472 -0.768444
1.433548 0.104426 -0.087582 0.034929 0.663866 0.747036
-0.955222 0.063954 0.075943 0.000020 0.638869 0.765012
-0.090271 0.099285 -0.000000 0.000266 0.997229 0.039916
-0.556829 -0.075519 0.064454 0.000114 -0.814663 0.574263
-1.093383 0.087842 0.046274 -0.000009 0.881705 0.464485
-0.823944 0.063010 -0.076728 0.000401 0.615499 -0.784098
0.055485 0.307470 0.257840 0.040655 0.659081 -0.750972
0.728618 0.058314 0.080355 0.000095 0.663285 0.743935
-1.046895 0.069437 -0.070964 -0.000900 0.763668 -0.640839
0.134946 -0.459355 0.395441 0.040655 -0.659081 -0.750972
1.204329 0.229169 0.200153 -0.023846 0.678951 -0.733796
0.241827 0.362992 -0.322223 0.077070 -0.657665 -0.749358
0.059306 0.158863 0.127623 0.040655 0.659081 -0.750972
1.434209 0.256969 0.227854 0.034929 -0.654557 0.755205
-1.146429 0.037335 -0.091997 -0.000087 0.464453 -0.881796
-0.263903 -0.098468 0.012708 -0.000342 -0.990616 0.111704
-1.096972 0.087046 -0.047753 0.000125 0.873514 -0.480209
-0.725722 -0.017639 0.097705 0.000721 -0.227667 0.970630
-0.026226 0.171049 0.181335 -0.070956 -0.611293 0.786194
-0.041606 -0.252682 0.238176 -0.144724 0.583625 0.799022
1.039662 0.084211 0.052591 -0.000203 0.845572 0.527279
0.226675 0.460715 0.401600 0.040655 0.659081 -0.750972
-0.946985 0.086226 -0.049219 -0.000258 0.861620 -0.500793
1.492964 -0.089782 0.015015 0.209798 -0.972915 0.055713
-1.520362 0.043976 -0.078307 -0.234317 0.550556 -0.795744
1.238509 -0.173047 0.147115 -0.023846 -0.678951 -0.733796
1.085368 -0.150729 0.133091 -0.023846 0.639472 0.768444
-0.098887 -0.201332 0.168641 -0.076984 -0.692282 -0.717508
-0.113083 -0.079020 0.060111 -0.000010 -0.848098 0.523513
-1.010877 -0.071052 -0.069347 0.000344 -0.635815 -0.767819
0.070497 -0.404533 0.369397 -0.144724 0.583625 0.799022
1.227895 0.096790 0.022114 0.002134 0.933746 0.343774
0.098787 -0.372608 -0.345374 0.077070 0.657665 -0.749358
0.845859 -0.039120 -0.091252 0.001415 -0.407597 -0.909645
1.229382 0.028296 -0.095167 0.000550 0.378661 -0.922095
1.408538 0.328951 0.291430 -0.004253 -0.644709 0.764276
1.408538 0.328951 -0.291430 -0.004253 -0.644709 -0.764276
-0.022318 -0.289573 -0.245565 -0.076984 -0.692282 0.717508
1.214342 -0.096620 -0.022846 0.002477 -0.971747 -0.226739
0.453811 0.093402 0.033668 -0.000154 0.899446 0.429409
0.792223 -0.083261 0.054084 -0.000128 -0.775241 0.626581
1.430932 -0.233709 -0.207845 0.034929 0.654557 -0.755205
0.122184 0.373035 -0.343341 0.077070 -0.657665 -0.749358
0.174877 0.558978 -0.501113 -0.002341 -0.634166 -0.770792
1.424256 -0.318200 0.277121 0.034929 -0.663866 -0.747036
-0.006042 -0.172417 0.180459 0.077070 0.657665 0.749358
-0.435272 -0.068423 0.071942 -0.000453 -0.682496 0.726627
0.970454 0.084503 0.052122 0.000027 0.791433 0.605783
-0.350189 -0.084653 0.051878 -0.001155 -0.895730 0.437160
-0.468472 -0.034159 0.093223 0.000201 -0.433453 0.897042
0.960470 0.049956 -0.085801 -0.001444 0.502036 -0.861173
1.073228 0.000000 -0.099285 0.002182 -0.058111 -0.994244
0.009009 0.096686 -0.022567 -0.000253 0.944063 -0.319403
0.381252 -0.080492 0.058125 -0.000137 -0.863833 0.496890
0.351822 0.093348 0.033817 0.000119 0.898497 0.431560
0.772323 0.099285 -0.000000 0.000629 0.989152 0.121346
-0.340481 0.089571 -0.042831 -0.000128 0.851713 -0.517231
1.329883 -0.335307 -0.294278 -0.023846 0.639472 -0.768444
-1.557975 -0.073287 -0.020430 -0.440896 -0.831286 -0.317461
0.018462 -0.361721 -0.310801 -0.076984 -0.692282 0.717508
-0.154304 0.033798 0.093355 0.001580 0.329466 0.939260
-1.402947 -0.011151 0.098656 0.000082 -0.191990 0.978888
0.102936 0.478050 -0.413976 -0.076984 0.692282 0.717508
-0.832919 -0.093741 0.032713 0.000056 -0.924150 0.374220
-0.111962 -0.277610 0.243641 -0.076984 -0.692282 -0.717508
-1.246876 0.016342 0.097930 -0.000126 0.190387 0.979216
-0.903422 0.013293 -0.098391 0.000957 0.210713 -0.974956
-1.354072 0.099285 -0.000000 -0.003732 0.986474 0.131990
0.765362 -0.084704 -0.051794 -0.000071 -0.862953 -0.499424
-0.062125 -0.077662 -0.061854 0.000149 -0.722256 -0.687184
1.328916 0.283592 -0.246460 -0.023846 0.678951 0.733796
0.585216 -0.017071 0.097806 -0.000211 -0.247640 0.965449
-0.869564 -0.023430 0.096480 0.000338 -0.351928 0.931725
-1.480293 -0.095872 -0.018499 -0.113105 -0.940351 -0.305396
0.794375 -0.020931 0.097053 -0.000747 -0.301618 0.950212
0.127670 -0.194167 0.162309 0.040655 -0.659081 -0.750972
0.543357 0.098211 -0.014563 -0.001899 0.970298 -0.231021
1.415306 -0.161566 0.146039 0.034929 0.654557 0.755205
0.205904 -0.590789 0.525840 0.077070 0.657665 0.749358
0.941769 -0.069997 -0.070412 -0.000188 -0.723419 -0.685998
-1.313951 0.000000 -0.099285 -0.001430 -0.041911 -0.997248
0.875072 -0.078816 0.060377 0.000094 -0.792759 0.604459
0.246412 -0.453546 -0.396377 0.040655 -0.659081 0.750972
-0.031162 -0.114417 -0.083718 0.040655 -0.659081 0.750972
0.224959 0.215863 0.186617 0.040655 0.659081 -0.750972
-1.041640 0.092067 0.037164 -0.000712 0.926136 0.366909
-0.812443 0.000000 0.099285 0.000397 0.050507 0.997052
0.689866 -0.055064 -0.082616 0.001518 -0.632804 -0.770570
1.350681 0.055047 -0.082627 -0.000046 0.552567 -0.829517
0.034715 0.208888 0.170196 0.040655 0.659081 -0.750972
1.153938 -0.215239 0.188902 -0.023846 -0.678951 -0.733796
-1.074865 -0.054836 -0.082767 -0.000665 -0.547916 -0.832822
1.061075 -0.094524 0.030375 0.000141 -0.915146 0.395432
0.037680 -0.097224 -0.020123 -0.000584 -0.974345 -0.213518
0.136276 -0.097847 -0.016833 0.003352 -0.957050 -0.277000
0.083953 0.518658 0.455194 -0.144724 -0.583625 0.799022
-0.693531 -0.035352 -0.092777 0.000287 -0.456154 -0.886271
0.337774 0.098167 -0.014852 -0.001185 0.969725 -0.231976
0.092946 0.400933 -0.370833 0.002979 -0.635911 -0.769562
1.168042 -0.030271 -0.094557 0.000374 -0.294859 -0.951507
0.148380 0.404980 0.368684 0.077070 -0.657665 0.749358
-0.871181 -0.079199 0.059875 -0.000418 -0.857372 0.508717
0.035060 0.100713 -0.113302 0.077070 -0.657665 -0.749358
1.010045 0.092035 -0.037242 0.001645 0.883083 -0.462717
0.264115 -0.295424 0.258562 0.040655 -0.659081 -0.750972
-1.419891 -0.082305 -0.055527 -0.000310 -0.879069 -0.469404
1.299741 -0.076963 0.062722 -0.000244 -0.773306 0.628878
1.173953 -0.109476 -0.090393 -0.023846 -0.678951 0.733796
0.838539 0.098254 -0.014269 -0.000972 0.970956 -0.227381
1.146770 -0.168215 -0.149547 -0.023846 0.639472 -0.768444
-1.249687 0.097245 0.020023 -0.000226 0.951438 0.297453
1.150989 -0.078344 0.062334 -0.023846 -0.678951 -0.733796
-1.145439 -0.093150 0.034358 -0.000123 -0.914712 0.395734
0.033667 -0.120545 -0.092605 0.040655 -0.659081 0.750972
1.333494 0.270567 0.240516 -0.023846 -0.639472 0.768444
0.120936 0.045948 0.088013 -0.002166 0.461111 0.884164
1.345433 -0.222289 0.200711 -0.023846 0.639472 0.768444
0.735580 0.090363 -0.041133 -0.000371 0.858292 -0.506792
-1.197931 0.087692 -0.046556 -0.000123 0.880505 -0.466854
1.434313 0.000000 -0.099285 0.070243 -0.059524 -0.991118
-1.437054 -0.087642 0.046650 -0.013798 -0.880202 0.467505
0.284772 0.020790 0.097083 0.001165 0.316039 0.944123
1.483161 -0.053704 -0.076081 0.213469 -0.624961 -0.747567
-1.299573 0.046280 0.087838 -0.000113 0.548818 0.831990
0.448720 -0.096892 0.021662 -0.000761 -0.947969 0.308327
1.227728 -0.220193 -0.195314 -0.023846 0.639472 -0.768444
0.033276 -0.386382 -0.349397 -0.144724 0.583625 -0.799022
1.474338 0.073467 0.060251 0.142371 0.757707 0.629657
-0.015747 -0.160949 -0.171393 0.077070 0.657665 -0.749358
1.449618 -0.260207 0.226771 0.034929 -0.663866 -0.747036
-1.512992 -0.064930 0.064825 -0.246095 -0.779421 0.564761
1.036641 0.135194 0.118651 -0.023846 -0.639472 0.768444
0.227494 -0.229802 -0.206805 0.077070 0.657665 -0.749358
0.182325 0.573346 0.512957 -0.070956 -0.611293 0.786194
0.825497 -0.097498 -0.018750 -0.001719 -0.956575 -0.277975
0.129514 -0.142987 -0.140689 0.077070 0.657665 -0.749358
0.186478 -0.376403 0.339685 0.077070 0.657665 0.749358
0.127670 0.194167 -0.162309 0.040655 0.659081 0.750972
1.183877 -0.193986 -0.168265 -0.023846 -0.678951 0.733796
0.123205 0.231998 0.219457 0.077070 -0.657665 0.749358
1.336717 0.129621 0.121986 0.034929 -0.654557 0.755205
-1.013047 0.099285 -0.000000 -0.000692 0.997440 0.038885
0.093225 0.156094 -0.127029 0.040655 0.659081 0.750972
1.324751 -0.281868 -0.249648 -0.023846 0.639472 -0.768444
0.049567 0.417395 -0.361180 -0.076984 0.692282 0.717508
1.240953 -0.215086 0.191475 -0.023846 0.639472 0.768444
0.004280 0.127767 0.140212 0.077070 -0.657665 0.749358
0.214159 0.327077 -0.293548 0.077070 -0.657665 -0.749358
-0.916598 -0.088159 0.045667 0.000040 -0.908992 0.409116
0.233094 -0.154219 -0.139894 0.077070 0.657665 -0.749358
-0.058687 0.202995 0.165933 -0.076984 0.692282 -0.717508
0.923696 -0.016208 -0.097953 -0.001846 -0.264805 -0.961227
-0.257946 0.029424 0.094824 0.000371 0.290723 0.952550
0.070601 0.357830 0.335302 -0.070956 -0.611293 0.786194
0.149455 0.184346 0.174937 0.077070 -0.657665 0.749358
-0.009379 0.263041 0.218578 -0.076984 0.692282 -0.717508
-0.866680 0.097719 0.017564 -0.000212 0.963486 0.254760
0.085238 0.177061 0.175147 0.077070 -0.657665 0.749358
0.181772 -0.297382 0.270818 0.077070 0.657665 0.749358
0.122366 -0.076504 -0.063281 -0.000268 -0.770610 -0.632217
-0.136039 -0.112014 -0.086450 -0.076984 -0.692282 0.717508
1.481869 -0.268286 -0.235458 0.034929 -0.663866 0.747036
1.122748 0.137213 0.117721 -0.023846 0.678951 -0.733796
-0.792383 0.099285 -0.000000 -0.002501 0.991780 0.070972
1.125817 0.096602 0.022921 0.000214 0.965563 0.246744
0.216950 -0.606626 -0.529131 0.040655 -0.659081 0.750972
1.208306 0.231065 -0.201779 -0.023846 0.678951 0.733796
0.070747 0.415249 0.356837 -0.076984 0.692282 -0.717508
-0.088449 -0.152681 -0.156649 -0.144724 0.583625 -0.799022
-1.556727 -0.060309 0.047303 -0.412716 -0.654640 0.629096
0.716080 -0.015301 -0.098098 0.002274 -0.240015 -0.968150
-1.540246 0.030665 0.077536 -0.389648 0.337901 0.849593
0.243926 0.366779 0.325331 0.077070 -0.657665 0.749358
0.085583 -0.312334 0.293833 0.077070 0.657665 0.749358
1.228287 -0.113837 -0.106826 -0.023846 0.639472 -0.768444
0.113037 -0.407848 -0.374836 0.077070 0.657665 -0.749358
1.410023 0.178805 -0.152580 0.034929 0.663866 0.747036
0.262646 -0.379783 -0.334818 0.077070 0.657665 -0.749358
0.277291 0.574691 0.504370 0.040655 0.659081 -0.750972
0.224389 -0.482200 0.428638 0.077070 0.657665 0.749358
0.154787 -0.274046 -0.253113 0.077070 0.657665 -0.749358
-0.182942 0.102586 0.102943 -0.144724 -0.583625 0.799022
-0.488668 0.056845 0.081401 -0.000416 0.571530 0.816512
0.069647 -0.118135 0.125036 0.077070 0.657665 0.749358
0.992655 -0.105176 0.092307 -0.023846 -0.678951 -0.733796
0.135607 0.126804 0.125860 0.077070 -0.657665 0.749358
0.100501 0.312874 0.265019 0.040655 0.659081 -0.750972
0.048256 0.332552 -0.279461 0.001418 0.671055 0.740803
1.228584 -0.100935 0.096099 -0.023846 0.639472 0.768444
-1.617466 0.008485 -0.037445 -0.632993 0.267480 -0.721227
-0.219444 -0.010053 -0.098774 0.001889 -0.189267 -0.979636
0.150771 -0.436517 -0.376254 0.040655 -0.659081 0.750972
0.101859 -0.115214 -0.091618 0.040655 -0.659081 0.750972
1.471857 0.092063 -0.025556 0.140996 0.947197 -0.270155
0.233880 -0.327897 -0.292239 0.077070 0.657665 -0.749358
0.095739 0.079494 0.059939 0.040655 0.659081 -0.750972
1.281897 0.083076 0.054367 -0.000107 0.884520 0.459118
0.070343 -0.204860 0.201077 0.077070 0.657665 0.749358
0.235767 0.089025 0.043954 -0.001094 0.893896 0.440920
0.232676 -0.563103 0.498789 0.077070 0.657665 0.749358
-1.623094 -0.009111 0.032234 -0.668608 -0.322848 0.662992
-0.011330 0.222248 -0.179428 0.001418 0.671055 0.740803
0.233937 0.106414 -0.097852 0.077070 -0.657665 -0.749358
-0.049524 0.294307 0.267146 -0.144724 -0.583625 0.799022
0.219648 0.096416 0.090547 0.077070 -0.657665 0.749358
1.401328 -0.153682 -0.129847 0.034929 -0.663866 0.747036
0.110686 -0.088822 0.044364 0.001074 -0.843948 0.530671
0.277291 -0.089775 0.078790 0.077070 0.657665 0.749358
0.180173 0.430761 -0.372794 0.040655 0.659081 0.750972
0.065491 0.256244 0.213423 0.040655 0.659081 -0.750972
1.515217 -0.068460 0.060720 -0.330331 0.703678 -0.617574
1.392546 -0.260716 -0.233028 0.034929 0.654557 -0.755205
0.233937 -0.106414 0.097852 0.077070 0.657665 0.749358
0.188720 0.321911 0.291630 0.077070 -0.657665 0.749358
0.024063 -0.318345 0.268349 -0.076984 -0.692282 -0.717508
1.403194 -0.385336 0.338185 -0.023846 -0.678951 -0.733796
0.234702 0.404174 0.352412 0.040655 0.659081 -0.750972
1.051296 0.121769 -0.105753 -0.023846 0.678951 0.733796
-0.027839 0.082770 -0.054833 0.000616 0.773901 -0.628291
-0.798180 -0.079242 0.059817 0.000220 -0.823841 0.562983
0.029506 0.076227 0.092384 0.077070 -0.657665 0.749358
0.029506 -0.076227 0.092384 0.077070 0.657665 0.749358
0.029506 -0.076227 -0.092384 0.077070 0.657665 -0.749358
0.032397 0.455224 -0.399522 -0.076984 0.692282 0.717508
1.159945 0.122750 -0.103130 -0.023846 0.678951 0.733796
1.484484 -0.127697 0.113484 0.034929 0.654557 0.755205
1.283545 -0.096746 -0.094318 -0.023846 0.639472 -0.768444
-1.552545 0.000000 -0.078482 -0.430444 -0.090533 -0.889828
1.385506 0.181783 0.154080 0.034929 0.663866 -0.747036
1.192378 0.174314 -0.156038 -0.023846 -0.639472 -0.768444
-0.114583 0.054854 -0.082755 -0.001328 0.470098 -0.879153
0.130187 -0.484221 -0.417006 0.001418 -0.671055 0.740803
1.038555 -0.091255 -0.082146 -0.023846 0.639472 -0.768444
0.187356 0.270564 0.246707 0.077070 -0.657665 0.749358
0.151524 -0.360499 -0.329322 0.077070 0.657665 -0.749358
1.477058 0.147095 0.127535 0.034929 0.663866 -0.747036
0.122601 -0.418781 0.383447 0.077070 0.657665 0.749358
0.041357 0.175874 -0.178619 0.077070 -0.657665 -0.749358
1.328245 -0.290764 0.257160 -0.023846 0.639472 0.768444
-1.291558 -0.042836 0.089568 0.000409 -0.333994 0.938699
0.009304 0.289262 -0.241872 -0.076984 0.692282 0.717508
-0.030090 0.000000 0.099285 0.002024 0.099671 0.991660
1.117362 -0.091232 -0.039168 0.005019 -0.883552 -0.461763
0.237062 0.176497 0.159037 0.077070 -0.657665 0.749358
1.246778 0.158933 0.133788 -0.023846 0.678951 -0.733796
1.434982 0.291922 0.254270 0.034929 0.663866 -0.747036
-0.445910 0.020733 0.097096 -0.001692 0.222442 0.972093
0.052112 -0.247013 -0.204598 0.040655 -0.659081 0.750972
-0.131440 0.178939 -0.150529 -0.076984 0.692282 0.717508
0.190915 -0.095921 -0.025625 0.000208 -0.930615 -0.355232
-0.058687 -0.185423 -0.185955 -0.144724 0.583625 -0.799022
-0.054472 -0.228614 0.190200 -0.076984 -0.692282 -0.717508
0.176524 0.279188 -0.239571 0.040655 0.659081 0.750972
0.711187 0.089725 0.042507 0.000907 0.900466 0.427155
0.145540 -0.390736 0.335792 0.040655 -0.659081 -0.750972
1.530434 0.000000 0.041506 1.000000 0.000000 0.000000
-0.621468 -0.098056 0.015571 0.002873 -0.974262 0.216098
0.236668 0.599831 0.524235 0.040655 0.659081 -0.750972
0.236668 0.599831 -0.524235 0.040655 0.659081 0.750972
0.260174 0.490637 0.432362 0.077070 -0.657665 0.749358
1.530434 -0.018242 -0.080984 1.000000 0.000000 -0.000000
-0.046181 0.191939 -0.153924 -0.076984 0.692282 0.717508
0.211886 -0.408154 -0.354670 0.040655 -0.659081 0.750972
1.267470 -0.138457 0.128529 -0.023846 0.639472 0.768444
-0.148493 -0.071723 -0.068794 -0.000000 0.751593 0.659627
0.059172 -0.041391 0.090245 -0.000182 -0.503221 0.859968
-0.402091 0.028001 -0.095254 -0.000188 0.380689 -0.921132
1.228236 0.187811 0.161110 -0.023846 0.678951 -0.733796
0.992986 0.000000 -0.099285 0.001743 -0.063071 -0.992608
-0.055535 -0.260530 -0.221107 -0.076984 -0.692282 0.717508
1.459668 0.178398 -0.154539 0.034929 0.663866 0.747036
0.098628 0.221364 -0.184605 0.040655 0.659081 0.750972
-0.078364 0.070475 0.098430 -0.070956 -0.611293 0.786194
-0.070916 -0.084843 0.110274 0.002976 0.635972 0.769639
0.070601 -0.357830 0.335302 0.002976 0.635972 0.769639
-0.048571 -0.127946 -0.145804 -0.070956 0.611293 -0.786194
-1.509533 -0.080350 -0.045992 -0.199960 -0.894522 -0.387035
1.488868 -0.185962 -0.162626 0.034929 -0.663866 0.747036
1.413114 -0.084774 -0.079583 0.034929 0.654557 -0.755205
-0.091992 -0.107480 -0.077350 -0.076984 -0.692282 0.717508
-0.992986 0.000000 -0.099285 -0.001029 -0.113233 -0.991356
0.193287 0.388855 0.349914 0.077070 -0.657665 0.749358
0.758606 0.061414 -0.078011 0.000159 0.607704 -0.789966
-0.280846 0.097484 -0.018824 0.003327 0.949866 -0.300691
1.293959 0.208794 0.187883 -0.023846 -0.639472 0.768444
1.530434 -0.080923 -0.018510 1.000000 0.000000 0.000000
-0.061363 0.250378 -0.232915 -0.144724 -0.583625 -0.799022
-0.080038 0.019304 -0.097390 0.001591 0.212517 -0.974647
-0.037488 0.098688 0.069571 0.040655 0.659081 -0.750972
-0.112191 0.128266 0.134515 -0.144724 -0.583625 0.799022
0.266546 0.096593 -0.022963 -0.001819 0.940880 -0.328377
0.187464 -0.085331 0.070027 0.040655 -0.659081 -0.750972
-0.644323 0.078145 0.061243 -0.000036 0.718988 0.690187
0.236892 0.242881 -0.217316 0.077070 -0.657665 -0.749358
0.181778 -0.126300 -0.120669 0.077070 0.657665 -0.749358
1.329717 -0.117359 0.111683 0.034929 0.654557 0.755205
-1.514613 0.066711 0.062397 -0.259870 0.589170 0.756737
0.079491 -0.079036 0.089708 0.077070 0.657665 0.749358
-1.041837 0.016732 0.097865 0.000437 0.198424 0.977604
0.144708 -0.309263 -0.285057 0.077070 0.657665 -0.749358
0.752262 0.000000 0.099285 0.000897 0.055982 0.996370
0.363325 -0.015774 -0.098024 0.000513 -0.233841 -0.969157
1.286881 0.232289 -0.200357 -0.023846 0.678951 0.733796
0.109601 -0.165770 0.136408 0.040655 -0.659081 -0.750972
0.043226 -0.259431 0.251759 0.077070 0.657665 0.749358
0.625065 0.058620 0.080132 -0.000144 0.587575 0.805109
0.310935 0.000000 -0.099285 0.000380 -0.110351 -0.990058
-0.056020 0.113578 0.133961 -0.070956 -0.611293 0.786194
0.233708 -0.415101 0.368790 0.077070 0.657665 0.749358
0.158584 0.346968 0.316721 0.077070 -0.657665 0.749358
0.019111 -0.120304 0.132137 0.077070 0.657665 0.749358
-0.077007 0.089707 -0.042544 0.000764 0.855685 -0.511025
-0.195049 0.119967 -0.100455 -0.076984 0.692282 0.717508
1.183835 0.193992 0.168271 -0.023846 0.678951 -0.733796
0.232158 0.333871 0.290574 0.040655 0.659081 -0.750972
-0.023211 0.129614 0.097486 0.040655 0.659081 -0.750972
0.133562 -0.259376 -0.219857 0.040655 -0.659081 0.750972
0.875094 0.015028 -0.098141 0.001381 0.261586 -0.961341
0.237062 0.179627 -0.155470 0.040655 0.659081 0.750972
0.123466 0.504829 -0.452250 -0.144724 -0.583625 -0.799022
0.006850 -0.189492 -0.194119 0.077070 0.657665 -0.749358
-0.149152 -0.096241 0.072639 -0.076984 -0.692282 -0.717508
0.059306 -0.158863 -0.127623 0.040655 -0.659081 0.750972
0.448168 0.015991 -0.097988 0.002408 0.242887 -0.966836
0.883829 0.096952 0.021397 0.000039 0.940740 0.325359
0.177971 0.094443 0.093102 0.077070 -0.657665 0.749358
1.293224 0.130984 -0.106418 -0.023846 0.678951 0.733796
-0.014777 -0.076399 -0.097089 0.077070 0.657665 -0.749358
0.033743 -0.316220 -0.298234 -0.144724 0.583625 -0.799022
0.086146 -0.193631 -0.189597 0.077070 0.657665 -0.749358
-0.070716 -0.328357 0.288178 -0.076984 -0.692282 -0.717508
0.149972 -0.323637 0.277144 0.040655 -0.659081 -0.750972
1.316776 0.097526 0.018605 0.000506 0.977497 0.198639
0.168695 0.500028 0.450012 0.077070 -0.657665 0.749358
1.359207 -0.355319 0.311841 -0.023846 -0.678951 -0.733796
-0.096117 -0.097900 0.016525 0.001092 -0.966050 0.245662
-1.223082 -0.097654 0.017922 -0.000088 -0.952036 0.294260
0.264102 0.294413 -0.259744 0.077070 -0.657665 -0.749358
0.402411 0.096969 0.021319 -0.000042 0.968305 0.237286
1.387651 -0.234571 -0.201091 0.034929 -0.663866 0.747036
0.277291 -0.604998 0.530969 0.077070 0.657665 0.749358
1.050884 -0.090075 -0.041761 0.001428 -0.879826 -0.469990
1.375084 -0.171572 0.144518 0.034929 -0.663866 -0.747036
1.322202 -0.226864 -0.194190 -0.023846 -0.678951 0.733796
-1.454374 -0.037820 -0.091799 -0.077894 -0.382465 -0.916687
-1.577874 -0.022765 0.061895 -0.528750 -0.308742 0.783128
1.150989 0.071975 0.069591 -0.023846 -0.639472 0.768444
1.082549 0.095798 -0.080708 -0.023846 0.678951 0.733796
0.182743 -0.452861 0.392330 0.040655 -0.659081 -0.750972
-0.156180 -0.017195 -0.097784 0.001731 -0.259358 -0.962284
1.437054 -0.046872 0.087524 0.070935 -0.468264 0.875485
0.361375 -0.097328 -0.019614 -0.000399 -0.946720 -0.308489
-0.042631 0.102310 -0.122694 0.077070 -0.657665 -0.749358
0.122338 0.309786 -0.263491 0.040655 0.659081 0.750972
-0.023211 -0.129614 0.097486 0.040655 -0.659081 -0.750972
-0.194835 0.145886 -0.132416 -0.144724 -0.583625 -0.799022
0.909871 0.072903 -0.067398 -0.002097 0.730488 -0.677874
0.189774 0.594525 -0.517039 0.001418 0.671055 0.740803
-0.136039 0.094967 -0.105873 -0.144724 -0.583625 -0.799022
1.476122 0.213006 0.187811 0.034929 -0.654557 0.755205
1.476122 0.213006 -0.187811 0.034929 -0.654557 -0.755205
1.474602 -0.025707 0.091411 0.140805 -0.272560 0.946481
0.059306 -0.158863 0.127623 0.040655 -0.659081 -0.750972
1.127428 -0.011530 0.098613 0.000871 -0.196153 0.978049
-1.478081 0.047045 -0.085837 -0.130060 0.561884 -0.811198
-0.025295 -0.059193 0.083070 0.077070 0.657665 0.749358
1.043432 -0.055425 0.082374 -0.000481 -0.548213 0.832519
1.458977 -0.155005 0.138332 0.034929 0.654557 0.755205
-1.162603 0.095114 0.028475 -0.000325 0.922131 0.378325
0.816811 0.014076 0.098282 -0.000609 0.229249 0.970605
1.283534 -0.268161 -0.233657 -0.023846 -0.678951 0.733796
-0.528236 -0.097733 -0.017486 0.001874 -0.967161 -0.239819
-0.183735 -0.016762 0.097859 -0.000614 -0.248857 0.965447
0.504790 0.032412 0.093845 0.000644 0.313291 0.945030
0.076605 -0.268450 0.224737 0.040655 -0.659081 -0.750972
1.246778 -0.153283 -0.140225 -0.023846 0.639472 -0.768444
-0.334216 0.075337 0.064667 0.001778 0.690096 0.718950
-0.112714 -0.216029 -0.198525 -0.144724 0.583625 -0.799022
-0.364240 0.091421 0.038724 0.000308 0.902924 0.421976
0.019336 0.304016 0.286710 -0.144724 -0.583625 0.799022
0.154103 0.385639 0.331782 0.040655 0.659081 -0.750972
0.237447 0.414927 -0.368253 0.077070 -0.657665 -0.749358
-0.011635 0.176190 -0.138990 0.040655 0.659081 0.750972
-0.799992 0.038084 0.091690 0.000904 0.383067 0.920242
-0.005379 0.195941 0.156662 0.040655 0.659081 -0.750972
