-0.030022 0.017193 -0.094943 0.000001 0.148611 -0.987994
1.578713 0.000000 -0.096487 0.000003 -0.029832 -0.998662
1.469257 0.178579 0.217629 -0.008301 0.786318 -0.617767
-0.041227 -0.592292 0.725490 0.067448 0.771293 0.632896
-1.056490 -0.070126 -0.066273 -0.000432 -0.713059 -0.700168
-0.006697 0.163007 -0.198652 0.081824 0.770462 0.632213
-0.097898 -0.198962 0.252189 0.067448 0.771293 0.632896
0.101237 0.038695 0.088388 0.000119 0.429319 0.902439
-1.418843 0.096487 -0.000000 0.000003 0.998662 -0.029831
-0.264747 -0.025602 -0.093029 -0.000010 -0.294269 -0.954788
-0.006697 -0.220270 -0.268437 0.067448 0.771293 -0.632896
-0.211033 0.363159 -0.452432 -0.055561 -0.755549 -0.652732
0.405331 0.059845 -0.075687 0.000002 0.643787 -0.764070
1.654924 -0.224636 -0.273758 -0.008301 0.759388 -0.650585
0.440329 0.064344 0.071901 -0.000977 0.713096 0.699579
-0.449633 0.017193 0.094943 0.000517 0.149524 0.987827
1.732672 0.009803 0.033163 1.000000 -0.000000 0.000000
-0.026228 0.375759 -0.460009 0.067448 -0.771293 -0.632896
-0.092613 -0.580933 -0.699353 -0.067416 -0.790419 0.608846
0.235812 -0.021358 0.094094 -0.000905 -0.237524 0.970544
1.400744 -0.087036 -0.102030 -0.008301 -0.786318 0.617767
-0.794356 0.093020 -0.025634 0.000250 0.970471 -0.237374
-1.091600 0.065631 -0.070728 -0.000748 0.649874 -0.759092
-1.149042 -0.094938 -0.017224 0.000152 -0.988105 -0.148009
-0.834296 -0.008631 0.096101 -0.000003 -0.059659 0.997325
-0.109849 -0.400511 -0.474741 0.081824 -0.770462 0.632213
1.458810 -0.096487 -0.000000 -0.000041 -0.998661 -0.029917
1.634323 0.124786 0.148181 0.022735 0.771834 -0.635417
1.740331 -0.099898 0.121743 0.022735 0.773872 0.632934
-0.417923 -0.222231 0.271694 -0.055561 0.755549 0.652732
-1.764672 0.066289 -0.016653 -0.458661 0.834174 -0.299725
-0.006697 0.481135 0.586347 0.081824 0.770462 -0.632213
-0.603681 0.074204 0.061673 -0.000042 0.759520 0.649123
-0.264053 -0.251979 0.291280 -0.067416 -0.790419 -0.608846
-0.103295 0.275878 -0.323703 0.081824 0.770462 0.632213
1.348279 0.087816 0.103729 -0.008301 0.786318 -0.617767
1.333482 -0.077415 0.090689 -0.008301 -0.786318 -0.617767
-1.648656 -0.071683 -0.064587 -0.018055 -0.779313 -0.624812
1.654924 0.224636 0.273758 -0.008301 0.786318 -0.617767
-1.739432 -0.043368 0.066701 -0.334923 -0.474727 0.812162
1.159055 -0.000000 0.096487 0.000003 0.029848 0.998661
1.478540 0.180881 -0.220435 -0.008301 0.786318 0.617767
-0.469434 0.164720 0.200740 -0.067416 0.790419 -0.608846
-0.131964 -0.092353 0.027942 -0.000306 -0.949108 0.312061
1.305344 -0.098978 -0.122625 -0.008301 0.759388 -0.650585
-0.300039 0.400502 -0.488081 -0.067416 0.790419 0.608846
-0.249796 -0.017193 0.094943 0.000000 -0.148612 0.987994
0.639562 -0.084497 -0.046584 0.001416 -0.865286 -0.499276
0.976838 -0.079995 0.053950 0.000211 -0.832941 0.551821
-0.103789 -0.283200 -0.355475 0.067448 0.771293 -0.632896
-0.006697 -0.462047 0.563085 0.081824 -0.770462 -0.632213
-0.326397 -0.174732 -0.197899 -0.067416 -0.790419 0.608846
-0.974204 -0.096099 -0.008645 0.000010 -0.997326 -0.059647
0.159893 -0.094944 -0.017188 0.000004 -0.987994 -0.148615
-0.206688 -0.399999 -0.477092 -0.067416 -0.790419 0.608846
1.657875 -0.084432 -0.042188 0.185602 -0.850188 -0.487853
-0.102366 0.569793 -0.700865 -0.055561 -0.755549 -0.652732
0.934238 -0.008625 -0.096101 -0.000001 -0.029816 -0.998664
1.184054 -0.025638 -0.093019 0.000407 -0.237081 -0.970555
0.134890 0.096101 -0.008625 0.000000 0.998664 -0.029818
-1.233944 -0.069640 -0.066784 -0.000227 -0.700346 -0.712536
0.804279 0.078078 -0.056689 0.000063 0.825822 -0.562351
-1.329707 0.074973 0.060736 0.000736 0.793976 0.606479
-0.334736 0.093015 0.025652 -0.000123 0.954716 0.294463
1.116490 -0.091069 -0.110983 -0.008301 0.759388 -0.650585
0.799523 -0.061375 0.074451 0.001544 -0.598018 0.800571
-0.222100 -0.493229 -0.599831 -0.067416 -0.790419 0.608846
-1.568698 -0.094944 -0.017188 -0.000002 -0.987993 -0.148618
-0.570050 -0.051464 -0.081616 -0.000675 -0.549691 -0.834383
0.249753 0.033856 -0.090353 -0.000008 0.322435 -0.945650
0.679737 0.072704 0.063435 -0.000216 0.732387 0.679588
1.588723 -0.033836 0.090360 0.000232 -0.377793 0.924971
-1.268719 0.033454 -0.090502 0.000253 0.373148 -0.926846
-0.006697 0.150282 0.183144 0.081824 0.770462 -0.632213
-1.485267 0.075101 0.060578 -0.000847 0.764378 0.643713
-0.188400 -0.076417 -0.112492 0.067448 0.771293 -0.632896
-1.595588 0.050237 -0.082378 -0.000682 0.465668 -0.883830
-0.096903 -0.328885 0.410416 0.067448 0.771293 0.632896
-0.432240 -0.062482 -0.085563 -0.055561 0.755549 -0.652732
-1.313906 -0.008633 0.096100 -0.000001 -0.059648 0.997326
1.034785 -0.063243 -0.077462 -0.008301 0.759388 -0.650585
-0.101694 -0.511032 -0.632905 0.026453 0.767052 -0.640355
-0.257436 -0.334836 -0.398115 -0.067416 -0.790419 0.608846
-0.185632 -0.167969 -0.223769 0.067448 0.771293 -0.632896
-1.648656 -0.010090 0.095958 -0.007559 -0.032946 0.998358
-0.210538 0.494525 -0.600234 -0.067416 0.790419 0.608846
-0.068386 -0.338195 -0.418724 0.067448 0.771293 -0.632896
0.530911 0.069673 0.066749 -0.000480 0.699163 0.713998
-0.366126 0.184647 -0.232600 -0.055561 -0.755549 -0.652732
-0.186056 0.458619 0.565055 -0.055561 -0.755549 0.652732
-0.689541 -0.083576 0.048217 0.000645 -0.876828 0.479238
0.059926 0.017207 -0.094941 -0.000623 0.150538 -0.987640
-0.189845 0.096487 -0.000000 0.000158 0.998671 -0.029734
-0.006697 -0.093019 -0.113359 0.067448 0.771293 -0.632896
0.052981 -0.094155 0.021087 -0.002248 -0.984551 0.168518
-0.721429 0.056591 -0.078149 0.000166 0.633540 -0.772573
-0.091841 0.247529 0.310731 0.067448 -0.771293 0.632896
-0.264776 -0.163393 0.176356 -0.067416 -0.790419 -0.608846
-0.091588 -0.552535 0.662372 -0.017656 -0.785283 -0.617841
1.378213 0.103314 -0.123053 -0.008301 0.786318 0.617767
1.241064 -0.086354 0.103308 -0.008301 -0.786318 -0.617767
0.359770 -0.059938 0.075613 -0.000015 -0.596332 0.801629
1.051507 0.074948 0.091338 -0.008301 0.786318 -0.617767
-0.165617 0.110639 0.114265 0.081824 0.770462 -0.632213
0.839442 0.031220 0.091297 -0.002448 0.366341 0.929880
-0.280042 -0.090520 0.033406 -0.000020 -0.955530 0.291720
-0.164496 0.219283 -0.284052 0.067448 -0.771293 -0.632896
-0.094481 0.660313 0.802613 -0.067416 0.790419 -0.608846
-1.017799 0.017894 -0.094814 -0.000681 0.159032 -0.986132
1.273876 0.080397 0.053350 0.000013 0.815830 0.576752
-0.064923 0.008631 0.096101 -0.000001 0.059637 0.997327
0.890500 0.068289 -0.068165 -0.000046 0.664156 -0.746393
0.384679 0.096099 0.008647 -0.000062 0.997188 0.061168
-0.188322 -0.466908 0.574457 -0.055561 0.755549 0.652732
1.263826 0.078350 -0.056312 0.000080 0.793258 -0.607432
0.789293 -0.075304 -0.060325 0.000007 -0.760386 -0.648103
1.688831 0.083663 0.025024 0.222480 0.949437 0.217125
1.732672 -0.077327 -0.000000 0.224613 -0.972066 -0.039244
-0.583687 0.040966 -0.087359 0.000000 0.371410 -0.927505
-0.151818 0.315852 0.400386 0.067448 -0.771293 0.632896
-0.159809 0.560979 0.680888 -0.067416 0.790419 -0.608846
-0.543447 -0.081112 0.052256 0.000317 -0.832860 0.551728
-0.374408 0.296988 -0.361931 -0.067416 0.790419 0.608846
-0.012484 0.497326 -0.605329 0.081824 0.770462 0.632213
1.127719 0.078987 -0.055416 0.000120 0.796586 -0.603086
-0.017399 0.604202 -0.737466 0.067448 -0.771293 -0.632896
-0.175107 -0.153957 0.165828 0.081824 -0.770462 -0.632213
0.542642 -0.074257 0.061609 -0.000323 -0.751184 0.658878
-0.420923 0.097510 0.108115 -0.067416 0.790419 -0.608846
-1.318902 -0.094944 -0.017190 -0.000010 -0.991989 -0.119068
1.488786 -0.000000 0.096487 -0.000000 0.029818 0.998664
-0.247861 -0.373046 0.460742 -0.055561 0.755549 0.652732
0.284912 0.080065 0.053846 -0.000103 0.810837 0.583789
-1.248980 0.094943 0.017194 -0.000066 0.988216 0.147381
0.221099 0.090252 -0.034124 -0.002202 0.953998 -0.296558
-0.006697 0.264808 0.322714 0.081824 0.770462 -0.632213
-0.398762 -0.128468 0.145851 -0.067416 -0.790419 -0.608846
-0.074151 0.355934 0.440957 0.067448 -0.771293 0.632896
-0.361334 0.257430 0.309129 -0.067416 0.790419 -0.608846
0.764359 0.086967 0.041792 -0.000014 0.913057 0.405641
0.537887 0.055549 -0.078893 0.000061 0.602696 -0.796941
-0.272047 0.089824 -0.130848 -0.055561 -0.755549 -0.652732
1.415765 -0.083709 0.106211 -0.008301 0.759388 0.650585
0.455012 -0.078455 -0.056166 -0.000120 -0.825291 -0.563090
0.705770 -0.052752 0.080790 0.000151 -0.559427 0.827943
0.301756 -0.082353 -0.050277 -0.000342 -0.836300 -0.546655
-0.319075 -0.096006 -0.094884 -0.067416 -0.790419 0.608846
-0.093946 -0.393221 0.488507 0.067448 0.771293 0.632896
-0.079416 -0.179609 -0.209473 0.081824 -0.770462 0.632213
1.498775 0.033865 -0.090349 -0.000466 0.322906 -0.945471
-0.309460 0.102374 0.142190 -0.055561 -0.755549 0.652732
-0.500915 0.087645 0.040351 -0.000004 0.893594 0.447270
1.542761 0.087896 0.039802 0.000593 0.882964 0.467670
1.618398 0.095165 -0.015923 0.001620 0.988110 -0.147375
-0.307599 0.157509 0.206168 -0.055561 -0.755549 0.652732
-1.217844 -0.034814 0.089988 -0.000501 -0.419555 0.906563
1.421973 0.114516 0.136723 -0.008301 0.786318 -0.617767
-0.754367 -0.025608 0.093027 0.000012 -0.207295 0.977367
-0.336407 -0.224701 0.263879 -0.067416 -0.790419 -0.608846
-0.919214 0.017205 0.094941 0.000027 0.150525 0.987646
0.029976 -0.000000 0.096487 0.000016 0.029844 0.998661
1.509118 -0.140260 0.173410 -0.008301 0.759388 0.650585
-0.271187 0.236919 -0.301187 -0.055561 -0.755549 -0.652732
1.088557 -0.074975 0.060734 -0.000030 -0.737090 0.674504
-0.087967 0.091502 0.100993 0.081824 0.770462 -0.632213
-1.632110 0.068840 0.067608 -0.000762 0.688441 0.723855
-1.356922 0.038282 -0.088568 0.000581 0.423041 -0.905155
1.250062 -0.072189 -0.064020 0.000031 -0.777449 -0.627563
-0.420026 -0.090620 0.033134 -0.000124 -0.916881 0.396916
-0.967606 0.088906 0.037490 0.001457 0.906622 0.419393
-1.780347 -0.000000 -0.059657 -0.530225 -0.040394 -0.844817
0.146535 -0.039831 -0.087882 -0.000136 -0.390701 -0.919850
-0.229616 0.199162 0.218899 -0.067416 0.790419 -0.608846
-0.178501 -0.052227 0.081957 -0.000000 0.634340 -0.773054
1.676661 -0.000000 0.090101 0.222738 -0.029828 0.973507
-0.184445 -0.248900 0.280323 0.081824 -0.770462 -0.632213
-0.006697 0.532036 0.648378 0.081824 0.770462 -0.632213
0.686088 0.042292 -0.086725 0.000539 0.384800 -0.921818
-0.165742 -0.575025 0.699781 -0.067416 -0.790419 -0.608846
-1.408792 -0.049421 -0.082870 -0.000177 -0.486058 -0.872896
-0.683119 0.067697 0.068753 0.000105 0.708880 0.703423
-0.194635 -0.415132 0.513987 -0.055561 0.755549 0.652732
-1.438857 -0.049385 0.082891 -0.000000 -0.485524 0.873204
0.061710 0.087920 0.039749 -0.000440 0.923812 0.380638
1.551166 0.132285 0.157604 -0.008301 0.786318 -0.617767
-0.147171 -0.613281 -0.747389 -0.067416 -0.790419 0.608846
1.551166 -0.132285 -0.157604 -0.008301 -0.786318 0.617767
-0.093869 0.061549 -0.074309 -0.000000 -0.634340 0.773054
-0.869293 -0.017220 -0.094938 0.000620 -0.147963 -0.988113
1.658718 -0.103035 0.128511 0.022735 0.773872 0.632934
1.751470 -0.199945 0.243667 0.022735 0.773872 0.632934
1.199145 0.063394 0.072739 0.000049 0.610450 0.790932
1.736850 0.068633 -0.083641 0.022735 0.771834 0.635417
1.732672 -0.010671 -0.064823 1.000000 0.000000 -0.000000
-1.518846 0.035707 -0.089637 -0.000229 0.407802 -0.912071
1.583644 -0.071503 -0.064785 0.000022 -0.756269 -0.652902
-0.619488 -0.060294 0.075329 0.000427 -0.653197 0.756158
-0.477887 0.076852 -0.058341 -0.000072 0.775684 -0.629816
-0.096385 0.186441 0.236769 0.067448 -0.771293 0.632896
-0.221594 0.239053 0.307879 -0.055561 -0.755549 0.652732
-0.999123 -0.049403 0.082880 -0.000022 -0.459452 0.887198
1.338892 0.049428 -0.082866 0.000244 0.485401 -0.873284
-0.072576 -0.503455 0.605021 0.081824 -0.770462 -0.632213
-0.006697 0.334796 0.408007 0.081824 0.770462 -0.632213
-1.783124 0.027209 0.051181 -0.512686 0.479996 0.708343
1.545867 0.151811 -0.182529 -0.008301 0.786318 0.617767
0.200404 -0.081181 0.052149 0.000001 -0.806096 0.590299
-0.275371 0.162211 -0.175995 -0.067416 0.790419 0.608846
-0.309318 -0.240807 -0.302441 -0.055561 0.755549 -0.652732
-0.292876 0.273314 0.341469 -0.055561 -0.755549 0.652732
-1.154572 -0.077224 0.057847 0.000215 -0.819435 0.571257
-0.354572 0.080498 -0.053198 -0.000044 0.816281 -0.576119
-0.423986 0.227979 -0.277831 -0.067416 0.790419 0.608846
1.353920 -0.025616 -0.093025 0.000000 -0.236389 -0.970741
0.964214 0.008625 0.096101 0.000003 0.029848 0.998661
1.014149 0.008631 -0.096101 -0.000001 0.059645 -0.997326
-0.194357 -0.447306 -0.537141 -0.067416 -0.790419 0.608846
-0.020004 0.094944 0.017191 0.000216 0.987908 0.149088
1.659121 -0.024639 -0.090818 0.222780 -0.198292 -0.953561
-0.084662 -0.660826 0.802192 -0.067416 -0.790419 -0.608846
1.060790 0.077251 -0.094144 -0.008301 0.786318 0.617767
1.599157 0.073474 -0.094506 0.022735 -0.773872 -0.632934
-0.083503 0.568053 0.700456 -0.014550 -0.761804 0.646967
0.882306 -0.070160 -0.066238 -0.000420 -0.743868 -0.667060
-1.484646 -0.056160 -0.078460 -0.000478 -0.560184 -0.827351
0.000742 -0.090182 -0.034309 -0.000191 -0.922673 -0.383186
-0.864275 -0.093021 0.025629 -0.000120 -0.970798 0.236183
0.553043 -0.040630 -0.087516 -0.000143 -0.444970 -0.894715
-0.035803 -0.661134 -0.801940 0.000000 -0.634340 -0.773054
0.934236 0.096099 -0.008645 -0.000010 0.997326 -0.059647
1.646051 -0.152502 -0.189447 0.002045 0.764311 -0.644781
-0.171740 -0.317980 0.403481 -0.055561 0.755549 0.652732
-0.173583 0.153794 -0.205210 0.067448 -0.771293 -0.632896
-1.165480 0.060860 0.074872 -0.000015 0.609716 0.791514
-0.163297 0.151966 0.201887 0.067448 -0.771293 0.632896
1.171095 -0.084212 -0.047097 -0.001056 -0.862536 -0.504066
1.024167 -0.096099 -0.008645 0.000116 -0.997304 -0.059893
-0.183714 0.332519 -0.386944 -0.067416 0.790419 0.608846
-0.226817 0.406029 0.487149 -0.067416 0.790419 -0.608846
-0.376809 0.191431 0.225160 -0.067416 0.790419 -0.608846
-0.395065 -0.268234 -0.326890 -0.067416 -0.790419 0.608846
-0.054626 -0.279043 0.333859 0.081824 -0.770462 -0.632213
-0.321773 -0.114040 0.154646 -0.055561 0.755549 0.652732
0.330206 0.034712 -0.090027 0.000306 0.327775 -0.943658
0.478919 -0.094750 0.018231 -0.000856 -0.987225 0.153009
1.671176 0.097227 -0.116024 0.022735 0.771834 0.635417
-0.102696 -0.160348 0.182988 0.081824 -0.770462 -0.632213
-0.057733 -0.430723 -0.518306 0.081824 -0.770462 0.632213
-0.058279 0.613979 0.753737 0.067448 -0.771293 0.632896
-1.586362 -0.048334 0.083508 -0.000400 -0.522968 0.851362
-1.078720 0.040011 0.087800 -0.000355 0.429683 0.902219
-0.006697 0.086656 -0.105606 0.081824 0.770462 0.632213
-0.058962 -0.094990 0.016934 -0.000325 -0.971943 0.231661
-0.654735 -0.074047 -0.061862 0.000683 -0.730252 -0.682155
1.199453 0.046007 -0.084813 0.000170 0.529390 -0.847429
0.763868 0.024786 -0.093249 -0.001250 0.238246 -0.970208
-1.558871 0.083771 0.047877 -0.000231 0.870447 0.490762
-0.219128 0.350770 0.414559 -0.067416 0.790419 -0.608846
1.430713 0.066166 0.075064 -0.000000 -0.634340 -0.773054
-1.493758 0.008631 0.096101 0.000000 0.059634 0.997328
-0.188106 -0.238117 -0.266708 0.081824 -0.770462 0.632213
1.695999 -0.118231 -0.145751 0.022735 0.773872 -0.632934
-0.192921 0.077830 -0.070747 0.081824 0.770462 0.632213
-0.155944 0.280162 0.322109 0.081824 0.770462 -0.632213
-0.026883 -0.105804 0.131092 0.067448 0.771293 0.632896
1.162887 -0.080624 0.053006 0.000187 -0.850343 0.524584
0.169869 0.017195 0.094943 -0.000711 0.208910 0.976967
-0.918120 0.095057 -0.016553 -0.000171 0.979014 -0.200057
1.328933 0.017231 0.094936 0.000220 0.149190 0.987892
-0.056968 -0.251080 -0.311341 0.067448 0.771293 -0.632896
-0.154935 0.460868 -0.550383 -0.067416 0.790419 0.608846
-0.256687 -0.158034 -0.211110 -0.055561 0.755549 -0.652732
-0.303097 0.287224 -0.341360 -0.067416 0.790419 0.608846
-0.099051 -0.052906 0.080690 0.000337 -0.597298 0.800883
-0.146420 -0.079683 -0.054410 0.000224 -0.807960 -0.587830
0.539560 -0.000000 0.096487 0.000013 0.029840 0.998662
1.398756 0.081790 -0.051188 0.000652 0.863125 -0.503371
-1.634642 -0.008988 -0.096068 -0.000371 -0.060771 -0.997223
-0.407096 -0.039797 0.087898 -0.000365 -0.463152 0.885300
1.602899 -0.179152 0.220004 -0.008301 0.759388 0.650585
1.360390 -0.120990 0.145791 -0.008301 -0.786318 -0.617767
-0.139881 0.088799 -0.122411 0.067448 -0.771293 -0.632896
1.682429 0.141964 -0.175255 0.022735 -0.773872 -0.632934
-0.077533 -0.106923 -0.121137 0.081824 -0.770462 0.632213
-0.071079 0.532979 -0.641195 0.081824 0.770462 0.632213
0.625960 0.078115 -0.056638 -0.000253 0.790350 -0.611294
-1.791240 -0.049322 0.018663 -0.537081 -0.806608 0.236727
-0.097193 0.408036 0.485551 0.081824 0.770462 -0.632213
-0.327708 -0.314022 0.385624 -0.055561 0.755549 0.652732
-0.076258 -0.624021 -0.753480 -0.067416 -0.790419 0.608846
-1.703883 0.089739 0.009675 -0.221046 0.958018 0.174221
-0.006697 0.436597 0.532069 0.081824 0.770462 -0.632213
-0.090336 -0.018728 -0.094652 -0.001172 -0.154856 -0.986864
-0.147077 0.505163 0.607018 -0.067416 0.790419 -0.608846
0.910346 -0.090233 0.034175 -0.001058 -0.923856 0.380943
-0.262405 -0.286833 -0.336346 -0.067416 -0.790419 0.608846
-0.083948 0.231962 -0.272687 0.081824 0.770462 0.632213
0.409666 -0.000000 0.096487 -0.000000 0.029818 0.998664
-0.729407 -0.017220 -0.094938 0.000756 -0.149389 -0.987853
1.285142 -0.087271 0.041153 -0.001015 -0.914198 0.403503
-0.144722 0.081228 0.052076 -0.000508 0.820252 0.570069
-0.947967 0.031421 -0.091228 0.000077 0.305479 -0.951467
1.692057 0.233848 -0.284984 -0.008301 0.786318 0.617767
-0.523144 0.089960 -0.109632 -0.067416 0.790419 0.608846
-0.395919 -0.175940 -0.207166 -0.067416 -0.790419 0.608846
-0.297992 0.320009 0.395084 -0.055561 -0.755549 0.652732
-0.651972 0.068278 -0.068176 0.000278 0.726181 -0.686352
-0.299136 0.207640 -0.237603 -0.067416 0.790419 0.608846
1.747989 0.168680 -0.205566 0.022735 0.771834 0.635417
-0.304767 0.041751 -0.086987 -0.000010 0.459285 -0.887286
-0.406255 0.147073 -0.170834 -0.067416 0.790419 0.608846
1.735457 -0.056127 0.068401 0.022735 0.773872 0.632934
1.743812 0.131162 0.159844 0.022735 0.771834 -0.635417
1.548742 0.033846 0.090357 -0.000620 0.322312 0.945690
1.752167 -0.206198 -0.251288 0.022735 0.773872 -0.632934
0.284744 -0.025621 -0.093024 0.000221 -0.237379 -0.970468
1.448840 -0.033849 -0.090355 0.000010 -0.322243 -0.945717
-0.249912 -0.097916 -0.089706 -0.067416 -0.790419 0.608846
1.138933 0.084401 0.046758 -0.000155 0.858603 0.511107
-1.718283 -0.024951 -0.082923 -0.251478 -0.305064 -0.916611
-0.270151 -0.209862 0.237278 -0.067416 -0.790419 -0.608846
-0.388930 0.088836 -0.119755 -0.055561 -0.755549 -0.652732
-1.059135 0.094943 -0.017196 0.000547 0.987964 -0.148774
-0.072767 0.451929 -0.557795 0.067448 -0.771293 -0.632896
-0.030374 -0.195556 0.240842 0.067448 0.771293 0.632896
1.609583 0.168582 -0.203020 -0.008301 0.786318 0.617767
-0.502234 -0.059669 -0.075825 -0.000357 -0.637480 -0.769454
-1.179039 0.094938 0.017220 -0.000013 0.987975 0.148734
-1.067747 -0.034577 0.090079 -0.000025 -0.328137 0.943549
0.908466 0.046316 0.084644 -0.001148 0.494565 0.867923
-0.074844 0.661339 -0.801771 0.000000 0.634340 -0.773054
-0.146161 0.387788 -0.454537 0.033516 0.778394 0.625817
1.547979 0.106568 -0.124913 -0.008301 0.786318 0.617767
1.480951 0.135652 0.162833 -0.008301 0.786318 -0.617767
1.752167 0.206198 0.251288 0.022735 0.771834 -0.635417
1.470940 0.081608 -0.051479 0.000199 0.811296 -0.583103
-0.288939 -0.090486 -0.033497 -0.000236 -0.956268 -0.289518
-0.205957 -0.149552 -0.156466 0.081824 -0.770462 0.632213
-1.682607 -0.093753 -0.008013 -0.116378 -0.985551 -0.113567
-0.163697 0.590278 -0.719356 -0.067416 0.790419 0.608846
-1.461913 0.076878 -0.058306 -0.000244 0.759612 -0.649003
1.584274 0.095973 0.111391 0.022735 0.771834 -0.635417
1.575953 -0.096700 0.111978 0.002045 -0.781586 -0.623728
-1.035413 0.079370 0.054866 -0.000458 0.806911 0.589075
1.419531 -0.127742 -0.153590 -0.008301 -0.786318 0.617767
1.004181 0.096101 0.008625 -0.000000 0.998664 0.029818
0.099966 0.072712 -0.063426 0.000004 0.772298 -0.633853
1.663231 0.085931 0.102018 0.022735 0.771834 -0.635417
1.506390 -0.187790 -0.228855 -0.008301 0.759388 -0.650585
-0.161815 0.416448 0.518305 -0.055561 -0.755549 0.652732
1.645705 0.167004 0.200526 -0.008301 0.786318 -0.617767
-0.739402 0.094939 0.017216 0.000409 0.977406 0.207265
0.674450 0.008625 0.096101 0.000091 0.030843 0.998570
1.398694 -0.086724 0.042294 -0.000036 -0.881043 0.471184
0.301523 -0.027697 0.092427 0.000589 -0.346647 0.936866
-0.818887 0.088015 0.039538 -0.001512 0.902270 0.429088
-1.214012 -0.008645 -0.096099 -0.000005 -0.059696 -0.997322
-0.119058 0.133508 -0.174676 0.067448 -0.771293 -0.632896
-0.367067 -0.053601 -0.080831 -0.000000 0.634340 0.773054
-1.084114 -0.008645 -0.096099 0.000147 -0.058487 -0.997429
0.339746 -0.094943 0.017192 -0.000216 -0.991920 0.119452
-0.041526 -0.355083 0.436442 0.067448 0.771293 0.632896
0.224872 -0.093460 -0.023982 0.001530 -0.976626 -0.211870
-0.048482 -0.429599 0.518133 0.081824 -0.770462 -0.632213
-0.062217 -0.487206 -0.586560 0.081824 -0.770462 0.632213
0.470272 0.054439 -0.079663 0.000336 0.610572 -0.790864
-0.353396 0.093030 0.094822 -0.067416 0.790419 -0.608846
-0.490035 -0.035286 0.089804 0.001378 -0.328323 0.943471
1.094117 0.025652 0.093015 0.000344 0.295054 0.954528
-0.203736 -0.265765 0.340318 -0.055561 0.755549 0.652732
-0.016420 -0.572317 -0.698504 0.067448 0.771293 -0.632896
-0.300039 -0.400502 0.488081 -0.067416 -0.790419 -0.608846
1.699634 -0.229238 0.279700 -0.008301 0.759388 0.650585
-0.224754 0.025756 -0.092986 0.000037 0.296010 -0.954240
0.419658 0.000000 -0.096487 0.000000 -0.029817 -0.998664
-0.453441 -0.124653 -0.155723 -0.055561 0.755549 -0.652732
-1.156110 0.045487 -0.085093 0.000098 0.431920 -0.900933
0.374889 -0.082635 -0.049813 0.000582 -0.835702 -0.547305
0.054917 -0.056690 0.078077 -0.000029 -0.562400 0.825790
0.010551 -0.032656 -0.090793 0.000213 -0.387267 -0.921215
-0.216072 -0.088348 0.038787 -0.000486 -0.903411 0.426655
-0.035034 0.112223 0.133095 0.081824 0.770462 -0.632213
-0.244908 0.317883 -0.374718 -0.067416 0.790419 0.608846
-0.322697 -0.135919 -0.147102 -0.067416 -0.790419 0.608846
-0.044950 0.086946 -0.041836 -0.000121 0.912190 -0.407459
1.198126 0.104804 0.127369 -0.008301 0.786318 -0.617767
1.635418 0.213681 -0.260076 -0.008301 0.786318 0.617767
0.649451 -0.033842 -0.090358 0.000012 -0.293988 -0.954877
-0.498355 -0.124464 0.151682 -0.067416 -0.790419 -0.608846
-0.920595 -0.086794 -0.042149 0.001221 -0.890944 -0.452566
-0.070583 0.482619 0.594963 0.067448 -0.771293 0.632896
1.508803 -0.086191 0.043371 0.000107 -0.875036 0.482237
-0.797823 -0.059516 -0.075945 0.001183 -0.650558 -0.757848
-0.039986 0.271429 -0.334331 0.067448 -0.771293 -0.632896
-0.077472 0.303246 -0.377101 0.067448 -0.771293 -0.632896
1.319662 -0.071253 -0.065060 0.000009 -0.731984 -0.679950
1.732672 0.074689 -0.020028 0.225668 0.938565 -0.258126
-0.349618 -0.331493 -0.403981 -0.067416 -0.790419 0.608846
-0.485960 0.141717 -0.172707 -0.067416 0.790419 0.608846
-0.166031 -0.511264 -0.627697 -0.055561 0.755549 -0.652732
-0.528094 0.047678 0.083884 -0.001569 0.529300 0.847508
-0.430236 0.035408 -0.089756 0.000061 0.389928 -0.919810
-0.287873 -0.075564 0.112995 -0.055561 0.755549 0.652732
0.423174 -0.067530 0.068916 0.000706 -0.717749 0.695104
-0.160881 -0.310298 -0.358196 0.081824 -0.770462 0.632213
1.745067 0.208863 -0.254271 0.022735 0.771834 0.635417
-0.136094 0.536061 -0.645913 -0.067416 0.790419 0.608846
1.381318 0.086992 0.041739 0.000359 0.887134 0.459340
-0.271402 -0.399518 -0.489379 -0.055561 0.755549 -0.652732
-1.293978 -0.066782 0.069642 -0.000197 -0.713409 0.699503
-1.386489 0.081324 -0.051925 0.000494 0.810195 -0.584761
-0.548568 -0.090602 -0.033183 0.000698 -0.916670 -0.397588
-0.131467 -0.482506 0.597351 -0.055561 0.755549 0.652732
-0.464009 0.126691 0.150769 -0.067416 0.790419 -0.608846
-0.006697 -0.334796 -0.408007 0.067448 0.771293 -0.632896
-0.275302 -0.343486 0.411323 -0.067416 -0.790419 -0.608846
-0.316945 -0.199873 -0.254410 -0.055561 0.755549 -0.652732
-1.422292 -0.088997 0.037273 0.000207 -0.896849 0.440029
-1.373897 -0.025624 0.093023 0.000006 -0.207416 0.977341
-1.378863 -0.090348 -0.033869 -0.000146 -0.945686 -0.322338
-0.087845 -0.238553 0.299367 0.067448 0.771293 0.632896
-0.614486 0.008643 0.096100 -0.000499 0.060990 0.997204
-1.503752 -0.096100 -0.008633 -0.000007 -0.997325 -0.059656
-0.225671 -0.504016 0.614231 -0.067416 -0.790419 -0.608846
-1.121362 0.093511 -0.023781 -0.000189 0.956122 -0.291009
-0.078279 0.611428 -0.751108 -0.055561 -0.755549 -0.652732
-0.326629 0.102460 -0.104100 -0.067416 0.790419 0.608846
0.244399 0.041603 0.087058 -0.000165 0.483810 0.874178
-0.104778 -0.582336 0.715178 -0.055561 0.755549 0.652732
-0.820855 0.063099 -0.072995 -0.000425 0.676680 -0.735214
-0.149012 -0.170284 0.222687 0.067448 0.771293 0.632896
1.469176 -0.171550 0.208684 -0.008301 -0.786318 -0.617767
-0.394700 0.083033 0.049147 -0.000203 0.873444 0.485263
1.237209 0.091855 -0.110361 -0.008301 0.786318 0.617767
0.597305 -0.044055 0.085843 -0.000202 -0.490714 0.870220
-0.292876 -0.273314 0.341469 -0.055561 0.755549 0.652732
-0.436381 -0.210726 -0.256806 -0.067416 -0.790419 0.608846
-0.226673 0.089586 0.132620 0.067448 -0.771293 0.632896
1.320803 0.127899 0.155117 -0.008301 0.786318 -0.617767
-1.125898 -0.068575 -0.067877 0.000147 -0.670381 -0.740894
-0.789338 -0.094944 -0.017192 0.000010 -0.991991 -0.119046
0.704548 -0.080484 -0.053218 -0.000009 -0.816314 -0.576067
-0.214305 0.040164 0.087731 0.000488 0.467922 0.882954
-1.398793 0.075286 0.060348 -0.000005 0.740910 0.670281
-0.143698 0.290106 -0.368145 0.067448 -0.771293 -0.632896
0.358752 0.075411 0.060192 -0.000009 0.800049 0.598450
-0.135416 -0.264936 -0.306212 0.081824 -0.770462 0.632213
0.601049 0.071252 0.065062 -0.000083 0.694716 0.718045
1.208584 -0.034599 0.090071 0.000546 -0.326199 0.944280
-0.609503 0.096487 -0.000000 -0.000000 0.998664 -0.029816
0.599511 -0.096487 -0.000000 0.000000 -0.998661 -0.029843
-0.734401 -0.096101 0.008625 -0.000002 -0.998664 0.029817
-0.269782 0.094938 0.017220 0.000004 0.987958 0.148827
0.199837 0.000000 -0.096487 -0.000005 -0.029821 -0.998663
-0.049437 0.418518 -0.504505 0.081824 0.770462 0.632213
0.122457 0.081674 0.051374 -0.000428 0.862075 0.505050
-0.049311 0.338678 -0.417279 0.067448 -0.771293 -0.632896
1.434760 0.081360 -0.103711 -0.008301 -0.759388 -0.650585
-0.034169 0.201176 -0.241613 0.081824 0.770462 0.632213
-0.186011 -0.094618 0.134418 0.067448 0.771293 0.632896
-0.854320 0.096100 -0.008639 0.000005 0.997322 -0.059691
1.288182 -0.094670 -0.018640 0.000844 -0.987065 -0.153719
-1.088776 -0.094737 -0.018298 -0.001125 -0.967102 -0.250245
-0.006697 0.124832 -0.152129 0.081824 0.770462 0.632213
0.484715 0.024483 0.093330 -0.001004 0.235097 0.971063
-0.674450 -0.096101 -0.008625 -0.000000 -0.998664 -0.029818
-1.259122 0.084249 -0.047030 -0.000062 0.842311 -0.537382
-0.088566 0.373898 -0.464384 0.067448 -0.771293 -0.632896
1.413590 -0.088431 -0.038597 0.000220 -0.890828 -0.452342
-1.208997 -0.094945 -0.017185 -0.000006 -0.991995 -0.119018
-0.478402 -0.085029 0.045607 0.000144 -0.851439 0.522791
0.664458 0.096101 0.008625 0.000002 0.998664 0.029817
0.674452 -0.096099 0.008645 -0.000352 -0.997266 0.060309
1.623678 -0.096099 0.008645 0.000013 -0.997315 0.059775
-0.272590 0.364545 -0.448797 -0.055561 -0.755549 -0.652732
1.311440 -0.139429 -0.169919 -0.008301 0.759388 -0.650585
1.330007 0.144035 -0.175532 -0.008301 0.786318 0.617767
1.422840 -0.167064 -0.203597 -0.008301 0.759388 -0.650585
-0.246329 0.475262 0.579189 -0.067416 0.790419 -0.608846
-0.295908 0.406253 0.495089 -0.067416 0.790419 -0.608846
-0.839329 0.049398 0.082883 -0.000030 0.485794 0.873048
0.856051 -0.078239 0.056466 0.000130 -0.816082 0.576462
0.569335 0.088283 -0.038934 0.000055 0.887782 -0.458258
-0.838491 -0.063335 0.072791 -0.000463 -0.678436 0.733479
1.444599 0.144590 -0.174698 -0.008301 0.786318 0.617767
0.099942 -0.094944 -0.017188 -0.000031 -0.987920 -0.149019
-0.141519 -0.420548 -0.524778 -0.055561 0.755549 -0.652732
-0.314721 -0.025618 0.093024 0.000241 -0.235717 0.970926
-0.279762 0.033847 0.090356 -0.000003 0.325065 0.944670
-0.725301 0.026145 0.092878 -0.000331 0.237844 0.970362
1.744508 -0.137415 0.167464 0.022735 0.773872 0.632934
0.793664 -0.094325 0.020311 0.000279 -0.965860 0.255512
1.462572 -0.114865 0.136622 -0.008301 -0.786318 -0.617767
-0.063496 0.156701 -0.183616 0.081824 0.770462 0.632213
0.433873 0.090333 -0.033909 -0.000136 0.912326 -0.407282
-0.424648 -0.093015 -0.025653 0.000166 -0.969927 -0.239338
-0.006697 -0.563848 0.687147 0.081824 -0.770462 -0.632213
-1.572478 -0.087310 0.041071 0.000087 -0.927368 0.371861
1.427490 0.149812 0.183518 -0.008301 -0.759388 0.650585
-0.170523 0.419164 -0.497968 -0.067416 0.790419 0.608846
1.458888 -0.066038 0.070348 0.000111 -0.699718 0.713195
-0.413998 -0.187636 0.224351 -0.067416 -0.790419 -0.608846
1.524070 -0.090244 -0.034144 -0.000351 -0.921837 -0.385223
-0.471832 0.072413 0.093689 -0.055561 -0.755549 0.652732
-0.239679 -0.237044 -0.304014 -0.055561 0.755549 -0.652732
-0.227308 -0.356785 -0.443669 -0.055561 0.755549 -0.652732
1.359841 -0.112209 -0.138763 -0.008301 0.759388 -0.650585
-0.523144 -0.089960 0.109632 -0.067416 -0.790419 -0.608846
1.673876 -0.082390 -0.098099 0.022735 -0.771834 0.635417
-0.060551 -0.543644 -0.668263 0.067448 0.771293 -0.632896
-0.998872 -0.074871 -0.060862 0.001018 -0.799653 -0.598727
1.455522 -0.094762 -0.119620 -0.008301 0.759388 -0.650585
1.485668 0.078033 0.056751 0.000045 0.786435 0.616232
1.116490 0.091069 -0.110983 -0.008301 0.786318 0.617767
-1.683693 -0.057060 0.074629 -0.124463 -0.624445 0.770027
-0.133810 -0.549017 -0.674139 -0.055561 0.755549 -0.652732
1.524957 0.192396 0.234468 -0.008301 0.786318 -0.617767
1.563331 -0.097451 -0.113103 -0.008301 -0.786318 0.617767
-0.045016 -0.632949 0.766399 0.081824 -0.770462 -0.632213
-1.648656 0.071729 -0.064535 -0.020016 0.783062 -0.620049
-0.227010 -0.118222 0.167553 0.026453 0.767052 0.640355
1.258973 0.096487 -0.000000 -0.000285 0.998654 -0.027074
1.523740 -0.025626 -0.093022 0.000008 -0.236337 -0.970757
0.099172 -0.018254 0.094745 -0.000316 -0.250552 0.967064
1.042868 0.088364 -0.038750 0.000232 0.888807 -0.456561
1.700636 0.047818 0.069830 0.222953 0.518432 0.824222
-0.254592 0.463760 -0.565173 -0.067416 0.790419 0.608846
-0.414217 0.080820 -0.052707 -0.000022 0.819505 -0.571561
-0.337223 0.348745 0.425006 -0.067416 0.790419 -0.608846
1.596013 -0.078707 0.055812 -0.000549 -0.780951 0.623364
-1.580922 0.087116 -0.041481 -0.000342 0.894923 -0.444184
-0.060199 -0.140177 -0.163906 0.081824 -0.770462 0.632213
0.538383 0.095076 0.016445 0.000077 0.989007 0.142553
-0.130200 -0.078529 -0.108863 0.067448 0.771293 -0.632896
-1.707418 0.000000 0.089441 -0.244413 0.038332 0.967288
-0.241458 0.400112 -0.492617 -0.055561 -0.755549 -0.652732
-0.221308 -0.296220 -0.374075 -0.055561 0.755549 -0.652732
-0.139942 0.082898 -0.049374 -0.000023 0.842594 -0.536894
1.498778 0.096487 -0.000000 0.000006 0.998661 -0.029853
1.633685 0.025610 -0.093027 -0.000308 0.210451 -0.976759
-0.337834 -0.090182 0.034307 -0.000305 -0.925199 0.377233
1.089128 -0.049405 -0.082880 -0.000481 -0.458083 -0.887963
0.981219 -0.047243 -0.084130 -0.000206 -0.539506 -0.840971
1.237174 -0.121006 0.147467 -0.008301 0.759388 0.650585
-0.025268 -0.187807 -0.226472 0.081824 -0.770462 0.632213
-1.474363 0.096092 0.008724 -0.000393 0.997374 0.059134
-0.157025 -0.383096 -0.449648 -0.067416 -0.790419 0.608846
-0.167952 -0.472891 -0.583116 -0.055561 0.755549 -0.652732
-1.809001 0.032339 -0.022988 -0.634107 0.546333 -0.538145
-0.041864 0.176117 0.218377 0.067448 -0.771293 0.632896
1.682379 -0.196497 0.237572 -0.008301 -0.786318 -0.617767
-1.358892 0.094938 0.017220 -0.000038 0.988020 0.148484
-0.223806 0.240147 -0.271464 -0.067416 0.790419 0.608846
-1.729672 -0.080759 0.019412 -0.308788 -0.935704 0.162411
-0.558534 0.091641 0.030194 0.000254 0.936498 0.348788
-0.136208 -0.193647 -0.219231 0.081824 -0.770462 0.632213
-0.398923 0.042017 0.086859 -0.000512 0.459414 0.887180
1.599224 0.210819 0.256920 -0.008301 0.786318 -0.617767
1.599224 -0.210819 -0.256920 -0.008301 0.759388 -0.650585
1.643557 -0.142835 0.177717 0.022735 0.773872 0.632934
-0.114638 -0.330427 -0.388712 0.081824 -0.770462 0.632213
-0.403329 -0.256732 0.312873 -0.067416 -0.790419 -0.608846
-0.319741 -0.017220 -0.094938 -0.000021 -0.148746 -0.987973
-1.623674 -0.096099 -0.008645 0.000069 -0.997441 -0.058116
-1.029161 -0.096487 0.000000 -0.000204 -0.998586 -0.030674
-0.919227 -0.094944 0.017188 -0.000006 -0.987993 0.148619
-0.204776 -0.026137 -0.092880 0.000143 -0.297568 -0.953746
-1.358914 0.033855 0.090353 0.000189 0.378905 0.924471
1.671344 -0.184867 -0.227547 -0.008301 0.759388 -0.650585
-1.288881 -0.075372 -0.060240 -0.000580 -0.760142 -0.648434
1.179157 -0.085204 -0.102676 -0.008301 -0.786318 0.617767
0.769350 0.094943 -0.017192 0.000006 0.991988 -0.119079
1.694788 0.112569 0.138871 0.022735 -0.773872 0.632934
-0.054904 0.078072 0.056698 -0.000038 0.825801 0.562378
1.149063 0.017197 -0.094943 -0.000002 0.148660 -0.987986
0.509551 -0.072763 -0.063367 0.000008 -0.772605 -0.633483
-0.399197 0.262483 -0.319881 -0.067416 0.790419 0.608846
-0.222968 0.130894 -0.182565 -0.014550 -0.761804 -0.646967
-0.404517 -0.093405 0.100968 -0.067416 -0.790419 -0.608846
-0.144510 -0.415340 0.490123 -0.067416 -0.790419 -0.608846
1.293639 0.089100 0.110945 -0.008301 -0.759388 0.650585
0.749374 0.072725 -0.063411 -0.000035 0.772599 -0.633496
-1.268939 -0.033863 -0.090350 0.000002 -0.322431 -0.945650
-0.150810 -0.219256 0.248550 0.081824 -0.770462 -0.632213
-0.186023 0.205823 -0.227622 0.081824 0.770462 0.632213
0.457782 0.092323 0.028041 0.000068 0.937645 0.344814
0.842686 -0.023487 0.093585 0.000090 -0.272446 0.961571
0.239788 0.094936 0.017231 -0.000332 0.987738 0.150032
0.369581 0.086296 -0.043160 0.000077 0.865506 -0.499124
0.328902 0.095053 0.016577 -0.000176 0.988541 0.145421
1.004653 0.044193 0.085772 -0.001633 0.521687 0.851597
1.534750 -0.042607 0.086570 0.000568 -0.462696 0.885546
-0.005023 -0.092807 0.026394 0.000023 -0.969930 0.239374
1.709449 0.228357 0.277761 -0.008301 0.786318 -0.617767
1.709449 -0.228357 -0.277761 -0.008301 -0.786318 0.617767
0.045805 0.054200 0.079826 -0.000111 0.609318 0.791817
1.123606 -0.042111 0.086813 0.000003 -0.487861 0.871889
-0.220475 -0.353168 0.417822 -0.067416 -0.790419 -0.608846
-0.155147 0.268555 -0.308068 0.081824 0.770462 0.632213
1.035099 -0.065911 0.070467 -0.000065 -0.686291 0.726057
-1.033596 0.067440 -0.069005 0.000355 0.708906 -0.704110
1.502653 -0.116592 -0.138282 -0.008301 -0.786318 0.617767
0.914216 0.086967 0.041793 -0.000384 0.914037 0.403491
-0.978833 -0.084522 0.046539 -0.000232 -0.848245 0.528122
-0.012704 -0.497329 -0.606721 0.067448 0.771293 -0.632896
-1.586433 -0.072651 -0.063495 -0.000570 -0.724257 -0.688231
0.181256 -0.043395 0.086178 0.000153 -0.422700 0.905307
1.744508 -0.137415 -0.167464 0.022735 0.773872 -0.632934
-0.220273 0.078864 -0.118870 0.067448 -0.771293 -0.632896
-0.016858 0.299804 0.366446 0.067448 -0.771293 0.632896
-0.060624 -0.311214 -0.372288 0.081824 -0.770462 0.632213
-0.354069 0.218252 0.272524 -0.055561 -0.755549 0.652732
-0.549552 0.000000 -0.096487 -0.000013 -0.029840 -0.998662
0.169864 0.082855 -0.049446 0.000014 0.872948 -0.485982
-1.180420 -0.064656 -0.071620 -0.001229 -0.666981 -0.743618
-1.709143 0.078166 -0.042605 -0.234899 0.882130 -0.404462
0.114883 0.008631 -0.096101 0.000000 0.059635 -0.997327
0.589273 -0.072479 -0.063692 0.001567 -0.738400 -0.673346
0.650931 -0.040329 0.087655 -0.001509 -0.452900 0.890766
0.838106 0.046771 -0.084394 0.000140 0.455719 -0.889278
-0.737255 0.089430 -0.036222 -0.000709 0.910021 -0.412057
-1.296094 0.041259 0.087221 -0.000050 0.455644 0.889227
0.899651 -0.094679 -0.018593 0.000170 -0.990832 -0.125702
0.819206 0.072543 0.063619 0.000097 0.732156 0.679849
-0.326397 0.174732 -0.197899 -0.067416 0.790419 0.608846
0.751865 -0.078114 0.056640 0.000014 -0.818864 0.572645
-1.189030 0.017193 0.094943 -0.000062 0.147383 0.988216
-0.953178 -0.024137 0.093420 0.001768 -0.280211 0.959263
1.693619 -0.045508 -0.054005 0.022735 -0.771834 0.635417
1.265251 -0.122120 -0.149126 -0.008301 0.759388 -0.650585
-0.040676 -0.047745 -0.083847 0.000666 -0.518798 -0.854058
1.280058 -0.047365 0.084062 0.000296 -0.538131 0.841973
-0.185799 0.145484 0.154117 0.081824 0.770462 -0.632213
-0.045495 0.576566 -0.697624 0.081824 0.770462 0.632213
-0.323916 0.201308 0.232127 -0.067416 0.790419 -0.608846
1.732672 0.020122 -0.018921 1.000000 -0.000000 0.000000
-0.058914 -0.377398 -0.465490 0.067448 0.771293 -0.632896
0.254839 -0.065109 0.071209 0.000219 -0.696436 0.716411
-0.058425 -0.216007 -0.256547 0.081824 -0.770462 0.632213
1.329944 0.080827 0.052696 -0.000156 0.866384 0.497838
0.784338 -0.025630 -0.093021 -0.000003 -0.236452 -0.970725
1.149063 -0.096487 -0.000000 0.000017 -0.998659 -0.030428
0.184849 0.096101 0.008625 0.000347 0.998609 0.030423
0.884279 0.008625 -0.096101 -0.000003 0.029814 -0.998664
-0.164135 -0.578570 -0.705767 -0.055561 0.755549 -0.652732
1.623674 0.008645 0.096099 0.000132 0.059795 0.997298
1.670035 0.088230 -0.024664 0.222595 0.952272 -0.204593
-0.153321 -0.449006 0.534805 -0.067416 -0.790419 -0.608846
0.309593 -0.071904 0.064340 -0.000000 -0.723727 0.688811
-1.533749 -0.025611 0.093026 -0.000207 -0.207788 0.977232
-0.111393 -0.360281 0.450223 0.067448 0.771293 0.632896
0.850446 0.090183 -0.034307 -0.000145 0.954046 -0.296371
0.989115 -0.037285 0.088993 -0.001710 -0.445395 0.894042
-0.208718 0.202897 0.267123 -0.055561 -0.755549 0.652732
-0.259343 0.131347 0.134151 -0.067416 0.790419 -0.608846
0.942452 0.042927 -0.086412 0.000043 0.414583 -0.909031
-0.112574 0.279526 0.351935 0.067448 -0.771293 0.632896
-0.218877 0.433136 0.532764 -0.055561 -0.755549 0.652732
-0.793601 0.025508 0.093055 0.000269 0.298376 0.953566
-0.205010 0.079720 0.054356 0.001710 0.816974 0.574740
1.367140 -0.153247 0.186758 -0.008301 0.759388 0.650585
1.241064 0.086354 0.103308 -0.008301 0.786318 -0.617767
-1.218972 0.048763 -0.083259 0.000077 0.479913 -0.876305
-1.013395 0.096107 0.008555 0.000183 0.997352 0.059316
-0.224435 -0.214902 0.279682 -0.055561 0.755549 0.652732
-0.049143 0.414894 0.510143 0.067448 -0.771293 0.632896
-0.252868 0.268279 -0.339046 -0.055561 -0.755549 -0.652732
-0.883574 -0.026316 0.092830 -0.000839 -0.239838 0.969812
-0.415789 0.163728 0.193512 -0.067416 0.790419 -0.608846
0.408383 -0.049370 -0.082900 0.000498 -0.536863 -0.842661
1.144044 0.096101 -0.008631 0.000000 0.997328 -0.059634
-1.528096 -0.077136 -0.057964 0.000307 -0.776634 -0.628514
-0.314724 0.066821 0.069605 -0.000001 0.733644 0.678224
-0.947746 0.057474 0.077502 -0.000330 0.640159 0.767152
-0.324829 0.365997 -0.446031 -0.067416 0.790419 0.608846
-0.484628 0.096101 -0.008631 0.000000 0.997327 -0.059636
-0.111529 -0.365002 -0.431251 0.081824 -0.770462 0.632213
-0.127478 0.465310 0.577786 -0.055561 -0.755549 0.652732
-0.071825 -0.120242 0.153477 0.067448 0.771293 0.632896
1.550807 0.042990 -0.086381 0.000255 0.468560 -0.882439
-1.214562 0.079270 0.055009 0.000317 0.810368 0.584608
-0.006697 0.621112 0.756932 0.081824 0.770462 -0.632213
-1.005462 -0.032626 -0.090804 -0.000438 -0.390329 -0.919782
-0.060682 -0.305681 0.378278 0.067448 0.771293 0.632896
1.209117 0.082936 -0.049309 0.000056 0.873825 -0.484406
-0.150846 -0.034498 -0.090110 0.000164 -0.327183 -0.944027
1.696024 -0.078541 0.097222 0.022735 0.773872 0.632934
-1.474375 -0.089393 0.036313 0.001175 -0.908344 0.415480
1.209031 0.017231 0.094936 -0.000018 0.148760 0.987970
1.474201 -0.082573 -0.049916 0.000108 -0.873563 -0.484981
0.204740 0.056590 -0.078150 0.000118 0.608475 -0.792426
-1.313929 0.008625 -0.096101 0.000000 0.029818 -0.998664
-0.303777 -0.164470 0.214552 -0.055561 0.755549 0.652732
-0.019958 -0.017207 0.094941 0.000270 -0.149109 0.987904
-1.368885 -0.017220 -0.094938 -0.000008 -0.148794 -0.987964
0.079935 0.094942 -0.017201 -0.000007 0.991975 -0.119162
1.328812 0.092433 -0.109867 -0.008301 0.786318 0.617767
0.135071 -0.092306 0.028096 0.001424 -0.938924 0.341219
-0.709528 -0.049259 0.082966 -0.000015 -0.535945 0.843199
-1.104927 -0.065063 0.071250 0.000005 -0.652013 0.757043
-0.105987 0.041106 0.087293 -0.000231 0.375639 0.925901
-0.459736 -0.097463 -0.112351 -0.067416 -0.790419 0.608846
1.343178 -0.087331 0.041026 0.000051 -0.887936 0.458030
-0.006697 -0.423872 -0.516562 0.067448 0.771293 -0.632896
-0.127653 0.357104 0.419538 0.081824 0.770462 -0.632213
1.296893 -0.101395 0.125338 -0.008301 0.759388 0.650585
-0.021014 -0.495231 0.601672 0.081824 -0.770462 -0.632213
-1.739414 0.043321 -0.066739 -0.335880 0.471691 -0.813588
-0.409666 -0.017201 -0.094942 -0.000014 -0.119126 -0.991981
-0.138769 -0.239941 0.306484 0.067448 0.771293 0.632896
0.729373 0.060276 0.075343 -0.000013 0.600970 0.798147
-0.647400 0.090057 0.034636 -0.000054 0.930274 0.364641
1.149290 0.049400 0.082882 -0.000085 0.536887 0.842625
-1.493784 -0.008645 -0.096099 -0.000005 -0.059696 -0.997322
-0.604007 0.079930 -0.054047 0.000012 0.793095 -0.607658
-0.374693 0.096099 -0.008645 0.000484 0.997335 -0.059541
-0.244266 -0.406355 0.499603 -0.055561 0.755549 0.652732
-0.447717 -0.134936 0.159668 -0.067416 -0.790419 -0.608846
1.631637 0.090524 0.033395 -0.000388 0.914648 0.402088
0.714400 0.093022 0.025628 -0.000027 0.970700 0.236539
1.358453 -0.032684 0.090783 0.000768 -0.317220 0.947524
1.372679 0.042845 0.086453 0.000004 0.417519 0.907398
0.759404 -0.033862 0.090350 -0.000660 -0.321490 0.945986
-0.113194 0.216962 0.275756 0.067448 -0.771293 0.632896
0.954224 -0.096099 0.008645 -0.000300 -0.997191 0.061117
-0.063539 -0.085734 0.097126 0.081824 -0.770462 -0.632213
-0.109756 -0.094804 -0.017944 -0.000201 -0.975617 -0.214660
1.371720 0.119603 0.143873 -0.008301 0.786318 -0.617767
0.834511 -0.056911 -0.077917 0.000128 -0.636255 -0.770353
1.603665 -0.136874 -0.162740 -0.008301 -0.786318 0.617767
0.295330 0.041659 0.087031 -0.000225 0.483754 0.874192
-0.268979 0.429661 -0.524477 -0.055561 -0.755549 -0.652732
1.552145 -0.164259 0.201973 -0.008301 0.759388 0.650585
-0.601526 -0.080109 -0.053780 -0.000287 -0.858223 -0.511756
1.642518 -0.042393 0.086676 -0.000447 -0.409278 0.911391
1.216815 -0.075612 0.059939 0.000544 -0.802251 0.595541
1.681238 -0.088639 0.008621 0.222718 -0.973427 0.030728
-1.114072 -0.093021 0.025630 0.000106 -0.970701 0.236537
-0.261192 0.170580 0.185289 -0.067416 0.790419 -0.608846
-0.117384 0.105441 0.140294 0.067448 -0.771293 0.632896
-1.277799 0.078829 0.055640 -0.000057 0.804093 0.593261
-0.238778 -0.469429 0.570781 -0.067416 -0.790419 -0.608846
-0.214883 0.180329 -0.192818 0.032091 0.778631 0.625630
-1.306974 0.062445 -0.073556 -0.000346 0.672045 -0.739364
1.509144 0.083093 -0.095555 -0.008301 0.786318 0.617767
-0.939299 0.076651 -0.058604 -0.000139 0.827966 -0.559184
1.696563 -0.126417 0.152389 0.022735 -0.771834 -0.635417
1.087130 0.078737 0.055770 0.000013 0.833712 0.550778
-1.744819 0.069105 0.034939 -0.397555 0.822034 0.405164
-0.268869 0.258100 0.299760 -0.067416 0.790419 -0.608846
-0.214883 -0.180329 0.192818 -0.017656 -0.785283 -0.617841
-0.160027 0.496723 -0.597495 -0.067416 0.790419 0.608846
1.520770 0.159735 0.196291 -0.008301 -0.759388 0.650585
0.544533 0.008631 -0.096101 0.000000 0.059638 -0.997327
-0.531452 0.047302 -0.084097 -0.000610 0.466383 -0.883629
-0.045191 0.455047 0.558656 0.067448 -0.771293 0.632896
-0.114462 -0.522227 0.625558 -0.067416 -0.790419 -0.608846
-0.249922 -0.067455 0.069462 -0.000000 0.634340 -0.773054
1.251559 -0.089677 -0.111082 -0.008301 0.759388 -0.650585
1.536748 -0.111176 0.139815 -0.008301 0.759388 0.650585
-0.054042 0.278127 0.332818 0.081824 0.770462 -0.632213
-0.315018 0.093187 -0.025020 0.000338 0.971731 -0.232610
-0.006697 -0.252083 -0.307207 0.067448 0.771293 -0.632896
-1.258973 -0.000000 0.096487 -0.000000 0.029817 0.998664
1.732672 0.059865 0.031800 1.000000 -0.000000 -0.000000
-1.801145 -0.034522 -0.030009 -0.617119 -0.569996 -0.532660
1.532022 0.180724 -0.220934 -0.008301 -0.759388 -0.650585
-0.314115 -0.244614 0.306440 -0.055561 0.755549 0.652732
0.179763 -0.072754 -0.063377 -0.000029 -0.793734 -0.606757
-1.308930 0.094940 0.017211 0.000002 0.988149 0.147773
1.228998 0.000000 -0.096487 -0.000000 -0.029816 -0.998664
-0.604509 -0.008645 -0.096099 -0.000162 -0.059421 -0.997346
-1.268945 -0.094941 -0.017206 -0.000458 -0.987905 -0.149108
0.096567 -0.038202 -0.088603 0.001259 -0.435883 -0.899232
-0.172437 -0.308465 0.354468 -0.017656 -0.785283 -0.617841
1.369141 -0.075322 -0.060303 -0.000034 -0.798080 -0.601122
-0.893869 -0.057082 -0.077791 0.000154 -0.640107 -0.767156
-0.398061 -0.159312 0.185817 -0.067416 -0.790419 -0.608846
0.018440 0.043410 -0.086171 0.000567 0.494680 -0.867924
1.107207 -0.088766 0.108177 -0.008301 0.759388 0.650585
-0.353750 0.325742 -0.396973 -0.067416 0.790419 0.608846
-0.448776 0.193474 0.235781 -0.067416 0.790419 -0.608846
-1.204368 -0.076455 0.058860 0.000188 -0.772093 0.634271
-0.358868 -0.140452 -0.182061 -0.055561 0.755549 -0.652732
-0.037100 0.558891 0.677171 0.081824 0.770462 -0.632213
1.141092 -0.058173 -0.076979 0.000042 -0.630973 -0.774658
-0.279210 -0.126993 0.130699 -0.067416 -0.790419 -0.608846
-0.771006 0.059289 -0.076123 0.000063 0.633537 -0.772558
1.732672 -0.029573 -0.018878 1.000000 0.000000 0.000000
0.274645 0.069744 -0.066675 -0.000407 0.744293 -0.666495
-0.006697 -0.283896 0.345976 0.081824 -0.770462 -0.632213
1.283962 0.041842 0.086943 0.000034 0.405965 0.912912
0.124947 -0.078122 -0.056629 -0.000004 -0.826125 -0.561908
-1.024141 -0.008631 0.096101 0.000002 -0.059649 0.997326
-1.318936 -0.090366 0.033821 0.000010 -0.945706 0.322267
0.493144 -0.072622 0.063528 -0.000048 -0.789545 0.612244
-0.114883 -0.008631 0.096101 -0.000163 -0.058914 0.997391
-0.040412 0.638569 -0.773844 0.081824 0.770462 0.632213
-1.520902 0.048018 0.083690 -0.000670 0.465344 0.884274
1.747989 -0.168680 0.205566 0.022735 0.773872 0.632934
-0.695390 -0.053100 -0.080562 -0.000012 -0.556579 -0.829725
-0.152905 -0.093868 0.095471 0.081824 -0.770462 -0.632213
0.799348 -0.000000 0.096487 0.000003 0.029848 0.998661
1.626387 -0.071179 -0.090722 0.022735 0.773872 -0.632934
-0.166795 0.235525 0.304090 0.067448 -0.771293 0.632896
-0.164849 -0.096100 -0.008639 -0.000747 -0.997061 -0.062154
-0.128158 -0.319397 0.373520 0.081824 -0.770462 -0.632213
-0.156267 0.339970 -0.430252 -0.014550 -0.761804 -0.646967
1.639553 0.074791 -0.060961 0.036848 0.743693 -0.664171
-0.172885 -0.122582 -0.127879 0.081824 -0.770462 0.632213
1.571374 -0.203910 0.248500 -0.008301 0.759388 0.650585
-0.088450 -0.611948 0.750844 -0.055561 0.755549 0.652732
-0.235310 0.336298 -0.419274 -0.055561 -0.755549 -0.652732
-1.700525 -0.071833 -0.055845 -0.223269 -0.767475 -0.598958
1.602999 0.148939 0.184739 -0.008301 -0.759388 0.650585
-0.276507 -0.356297 -0.438916 -0.055561 0.755549 -0.652732
1.412430 -0.115747 0.143564 -0.008301 0.759388 0.650585
-1.670658 0.035790 0.088488 -0.068943 0.385979 0.918479
-0.069547 -0.175115 0.220106 0.067448 0.771293 0.632896
-1.613679 0.025472 0.093065 -0.000005 0.235360 0.970999
1.443826 -0.025658 0.093013 0.000215 -0.237733 0.970377
-0.194818 -0.008631 0.096101 0.000002 -0.059649 0.997326
1.015792 0.079677 0.054419 0.000151 0.801151 0.596708
-0.232701 -0.463717 -0.562692 -0.067416 -0.790419 0.608846
-0.213469 -0.208642 -0.229418 -0.067416 -0.790419 0.608846
-0.060601 0.491332 -0.604518 0.067448 -0.771293 -0.632896
-0.322690 0.145585 0.159649 -0.067416 0.790419 -0.608846
1.682432 0.144171 0.173449 0.022735 0.771834 -0.635417
-0.053464 -0.511752 -0.628642 0.067448 0.771293 -0.632896
-0.449798 0.081553 0.051566 -0.000679 0.856679 0.514045
0.930958 -0.059340 -0.076083 0.000273 -0.584892 -0.810051
-1.658940 0.090676 0.032242 -0.070735 0.942310 0.322347
-0.103633 0.602171 0.728145 -0.067416 0.790419 -0.608846
-0.036095 0.505843 0.619590 0.067448 -0.771293 0.632896
0.867361 0.069951 0.066459 -0.000548 0.749662 0.660656
1.672548 0.195269 0.239704 -0.008301 -0.759388 0.650585
1.568721 0.096487 -0.000000 -0.000077 0.998777 -0.028393
1.693150 -0.035900 0.045189 -0.213902 0.619659 -0.755162
-0.202452 0.367488 0.458174 -0.055561 -0.755549 0.652732
1.492432 0.146213 -0.180146 -0.008301 -0.759388 -0.650585
