-0.139222 0.084777 -0.047171 -0.000286 0.888210 -0.457692
0.750882 0.038741 0.088946 0.002115 0.359821 0.931946
0.848749 0.041779 -0.087560 0.000007 0.403280 -0.914111
1.102395 -0.184255 -0.217374 -0.060343 -0.832685 0.550450
0.112786 0.124990 0.138436 -0.048602 0.783709 -0.619223
0.942913 -0.131750 0.155432 -0.060343 0.679419 0.731265
-0.429361 -0.008626 0.096632 -0.000000 -0.029672 0.998677
0.351768 -0.234996 0.258905 -0.048602 -0.783709 -0.619223
-0.898671 0.096631 0.008643 -0.000011 0.997355 0.059325
-1.133314 0.095479 0.017201 -0.000011 0.992071 0.118457
0.624071 0.000000 -0.097016 0.000001 -0.029670 -0.998677
1.367972 -0.096631 0.008643 0.000015 -0.997355 0.059328
-1.042717 -0.033493 -0.091052 -0.000409 -0.314339 -0.948449
0.303315 -0.327655 0.379981 -0.048602 -0.783709 -0.619223
-1.526729 0.069953 -0.036109 -0.391243 0.828966 -0.395572
0.158475 -0.172325 0.208402 -0.031076 0.748059 0.662905
1.232154 0.129981 -0.171072 0.000000 -0.762828 -0.646601
0.698984 0.056641 -0.078766 -0.000024 0.558747 -0.828280
1.295216 -0.203533 0.251197 -0.060343 0.679419 0.731265
1.384232 0.118374 0.121925 0.000000 0.762828 -0.646601
-0.688786 0.041992 -0.087458 -0.000104 0.457723 -0.888110
0.307582 -0.142730 -0.145599 -0.048602 -0.783709 0.619223
0.976960 -0.055916 0.083694 -0.000000 0.646601 -0.762828
0.513325 0.375481 -0.439959 0.076007 0.760622 0.644731
0.307582 -0.142730 0.145599 -0.048602 -0.783709 -0.619223
-1.139886 -0.078721 -0.056703 0.000052 -0.827938 -0.559247
1.288507 -0.186003 -0.201711 -0.000000 -0.762828 0.646601
0.170229 -0.191412 -0.217994 -0.048602 -0.783709 0.619223
0.170772 0.085648 0.084092 -0.048602 0.783709 -0.619223
1.381489 -0.195870 -0.242826 0.127695 0.732020 -0.669208
0.713947 -0.095483 -0.017182 -0.000002 -0.988137 -0.147725
0.259632 -0.087562 -0.041775 -0.000004 -0.914088 -0.403341
-0.813780 -0.090938 -0.033801 -0.000770 -0.945586 -0.322425
0.475543 0.353831 -0.409964 0.076007 0.760622 0.644731
0.470781 0.044064 -0.086432 -0.000776 0.417223 -0.907496
0.454474 0.426419 0.493116 0.031516 0.769936 -0.636493
-0.393547 0.092679 -0.028683 -0.000451 0.946788 -0.319099
0.313353 -0.278542 -0.335524 -0.031076 0.748059 -0.662905
0.803511 0.074769 -0.061820 0.000218 0.753640 -0.655975
0.124321 0.081976 0.104846 -0.031076 -0.748059 0.662905
0.132246 -0.034265 0.090764 0.000180 -0.321395 0.946045
-0.803557 -0.074605 0.062018 0.000109 -0.748818 0.661463
1.173277 -0.207590 -0.244905 -0.060343 -0.832685 0.550450
1.515430 -0.067916 -0.018250 1.000000 0.000000 0.000000
1.515430 0.047619 -0.069075 0.161122 0.509418 -0.843924
0.133500 0.099949 -0.105117 -0.048602 0.783709 0.619223
0.948547 0.041787 -0.087556 -0.000004 0.376129 -0.925616
-1.283051 0.033856 -0.090917 -0.000076 0.320097 -0.946471
0.184993 -0.070309 -0.094525 -0.031076 0.748059 -0.662905
0.237017 -0.174792 0.191716 -0.048602 -0.783709 -0.619223
0.357274 0.041889 -0.087507 0.001010 0.458950 -0.887451
0.138575 0.245046 0.289532 -0.031076 -0.748059 0.662905
-1.233140 0.089477 0.037498 -0.000788 0.911213 0.409278
1.095921 -0.055916 0.083694 -0.000000 0.646601 -0.762828
0.246565 0.224101 -0.270959 -0.031076 -0.748059 -0.662905
0.202403 0.311932 -0.368002 -0.031076 -0.748059 -0.662905
0.219808 -0.327839 0.386768 -0.048602 -0.783709 -0.619223
1.067921 -0.101113 -0.101561 -0.000000 -0.762828 0.646601
1.363467 -0.263728 -0.308977 -0.060343 -0.832685 0.550450
-0.498533 0.068165 0.069034 0.000078 0.716206 0.696819
1.476304 0.122001 0.143931 0.127695 0.780083 -0.612506
1.476304 0.122001 -0.143931 0.127695 -0.732020 -0.669208
1.459536 0.159254 0.187880 0.127695 0.780083 -0.612506
1.490278 -0.090957 -0.107306 0.127695 -0.780083 0.612506
1.343009 -0.017213 0.095477 -0.000031 -0.146480 0.988365
0.259614 -0.008626 -0.096632 0.000001 -0.029653 -0.998678
0.538896 0.366107 0.431914 0.076007 0.760622 -0.644731
0.538896 -0.133734 0.157772 0.048631 0.761926 0.645836
-1.303036 -0.049339 0.083534 0.000011 -0.533794 0.844575
0.838733 0.096631 -0.008640 0.000005 0.997352 -0.059363
0.978353 0.143417 0.169197 -0.060343 0.832685 -0.550450
1.191681 -0.151766 -0.194557 -0.060343 0.679419 -0.731265
0.680528 0.063124 0.073671 0.000008 0.673571 0.738184
1.425213 0.093745 -0.024981 0.027290 0.950058 -0.305920
-0.341610 -0.055084 0.079862 0.000052 -0.616179 0.786582
0.489412 -0.424308 0.504304 0.048631 0.761926 0.645836
-0.324545 -0.073435 -0.063400 -0.000019 -0.775153 -0.630383
0.289427 0.391465 -0.461831 -0.031076 -0.748059 -0.662905
1.031514 0.160919 0.189844 -0.060343 0.832685 -0.550450
1.297319 -0.248427 0.293082 -0.060343 0.679419 0.731265
1.013794 0.155085 -0.182962 -0.060343 -0.679419 -0.731265
0.996074 -0.149251 0.176079 -0.060343 0.679419 0.731265
0.410178 0.080492 0.054159 0.000594 0.794699 0.605538
-1.593388 0.023080 0.032333 -0.633897 0.552362 0.531302
1.166206 0.149345 0.190205 -0.060343 -0.679419 0.731265
0.024852 0.087427 0.106334 -0.031076 -0.748059 0.662905
-0.174735 -0.095480 0.017197 0.000001 -0.988123 0.147818
-1.423862 0.081196 -0.053098 -0.000357 0.817686 -0.574015
1.162739 0.107288 0.144299 -0.000000 -0.762828 0.646601
0.166969 -0.232210 -0.269884 -0.048602 -0.783709 0.619223
0.373777 -0.112993 0.145736 0.048631 0.761926 0.645836
0.373149 -0.100395 -0.098902 0.076007 -0.760622 0.644731
0.985239 0.100120 -0.129538 -0.060343 -0.679419 -0.731265
0.145671 -0.226003 0.263700 -0.048602 -0.783709 -0.619223
1.515430 -0.074277 0.039011 0.159212 -0.868339 0.467329
-0.139933 0.076856 0.059206 0.000541 0.809961 0.584993
0.184714 0.033841 -0.090923 -0.000895 0.293174 -0.955014
0.065730 0.137823 -0.165121 -0.031076 -0.748059 -0.662905
0.339264 0.331945 0.382589 -0.048602 0.783709 -0.619223
1.058185 0.079006 0.056305 0.000168 0.795145 0.604987
0.091119 -0.123868 0.150563 -0.031076 0.748059 0.662905
-0.884456 0.053980 0.080612 -0.000316 0.574456 0.817452
-0.363467 0.092471 0.029347 0.000040 0.943239 0.328955
0.723875 -0.083493 0.049408 -0.000000 -0.874570 0.483078
-0.309547 0.008643 -0.096631 -0.000217 0.060285 -0.997268
0.418586 -0.087552 0.041794 0.000081 -0.915174 0.400866
1.324652 0.153878 0.199264 0.000000 -0.762828 0.646601
0.216315 -0.081840 0.075697 -0.048602 -0.783709 -0.619223
1.283073 -0.090922 -0.033844 0.000069 -0.955202 -0.292895
-1.364163 -0.083145 0.049990 -0.000857 -0.844959 0.533366
1.287992 0.198930 0.219229 -0.060343 0.832685 -0.550450
-1.352934 0.033841 -0.090923 -0.000154 0.292594 -0.955301
-0.212725 0.070512 -0.066636 0.000089 0.740438 -0.670956
0.475372 -0.288986 -0.333443 0.076007 -0.760622 0.644731
1.146082 0.044761 -0.086074 -0.000545 0.485614 -0.873181
1.433097 0.091030 0.118298 0.127695 -0.732020 0.669208
0.054376 -0.125988 -0.144283 -0.048602 -0.783709 0.619223
1.328003 -0.025612 -0.093575 0.000001 -0.206159 -0.977618
0.396434 0.293705 0.329705 0.034490 0.769396 -0.637111
0.347694 -0.337437 -0.403595 -0.031076 0.748059 -0.662905
-0.371747 0.060804 -0.075598 0.000594 0.656658 -0.752875
0.260002 0.312985 -0.364814 -0.048602 0.783709 0.619223
0.422816 -0.354030 -0.403982 -0.010020 -0.777632 0.627991
1.392826 -0.046708 -0.085033 0.000705 -0.531407 -0.846029
-0.479279 -0.008643 0.096631 0.000011 -0.059325 0.997355
0.502600 -0.283613 0.337326 0.048631 0.761926 0.645836
0.314619 0.270837 -0.326889 -0.031076 -0.748059 -0.662905
1.249804 -0.152742 -0.162470 -0.000000 -0.762828 0.646601
-1.126053 0.069429 -0.067763 -0.000285 0.737705 -0.673893
0.373149 -0.100395 0.098902 0.076007 -0.760622 -0.644731
0.203012 -0.131202 -0.164085 -0.031076 0.748059 -0.662905
1.123627 0.172304 0.196969 -0.060343 0.832685 -0.550450
0.230383 0.158459 0.196126 -0.031076 -0.748059 0.662905
-1.453104 0.088729 0.036910 -0.095440 0.891340 0.440034
1.014683 -0.079155 0.111110 0.000000 0.762828 0.646601
0.382772 -0.201289 -0.249227 0.048631 0.761926 -0.645836
1.417614 0.252386 0.297753 0.127695 0.780083 -0.612506
-0.018058 0.110450 -0.130304 -0.031076 -0.748059 -0.662905
0.538896 0.101460 -0.119697 0.076007 0.760622 0.644731
-1.538387 -0.071522 -0.017968 -0.396459 -0.880886 -0.252235
-0.035462 -0.094544 -0.111538 -0.048602 -0.783709 0.619223
1.208717 -0.219258 0.258670 -0.060343 0.679419 0.731265
0.348947 -0.167021 0.211347 0.022067 0.757734 0.651899
0.480277 0.275562 0.318184 0.076007 0.760622 -0.644731
0.268940 -0.269300 0.308823 -0.048602 -0.783709 -0.619223
0.312950 0.191919 0.237755 -0.031076 -0.748059 0.662905
0.801150 -0.085079 0.100372 -0.060343 0.679419 0.731265
0.287981 -0.077576 0.107553 -0.031076 0.748059 0.662905
-1.230743 -0.072473 -0.064497 -0.000371 -0.734819 -0.676925
0.510137 0.179752 0.214227 0.048631 -0.761926 0.645836
0.239615 0.096632 0.008633 0.000010 0.997357 0.059309
0.182316 0.080803 -0.077054 -0.048602 0.783709 0.619223
0.421534 -0.480626 -0.568638 -0.031076 0.748059 -0.662905
-0.723931 -0.090932 0.033817 0.000012 -0.946356 0.320389
0.663983 -0.016268 0.095643 0.000108 -0.113663 0.992774
0.316385 -0.290417 0.331826 -0.048602 -0.783709 -0.619223
-1.472074 -0.047737 -0.080722 -0.178582 -0.533495 -0.824775
0.491451 0.488169 0.570325 0.076007 0.760622 -0.644731
1.357937 0.041787 -0.087556 -0.000191 0.375830 -0.925758
0.142883 0.189632 0.217887 -0.048602 0.783709 -0.619223
-1.208210 0.096631 -0.008643 -0.000006 0.997352 -0.059355
-1.048250 -0.079265 0.055939 -0.000181 -0.832263 0.553035
0.265923 0.244211 0.294559 -0.031076 -0.748059 0.662905
0.933618 0.033899 0.090901 -0.000024 0.320901 0.946181
0.040243 0.066836 -0.070528 -0.000000 -0.646601 0.762828
1.371872 0.258605 0.308690 -0.060343 -0.679419 0.731265
1.190529 -0.092433 0.091321 -0.000000 -0.762828 -0.646601
0.348238 -0.403661 0.472650 -0.048602 -0.783709 -0.619223
-0.855054 -0.084476 0.047708 -0.000891 -0.855368 0.516250
1.379672 0.079256 -0.111230 -0.000000 -0.762828 -0.646601
-0.523291 0.070448 -0.066703 0.000219 0.704541 -0.708617
0.418993 0.361278 -0.433840 -0.031076 -0.748059 -0.662905
1.230099 0.193024 -0.216641 -0.060343 0.832685 0.550450
-0.697715 0.026375 0.093362 -0.000261 0.238071 0.970277
0.459308 0.096631 0.008643 -0.000048 0.997319 0.059732
-0.203575 0.018454 -0.095245 0.000358 0.156221 -0.986651
0.490844 0.481150 -0.561972 0.076007 0.760622 0.644731
-1.394126 0.067994 0.069202 0.000115 0.722646 0.689998
1.303842 0.103609 -0.139960 0.000000 -0.762828 -0.646601
0.499323 0.061261 0.075253 -0.000000 -0.646601 -0.762828
0.342293 -0.051542 0.082192 -0.000088 -0.574982 0.817255
0.004447 -0.074292 -0.090556 -0.031076 0.748059 -0.662905
-0.663975 0.091927 -0.031010 0.000025 0.935892 -0.350042
0.435544 -0.126341 0.156833 0.048631 0.761926 0.645836
0.988099 -0.111264 -0.140127 -0.060343 0.679419 -0.731265
0.353688 -0.340747 0.392597 -0.048602 -0.783709 -0.619223
0.446578 0.476039 0.564636 -0.031076 -0.748059 0.662905
1.225621 0.106064 -0.107402 0.000000 0.762828 0.646601
0.530587 0.312134 -0.367261 0.076007 0.760622 0.644731
1.463722 -0.074225 0.054549 0.157143 -0.796417 0.582289
1.267961 -0.103588 0.104481 0.000000 -0.762828 -0.646601
0.227341 0.159706 -0.197390 -0.031076 -0.748059 -0.662905
-0.675155 -0.078012 -0.057674 -0.000609 -0.778177 -0.626707
-0.647866 0.026324 0.093377 -0.000119 0.300742 0.952668
1.314893 0.211078 -0.259831 -0.060343 -0.679419 -0.731265
0.200661 0.049081 0.083686 -0.000459 0.529013 0.847586
0.409774 -0.393314 -0.454726 -0.048602 -0.783709 0.619223
1.247754 0.091298 0.089981 -0.000000 0.762828 -0.646601
0.538896 0.243465 0.287228 0.076007 0.760622 -0.644731
0.193191 -0.231706 0.277039 -0.031076 0.748059 0.662905
0.378150 0.228499 0.250621 0.076007 0.760622 -0.644731
0.283625 -0.386162 -0.455576 -0.048602 -0.783709 0.619223
0.538896 0.120824 0.142542 0.076007 0.760622 -0.644731
0.213586 0.266555 0.317320 -0.031076 -0.748059 0.662905
0.345062 0.184763 -0.231185 -0.031076 -0.748059 -0.662905
1.199857 0.216341 0.255228 -0.060343 0.832685 -0.550450
0.426135 0.177630 -0.218050 0.048631 -0.761926 -0.645836
-0.858757 0.025572 -0.093586 0.000017 0.292124 -0.955462
0.457112 -0.424659 -0.507150 -0.004502 0.753112 -0.657588
0.868255 0.080964 -0.102086 -0.060343 -0.679419 -0.731265
0.390498 0.071360 -0.066693 0.076007 0.760622 0.644731
0.314093 -0.255143 -0.287362 -0.048602 -0.783709 0.619223
1.113320 -0.017189 -0.095481 -0.000179 -0.147433 -0.988191
-0.730490 0.064514 0.072457 -0.000844 0.694449 0.718430
1.361744 0.078507 0.110345 0.000000 -0.762828 0.646601
-0.070772 -0.087197 0.042530 -0.000154 -0.886326 0.461226
-1.449064 0.043204 -0.086188 -0.063091 0.506804 -0.858201
0.426447 0.336340 0.383541 0.076007 0.760622 -0.644731
0.521338 -0.339207 0.398110 0.076007 -0.760622 -0.644731
-1.238158 0.008626 0.096632 -0.000001 0.029653 0.998678
0.493038 -0.364458 0.433423 0.048631 0.761926 0.645836
-0.826217 -0.056968 -0.078529 0.000202 -0.539328 -0.841036
0.426333 0.312250 -0.355107 0.076007 0.760622 0.644731
0.289482 0.161306 0.170530 -0.048602 0.783709 -0.619223
0.529236 0.041805 -0.087547 -0.000323 0.377553 -0.924949
1.470026 -0.009189 0.090648 0.156609 -0.120010 0.979474
-0.788869 0.025570 0.093586 0.000002 0.234676 0.971169
-0.099851 -0.096632 -0.008626 0.000010 -0.998679 -0.029645
-0.813782 0.017179 -0.095483 0.000259 0.146495 -0.988359
-1.043447 0.097016 -0.000000 -0.000171 0.998703 0.029374
0.019987 0.093576 -0.025607 0.000026 0.977601 -0.206318
-1.352987 -0.000000 0.097016 0.000012 -0.029672 0.998677
-0.478310 -0.074222 0.062476 -0.000785 -0.745053 0.665710
0.911336 0.087853 0.112042 -0.060343 -0.679419 0.731265
-1.093370 -0.095486 -0.017164 0.000003 -0.988166 -0.147551
0.414523 -0.073432 -0.063403 -0.000010 -0.775075 -0.630474
0.352449 0.438339 -0.517680 -0.031076 -0.748059 -0.662905
-0.289551 -0.093566 0.025643 0.000359 -0.970623 0.236717
-1.269640 0.077905 -0.057818 0.000022 0.784759 -0.618382
0.270684 0.099723 0.131735 -0.031076 -0.748059 0.662905
-0.933607 0.017205 -0.095479 0.000001 0.147852 -0.988119
1.411671 0.160120 0.197960 0.127695 -0.732020 0.669208
-0.738845 -0.025578 -0.093584 -0.000140 -0.291965 -0.955521
1.183239 -0.097016 -0.000000 0.000013 -0.998679 0.029643
0.284566 0.033841 -0.090923 0.000427 0.291363 -0.955728
0.808786 -0.093575 -0.025610 -0.000127 -0.970777 -0.236145
1.402916 0.090925 0.033834 0.000125 0.946390 0.320289
-1.393026 -0.083549 -0.049313 0.000012 -0.888977 -0.456033
0.943605 0.090930 0.033822 0.000338 0.946944 0.318799
0.379435 -0.297029 -0.335246 -0.048602 -0.783709 0.619223
-0.294563 -0.033785 0.090944 -0.000161 -0.321010 0.946115
0.039949 -0.008643 0.096631 0.000019 -0.059319 0.997356
1.505945 0.083816 0.016400 0.157280 0.967477 0.192243
0.404356 -0.449109 -0.525767 -0.048602 -0.783709 0.619223
1.155993 0.195688 -0.228795 -0.060343 0.832685 0.550450
0.644111 -0.061031 0.075415 -0.000107 -0.651559 0.757458
-0.881644 -0.053018 -0.081248 -0.000029 -0.519036 -0.853734
0.248822 -0.098388 -0.094090 -0.048602 -0.783709 0.619223
0.515606 -0.076308 0.087278 0.076007 -0.760622 -0.644731
0.079870 -0.025628 -0.093570 0.000051 -0.233181 -0.971587
0.109827 0.025610 -0.093575 0.000002 0.206151 -0.977620
0.479310 -0.041805 -0.087547 0.000299 -0.373918 -0.926594
-0.394544 -0.063336 0.073490 0.000086 -0.674526 0.737056
0.934623 0.120769 -0.144545 -0.060343 -0.679419 -0.731265
-0.144785 -0.000000 0.097016 0.000000 -0.029595 0.998684
1.431588 0.221342 0.261129 0.127695 0.780083 -0.612506
1.446937 0.072188 0.061419 0.157678 0.783267 0.599870
0.728956 0.025574 -0.093585 -0.000005 0.234694 -0.971165
-1.068468 0.056575 0.078813 -0.000018 0.558273 0.828600
0.509900 -0.350011 -0.409507 0.076007 -0.760622 0.644731
-1.427087 -0.007632 -0.096716 0.002030 -0.059684 -0.997252
0.338336 0.393612 -0.460710 -0.048602 0.783709 0.619223
-0.392206 0.076158 0.060102 0.000640 0.751098 0.658767
0.511846 0.084885 -0.046976 0.000218 0.881602 -0.470213
0.281894 -0.376002 0.442852 -0.048602 -0.783709 -0.619223
1.456394 0.067840 -0.088485 0.127695 -0.732020 -0.669208
-1.019829 0.056901 -0.078578 0.000128 0.558244 -0.828695
1.231111 0.191268 0.234512 -0.060343 -0.679419 0.731265
0.326630 0.252472 -0.282997 -0.048602 0.783709 0.619223
0.274591 -0.000000 0.097016 -0.000018 -0.028535 0.998776
-1.485491 -0.072335 0.055656 -0.192553 -0.735589 0.646781
0.443851 -0.229493 0.259540 0.076007 -0.760622 -0.644731
0.403311 0.199368 0.219220 0.076007 0.760622 -0.644731
1.253209 -0.207287 0.235684 -0.060343 -0.832685 -0.550450
1.232999 -0.129333 0.134853 0.000000 -0.762828 -0.646601
0.494105 -0.213627 -0.246746 0.076007 -0.760622 0.644731
0.852637 -0.018109 0.095311 0.000032 -0.154767 0.986906
0.461717 0.094769 -0.117616 0.048631 -0.761926 -0.645836
-1.501238 0.038256 -0.078541 -0.276479 0.369637 -0.886022
1.421696 0.143776 -0.160278 0.127695 0.780083 0.612506
-0.069915 0.008640 -0.096631 -0.000088 0.059202 -0.997366
-0.443075 0.095445 -0.017391 -0.000630 0.991812 -0.120335
0.363508 0.018467 0.095243 0.000654 0.154949 0.986848
1.158367 0.077874 0.057861 -0.000496 0.824564 0.563942
0.116204 -0.189015 0.225255 -0.031076 0.748059 0.662905
1.261669 0.080147 -0.112281 0.000000 -0.762828 -0.646601
0.463623 0.104160 0.128550 0.048631 -0.761926 0.645836
0.278425 0.134665 -0.137681 -0.048602 0.783709 0.619223
0.462627 -0.307262 0.368236 0.048631 0.761926 0.645836
0.296273 0.294758 0.338899 -0.048602 0.783709 -0.619223
0.077338 0.141540 0.169859 -0.031076 -0.748059 0.662905
-1.167226 0.070113 0.067055 -0.000723 0.696285 0.716577
0.471327 0.373561 0.432744 0.076007 0.760622 -0.644731
1.020135 0.121811 -0.152570 -0.060343 -0.679419 -0.731265
0.538896 0.301559 0.355764 0.076007 0.760622 -0.644731
1.295611 -0.081768 -0.114193 -0.000000 0.762828 -0.646601
-1.193224 -0.095487 0.017159 -0.000001 -0.988172 0.147514
1.305774 0.152584 -0.197738 0.000000 -0.762828 -0.646601
0.531664 -0.292252 -0.343932 0.076007 -0.760622 0.644731
-0.115031 0.095159 0.018891 -0.000253 0.990644 0.127726
1.171945 -0.103893 -0.140295 -0.000000 0.762828 -0.646601
-0.798779 -0.025613 -0.093574 -0.000442 -0.234964 -0.971100
-0.044367 -0.033520 -0.091042 0.000217 -0.318646 -0.946997
1.259636 -0.189359 -0.235092 -0.060343 0.679419 -0.731265
0.440853 -0.411091 0.491077 -0.031076 0.748059 0.662905
-1.442242 0.022059 0.094243 -0.064449 0.204986 0.974823
-0.885130 -0.034411 0.090709 0.000977 -0.295949 0.954173
-0.248959 -0.037541 -0.089459 -0.000483 -0.421946 -0.905457
0.434880 -0.253997 0.307485 0.048631 0.761926 0.645836
0.012834 0.033653 -0.090993 -0.000074 0.368284 -0.928887
0.805997 -0.042858 0.087036 0.000413 -0.465646 0.883984
0.249138 -0.190374 -0.233020 -0.031076 0.748059 -0.662905
1.515430 -0.037267 0.062864 1.000000 0.000000 -0.000000
1.412555 0.032058 -0.091567 0.000123 0.304620 -0.951711
1.381039 0.188352 -0.234687 0.127695 -0.732020 -0.669208
-0.164211 -0.048829 0.083832 0.000209 -0.479934 0.876377
-0.473833 -0.066822 -0.070335 0.001074 -0.671501 -0.739797
0.494759 -0.385224 -0.457792 0.048631 0.761926 -0.645836
-0.979086 0.069553 0.067636 0.000155 0.736713 0.674967
1.104065 -0.105442 0.142122 0.000000 0.762828 0.646601
1.252978 0.127937 0.168661 -0.000000 -0.762828 0.646601
1.168259 -0.078785 -0.056614 -0.000006 -0.828228 -0.558821
1.367940 -0.078794 -0.056601 0.000006 -0.844582 -0.533782
0.899647 -0.089688 0.096546 -0.060343 -0.832685 -0.550450
0.326008 0.181399 0.193093 -0.048602 0.783709 -0.619223
1.126920 0.093644 0.092750 -0.000000 0.762828 -0.646601
-0.042821 0.090787 0.034204 -0.000430 0.927665 0.371520
0.604129 -0.083503 -0.049391 -0.000011 -0.874620 -0.482990
0.497950 0.419333 0.497792 0.048631 -0.761926 0.645836
-0.977354 0.084449 -0.047755 -0.000429 0.897765 -0.438540
0.867941 0.070643 0.071212 -0.000000 -0.646601 -0.762828
0.688983 0.096631 0.008643 0.000005 0.997353 0.059352
1.290195 0.062034 0.090911 -0.000000 -0.762828 0.646601
1.279599 0.242593 0.286200 -0.060343 0.832685 -0.550450
0.335827 -0.082057 -0.112097 0.048631 0.761926 -0.645836
0.518887 -0.231004 0.270168 0.076007 -0.760622 -0.644731
0.328307 0.083340 -0.114177 0.048631 -0.761926 -0.645836
1.235876 -0.174963 0.188686 -0.040274 -0.810584 -0.583389
-0.529411 0.093632 0.025402 -0.000167 0.972059 0.231333
-0.728532 0.025305 -0.093658 -0.000023 0.290473 -0.955972
-0.393554 -0.016754 -0.095559 -0.000424 -0.116395 -0.992428
0.544190 -0.097016 -0.000000 -0.000001 -0.998678 0.029653
0.639049 -0.096632 0.008626 0.000001 -0.998679 0.029651
0.349453 -0.087553 -0.041793 0.000008 -0.914092 -0.403333
1.093740 0.049583 0.083389 0.000194 0.536625 0.842853
1.281102 0.129418 -0.170408 0.000000 -0.762828 -0.646601
-0.269567 -0.093571 -0.025624 -0.000008 -0.971040 -0.235196
-0.524220 0.000000 -0.097016 0.000000 -0.029672 -0.998677
-0.549167 -0.025635 0.093568 0.000274 -0.235998 0.970822
0.280928 -0.243117 0.274744 -0.048602 -0.783709 -0.619223
-0.933582 0.073574 -0.063238 0.000414 0.739086 -0.672408
0.504247 -0.090926 0.033834 0.000035 -0.925549 0.376290
-0.748852 -0.087546 -0.041807 0.000002 -0.914209 -0.403075
-0.064859 0.049365 0.083518 0.000121 0.455969 0.889046
-0.913651 -0.095497 -0.017102 -0.000013 -0.977726 -0.205650
-0.967294 -0.051354 -0.082310 0.000520 -0.552187 -0.832918
0.099824 0.096632 -0.008633 0.000010 0.997357 -0.059309
-1.337966 -0.096633 -0.008615 -0.000001 -0.997366 -0.059201
1.153284 -0.000000 0.097016 0.000120 -0.029468 0.998695
-0.828723 -0.008614 0.096633 0.000014 -0.059165 0.997369
0.404356 0.449109 -0.525767 -0.048602 0.783709 0.619223
0.845451 -0.099663 0.117578 -0.060343 0.679419 0.731265
-0.893670 0.000000 -0.097016 0.001468 -0.031367 -0.998575
0.282616 0.209028 -0.231468 -0.048602 0.783709 0.619223
1.357994 -0.078829 0.056553 -0.000044 -0.828442 0.558514
-1.043455 -0.017151 0.095488 -0.000001 -0.147493 0.988175
1.257988 0.087930 -0.040993 -0.000105 0.917346 -0.396246
0.402981 0.269285 -0.327924 0.048631 -0.761926 -0.645836
0.530913 -0.240002 -0.283744 0.048631 0.761926 -0.645836
-0.577024 0.042777 0.087076 0.000372 0.466663 0.883448
-1.223163 -0.075419 0.061026 0.000005 -0.738054 0.673436
0.584103 -0.063495 0.073352 -0.000484 -0.631080 0.774625
1.033423 -0.083495 -0.049404 0.000002 -0.888525 -0.456907
1.432868 -0.097016 -0.000000 0.023049 -0.998184 0.021697
0.440110 -0.262597 -0.298154 0.076007 -0.760622 0.644731
0.416635 0.396710 -0.458485 -0.048602 0.783709 0.619223
0.818317 -0.067279 -0.069898 0.000257 -0.715203 -0.697681
-0.374443 -0.097016 -0.000000 0.000419 -0.998617 0.030333
-0.454081 0.048202 -0.084195 0.000750 0.522241 -0.851833
0.119850 0.008633 0.096632 -0.000262 0.060653 0.997235
0.584103 0.063495 0.073352 0.000047 0.630841 0.774775
0.509290 -0.078738 -0.056679 -0.000006 -0.827911 -0.559289
1.247809 -0.078467 -0.057053 0.000034 -0.791490 -0.609775
0.304559 -0.095475 0.017224 0.000212 -0.988409 0.146230
-0.683975 -0.095477 0.017213 0.000011 -0.988110 0.147904
1.148699 -0.139667 0.147045 -0.000000 -0.762828 -0.646601
1.376103 -0.138219 -0.180790 0.042660 0.753669 -0.655114
-1.218364 -0.024797 -0.093794 0.000439 -0.202448 -0.978508
-1.108407 0.041762 0.087568 -0.000010 0.403079 0.914201
-0.300117 0.078421 0.057116 0.000064 0.782284 0.621510
-1.143283 -0.090940 0.033795 0.000006 -0.946453 0.320104
1.346724 0.223229 0.249549 -0.060343 0.832685 -0.550450
-0.199669 0.025581 0.093583 -0.000006 0.234757 0.971149
1.198313 0.062671 0.091663 0.000000 -0.762828 0.646601
-0.659009 0.069661 -0.067525 0.000034 0.696567 -0.716266
1.303063 0.095487 0.017157 -0.000001 0.988175 0.147496
0.277137 -0.108815 0.142297 -0.031076 0.748059 0.662905
0.024747 0.075313 0.061157 -0.000059 0.736937 0.674665
1.515430 0.021342 0.041816 1.000000 0.000000 0.000000
-0.818790 0.087548 -0.041803 -0.000005 0.913994 -0.403555
-0.669311 -0.045279 -0.085802 0.000104 -0.415705 -0.908647
1.126920 -0.093644 -0.092750 -0.000000 -0.762828 0.646601
1.058425 -0.008626 0.096632 -0.000011 -0.028682 0.998764
0.887692 -0.054185 -0.080475 -0.000362 -0.606585 -0.793966
0.240323 -0.312531 -0.370456 -0.031076 0.748059 -0.662905
1.381100 -0.104056 -0.105033 0.000000 -0.762828 0.646601
0.261316 0.092494 -0.085649 -0.048602 0.783709 0.619223
0.395776 -0.111522 -0.142345 0.048631 0.761926 -0.645836
1.407871 0.039310 0.088696 0.000052 0.458355 0.887797
1.311819 -0.103635 0.104536 0.000000 -0.762828 -0.646601
0.518382 -0.392669 0.464796 0.048631 0.761926 0.645836
-0.949912 0.093701 0.025147 0.000867 0.977644 0.206243
0.953704 -0.048317 -0.084129 -0.000588 -0.477942 -0.877491
1.217990 -0.109147 -0.111040 0.000000 -0.762828 0.646601
-1.083368 0.033839 -0.090924 0.000016 0.320420 -0.946352
0.242656 -0.148674 -0.158218 -0.048602 -0.783709 0.619223
-1.550086 -0.031288 0.060423 -0.475787 -0.349130 0.805162
0.213132 0.125118 0.130721 -0.048602 0.783709 -0.619223
0.486325 0.275201 -0.328627 0.048631 -0.761926 -0.645836
0.279933 -0.337426 -0.400406 -0.031076 0.748059 -0.662905
1.159842 0.109598 -0.147025 -0.000000 -0.762828 -0.646601
0.335429 0.215435 0.265346 -0.031076 -0.748059 0.662905
0.548592 0.093730 -0.025038 0.000947 0.971556 -0.233219
1.285725 -0.152889 0.162644 -0.000000 -0.762828 -0.646601
0.441838 0.436544 -0.506922 -0.048602 0.783709 0.619223
-1.342026 -0.047496 -0.084595 0.000912 -0.529699 -0.847551
-1.392897 -0.033849 0.090920 0.000321 -0.319873 0.946548
0.968580 0.087539 -0.041821 0.000022 0.913991 -0.403561
0.499416 0.088830 0.039006 0.000053 0.889435 0.455144
0.319050 -0.146577 -0.186874 -0.031076 0.748059 -0.662905
0.498553 0.214209 -0.255751 0.048631 -0.761926 -0.645836
0.147794 0.141195 0.156198 -0.048602 0.783709 -0.619223
0.295974 0.329867 -0.392628 -0.031076 -0.748059 -0.662905
0.230778 -0.293589 0.342559 -0.048602 -0.783709 -0.619223
-1.253123 -0.090929 -0.033825 0.000008 -0.946375 -0.320330
1.421621 -0.016822 -0.095547 0.001299 -0.227887 -0.972850
-0.594131 -0.049408 -0.083493 0.000355 -0.456269 -0.888889
1.135574 -0.073404 0.068871 0.000000 0.646601 -0.762828
1.218249 0.169159 -0.181839 -0.020159 0.787299 0.615440
0.263229 0.181562 -0.198227 -0.048602 0.783709 0.619223
0.353573 0.417954 0.494730 -0.031076 -0.748059 0.662905
1.198957 -0.023589 -0.094105 -0.000114 -0.217465 -0.975333
1.196875 -0.188741 -0.213804 -0.060343 -0.832685 0.550450
0.658407 0.087737 0.041406 0.000088 0.915226 0.400903
0.952426 0.072372 0.101049 -0.060343 -0.679419 0.731265
-0.988521 0.096631 -0.008643 -0.000550 0.997354 -0.059327
-0.611629 0.085041 0.046692 0.000453 0.861919 0.505502
1.064320 -0.136357 0.169731 -0.060343 0.679419 0.731265
0.360246 0.359664 0.416024 -0.048602 0.783709 -0.619223
0.319828 -0.145292 0.185461 -0.031076 0.748059 0.662905
1.515430 0.000000 -0.010487 1.000000 0.000000 -0.000000
-0.533948 -0.082381 0.051240 -0.000209 -0.812592 0.581056
-0.666488 0.088805 0.039062 -0.000110 0.923309 0.382279
0.366067 0.067312 0.092426 0.048631 -0.761926 0.645836
1.439790 -0.085130 0.089360 0.127695 -0.780083 -0.612506
0.335199 -0.186015 -0.232136 -0.031076 0.748059 -0.662905
0.538896 -0.430655 -0.508065 0.076007 -0.760622 0.644731
0.637781 0.086066 -0.044776 -0.000040 0.857711 -0.512285
0.199596 -0.175040 0.213394 -0.031076 0.748059 0.662905
-1.138080 -0.068738 0.068464 0.000339 -0.691467 0.721329
0.377875 -0.148951 -0.187850 0.048631 0.761926 -0.645836
1.132270 -0.149888 -0.187909 -0.060343 0.679419 -0.731265
0.227252 -0.144412 0.154033 -0.048602 -0.783709 -0.619223
1.495425 -0.013348 -0.086048 0.156898 -0.211077 -0.963782
0.491966 -0.441345 -0.524211 0.048631 0.761926 -0.645836
1.068414 0.119831 0.123644 -0.020159 0.787299 -0.615440
-0.182674 0.086723 -0.043490 0.000138 0.877870 -0.477306
1.061716 0.041066 -0.087896 0.000310 0.397048 -0.917023
1.392926 0.149219 -0.189613 0.127695 -0.732020 -0.669208
0.150417 -0.144723 0.176877 -0.031076 0.748059 0.662905
1.349741 0.111402 -0.149153 0.000000 -0.762828 -0.646601
0.895379 0.061952 -0.074660 -0.001627 0.660547 -0.749934
0.086371 -0.205889 -0.242898 -0.048602 -0.783709 0.619223
0.160789 0.246394 -0.292095 -0.031076 -0.748059 -0.662905
1.097631 0.149413 -0.165191 -0.060343 0.832685 0.550450
0.889752 0.114248 0.134784 -0.060343 0.832685 -0.550450
0.364651 -0.228868 -0.281874 -0.031076 0.748059 -0.662905
0.288724 0.135889 0.138421 -0.048602 0.783709 -0.619223
0.316146 0.082305 0.051362 0.000110 0.831454 0.554047
0.205266 0.208187 -0.251065 -0.031076 -0.748059 -0.662905
0.333797 0.094588 0.087412 0.076007 0.760622 -0.644731
0.159933 -0.076662 0.059457 -0.000730 -0.766898 0.640688
0.749427 -0.054677 -0.080141 0.000607 -0.584309 -0.810515
-0.710730 0.088241 0.040320 0.000046 0.890220 0.453672
0.364458 0.097016 -0.000000 0.000006 0.998681 0.029628
0.594469 0.059508 -0.076622 -0.000200 0.626969 -0.777911
0.403137 0.388717 0.449429 -0.048602 0.783709 -0.619223
1.366821 -0.095319 0.130179 0.000000 0.762828 0.646601
0.275061 0.290114 -0.334685 -0.048602 0.783709 0.619223
0.318820 0.162273 -0.169452 -0.048602 0.783709 0.619223
0.417484 0.224444 -0.250475 0.076007 0.760622 0.644731
0.311449 -0.103059 -0.137410 -0.031076 0.748059 -0.662905
0.159578 0.160431 0.195032 -0.031076 -0.748059 0.662905
0.391511 0.338887 -0.407285 -0.031076 -0.748059 -0.662905
0.333226 -0.210320 0.229131 -0.048602 -0.783709 -0.619223
-0.771957 -0.088886 0.038877 -0.000064 -0.924369 0.379943
0.194839 0.181820 -0.220822 -0.031076 -0.748059 -0.662905
0.529883 0.253003 -0.297418 0.076007 0.760622 0.644731
0.354608 0.276633 0.311380 -0.048602 0.783709 -0.619223
1.113772 0.109589 0.147014 0.000000 -0.762828 0.646601
1.263096 0.033846 -0.090921 0.000009 0.320664 -0.946263
0.240215 0.251714 -0.301821 -0.031076 -0.748059 -0.662905
1.082631 -0.083374 0.116087 0.000000 0.762828 0.646601
0.438557 -0.475635 0.556655 -0.048602 -0.783709 -0.619223
0.349376 0.296690 -0.337175 -0.048602 0.783709 0.619223
0.191279 -0.273016 -0.323565 -0.031076 0.748059 -0.662905
-1.557436 0.045183 0.045435 -0.502042 0.664296 0.549607
-1.121017 0.091693 -0.031695 0.001197 0.924694 -0.378704
1.452248 -0.104606 -0.116762 0.127695 -0.780083 0.612506
1.452248 0.104606 -0.116762 0.127695 0.780083 0.612506
0.333797 -0.094588 0.087412 0.076007 -0.760622 -0.644731
0.125691 0.199072 -0.231184 -0.048602 0.783709 0.619223
-0.214989 0.095185 0.018761 0.001080 0.990899 0.125385
0.126982 -0.243004 -0.286684 -0.048602 -0.783709 0.619223
0.417062 0.508112 0.599446 -0.031076 -0.748059 0.662905
0.393856 0.486903 -0.574425 -0.031076 -0.748059 -0.662905
0.324236 -0.423278 0.499362 -0.048602 -0.783709 -0.619223
0.074768 -0.195285 0.230387 -0.048602 -0.783709 -0.619223
-0.041264 0.089242 -0.105283 -0.031076 -0.748059 -0.662905
0.260419 -0.364954 -0.430555 -0.048602 -0.783709 0.619223
0.254617 0.359652 -0.424299 -0.031076 -0.748059 -0.662905
0.322269 0.381213 0.451801 -0.031076 -0.748059 0.662905
0.838007 -0.083638 0.049161 -0.000287 -0.880830 0.471731
-1.293095 0.095481 0.017192 -0.000081 0.992306 0.117128
0.328645 -0.383753 -0.448992 -0.048602 -0.783709 0.619223
0.421279 -0.397337 0.458914 -0.048602 -0.783709 -0.619223
0.981114 -0.097744 0.099803 -0.060343 -0.832685 -0.550450
1.431588 -0.221342 -0.261129 0.127695 -0.780083 0.612506
1.414820 -0.258595 -0.305078 0.127695 -0.780083 0.612506
0.828989 0.082168 0.092916 -0.060343 0.832685 -0.550450
0.257990 -0.086321 0.078099 -0.048602 -0.783709 -0.619223
0.139139 0.074211 0.062489 0.000654 0.743380 0.667732
-1.297353 -0.036186 -0.090015 -0.000166 -0.365801 -0.930086
0.508911 0.431428 -0.511235 0.048631 -0.761926 -0.645836
-0.624064 -0.017213 0.095477 0.000013 -0.147930 0.988105
0.000044 0.008613 0.096633 0.000000 0.059225 0.997364
1.288062 -0.025612 -0.093575 -0.000714 -0.207603 -0.977267
-0.469321 0.008640 -0.096631 -0.000151 0.058730 -0.997408
0.039932 -0.096631 -0.008643 -0.000002 -0.997353 -0.059354
0.538896 -0.398381 -0.469990 0.076007 -0.760622 0.644731
0.538896 0.404835 0.477605 0.076007 0.760622 -0.644731
0.538896 0.127279 -0.150157 0.076007 0.760622 0.644731
0.257990 0.086321 0.078099 -0.048602 0.783709 -0.619223
0.456892 -0.094037 -0.101273 0.076007 -0.760622 0.644731
0.231132 0.073925 -0.064518 -0.000000 -0.646601 0.762828
1.201604 -0.155033 0.198411 -0.060343 0.679419 0.731265
0.398701 -0.147416 0.157387 0.076007 -0.760622 -0.644731
1.120529 0.091654 -0.125856 -0.000000 -0.762828 -0.646601
1.043468 -0.090921 0.033845 -0.000007 -0.946278 0.320621
1.363583 0.073404 0.068871 0.000000 -0.646601 -0.762828
-1.511237 -0.000000 -0.084326 -0.292604 -0.038518 -0.953737
-0.584143 0.017224 -0.095475 0.000017 0.147887 -0.988112
0.943600 -0.090908 -0.033880 -0.000041 -0.946255 -0.320684
0.224666 -0.097016 -0.000000 -0.000328 -0.998622 0.030274
0.534205 0.000000 -0.097016 -0.000003 -0.029663 -0.998678
1.425608 -0.105634 0.135701 0.127695 0.732020 0.669208
-1.410887 0.090523 0.034898 -0.000220 0.922155 0.384674
0.380458 0.168857 -0.211139 0.048631 -0.761926 -0.645836
1.299691 0.023537 0.094118 -0.001362 0.287158 0.957265
1.173277 -0.207590 0.244905 -0.060343 0.679419 0.731265
1.303061 -0.097016 -0.000000 -0.000009 -0.998678 0.029654
-1.402933 -0.090931 0.033820 -0.000009 -0.946418 0.320233
-1.278054 -0.096633 0.008614 -0.000000 -0.997367 0.059189
0.141731 -0.103679 0.109192 -0.048602 -0.783709 -0.619223
-0.514505 -0.063460 -0.073382 -0.000550 -0.673926 -0.737683
1.068455 0.093587 -0.025568 0.000003 0.971169 -0.234680
0.278150 0.344441 0.403202 -0.048602 0.783709 -0.619223
-0.404610 0.038743 -0.088945 -0.001141 0.387198 -0.921236
1.345530 -0.118418 -0.157431 0.000000 0.762828 -0.646601
1.148260 0.093580 -0.025592 -0.000924 0.971833 -0.232137
-0.108075 0.094126 -0.023503 -0.000039 0.975397 -0.217335
-1.198239 0.025621 0.093572 0.000002 0.235103 0.971064
0.474233 0.144464 -0.162809 0.076007 0.760622 0.644731
-0.079837 -0.008613 0.096633 0.000000 -0.059192 0.997367
-1.307769 0.056578 0.078811 0.000017 0.606895 0.793680
-0.868817 0.067482 -0.069702 -0.000033 0.736664 -0.675003
1.515430 0.073861 -0.023598 1.000000 -0.000000 0.000000
1.128278 0.096633 0.008614 0.000001 0.997366 0.059198
-0.509250 0.096631 -0.008643 0.000425 0.997383 -0.058988
0.458775 0.073229 0.092425 0.048631 -0.761926 0.645836
-0.099957 -0.067503 0.069682 -0.000002 -0.716097 0.696738
0.796327 0.042247 0.087335 0.000240 0.466567 0.883481
1.088337 0.096633 0.008614 -0.000014 0.997369 0.059164
0.501230 -0.306800 -0.364783 0.048631 0.761926 -0.645836
0.070482 0.025724 0.093544 0.000337 0.321045 0.946143
1.388026 0.087592 -0.041710 0.000033 0.914393 -0.402664
0.429741 0.158975 0.174682 0.076007 0.760622 -0.644731
0.362548 0.171288 0.181288 0.076007 0.760622 -0.644731
-1.171064 -0.050922 0.082578 0.000950 -0.572883 0.818455
0.247346 -0.252438 -0.289177 -0.048602 -0.783709 0.619223
1.423535 -0.069015 -0.068185 0.000298 -0.746460 -0.664095
0.397249 -0.254807 -0.311275 0.048631 0.761926 -0.645836
-0.924623 0.035252 0.090385 0.000106 0.416429 0.908117
0.295939 -0.045726 0.085565 0.000264 -0.490424 0.870497
0.085892 -0.090475 0.035021 0.001631 -0.916475 0.397246
0.368921 -0.240282 0.294954 -0.031076 0.748059 0.662905
0.990422 -0.068974 -0.099099 0.000000 0.762828 -0.646601
0.154425 -0.095053 -0.097279 -0.048602 -0.783709 0.619223
-1.603702 -0.030932 0.000000 -0.649640 -0.755219 0.049499
0.404119 0.104173 0.133047 0.048631 -0.761926 0.645836
0.107788 0.084404 -0.047835 -0.000327 0.853566 -0.519294
-1.568654 -0.056453 0.010428 -0.515862 -0.831449 0.196033
1.336329 0.151342 0.160819 0.000000 0.762828 -0.646601
1.090964 0.064660 -0.076283 -0.000000 -0.646601 0.762828
0.246147 0.318092 0.372365 -0.048602 0.783709 -0.619223
0.216244 -0.079248 -0.072422 -0.048602 -0.783709 0.619223
-0.793819 0.097016 -0.000000 0.000001 0.998678 0.029653
0.071485 -0.153897 0.178263 -0.048602 -0.783709 -0.619223
0.174740 -0.097016 -0.000000 -0.000386 -0.998537 0.031196
1.422417 0.078443 -0.106567 0.127695 -0.732020 -0.669208
-0.599136 0.096632 -0.008633 -0.000250 0.997472 -0.058005
0.324803 -0.082059 -0.071571 0.076007 -0.760622 0.644731
0.403480 -0.439450 0.521327 -0.031076 0.748059 0.662905
1.262816 -0.112072 -0.149944 0.000000 0.762828 -0.646601
0.261784 -0.329656 0.390786 -0.031076 0.748059 0.662905
1.323929 -0.073404 -0.068871 -0.000000 -0.762828 0.646601
0.063799 0.083327 -0.103533 -0.031076 -0.748059 -0.662905
0.408205 0.099714 -0.127479 0.048631 -0.761926 -0.645836
0.058289 -0.112578 0.127005 -0.048602 -0.783709 -0.619223
0.219963 -0.220649 0.251093 -0.048602 -0.783709 -0.619223
1.480700 0.062555 0.078067 -0.000000 -0.646601 -0.762828
0.449312 0.008640 -0.096631 0.000006 0.059349 -0.997353
0.135730 -0.132464 -0.162355 -0.031076 0.748059 -0.662905
0.501985 0.355898 0.415520 0.076007 0.760622 -0.644731
1.154763 0.104335 -0.105363 0.000000 0.762828 0.646601
1.432868 -0.000000 0.097016 0.101197 0.034897 0.992620
0.274233 -0.161666 0.201801 -0.031076 0.748059 0.662905
0.511128 -0.488002 0.572447 0.076007 -0.760622 -0.644731
-0.009926 -0.076433 0.086612 -0.048602 -0.783709 -0.619223
0.063953 -0.156031 -0.181555 -0.048602 -0.783709 0.619223
0.340272 -0.375242 0.445908 -0.031076 0.748059 0.662905
0.918256 -0.091760 -0.097642 -0.060343 -0.832685 0.550450
-1.422883 -0.097016 0.000000 -0.008420 -0.998418 0.031848
1.199638 0.107769 -0.144867 0.000000 -0.762828 -0.646601
1.068414 0.119831 -0.123644 -0.020159 0.787299 0.615440
1.314016 -0.073404 0.068871 -0.000000 0.646601 -0.762828
0.402370 -0.206524 0.253927 0.048631 0.761926 0.645836
1.326545 0.069092 -0.099238 0.000000 -0.762828 -0.646601
0.363779 0.412489 -0.482604 -0.048602 0.783709 0.619223
1.304303 0.102257 0.138364 0.000000 -0.762828 0.646601
0.230112 -0.281970 -0.335491 -0.031076 0.748059 -0.662905
0.726581 -0.044209 0.086358 -0.000416 -0.478469 0.877082
-0.449353 -0.025647 -0.093565 -0.000042 -0.235014 -0.971093
0.449767 0.495256 -0.580608 -0.048602 0.783709 0.619223
-1.567026 0.045387 -0.036789 -0.539275 0.593478 -0.593483
0.181147 0.088329 -0.114680 -0.031076 -0.748059 -0.662905
1.267058 -0.151738 -0.196740 0.000000 0.762828 -0.646601
1.026079 -0.106087 0.138451 -0.060343 0.679419 0.731265
0.384755 -0.171317 0.183940 0.076007 -0.760622 -0.644731
-0.306322 0.079085 -0.056194 -0.000083 0.833307 -0.551350
0.436501 0.361252 0.414116 0.076007 0.760622 -0.644731
1.063431 -0.032245 -0.091501 -0.000682 -0.353620 -0.934554
0.176493 0.249916 0.291547 -0.048602 0.783709 -0.619223
0.285688 -0.081598 -0.069947 -0.048602 -0.783709 0.619223
0.858341 -0.074045 -0.094839 -0.060343 0.679419 -0.731265
1.364705 0.163542 0.210666 0.085225 -0.743400 0.662650
1.381803 0.125557 0.165853 0.085225 -0.743400 0.662650
0.298968 -0.183087 -0.197352 -0.048602 -0.783709 0.619223
0.198362 0.266663 -0.316729 -0.031076 -0.748059 -0.662905
0.122853 -0.073542 0.095260 -0.031076 0.748059 0.662905
1.445562 0.190298 -0.224504 0.127695 -0.732020 -0.669208
1.384258 -0.227403 0.258981 0.127695 -0.780083 -0.612506
1.233955 -0.085313 0.082921 -0.000000 -0.762828 -0.646601
0.088051 -0.110441 -0.135268 -0.031076 0.748059 -0.662905
0.447820 0.249650 -0.301383 0.048631 -0.761926 -0.645836
1.204968 -0.055916 0.083694 0.000000 0.646601 -0.762828
0.431334 -0.116421 -0.124667 0.076007 -0.760622 0.644731
0.060336 -0.059632 -0.076633 -0.000000 0.646601 0.762828
-0.569587 0.080162 -0.054647 -0.000305 0.809912 -0.585191
1.344343 0.202136 -0.220743 0.000000 0.762828 0.646601
-1.538387 0.071522 0.017968 -0.396459 0.880886 0.252235
1.366177 0.031407 0.091792 -0.000802 0.281021 0.959139
1.392908 0.217106 -0.263876 0.127695 -0.732020 -0.669208
0.538896 -0.075641 -0.089237 0.076007 -0.760622 0.644731
1.418392 -0.155034 -0.191115 0.127695 0.732020 -0.669208
1.032794 0.067866 -0.097792 0.000000 -0.762828 -0.646601
0.479756 0.190549 -0.229254 0.048631 -0.761926 -0.645836
1.077029 -0.129322 -0.137056 -0.060343 -0.832685 0.550450
0.156253 0.182154 -0.207373 -0.048602 0.783709 0.619223
0.224122 -0.018331 0.095269 -0.000124 -0.156223 0.986659
0.508818 -0.119340 0.137246 0.076007 -0.760622 -0.644731
0.509708 0.226819 0.269787 0.048631 -0.761926 0.645836
0.469573 -0.185221 -0.223734 0.048631 0.761926 -0.645836
1.338053 0.093586 -0.025569 -0.000004 0.971163 -0.234701
1.198463 -0.109053 0.146383 0.000000 0.762828 0.646601
1.236360 0.161622 0.172947 -0.000000 0.762828 -0.646601
0.346432 -0.154648 -0.159756 0.076007 -0.760622 0.644731
0.783430 0.079245 -0.093489 -0.060343 -0.679419 -0.731265
1.291966 0.174024 0.187578 -0.000000 0.762828 -0.646601
-1.607232 0.026864 -0.006749 -0.689924 0.677421 -0.238987
0.403087 0.245272 0.273350 0.076007 0.760622 -0.644731
0.484770 -0.146124 -0.166009 0.076007 -0.760622 0.644731
1.241418 0.124492 0.129143 0.000000 0.762828 -0.646601
0.480636 -0.461800 0.537941 0.076007 -0.760622 -0.644731
-0.943017 -0.080472 0.054189 0.000351 -0.810962 0.583779
1.261878 0.236759 -0.279317 -0.060343 -0.679419 -0.731265
1.023722 0.061126 0.075338 -0.000062 0.674329 0.737247
0.241707 0.101269 -0.132121 -0.031076 -0.748059 -0.662905
1.254656 -0.069289 -0.099471 -0.000000 0.762828 -0.646601
0.769156 0.088570 -0.039592 -0.000162 0.898138 -0.437789
-0.628915 -0.086565 -0.043803 0.000191 -0.882362 -0.468602
1.376355 0.116797 -0.120064 -0.000000 0.762828 0.646601
0.491445 0.162835 0.186511 0.076007 0.760622 -0.644731
0.437958 -0.328069 0.394641 0.048631 0.761926 0.645836
1.149808 -0.074338 0.105427 -0.000000 0.762828 0.646601
0.878677 0.093566 -0.025645 0.000002 0.971000 -0.235356
1.313900 -0.157600 -0.203655 -0.000000 0.762828 -0.646601
0.150856 -0.048010 -0.084305 0.000398 -0.506052 -0.861306
-0.286856 0.037477 -0.089486 0.000225 0.406654 -0.912764
-1.477435 0.056394 0.073781 -0.195970 0.624716 0.753657
1.350669 0.234815 0.284837 -0.060343 -0.679419 0.731265
0.303483 0.100028 -0.091875 -0.048602 0.783709 0.619223
1.178264 -0.052772 -0.081408 -0.000613 -0.517852 -0.853933
1.094855 0.111048 -0.148736 -0.020159 -0.736096 -0.675846
-0.345612 -0.016637 -0.095579 -0.000367 -0.225014 -0.973585
-0.673966 -0.050761 0.082677 0.000385 -0.489578 0.870729
0.316330 -0.324830 -0.387898 -0.031076 0.748059 -0.662905
-1.486777 0.086416 -0.028482 -0.226138 0.908963 -0.347540
1.041972 -0.093638 -0.128197 -0.008639 0.751442 -0.659193
-0.414378 -0.095480 -0.017197 -0.000001 -0.988122 -0.147824
1.212280 -0.153684 -0.163582 -0.000000 -0.762828 0.646601
1.137314 -0.119202 -0.122901 0.000000 -0.762828 0.646601
1.405011 -0.099796 -0.133246 0.127695 0.732020 -0.669208
0.502373 -0.109505 -0.124883 0.076007 -0.760622 0.644731
0.878680 0.088822 0.039024 -0.000286 0.888532 0.457093
0.424644 0.084460 -0.047736 0.000161 0.882667 -0.468266
0.338793 -0.119764 0.156360 0.048631 0.761926 0.645836
0.373685 -0.197387 -0.213391 0.076007 -0.760622 0.644731
0.376763 0.152970 -0.161353 0.076007 0.760622 0.644731
0.440345 0.240560 0.272183 0.076007 0.760622 -0.644731
0.783430 -0.079245 -0.093489 -0.060343 -0.832685 0.550450
-0.070272 -0.062731 -0.074007 -0.000000 0.646601 0.762828
1.073009 0.090201 0.088687 0.000000 0.762828 -0.646601
1.477452 0.089558 -0.008202 0.155521 0.977610 -0.135150
0.436186 -0.222541 -0.270277 0.048631 0.761926 -0.645836
0.491408 -0.510873 0.597105 0.000000 -0.646601 0.762828
0.115687 -0.089490 -0.037466 -0.000756 -0.922084 -0.384899
1.353627 -0.165518 -0.212997 -0.000000 0.762828 -0.646601
0.299763 -0.117597 0.114403 -0.048602 -0.783709 -0.619223
1.365158 -0.138763 0.181432 -0.000000 0.762828 0.646601
1.228172 0.008626 0.096632 -0.000001 0.029653 0.998678
0.409391 0.008626 0.096632 0.000001 0.029651 0.998679
1.515430 -0.031572 -0.029582 1.000000 0.000000 0.000000
1.222206 -0.197177 -0.239267 -0.060343 0.679419 -0.731265
0.923504 -0.107679 -0.131466 -0.060343 0.679419 -0.731265
0.157575 0.139448 -0.171260 -0.031076 -0.748059 -0.662905
-1.445266 -0.066295 0.070321 -0.073960 -0.707744 0.701129
0.538896 0.082095 0.096852 0.076007 0.760622 -0.644731
0.939585 -0.059093 0.076943 -0.000120 -0.639554 0.767282
0.222218 -0.085023 0.112875 -0.031076 0.748059 0.662905
0.405016 -0.179350 0.221669 0.048631 0.761926 0.645836
0.500906 -0.506701 -0.600642 0.000000 -0.646601 -0.762828
0.289338 0.226265 -0.275406 -0.031076 -0.748059 -0.662905
1.015289 0.093694 0.126047 -0.060343 -0.679419 0.731265
0.250065 0.226178 0.255728 -0.048602 0.783709 -0.619223
0.433368 -0.368104 -0.442217 -0.007161 0.752640 -0.658150
0.532671 -0.485074 -0.571532 0.076007 -0.760622 0.644731
-1.377906 -0.054160 -0.080492 0.000482 -0.578658 -0.814368
0.394782 -0.351416 0.421577 -0.031076 0.748059 0.662905
1.008866 -0.026302 -0.093383 -0.000514 -0.293333 -0.955136
1.268190 0.185394 -0.232115 -0.060343 -0.679419 -0.731265
-1.449218 -0.071470 -0.064691 -0.075923 -0.702762 -0.706154
0.538896 -0.282194 0.332919 0.048631 0.761926 0.645836
1.098556 0.156372 0.175617 -0.060343 0.832685 -0.550450
0.340533 0.368459 -0.428703 -0.048602 0.783709 0.619223
0.027397 -0.072756 0.079029 -0.048602 -0.783709 -0.619223
0.502249 0.154880 -0.185480 0.048631 -0.761926 -0.645836
-0.905050 -0.091135 0.033266 0.000166 -0.956687 0.288494
0.449381 0.192931 0.234350 0.048631 -0.761926 0.645836
0.708947 -0.041768 -0.087565 0.000684 -0.406521 -0.912581
0.963598 0.074278 0.062410 0.000123 0.780389 0.624054
-0.442982 -0.084177 0.048233 0.000023 -0.893442 0.447520
0.338465 0.136993 0.137989 0.076007 0.760622 -0.644731
0.440294 0.142948 -0.176067 0.048631 -0.761926 -0.645836
0.730034 0.067566 0.069621 0.000234 0.665274 0.745196
0.446934 -0.084242 0.106310 0.048631 0.761926 0.645836
1.287212 -0.072692 0.103485 0.000000 0.762828 0.646601
0.458202 -0.338187 -0.405052 0.048631 0.761926 -0.645836
1.166206 0.163171 -0.178486 -0.060343 0.832685 0.550450
0.209011 0.087987 0.084051 -0.048602 0.783709 -0.619223
0.453015 -0.160441 0.179156 0.076007 -0.760622 -0.644731
-0.210674 -0.093661 0.025295 0.000326 -0.971419 0.233743
1.156863 0.080174 -0.076859 0.000000 0.762828 0.646601
1.439047 -0.157545 0.181432 0.127695 -0.780083 -0.612506
0.167593 -0.280119 0.330471 -0.048602 -0.783709 -0.619223
0.511061 -0.152639 0.176795 0.076007 -0.760622 -0.644731
0.024963 0.000000 -0.097016 -0.000001 -0.029655 -0.998678
0.511507 0.448324 0.525682 0.076007 0.760622 -0.644731
-0.978575 -0.026066 0.093449 0.000112 -0.324580 0.944906
1.264225 -0.108772 0.146051 -0.000000 0.762828 0.646601
-1.088239 0.089586 0.037237 -0.001433 0.927793 0.371653
0.303440 0.129584 -0.166967 -0.031076 -0.748059 -0.662905
0.269557 0.207923 0.231094 -0.048602 0.783709 -0.619223
0.375950 -0.065534 0.089584 0.048631 0.761926 0.645836
-0.107050 0.057493 0.078145 0.000171 0.638138 0.768775
-0.061429 -0.087625 -0.041642 0.000457 -0.913949 -0.403637
0.384314 -0.095273 0.018310 -0.001757 -0.987493 0.151429
-0.899257 -0.078763 -0.056644 0.000148 -0.792450 -0.608452
1.209011 0.080174 -0.076859 0.000000 0.762828 0.646601
0.594154 -0.033839 -0.090924 0.000495 -0.321427 -0.945975
1.315886 -0.184922 0.200435 0.000000 -0.762828 -0.646601
-0.126711 0.060065 -0.076187 -0.000059 0.656446 -0.753439
0.346860 -0.271316 0.328941 -0.031076 0.748059 0.662905
-0.753877 -0.033806 0.090936 0.000013 -0.320173 0.946429
-0.364458 0.017163 0.095486 -0.000000 0.147516 0.988172
-1.113343 -0.000000 0.097016 0.000014 -0.029571 0.998686
0.938569 0.096632 -0.008626 0.000009 0.997360 -0.059269
-1.313113 -0.073449 -0.063383 0.000260 -0.776318 -0.629005
-0.464320 -0.095486 0.017165 -0.000166 -0.988093 0.147967
-0.324529 -0.090912 0.033870 0.000061 -0.946274 0.320634
1.218195 -0.096631 0.008643 0.000015 -0.997355 0.059328
1.118329 -0.093576 0.025607 -0.000003 -0.971068 0.235087
-0.998498 0.025607 -0.093576 -0.000030 0.207242 -0.977318
0.883685 -0.017170 -0.095485 0.000051 -0.146767 -0.988308
-0.194687 -0.095481 -0.017189 0.000003 -0.988130 -0.147774
-0.119822 -0.008626 -0.096632 0.000603 -0.031914 -0.998517
0.609094 0.096632 0.008626 -0.000001 0.998677 0.029672
-0.738900 0.096632 -0.008626 0.000000 0.998677 -0.029673
0.446559 0.399523 -0.478291 -0.004502 -0.753112 -0.657588
1.248183 -0.087459 0.041989 -0.000137 -0.873115 0.485683
0.873715 -0.095483 0.017181 0.000433 -0.992050 0.118530
0.159762 -0.008626 -0.096632 0.000001 -0.029653 -0.998678
-0.644094 -0.083501 0.049394 -0.000000 -0.874678 0.482884
0.282616 -0.209028 0.231468 -0.048602 -0.783709 -0.619223
-0.654027 0.000000 -0.097016 0.000543 -0.029517 -0.998690
0.208449 -0.184513 -0.224499 -0.031076 0.748059 -0.662905
0.404708 0.133972 0.168158 0.048631 -0.761926 0.645836
-0.494272 -0.095483 -0.017182 -0.000001 -0.988141 -0.147709
0.274591 0.097016 -0.000000 0.000002 0.998677 0.029670
0.678981 -0.078717 -0.056708 -0.000037 -0.827802 -0.559447
-0.922646 -0.042801 0.087065 0.000235 -0.469836 0.881768
0.976395 0.116251 0.143795 -0.060343 -0.679419 0.731265
0.763864 0.017158 -0.095487 0.000000 0.147499 -0.988175
1.121297 -0.119753 -0.159006 -0.020159 0.736096 -0.675846
