0.313846 -0.036924 -0.080237 0.000015 -0.467157 -0.882968
-0.300927 -0.027823 0.083829 -0.000203 -0.345875 0.937142
1.421364 -0.151283 0.141979 -0.000000 -0.725702 -0.688009
0.319288 -0.374562 0.409136 0.055611 0.724579 0.686944
1.517107 0.063728 0.062879 -0.038663 0.656021 0.751994
1.002589 0.082073 0.093489 -0.084621 -0.590341 0.802706
0.455050 -0.228829 0.244428 0.055611 0.724579 0.686944
1.268505 -0.077584 -0.064243 0.000000 -0.725702 0.688009
0.424659 -0.352558 -0.365551 0.063627 -0.724232 0.686615
0.107410 -0.299861 -0.321509 -0.048579 0.704600 -0.707940
0.492885 -0.602416 0.635420 0.055611 0.724579 0.686944
-0.096654 0.057967 -0.066754 -0.000000 -0.688009 0.725702
1.304933 0.136910 0.162002 0.000000 -0.725702 0.688009
0.297806 0.060966 0.063910 -0.000233 0.668912 0.741891
-1.632709 0.046256 0.007174 -0.559998 0.806813 0.178228
0.452170 0.213133 0.228106 0.055611 -0.724579 0.686944
1.513898 -0.115366 -0.104094 0.000000 -0.725702 0.688009
1.572268 0.262040 0.269494 0.195182 0.702726 -0.684164
0.343201 -0.521802 0.540372 -0.055580 -0.746995 -0.662502
0.343201 0.521802 -0.540372 -0.055580 0.746995 0.662502
0.802014 0.066221 0.058448 0.000243 0.786379 0.616061
0.367505 0.633302 -0.664054 -0.055580 0.746995 0.662502
0.230671 -0.388651 -0.399681 -0.055580 -0.746995 0.662502
-0.387924 0.088071 0.006700 -0.000867 0.992582 0.113860
0.315151 -0.400748 -0.406233 -0.015839 -0.740349 0.671403
0.401414 -0.076712 -0.043779 0.000137 -0.893113 -0.447677
1.512590 0.055752 -0.069820 -0.038457 0.571737 -0.818099
0.931973 -0.029629 0.083208 0.000516 -0.398458 0.916002
0.250873 0.490613 -0.512952 -0.055580 0.746995 0.662502
1.434734 0.079536 0.038411 -0.000055 0.899884 0.433720
0.134516 0.083974 0.027381 -0.000082 0.935748 0.349684
-0.468516 0.083225 0.029579 0.000017 0.944728 0.324801
0.026821 -0.096147 -0.086974 -0.055580 -0.746995 0.662502
-0.066687 0.072460 0.050506 -0.000048 0.846291 0.530735
0.127134 0.128935 0.152743 -0.048579 -0.704600 0.707940
0.209401 -0.345717 -0.353056 -0.055580 -0.746995 0.662502
1.243812 0.068556 0.055690 0.001320 0.729603 0.681832
1.161242 0.014613 0.087108 -0.000368 0.220073 0.974597
0.188563 0.162128 -0.147800 -0.055580 0.746995 0.662502
0.289830 0.390755 0.397090 -0.055580 0.746995 -0.662502
0.680374 0.020111 -0.086005 -0.000160 0.277764 -0.959494
0.492885 -0.629841 -0.664347 0.063627 -0.724232 0.686615
-1.569432 0.072560 0.024494 -0.301026 0.921758 0.239023
0.259767 -0.146462 0.173358 0.055611 0.724579 0.686944
1.083006 0.018901 -0.086279 -0.000234 0.266091 -0.962831
1.208277 -0.134121 0.123878 -0.056551 -0.799777 -0.595824
1.566860 -0.047550 -0.047642 0.195182 -0.702726 0.684164
0.217320 -0.255964 -0.285361 -0.048579 0.704600 -0.707940
0.137134 -0.250832 0.252132 -0.055580 -0.746995 -0.662502
1.109122 -0.101389 0.089352 -0.056551 -0.799777 -0.595824
1.355980 0.098150 0.085935 -0.000000 0.725702 -0.688009
0.029820 -0.298102 -0.314434 -0.055580 -0.746995 0.662502
0.341867 0.441399 -0.451587 0.063627 0.724232 0.686615
0.497688 -0.080626 0.036066 0.000203 -0.899618 0.434324
1.442497 -0.180233 -0.207699 -0.000000 0.725702 -0.688009
0.283919 0.042567 -0.077391 0.000015 0.530145 -0.846678
0.318368 0.564310 -0.599186 -0.048579 -0.704600 -0.707940
0.318227 -0.570060 0.596880 -0.055580 -0.746995 -0.662502
0.716576 0.086703 -0.016853 -0.000484 0.969414 -0.241101
0.962899 0.021909 -0.085565 0.000888 0.303539 -0.951984
-0.802124 -0.010519 0.087697 -0.000664 -0.187730 0.980864
0.602455 -0.078315 -0.040842 0.000135 -0.878345 -0.475801
0.484630 -0.414259 -0.436190 0.063627 -0.724232 0.686615
0.127578 -0.410835 -0.433343 -0.055580 -0.746995 0.662502
-0.970179 0.034006 -0.081517 0.000028 0.432624 -0.900409
0.441425 0.164730 -0.168987 0.063627 0.724232 0.686615
0.363346 -0.626424 0.664093 -0.048579 0.704600 0.707940
0.075973 -0.078989 -0.039524 0.000387 -0.861824 -0.504826
1.270701 -0.146596 0.169206 -0.084621 0.590341 0.802706
0.012479 -0.268236 0.283518 -0.048579 0.704600 0.707940
0.231985 0.198907 0.185628 -0.015839 0.740349 -0.671403
1.245393 0.113455 -0.137262 -0.000000 -0.725702 -0.688009
-0.074816 0.135857 -0.145774 -0.048579 -0.704600 -0.707940
-0.240286 -0.086210 -0.019213 -0.000031 -0.959646 -0.277487
0.430588 -0.378581 0.393549 0.063627 -0.724232 -0.686615
-1.341737 -0.077350 -0.042641 -0.000039 -0.874232 -0.483431
0.492885 0.602416 -0.635420 0.063627 0.724232 0.686615
1.392801 -0.232553 -0.245294 -0.084621 0.590341 -0.802706
-0.332260 -0.061798 -0.063105 0.000110 -0.650702 -0.758007
-0.028763 -0.076880 0.043483 0.000113 -0.835572 0.547465
0.417024 0.014557 0.087117 0.001097 0.139510 0.989437
0.435094 -0.661562 -0.692451 0.063627 -0.724232 0.686615
0.710447 0.024265 0.084927 0.000120 0.276414 0.959881
0.180995 0.400770 0.426991 -0.048579 -0.704600 0.707940
0.333931 -0.446325 0.456048 -0.015839 -0.740349 -0.671403
-1.160244 -0.046416 -0.075146 0.000016 -0.525500 -0.849549
1.496727 -0.229341 0.224314 -0.056551 -0.799777 -0.595824
-0.055956 0.098412 -0.096472 -0.055580 0.746995 0.662502
0.551785 0.008341 -0.087931 0.000978 0.130580 -0.990417
-0.648838 0.081117 -0.034948 -0.000007 0.892016 -0.449658
-0.392340 0.060133 -0.064695 -0.000112 0.677894 -0.733736
0.153860 0.362763 -0.387301 -0.048579 -0.704600 -0.707940
0.432164 -0.570315 -0.595934 0.063627 -0.724232 0.686615
-0.398538 -0.078506 0.040473 0.001362 -0.865796 0.497807
0.242751 0.119847 -0.146662 0.055611 -0.724579 -0.686944
-0.043882 0.146885 0.150114 -0.055580 0.746995 -0.662502
-0.583630 0.059727 -0.065069 0.000064 0.669821 -0.741094
0.431512 0.329943 0.352987 0.055611 -0.724579 0.686944
1.543819 0.187230 0.184539 0.195182 0.702726 -0.684164
0.323277 0.198793 -0.193967 0.063627 0.724232 0.686615
0.365816 0.243460 -0.245023 0.063627 0.724232 0.686615
0.097613 0.296877 -0.317866 -0.048579 -0.704600 -0.707940
0.220588 0.306055 0.335440 -0.048579 -0.704600 0.707940
-0.295327 0.088325 -0.000000 0.002078 0.997614 -0.057331
0.218911 -0.437859 0.466506 -0.048579 0.704600 0.707940
0.095175 0.288154 0.309017 -0.048579 -0.704600 0.707940
0.421424 0.534003 0.556637 0.063627 0.724232 -0.686615
-0.024100 -0.161257 -0.174534 -0.048579 0.704600 -0.707940
1.575273 0.054212 0.031361 1.000000 0.000000 0.000000
1.181096 0.099706 0.122760 -0.000000 -0.725702 0.688009
-1.271542 -0.068134 -0.056206 0.000492 -0.804757 -0.591862
1.530172 -0.122652 0.114315 0.195182 -0.702726 -0.684164
-0.349320 0.021334 0.085710 0.000039 0.293338 0.955059
0.438473 -0.579223 0.605914 0.063627 -0.724232 -0.686615
0.060490 -0.196077 0.214995 -0.048579 0.704600 0.707940
0.355964 -0.355713 0.362513 0.063627 -0.724232 -0.686615
0.229727 0.462849 0.483421 -0.055580 0.746995 -0.662502
0.161357 -0.071290 0.052145 0.000028 -0.783909 0.619180
0.339491 0.163525 0.158269 0.063627 0.724232 -0.686615
0.170549 0.178164 0.204719 -0.048579 -0.704600 0.707940
-1.577522 -0.038860 0.062857 -0.349936 -0.496484 0.792737
-0.090280 -0.117371 -0.120729 -0.055580 -0.746995 0.662502
1.333780 -0.117825 0.141872 0.000000 0.725702 0.688009
-1.460679 0.058784 0.065922 -0.000033 0.665194 0.745263
-1.048631 -0.065828 -0.058890 -0.000078 -0.781093 -0.622754
-0.142886 0.014927 0.087055 0.000329 0.229909 0.972138
0.970691 0.080356 0.036664 -0.000255 0.912241 0.407122
-0.326795 -0.073494 0.048990 0.000907 -0.795153 0.604816
-1.460693 -0.024402 0.084887 0.000069 -0.330171 0.942812
-0.156478 0.086055 0.019896 -0.000493 0.970809 0.235331
0.430510 0.680721 0.712235 -0.009206 0.739029 -0.672697
0.430510 -0.675314 0.717361 0.044043 0.722671 0.689578
0.430510 0.675314 -0.717361 -0.011528 -0.712349 -0.701104
0.043212 0.029103 -0.083393 -0.001012 0.317378 -0.947074
1.575273 -0.059046 0.020607 1.000000 0.000000 0.000000
-1.638143 -0.026997 0.033703 -0.581955 -0.484082 0.649598
0.241781 0.309958 -0.310020 -0.055580 0.746995 0.662502
0.121664 -0.335409 0.348793 -0.055580 -0.746995 -0.662502
-1.548143 0.024099 -0.078661 -0.213946 0.350117 -0.910585
0.083164 -0.143227 -0.135331 -0.055580 -0.746995 0.662502
1.512287 -0.064665 -0.068208 -0.439468 0.618010 0.651868
0.305992 0.516696 0.537737 -0.055580 0.746995 -0.662502
1.426391 -0.025808 -0.084471 0.000236 -0.286796 -0.957052
0.032263 -0.069186 0.056118 0.000000 0.688009 -0.725702
0.352627 -0.584503 -0.621634 -0.048579 0.704600 -0.707940
0.195575 0.433515 -0.460582 -0.048579 -0.704600 -0.707940
1.329666 -0.211712 -0.223311 -0.084621 0.590341 -0.802706
0.490448 0.044020 -0.076574 0.000831 0.484674 -0.873668
0.437912 0.291234 -0.311639 0.055611 -0.724579 -0.686944
0.428335 0.176261 0.179935 0.063627 0.724232 -0.686615
1.209854 -0.007721 -0.087987 0.000845 -0.126609 -0.991012
0.661530 0.087711 0.010394 -0.000412 0.990569 0.129857
0.941468 -0.083493 -0.028815 0.000225 -0.944122 -0.326456
0.329143 0.586537 0.614543 -0.055580 0.746995 -0.662502
-0.556438 0.010577 0.087690 -0.000524 0.121925 0.991701
0.276067 -0.252652 0.246401 0.063627 -0.724232 -0.686615
0.215046 -0.511702 0.539736 -0.048579 0.704600 0.707940
-0.006196 0.256569 0.270625 -0.055580 0.746995 -0.662502
0.096707 -0.375235 -0.395793 -0.055580 -0.746995 0.662502
-0.676079 -0.031025 0.082697 0.000363 -0.324209 0.945025
-1.177634 0.067688 -0.056742 0.000079 0.795227 -0.604993
0.429863 0.378781 -0.393693 0.063627 0.724232 0.686615
0.404372 0.098104 0.095276 0.063627 0.724232 -0.686615
1.118062 0.076894 0.043459 0.000204 0.873383 0.484871
0.256130 0.236983 0.269132 -0.013845 -0.711957 0.701623
-0.638163 0.082952 0.030337 0.000009 0.936652 0.347226
0.088825 0.205470 -0.205038 -0.055580 0.746995 0.662502
0.230676 0.119454 0.147226 0.055611 -0.724579 0.686944
0.091098 -0.032049 -0.082306 -0.000076 -0.411919 -0.910052
0.421683 0.477273 0.509185 0.055611 -0.724579 0.686944
0.203337 -0.424296 -0.442165 -0.055580 -0.746995 0.662502
-0.779408 -0.088100 -0.006307 -0.001202 -0.993982 -0.102758
-0.111684 -0.047361 -0.074554 0.000069 -0.527862 -0.848080
0.418359 -0.091903 0.090032 0.063627 -0.724232 -0.686615
1.406586 -0.182018 0.209582 -0.056551 0.637596 0.766891
0.164330 0.221004 -0.246930 -0.048579 -0.704600 -0.707940
0.492885 0.314451 -0.331679 0.063627 0.724232 0.686615
0.492885 -0.499571 -0.526941 0.063627 -0.724232 0.686615
0.492885 -0.588703 -0.620956 0.063627 -0.724232 0.686615
0.492885 -0.513284 0.541405 0.055611 0.724579 0.686944
0.492885 0.513284 -0.541405 0.063627 0.724232 0.686615
0.492885 0.431009 -0.454622 0.063627 0.724232 0.686615
0.558608 0.036050 0.080634 -0.001197 0.458626 0.887493
0.606370 0.057730 -0.066848 -0.000102 0.691125 -0.721316
-0.964770 -0.083043 -0.030088 -0.000025 -0.916224 -0.398043
-0.527243 0.086190 0.019304 0.000152 0.959379 0.278271
1.003874 -0.048416 0.073873 -0.000455 -0.601498 0.797608
1.062354 -0.087612 -0.011206 0.000139 -0.989062 -0.140026
-0.037067 0.220969 0.233074 -0.055580 0.746995 -0.662502
0.830429 -0.069831 -0.054083 -0.000025 -0.755256 -0.653829
-0.022338 0.043011 0.077145 0.000013 0.443414 0.895140
1.548485 -0.191184 0.189931 0.195182 -0.702726 -0.684164
-0.278434 0.069205 0.054882 -0.000305 0.773874 0.631754
0.436662 0.577173 -0.603584 0.063627 0.724232 0.686615
0.337498 0.009159 0.087849 0.000581 0.138168 0.989248
1.596299 -0.260363 0.274627 0.195182 -0.702726 -0.684164
1.543819 -0.187230 -0.184539 0.195182 -0.702726 0.684164
0.295782 -0.471697 -0.487855 -0.055580 -0.746995 0.662502
0.664085 -0.044766 -0.076140 -0.000984 -0.456031 -0.888734
0.095643 -0.040375 0.078557 0.000296 -0.514175 0.856440
0.036747 0.264122 -0.275539 -0.055580 0.746995 0.662502
0.308877 0.471220 -0.505883 -0.048579 -0.704600 -0.707940
0.143318 -0.332571 -0.356528 -0.048579 0.704600 -0.707940
-0.028570 -0.069962 -0.083364 -0.048579 0.704600 -0.707940
-0.708791 0.015592 -0.086938 -0.000220 0.229622 -0.972253
-1.366322 -0.008950 0.087871 -0.001735 -0.155060 0.986822
1.316976 0.085721 -0.021290 -0.000053 0.954948 -0.293426
0.438828 0.584155 0.620534 0.055611 -0.724579 0.686944
0.056033 0.252403 0.270749 -0.048579 -0.704600 0.707940
-0.470517 0.008618 0.087904 0.001017 0.063025 0.996774
0.006885 -0.143691 0.142254 -0.055580 -0.746995 -0.662502
1.428117 -0.089165 0.076459 -0.000000 -0.725702 -0.688009
0.136739 0.130186 -0.154646 -0.048579 -0.704600 -0.707940
0.834888 -0.087755 0.010025 -0.000152 -0.986696 0.153552
0.270275 -0.077107 0.043080 0.000039 -0.839116 0.542047
-0.092440 0.090679 0.099600 -0.048579 -0.704600 0.707940
-0.723431 0.064455 0.060390 -0.000813 0.766740 0.640362
1.191611 0.054536 -0.069478 -0.000070 0.617811 -0.785115
0.492885 0.232176 -0.244896 0.063627 0.724232 0.686615
0.150038 -0.369610 0.393854 -0.048579 0.704600 0.707940
-1.263617 0.028909 0.083460 -0.000095 0.377689 0.924834
0.371558 -0.079983 0.037471 -0.000275 -0.929452 0.366400
1.307046 0.043977 -0.076599 0.000564 0.489678 -0.870682
0.995956 0.101551 -0.107115 -0.084621 -0.590341 -0.802706
1.425237 0.145831 0.136229 -0.000000 0.725702 -0.688009
0.202233 -0.008976 0.087868 0.000663 -0.137838 0.989289
-1.275597 0.084580 -0.025448 0.000335 0.938716 -0.341714
0.296370 0.107141 -0.128920 0.055611 -0.724579 -0.686944
0.290593 -0.100303 -0.122174 0.055611 0.724579 -0.686944
1.134398 -0.046698 0.074971 -0.000299 -0.473694 0.879505
0.905764 -0.071778 -0.075711 -0.084621 0.590341 -0.802706
-1.551239 -0.078237 -0.023054 -0.230505 -0.946989 -0.219326
0.527068 0.087725 -0.010282 0.000782 0.991988 -0.119483
1.532784 0.223677 0.253523 0.041932 -0.691462 0.717556
-0.956058 0.000000 0.088325 -0.000324 0.055295 0.997566
-0.211620 0.059594 0.065191 0.000110 0.708255 0.704452
1.596299 -0.260363 -0.274627 0.195182 -0.702726 0.684164
-0.518348 -0.037844 -0.079807 -0.001024 -0.481061 -0.875529
0.399445 -0.303740 -0.327945 0.055611 0.724579 -0.686944
0.387474 0.050231 -0.072651 -0.000026 0.613017 -0.788708
0.162494 -0.199538 -0.225438 -0.048579 0.704600 -0.707940
0.235627 0.535435 0.564769 -0.055580 0.746995 -0.662502
0.492885 -0.081337 -0.085794 0.063627 -0.724232 0.686615
0.446377 -0.300283 0.320499 0.055611 0.724579 0.686944
0.054878 0.183338 0.201931 -0.048579 -0.704600 0.707940
1.320620 -0.072832 -0.094414 0.000000 0.725702 -0.688009
0.106318 -0.223234 -0.245169 -0.048579 0.704600 -0.707940
0.315424 -0.298287 -0.328995 0.055611 0.724579 -0.686944
0.434452 -0.390877 -0.406877 0.063627 -0.724232 0.686615
1.229376 -0.087096 -0.109459 0.000000 0.725702 -0.688009
0.952853 -0.035137 -0.081036 -0.000065 -0.449751 -0.891968
-0.225249 0.000000 -0.088325 -0.003111 0.029696 -0.998632
0.492885 -0.431009 0.454622 0.055611 0.724579 0.686944
0.479182 -0.639552 0.675699 0.055611 0.724579 0.686944
0.320189 -0.438420 -0.448287 -0.055580 -0.746995 0.662502
0.219522 -0.054832 -0.069244 -0.000038 -0.661740 -0.748340
-0.523269 -0.087926 0.008393 0.000282 -0.991086 0.125861
0.365777 0.638990 0.670612 -0.055580 0.746995 -0.662502
0.333287 0.311479 -0.313754 0.063627 0.724232 0.686615
1.104187 0.137279 0.144800 -0.084621 0.833023 -0.546728
0.180955 -0.097464 -0.125113 -0.048579 0.704600 -0.707940
1.469353 -0.083342 -0.029247 0.000244 -0.960207 -0.275329
1.320926 -0.080342 0.102335 -0.000000 0.725702 0.688009
-0.144065 -0.084510 0.088189 -0.055580 -0.746995 -0.662502
-1.496522 -0.000000 -0.088353 -0.001765 -0.033775 -0.998246
0.387718 0.592345 -0.631847 -0.048579 -0.704600 -0.707940
1.455913 0.247134 0.257741 -0.084621 0.833023 -0.546728
0.122433 -0.404902 0.427085 -0.048579 0.704600 0.707940
1.245716 -0.158987 -0.155969 -0.084621 -0.833023 0.546728
-1.300505 0.031022 -0.082698 0.001192 0.401039 -0.914968
-0.105116 -0.088325 0.000000 -0.001109 -0.998646 -0.023284
-0.202732 -0.079261 0.038975 -0.000099 -0.881979 0.469024
0.718764 -0.076298 -0.044496 -0.000090 -0.833353 -0.550852
-0.603542 -0.072649 -0.050234 0.001733 -0.833754 -0.550231
0.146316 0.226148 0.223530 -0.055580 0.746995 -0.662502
0.432064 -0.477509 0.498033 0.063627 -0.724232 -0.686615
0.415455 0.085024 0.023921 0.000050 0.949868 0.309262
0.153304 -0.440502 0.464635 -0.048579 0.704600 0.707940
0.034247 0.158470 -0.156622 -0.055580 0.746995 0.662502
0.180617 -0.291226 0.317938 -0.048579 0.704600 0.707940
-0.231516 -0.028620 0.083560 0.000195 -0.385228 0.921667
1.040841 0.023786 0.085062 0.000069 0.276446 0.959937
-0.295163 -0.084673 -0.025136 0.000263 -0.953225 -0.298572
0.424585 -0.035966 -0.080671 0.000112 -0.456602 -0.888498
0.199792 0.120775 0.100232 -0.015839 0.740349 -0.671403
1.286075 -0.079954 0.037534 -0.000385 -0.899640 0.434398
-1.538138 0.081762 -0.020456 -0.157284 0.959619 -0.227973
0.483635 0.640157 -0.675977 0.055611 -0.724579 -0.686944
0.250157 0.081357 -0.034386 0.000225 0.923304 -0.381285
-1.203296 0.065201 0.059583 0.000112 0.697968 0.714663
0.450705 0.137126 0.140730 0.063627 0.724232 -0.686615
0.898578 0.067470 -0.057002 0.000040 0.726976 -0.685407
1.486645 -0.019594 -0.086125 -0.026013 -0.273727 -0.960272
-1.101539 0.041451 -0.077994 0.000005 0.513975 -0.856566
1.413823 -0.099799 -0.122858 0.000000 0.725702 -0.688009
0.438337 0.477413 -0.498513 0.063627 0.724232 0.686615
0.384534 -0.229213 0.250542 0.055611 0.724579 0.686944
1.587100 0.165469 -0.174535 0.195182 0.702726 0.684164
0.203402 0.093792 -0.072105 0.063627 0.724232 0.686615
0.431452 0.018432 -0.086381 -0.000494 0.264034 -0.963391
-1.295436 -0.064128 0.060736 -0.000003 -0.762407 0.645452
-0.111958 -0.030378 0.082937 0.000032 -0.374395 0.926125
1.275551 0.193848 -0.204468 -0.084621 -0.590341 -0.802706
-0.269200 0.074665 -0.047186 -0.000146 0.813903 -0.579204
0.204756 -0.499835 -0.527219 -0.055580 -0.746995 0.662502
-1.024803 0.086955 -0.015498 0.000085 0.982104 -0.182385
0.127197 -0.069059 -0.055065 0.000063 -0.743962 -0.666731
0.121861 0.083872 -0.027692 -0.000124 0.929306 -0.366537
0.011458 0.119576 0.135491 -0.048579 -0.704600 0.707940
1.373610 -0.140167 -0.165437 0.000000 0.725702 -0.688009
0.389863 0.352227 0.379864 0.055611 -0.724579 0.686944
0.936737 0.026530 0.084247 -0.000150 0.302016 0.952354
0.371112 0.157175 -0.175644 0.055611 -0.724579 -0.686944
-0.822963 0.084894 0.024381 -0.000205 0.959982 0.275873
0.452906 -0.265778 -0.283575 0.055611 0.724579 -0.686944
0.269956 0.207458 -0.198165 0.063627 0.724232 0.686615
-0.056879 -0.091095 0.088300 -0.055580 -0.746995 -0.662502
0.771383 -0.050588 -0.072403 -0.000114 -0.525290 -0.849688
1.403707 0.187623 -0.180310 -0.000000 0.725702 0.688009
0.313134 -0.270437 -0.268596 0.063627 -0.724232 0.686615
0.408042 0.408504 0.423022 0.063627 0.724232 -0.686615
0.338901 0.539303 0.575705 -0.048579 -0.704600 0.707940
0.074364 -0.279272 0.298749 -0.048579 0.704600 0.707940
0.112716 -0.128930 0.116732 -0.055580 -0.746995 -0.662502
0.484697 0.353286 -0.371883 0.063627 0.724232 0.686615
1.459546 0.092450 -0.079924 -0.000000 0.725702 0.688009
0.267132 0.264634 -0.258212 0.063627 0.724232 0.686615
1.297992 0.083359 0.029200 0.000118 0.922172 0.384091
-0.489775 -0.079528 -0.038427 -0.000346 -0.889912 -0.453764
0.151717 0.051193 0.071976 -0.000184 0.614369 0.787709
0.236967 -0.303721 -0.334240 -0.048579 0.704600 -0.707940
0.342261 -0.075988 -0.045025 -0.000046 -0.855057 -0.516532
1.361421 0.127068 -0.116438 0.000000 0.725702 0.688009
0.035715 -0.118364 -0.135949 -0.048579 0.704600 -0.707940
-1.150832 0.005255 0.088169 0.001994 0.115881 0.992499
0.090314 0.221236 0.222690 -0.055580 0.746995 -0.662502
1.054744 0.080005 -0.037425 0.000114 0.879027 -0.474619
-1.314082 0.085914 0.020498 -0.000132 0.972049 0.230257
0.313516 0.314719 0.315340 0.063627 0.724232 -0.686615
-1.456612 0.088325 -0.000000 0.000911 0.997541 -0.056467
-1.014404 0.079883 0.037685 0.000231 0.903617 0.425859
0.067421 0.143048 0.162692 -0.048579 -0.704600 0.707940
0.350191 -0.128217 0.146793 0.055611 0.724579 0.686944
0.387718 -0.599894 0.624689 -0.055580 -0.746995 -0.662502
0.344662 0.459520 0.496695 -0.013845 -0.711957 0.701623
0.250987 -0.168182 -0.154980 0.063627 -0.724232 0.686615
0.765848 0.000000 -0.088325 -0.001823 0.077035 -0.995793
1.464623 -0.129904 -0.119429 -0.000000 -0.725702 0.688009
1.106970 -0.078749 0.040000 0.000190 -0.873191 0.485052
0.381649 -0.161072 0.178901 0.055611 0.724579 0.686944
0.266623 -0.086491 -0.017905 -0.000029 -0.977598 -0.204660
0.171437 -0.087963 -0.007988 0.000717 -0.990005 -0.134029
0.314769 0.187545 0.212239 0.055611 -0.724579 0.686944
0.330326 0.374584 -0.380042 0.063627 0.724232 0.686615
1.581844 -0.111245 0.117339 0.195182 -0.702726 -0.684164
1.021665 -0.097531 0.097011 -0.084621 -0.833023 -0.546728
1.594328 0.240028 -0.253179 0.195182 0.702726 0.684164
1.337278 -0.201718 0.206906 -0.084621 -0.833023 -0.546728
-0.772968 -0.028648 -0.083550 -0.000611 -0.386031 -0.921213
1.575273 0.048810 -0.077772 -0.037371 0.517648 -0.853562
0.155787 0.262986 0.288127 -0.048579 -0.704600 0.707940
-0.923159 -0.060323 0.064517 0.000004 -0.681102 0.730736
-0.967592 -0.083732 0.028113 0.000001 -0.946443 0.319571
1.067784 -0.033676 -0.081653 -0.001682 -0.340369 -0.939224
-0.747239 0.016510 0.086768 0.000422 0.240956 0.969459
-1.182104 -0.038346 0.079567 0.000025 -0.483045 0.874389
1.400190 0.038197 -0.079639 0.000034 0.432622 -0.900409
1.148976 -0.037248 -0.080087 -0.000095 -0.473388 -0.879778
-0.968215 0.075345 -0.046092 -0.000006 0.819606 -0.571089
1.441260 0.116046 -0.139995 0.000000 -0.725702 -0.688009
0.492885 0.396727 0.418462 0.055611 -0.724579 0.686944
0.029982 0.083110 -0.029901 -0.000264 0.917231 -0.395939
0.220191 0.517635 -0.545994 -0.055580 0.746995 0.662502
1.444063 -0.224463 0.225032 -0.084621 -0.833023 -0.546728
-0.024349 0.208030 -0.217419 -0.055580 0.746995 0.662502
0.344253 -0.271473 0.272573 0.063627 -0.724232 -0.686615
-1.252934 -0.087802 0.009596 -0.000285 -0.983243 0.174631
-0.338986 0.026825 -0.084153 0.000295 0.350152 -0.935609
0.379801 0.603710 0.629656 -0.055580 0.746995 -0.662502
0.042891 0.110367 -0.128481 -0.048579 -0.704600 -0.707940
0.323277 -0.198793 -0.193967 0.063627 -0.724232 0.686615
0.266498 0.571035 -0.602320 -0.055580 0.746995 0.662502
-0.864275 -0.084574 0.025467 -0.000149 -0.956297 0.288641
0.993742 0.064023 -0.060847 0.000217 0.761829 -0.646301
-0.865305 0.081136 -0.034904 -0.000015 0.892318 -0.449051
-1.365951 -0.086358 0.018537 -0.000180 -0.976247 0.211752
0.251284 0.082708 0.030995 -0.000202 0.925125 0.377103
-1.242233 -0.022834 0.085323 0.000031 -0.311675 0.948974
-1.036239 -0.074339 0.047698 0.000000 -0.839857 0.540845
1.505270 -0.018190 0.087182 -0.041187 -0.130753 0.989221
-0.757848 0.084228 0.026590 -0.000460 0.932225 0.358474
0.661813 -0.009267 0.087838 -0.000942 -0.036589 0.998157
1.186523 -0.037780 0.079838 -0.000254 -0.444265 0.894827
0.189460 -0.125460 0.153560 -0.048579 0.704600 0.707940
0.266498 -0.571035 0.602320 -0.048579 0.704600 0.707940
0.836465 -0.016146 0.086837 0.000066 -0.152179 0.987422
1.373597 -0.088088 -0.006471 0.000046 -0.992291 -0.116853
0.257416 0.373871 -0.380772 -0.055580 0.746995 0.662502
0.354145 0.223865 0.247361 0.055611 -0.724579 0.686944
1.401344 0.091757 0.114375 0.000000 -0.725702 0.688009
0.115953 0.103676 0.087985 -0.055580 0.746995 -0.662502
0.759801 -0.035081 0.081060 0.000259 -0.370166 0.927960
0.197579 -0.098781 0.076828 0.063627 -0.724232 -0.686615
0.910968 0.079745 0.037974 0.000100 0.906442 0.419850
-0.116264 0.055356 0.068826 0.000063 0.616303 0.786193
0.279414 0.137928 0.125702 0.063627 0.724232 -0.686615
0.226738 -0.242270 0.234961 -0.055580 -0.746995 -0.662502
1.434338 0.214999 0.212118 -0.084621 0.833023 -0.546728
1.531550 -0.080084 0.041278 -0.039554 -0.914617 0.399862
0.437406 0.200172 -0.215630 0.055611 -0.724579 -0.686944
1.229376 0.087096 0.109459 0.000000 -0.725702 0.688009
-0.769775 -0.074794 0.046981 -0.000063 -0.848880 0.526683
1.575273 -0.028349 0.064216 1.000000 0.000000 0.000000
0.038372 0.224873 -0.242137 -0.048579 -0.704600 -0.707940
-1.528905 -0.082189 0.024550 -0.120875 -0.950678 0.280889
-0.195325 0.015762 0.086908 -0.000440 0.188773 0.980875
0.232298 0.043397 -0.076929 -0.000066 0.487942 -0.871677
0.327474 0.074561 -0.047351 0.000005 0.843215 -0.535608
0.222162 -0.115381 -0.096615 0.063627 -0.724232 0.686615
0.368839 -0.421442 -0.454573 0.055611 0.724579 -0.686944
1.450879 0.202307 -0.195800 0.000000 0.725702 0.688009
0.121739 -0.264392 -0.287190 -0.048579 0.704600 -0.707940
0.266086 0.196736 0.225875 0.055611 -0.724579 0.686944
0.358526 -0.149133 -0.168180 0.055611 0.724579 -0.686944
0.339836 0.084625 0.025297 -0.000001 0.936485 0.347679
1.182605 0.138153 -0.133994 -0.084621 0.833023 0.546728
1.212417 0.173007 0.182485 -0.084621 0.833023 -0.546728
0.432282 -0.168119 0.171713 0.063627 -0.724232 -0.686615
0.385721 0.097328 -0.092730 0.063627 0.724232 0.686615
-1.391560 0.058652 0.066040 -0.000008 0.663700 0.746579
-0.052242 0.081341 -0.034423 -0.000648 0.914803 -0.401290
0.376156 -0.504097 -0.520897 0.063627 -0.724232 0.686615
-0.042856 -0.200009 0.209927 -0.055580 -0.746995 -0.662502
1.143885 0.067502 -0.056963 0.000156 0.765731 -0.641589
0.188215 -0.139321 -0.167271 -0.048579 0.704600 -0.707940
1.490176 0.132636 -0.157494 -0.000000 -0.725702 -0.688009
0.249589 -0.326341 0.357620 -0.048579 0.704600 0.707940
0.446224 -0.527052 -0.559704 0.055611 0.724579 -0.686944
0.382126 -0.433978 0.466720 0.055611 0.724579 0.686944
0.039705 -0.116709 0.109077 -0.055580 -0.746995 -0.662502
-0.172040 0.040029 -0.078734 0.000370 0.459696 -0.886929
0.063408 -0.086683 0.016952 0.000397 -0.972771 0.227331
1.465407 -0.142210 0.167593 0.000000 0.725702 0.688009
-0.010037 0.168478 -0.182686 -0.048579 -0.704600 -0.707940
1.553790 -0.120878 -0.136005 0.195182 0.720639 -0.665270
0.604399 0.054713 0.069339 0.000043 0.662381 0.747754
1.575273 -0.089516 -0.020442 -0.033695 -0.959145 -0.277756
1.196203 -0.087309 -0.013359 0.000513 -0.989617 -0.137390
0.985474 -0.067743 -0.056676 0.000124 -0.768822 -0.637802
1.281621 0.010328 0.087719 0.000262 0.174451 0.983351
0.349474 0.115087 -0.133002 0.055611 -0.724579 -0.686944
0.585182 0.083519 -0.028739 -0.000056 0.923703 -0.380331
0.409593 -0.460109 -0.492059 0.055611 0.724579 -0.686944
1.136845 -0.116794 -0.108533 -0.084621 -0.833023 0.546728
1.539039 0.213267 -0.240411 0.195182 -0.720639 -0.665270
0.836366 0.085180 -0.023362 -0.000208 0.961038 -0.272267
0.120921 0.342977 0.357389 -0.055580 0.746995 -0.662502
0.335455 0.023753 -0.085072 0.000406 0.266374 -0.962721
-1.018709 0.008542 -0.087911 -0.000592 0.110935 -0.993010
-0.142976 -0.079766 0.037931 -0.000003 -0.887403 0.458679
0.346022 -0.187735 0.209909 0.055611 0.724579 0.686944
1.321054 0.124364 0.113586 0.000000 0.725702 -0.688009
0.243572 0.407513 -0.437997 -0.048579 -0.704600 -0.707940
0.272443 0.160777 -0.149157 0.063627 0.724232 0.686615
0.468863 0.467286 0.494832 0.055611 -0.724579 0.686944
-0.629801 0.017147 0.086645 -0.000465 0.192074 0.979832
0.391256 0.309090 -0.334251 0.055611 -0.724579 -0.686944
0.003316 0.086775 -0.102285 -0.048579 -0.704600 -0.707940
0.270280 -0.245649 -0.277128 0.055611 0.724579 -0.686944
0.060691 0.333702 -0.351984 -0.055580 0.746995 0.662502
0.256165 0.500347 0.523484 -0.055580 0.746995 -0.662502
0.065836 -0.339635 0.358242 -0.048579 0.704600 0.707940
0.199462 -0.375392 0.387349 -0.055580 -0.746995 -0.662502
1.082080 0.092462 -0.079936 -0.056551 0.799777 0.595824
0.202727 -0.219289 -0.247858 -0.048579 0.704600 -0.707940
0.190067 0.195371 -0.185157 -0.055580 0.746995 0.662502
-0.947794 -0.030294 -0.082968 0.000208 -0.342954 -0.938300
0.492885 -0.328164 -0.346143 0.063627 -0.724232 0.686615
1.004976 -0.104529 -0.110255 -0.084621 0.590341 -0.802706
-0.620067 -0.087988 0.007715 0.000829 -0.997367 0.058224
1.316446 -0.169829 0.161541 -0.056551 -0.799777 -0.595824
-1.008290 -0.014157 0.087183 0.000394 -0.215987 0.975321
1.326159 0.179288 -0.174451 -0.084621 0.833023 0.546728
1.391518 -0.077393 0.042564 0.000000 -0.875081 0.481673
0.801519 0.034269 -0.081406 -0.000246 0.427300 -0.902838
1.538404 0.178995 -0.203473 0.195182 -0.720639 -0.665270
-1.058626 0.051307 0.071895 0.000256 0.629603 0.775269
0.492885 0.362446 0.382302 0.055611 -0.724579 0.686944
0.492885 0.149900 -0.158113 0.063627 0.724232 0.686615
0.492885 0.287026 0.302751 0.055611 -0.724579 0.686944
-0.967331 0.070433 0.053297 0.000030 0.764178 0.643359
-1.641351 -0.038205 -0.014732 -0.597554 -0.756488 -0.254399
0.186497 0.285408 -0.312551 -0.048579 -0.704600 -0.707940
-1.113509 0.087954 0.008089 0.001245 0.990539 0.130307
0.859716 0.015197 -0.087008 -0.001483 0.177793 -0.982647
0.265096 0.326440 0.326648 -0.055580 0.746995 -0.662502
-1.426396 -0.066082 -0.058605 -0.000156 -0.746770 -0.663500
0.097515 0.158669 -0.180304 -0.048579 -0.704600 -0.707940
0.210912 0.371338 0.399751 -0.048579 -0.704600 0.707940
-0.921539 0.080525 0.036291 0.000311 0.911762 0.408217
0.286274 -0.195791 0.187372 0.063627 -0.724232 -0.686615
1.311628 0.205757 0.217030 -0.084621 0.833023 -0.546728
-0.494933 0.043644 -0.076789 0.000073 0.486716 -0.872341
0.093854 -0.164030 0.185388 -0.048579 0.704600 0.707940
-0.383122 -0.064078 -0.060790 -0.000864 -0.717083 -0.695819
-0.567680 -0.051236 0.071946 -0.000099 -0.631054 0.774378
0.760621 0.045447 0.075736 -0.000041 0.562052 0.825854
1.461383 -0.223927 -0.221535 -0.084621 -0.833023 0.546728
1.287516 0.089948 -0.077284 0.000000 0.725702 0.688009
1.494937 0.183321 -0.175773 -0.000000 0.725702 0.688009
0.116007 0.332668 -0.354751 -0.048579 -0.704600 -0.707940
-0.209934 0.082467 -0.031630 0.000410 0.912037 -0.407636
-0.017641 0.188159 0.201753 -0.048579 -0.704600 0.707940
1.318594 0.132412 -0.157258 0.000000 -0.725702 -0.688009
-0.703723 -0.064882 0.059930 -0.000051 -0.766435 0.640931
1.314374 -0.118161 -0.142226 -0.000000 0.725702 -0.688009
0.334352 0.273686 -0.273989 0.063627 0.724232 0.686615
0.019681 -0.219764 0.235770 -0.048579 0.704600 0.707940
1.504278 -0.182050 0.209615 -0.000000 0.725702 0.688009
1.050431 -0.024496 0.084860 0.000105 -0.249318 0.967317
-1.593443 -0.055268 -0.039142 -0.411972 -0.752414 -0.511089
-1.160191 -0.079418 -0.038654 -0.000014 -0.898369 -0.436814
-0.131366 -0.078538 -0.040412 0.000120 -0.864743 -0.500260
0.976314 -0.076375 0.044364 0.000294 -0.880030 0.472773
0.365816 -0.243460 -0.245023 0.063627 -0.724232 0.686615
0.162895 -0.176157 0.202195 -0.048579 0.704600 0.707940
0.450603 0.419250 0.445642 0.055611 -0.724579 0.686944
0.219868 0.073935 0.100087 0.055611 -0.724579 0.686944
-1.375339 0.071896 -0.051307 0.000217 0.845134 -0.532613
0.923803 -0.077733 0.081991 -0.084621 0.590341 0.802706
0.398381 -0.306416 0.314445 0.063627 -0.724232 -0.686615
1.218261 -0.088286 0.110714 -0.000000 0.725702 0.688009
0.226162 -0.408691 0.422655 -0.055580 -0.746995 -0.662502
0.324130 -0.491355 0.507642 -0.055580 -0.746995 -0.662502
-0.405449 0.000000 0.088325 -0.000119 0.057203 0.997359
0.152342 -0.163650 -0.189023 -0.048579 0.704600 -0.707940
1.404067 0.147069 -0.137535 0.000000 0.725702 0.688009
-0.062793 -0.191302 -0.201783 -0.055580 -0.746995 0.662502
0.455088 0.650875 0.683031 0.063627 0.724232 -0.686615
0.497780 -0.040411 0.078538 -0.000794 -0.513090 0.857117
1.475895 0.112630 0.136392 0.000000 -0.725702 0.688009
-1.538023 0.058105 0.061080 -0.199490 0.662118 0.720673
1.575273 0.000000 -0.051011 1.000000 -0.000000 0.000000
0.336401 -0.355470 -0.387613 0.055611 0.724579 -0.686944
-1.538028 -0.016986 0.082573 -0.156440 -0.213932 0.962964
0.595019 -0.042336 -0.077518 0.000379 -0.431526 -0.900928
0.492885 0.533853 0.563101 0.055611 -0.724579 0.686944
0.401918 -0.645621 0.685846 -0.048579 0.704600 0.707940
1.359090 -0.060018 0.080897 0.000000 0.688009 -0.725702
1.088112 -0.070872 -0.052711 0.000084 -0.832078 -0.552828
0.444549 0.251587 0.260891 0.063627 0.724232 -0.686615
1.541687 -0.218874 -0.245708 0.195182 0.720639 -0.665270
1.518351 -0.074804 0.096493 0.136638 0.724355 0.674174
1.070935 0.088040 0.007091 -0.001027 0.991170 0.126018
0.625692 -0.088325 0.000000 -0.001269 -0.996623 -0.064495
-0.886802 -0.085803 -0.020958 -0.001371 -0.965571 -0.256053
-1.118059 0.070859 0.052728 0.000293 0.802309 0.595158
-0.794335 -0.064705 -0.060122 -0.001986 -0.741782 -0.669386
0.225417 -0.188528 -0.218799 -0.048579 0.704600 -0.707940
1.536371 0.100580 -0.093413 0.195182 0.702726 0.684164
0.242974 0.165656 0.151572 0.063627 0.724232 -0.686615
0.384735 0.284811 0.290392 0.063627 0.724232 -0.686615
-0.029257 -0.087756 -0.010010 -0.001695 -0.982736 -0.178561
0.144278 -0.074920 -0.100159 -0.048579 0.704600 -0.707940
-0.074314 -0.081302 -0.091511 -0.048579 0.704600 -0.707940
-0.321016 -0.020121 -0.086003 -0.000160 -0.265752 -0.962931
1.203305 0.084880 0.024427 0.000073 0.960432 0.274624
0.256573 0.213410 -0.244233 0.055611 -0.724579 -0.686944
1.121095 0.043146 0.077070 0.000599 0.499834 0.864865
0.281933 0.588835 0.621095 -0.055580 0.746995 -0.662502
0.292673 -0.146052 0.135500 0.063627 -0.724232 -0.686615
-1.651597 0.018516 -0.027677 -0.627503 0.515882 -0.575127
0.284258 0.442625 0.456043 -0.055580 0.746995 -0.662502
1.555146 0.286145 -0.301821 -0.084621 -0.590341 -0.802706
-1.203747 0.020635 -0.085881 -0.001178 0.243060 -0.968850
1.386195 0.167770 0.159370 -0.000000 0.725702 -0.688009
0.446598 -0.544835 0.570395 0.063627 -0.724232 -0.686615
0.455157 -0.220971 -0.229581 0.063627 -0.724232 0.686615
0.017273 -0.192764 -0.196714 -0.055580 -0.746995 0.662502
-0.555154 0.067205 0.057314 0.000909 0.720121 0.692494
0.229219 0.457497 -0.486759 -0.048579 -0.704600 -0.707940
1.423282 -0.100514 0.123612 -0.000000 0.725702 0.688009
-1.157221 0.086685 -0.016944 0.000469 0.967541 -0.248590
-0.738028 0.086803 -0.016329 0.000466 0.971277 -0.233461
1.469325 -0.086125 0.019594 0.000338 -0.975169 0.215595
-1.117087 -0.024140 -0.084962 -0.000015 -0.272052 -0.961213
1.590386 -0.199360 0.210282 0.195182 -0.702726 -0.684164
0.473035 -0.358582 0.376387 0.063627 -0.724232 -0.686615
0.384680 0.439682 -0.472530 0.055611 -0.724579 -0.686944
-0.482656 -0.007998 -0.087962 -0.001486 -0.132569 -0.990092
0.087200 0.064080 -0.060787 0.000024 0.762992 -0.644792
0.445713 0.111180 -0.112899 0.063627 0.724232 0.686615
0.098406 0.010331 0.087719 -0.000367 0.168591 0.984592
1.315877 -0.019618 -0.086119 -0.000281 -0.274592 -0.960464
0.293349 0.267973 0.264163 0.063627 0.724232 -0.686615
0.106597 0.103431 -0.125950 -0.048579 -0.704600 -0.707940
1.380427 -0.122217 0.146504 0.000000 0.725702 0.688009
-0.034634 -0.159952 0.164072 -0.055580 -0.746995 -0.662502
1.429545 0.060018 0.080897 0.000000 -0.688009 -0.725702
-0.866404 -0.065810 -0.058910 0.000149 -0.692264 -0.719366
1.356724 0.220644 0.232732 -0.084621 0.833023 -0.546728
-0.495093 -0.070685 0.052963 0.000133 -0.778865 0.625531
0.445094 -0.117225 0.119218 0.063627 -0.724232 -0.686615
0.395040 -0.104162 -0.117790 0.055611 0.724579 -0.686944
0.491348 0.077044 -0.043193 -0.000619 0.900590 -0.431932
0.233403 -0.479274 0.508720 -0.048579 0.704600 0.707940
0.192705 0.341232 0.349399 -0.055580 0.746995 -0.662502
1.207156 0.043159 0.077063 -0.000828 0.536217 0.843186
1.481267 0.070857 0.092330 0.000000 -0.725702 0.688009
0.253463 -0.261300 0.293152 -0.048579 0.704600 0.707940
0.115121 -0.078562 0.059738 -0.055580 -0.746995 -0.662502
0.110523 -0.150241 -0.172809 -0.048579 0.704600 -0.707940
-0.137703 0.075242 -0.081130 -0.048579 -0.704600 -0.707940
0.866387 -0.040470 -0.078508 -0.000075 -0.461505 -0.885947
-1.261933 0.005170 -0.088174 0.000076 0.101506 -0.994072
1.539882 0.146611 0.141694 0.195182 0.702726 -0.684164
1.462095 0.230415 -0.231311 -0.084621 0.833023 0.546728
1.157424 0.086822 0.016225 0.000703 0.969810 0.239683
0.974824 0.050425 0.072517 -0.000288 0.609176 0.792027
0.448143 0.545675 -0.571424 0.063627 0.724232 0.686615
1.500365 -0.238241 -0.260816 -0.084621 0.590341 -0.802706
0.409002 0.652991 -0.682773 -0.055580 0.746995 0.662502
1.072015 0.085368 0.103231 -0.084621 -0.590341 0.802706
1.145900 -0.119783 0.111686 -0.084621 -0.833023 -0.546728
1.459796 0.167977 0.159588 -0.000000 0.725702 -0.688009
-0.304904 0.033837 0.081587 -0.000086 0.427238 0.903059
0.670022 -0.086444 0.018131 -0.000252 -0.962522 0.267392
-0.862408 0.007790 -0.087981 0.001396 0.144191 -0.988580
0.056644 0.315530 0.331834 -0.055580 0.746995 -0.662502
1.217291 -0.137097 -0.127016 -0.028344 -0.764004 0.642918
1.363304 0.082586 -0.104702 0.000000 -0.725702 -0.688009
1.239473 0.175685 -0.182378 -0.084621 0.833023 0.546728
-1.094870 -0.011923 0.087517 0.000379 -0.190418 0.980564
1.279156 -0.040506 0.078490 0.000344 -0.500550 0.864470
0.211646 0.127163 -0.108068 0.063627 0.724232 0.686615
1.238534 -0.042133 -0.077628 -0.002495 -0.520958 -0.852378
0.273998 -0.376979 -0.409694 -0.048579 0.704600 -0.707940
0.422694 0.081110 -0.034964 0.000072 0.918053 -0.393741
0.448579 -0.154631 -0.158997 0.063627 -0.724232 0.686615
0.099801 -0.217060 0.238576 -0.048579 0.704600 0.707940
1.510430 -0.243578 0.265802 -0.084621 0.590341 0.802706
0.179414 0.117217 0.144668 -0.048579 -0.704600 0.707940
-0.093587 -0.143886 0.150903 -0.055580 -0.746995 -0.662502
0.477198 0.081212 0.034727 -0.000327 0.903330 0.426536
-0.067062 -0.039150 0.079175 -0.000037 -0.469784 0.881580
-0.700015 -0.083936 -0.027496 0.000033 -0.935286 -0.350865
0.582240 -0.069943 0.053938 0.001006 -0.768434 0.638268
1.459488 -0.149674 -0.175465 0.000000 0.725702 -0.688009
-0.604150 0.018189 -0.086432 0.000013 0.253883 -0.966088
1.065735 -0.079306 0.098111 -0.084621 0.590341 0.802706
0.146735 0.123623 -0.107893 -0.055580 0.746995 0.662502
-1.076130 0.085702 -0.021365 -0.000013 0.966774 -0.251351
1.289341 -0.086909 -0.015753 -0.000273 -0.971464 -0.232671
-1.338338 -0.052144 0.071290 -0.000004 -0.588429 0.807232
0.386178 -0.366432 0.395146 0.055611 0.724579 0.686944
0.451940 -0.069788 -0.054139 -0.000080 -0.787327 -0.614836
-0.420110 0.076658 0.043873 -0.001452 0.855196 0.516355
-1.087710 -0.060745 0.064120 0.000008 -0.644286 0.763397
0.702510 0.061586 -0.063313 -0.000052 0.691999 -0.720431
0.306733 -0.089513 0.077166 0.063627 -0.724232 -0.686615
-0.202162 -0.077308 -0.042718 0.000207 -0.842168 -0.537251
0.222661 -0.083194 -0.029667 0.000094 -0.939893 -0.338408
-0.727353 -0.028076 -0.083744 0.000046 -0.335570 -0.940885
0.280275 -0.297675 0.331195 0.020884 0.718617 0.694624
1.371033 0.190428 -0.212019 -0.084621 -0.590341 -0.802706
0.057551 0.080462 0.099724 -0.048579 -0.704600 0.707940
1.588414 0.179026 0.188834 0.195182 0.702726 -0.684164
-0.420037 -0.033924 -0.081551 0.000049 -0.433301 -0.900098
0.452526 -0.402640 0.427966 0.055611 0.724579 0.686944
0.452526 0.402640 -0.427966 0.055611 -0.724579 -0.686944
0.166186 -0.130878 0.114442 -0.055580 -0.746995 -0.662502
0.450414 0.094439 0.103051 0.055611 -0.724579 0.686944
-1.512335 -0.065214 -0.058502 -0.066474 -0.778868 -0.621791
-1.417645 -0.038051 0.079709 0.000122 -0.431599 0.900899
0.340401 -0.593522 0.629771 -0.048579 0.704600 0.707940
0.340401 0.593522 -0.629771 -0.048579 -0.704600 -0.707940
-1.054004 0.007920 0.087969 -0.001572 0.136749 0.989634
0.492885 -0.170469 -0.179809 0.063627 -0.724232 0.686615
0.492885 0.074481 0.078562 0.055611 -0.724579 0.686944
-1.152969 0.050034 0.072787 0.000525 0.611974 0.789583
0.333077 0.087566 0.077555 0.063627 0.724232 -0.686615
0.050433 -0.175171 0.174095 -0.055580 -0.746995 -0.662502
0.287644 -0.221074 -0.214166 0.063627 -0.724232 0.686615
0.338530 -0.654102 0.689937 -0.048579 0.704600 0.707940
0.338530 -0.654102 -0.689937 -0.055580 -0.746995 0.662502
0.330828 -0.540314 -0.576158 -0.048579 0.704600 -0.707940
0.881024 0.087030 -0.015072 -0.001522 0.985838 -0.160913
1.572418 0.113469 0.122514 0.195182 -0.720639 0.665270
-0.888314 -0.033479 -0.081734 -0.000008 -0.425884 -0.903727
0.349474 -0.115087 -0.133002 0.055611 0.724579 -0.686944
-1.391564 0.006541 -0.088083 0.000067 0.115516 -0.992465
0.274423 -0.328204 -0.327854 -0.055580 -0.746995 0.662502
1.434996 -0.068907 -0.055255 0.000036 -0.779710 -0.624460
0.881643 -0.082654 0.031139 -0.000224 -0.912130 0.407547
1.550670 0.090440 0.008621 -0.039421 0.997741 0.031380
-0.783460 0.061224 -0.063663 -0.000136 0.733872 -0.677750
1.531672 0.118538 -0.139960 0.195182 -0.720639 -0.665270
-0.021464 0.075516 0.045811 -0.000103 0.877454 0.477451
1.164267 -0.075919 -0.097670 -0.000000 0.725702 -0.688009
-1.005918 -0.074585 -0.047311 0.000997 -0.844748 -0.533212
-1.056758 0.033300 -0.081808 0.000059 0.383175 -0.922532
-1.174597 -0.072285 0.050757 -0.000004 -0.816444 0.575585
1.014685 0.075850 0.045256 -0.000028 0.885952 0.461601
0.284364 -0.500123 -0.520864 -0.055580 -0.746995 0.662502
0.253735 -0.108266 0.092036 0.063627 -0.724232 -0.686615
0.539325 -0.082633 -0.031194 0.000341 -0.914326 -0.402310
1.339856 0.024525 0.084852 0.000377 0.332411 0.942058
0.406114 -0.272324 -0.294268 0.055611 0.724579 -0.686944
0.390155 -0.525133 0.562219 0.055611 0.724579 0.686944
0.013132 -0.230482 -0.239590 -0.055580 -0.746995 0.662502
0.569132 0.073696 0.048685 -0.000082 0.861394 0.505875
0.101830 0.369109 0.388455 -0.055580 0.746995 -0.662502
-0.339673 0.088066 -0.006757 -0.000719 0.991791 -0.121909
0.203348 0.324122 -0.329214 -0.055580 0.746995 0.662502
0.854023 0.062570 0.062341 -0.000623 0.712589 0.700237
0.014163 -0.071677 -0.051612 -0.000253 -0.802422 -0.595062
0.301426 0.509437 -0.529935 -0.055580 0.746995 0.662502
1.460716 -0.024340 0.084905 0.000222 -0.274896 0.960323
1.308826 0.179820 0.177944 -0.084621 0.833023 -0.546728
0.445238 -0.267805 0.278061 0.063627 -0.724232 -0.686615
-1.366512 0.088325 -0.000000 0.001937 0.999006 -0.025576
1.282888 0.133029 -0.122726 -0.000000 0.725702 0.688009
0.320517 0.398828 0.434632 -0.013845 -0.711957 0.701623
0.390243 0.525296 -0.562384 0.055611 -0.724579 -0.686944
-0.486921 0.087373 -0.012934 -0.001182 0.989013 -0.141562
1.374022 -0.006275 0.088102 0.000357 -0.114916 0.992585
1.092742 -0.107162 -0.121444 -0.084621 0.590341 -0.802706
0.146225 0.169564 0.159737 -0.055580 0.746995 -0.662502
0.182875 -0.249939 0.247288 -0.055580 -0.746995 -0.662502
0.370161 -0.088097 -0.006351 0.000094 -0.992739 -0.113359
0.395634 -0.596078 -0.619723 -0.015839 -0.740349 0.671403
1.417390 0.009711 0.087790 0.001849 0.161516 0.985722
0.352212 0.349970 0.356108 0.063627 0.724232 -0.686615
1.309144 -0.178599 -0.196795 -0.084621 0.590341 -0.802706
0.323199 -0.405572 0.441528 0.020884 0.718617 0.694624
1.358466 -0.050768 -0.072277 0.000142 -0.619984 -0.783291
-0.674634 0.070755 0.052869 0.000354 0.767394 0.639672
0.330614 0.400023 -0.435075 0.055611 -0.724579 -0.686944
1.154192 0.116267 -0.105046 -0.054525 0.797184 0.599183
0.161179 0.074397 -0.051178 -0.055580 0.746995 0.662502
-1.073945 -0.085981 -0.020214 -0.000164 -0.972901 -0.226606
1.546127 0.283167 0.298681 -0.084621 0.833023 -0.546728
0.492885 -0.287026 -0.302751 0.063627 -0.724232 0.686615
1.225565 0.077671 -0.042054 0.000123 0.853542 -0.519278
0.293595 -0.439810 0.473573 -0.048579 0.704600 0.707940
0.448507 0.558811 0.585314 0.063627 0.724232 -0.686615
1.065735 -0.079306 -0.098111 -0.084621 0.590341 -0.802706
-0.007625 0.009408 -0.087823 -0.000329 0.174018 -0.983440
0.073955 -0.174363 -0.194308 -0.048579 0.704600 -0.707940
-0.892246 0.023164 0.085234 0.000279 0.318643 0.946430
-0.376074 0.058906 0.065813 -0.000362 0.656764 0.752909
0.269567 -0.139164 -0.126094 0.063627 -0.724232 0.686615
0.761922 -0.086339 0.018626 0.000455 -0.969861 0.239241
0.127253 -0.115845 -0.100758 -0.055580 -0.746995 0.662502
1.510050 0.271258 -0.286119 -0.084621 -0.590341 -0.802706
1.555146 -0.286145 -0.301821 -0.084621 0.590341 -0.802706
-1.331979 0.018924 0.086274 0.000773 0.268839 0.962035
1.477985 0.077328 -0.042682 -0.013130 0.874068 -0.483401
1.103640 0.054301 -0.069662 0.000800 0.607259 -0.793034
0.401671 0.221847 0.225549 0.063627 0.724232 -0.686615
1.396571 0.192490 0.216227 -0.084621 -0.590341 0.802706
-1.442904 -0.088138 -0.005753 -0.000286 -0.993095 -0.110089
0.338530 0.654102 -0.689937 -0.055580 0.746995 0.662502
-0.092295 0.015269 -0.086995 0.000112 0.231171 -0.971871
0.212389 0.154457 0.183995 -0.048579 -0.704600 0.707940
1.576258 0.137325 -0.142534 0.195182 0.702726 0.684164
0.285316 0.000000 -0.088325 0.001111 0.053338 -0.997521
-0.100881 -0.093031 0.101362 -0.048579 0.704600 0.707940
1.174963 -0.148137 0.150389 -0.084621 -0.833023 -0.546728
0.373768 -0.047353 -0.074559 0.000199 -0.583667 -0.810677
0.312748 -0.095966 -0.084531 0.063627 -0.724232 0.686615
1.349389 0.030032 -0.083063 0.000097 0.393402 -0.918231
1.391672 0.087001 -0.015237 -0.000084 0.985159 -0.164159
0.456500 -0.477258 -0.500033 0.063627 -0.724232 0.686615
1.307344 0.081601 0.103663 -0.000000 -0.725702 0.688009
0.443265 -0.124922 -0.127167 0.063627 -0.724232 0.686615
1.263295 0.158536 0.152562 -0.084621 0.833023 -0.546728
1.147980 -0.073218 -0.049401 -0.000048 -0.832212 -0.552533
0.263712 -0.504633 0.527683 -0.055580 -0.746995 -0.662502
1.494554 -0.142468 0.132682 -0.000000 -0.725702 -0.688009
0.794586 0.068813 -0.055372 -0.000335 0.767921 -0.638414
0.244811 0.051226 0.071953 -0.000169 0.613205 0.788501
0.492885 0.143044 0.150881 0.055611 -0.724579 0.686944
0.409384 -0.200261 -0.217992 0.055611 0.724579 -0.686944
0.295304 0.165319 -0.190371 0.055611 -0.724579 -0.686944
0.952246 0.075941 -0.045104 -0.000975 0.884638 -0.464352
0.402069 0.651443 0.691651 -0.048579 -0.704600 0.707940
0.300174 -0.204547 0.231354 0.055611 0.724579 0.686944
1.500385 0.174701 0.201863 0.000000 -0.725702 0.688009
-0.929689 0.087911 -0.008543 -0.001346 0.987796 -0.149167
0.226630 -0.209486 0.198004 -0.055580 -0.746995 -0.662502
-0.397959 0.022109 -0.085513 0.002125 0.207025 -0.977019
1.102612 -0.118920 0.131132 -0.084621 0.590341 0.802706
1.249287 0.104520 -0.092655 -0.000000 0.725702 0.688009
0.088836 -0.311859 0.332175 -0.048579 0.704600 0.707940
1.245526 -0.120607 0.144806 -0.000000 0.725702 0.688009
0.169154 -0.263496 -0.289552 -0.048579 0.704600 -0.707940
1.165946 -0.145160 -0.147249 -0.084621 -0.833023 0.546728
-1.579149 -0.009788 -0.072667 -0.336745 -0.041877 -0.938664
1.535276 -0.146301 -0.168975 0.195182 0.720639 -0.665270
0.679431 -0.067695 0.056734 -0.000543 -0.788763 0.613017
0.155474 0.073288 -0.099303 -0.048579 -0.704600 -0.707940
0.187515 0.257038 -0.254903 -0.055580 0.746995 0.662502
-0.862829 -0.058167 0.066467 0.000018 -0.658004 0.751631
-1.409127 -0.084932 0.024248 0.000025 -0.942958 0.329868
-1.460716 0.058784 -0.065923 0.000010 0.665228 -0.745221
1.342201 0.154923 0.145820 0.000000 0.725702 -0.688009
1.477985 0.081595 0.033817 -0.012805 0.922505 0.382865
0.141587 0.172542 -0.163484 -0.055580 0.746995 0.662502
-0.469392 0.058993 0.065736 -0.001091 0.703330 0.709820
0.723920 0.020758 -0.085851 0.000578 0.240319 -0.969600
0.055916 -0.058599 -0.077852 -0.048579 0.704600 -0.707940
0.270923 -0.043171 -0.077056 -0.000046 -0.486807 -0.872318
-1.469353 0.019531 0.086139 -0.000257 0.274181 0.960529
0.920831 0.032295 -0.082210 0.000646 0.404213 -0.913467
0.688823 0.076723 0.043760 -0.000037 0.839535 0.541362
1.289403 -0.143335 -0.168779 -0.056551 0.637596 -0.766891
-1.424397 -0.025741 -0.084491 0.000150 -0.340577 -0.939190
-0.885713 0.051733 -0.071589 0.000013 0.632425 -0.773248
0.367922 0.106206 0.122140 0.055611 -0.724579 0.686944
1.229656 -0.078949 -0.039603 0.000085 -0.866008 -0.497991
0.207983 -0.089953 0.117946 0.055611 0.724579 0.686944
-0.811226 0.014586 -0.087112 -0.000887 0.154793 -0.986894
-1.297172 0.054127 0.069797 0.000053 0.614993 0.787210
1.409415 0.077584 -0.064243 0.000000 -0.688009 0.725702
0.019808 -0.035840 0.080727 0.000052 -0.441273 0.896312
1.348791 0.062640 0.062270 0.000085 0.707140 0.705644
1.394469 0.082752 0.069694 0.000000 0.725702 -0.688009
0.492885 -0.204751 -0.215968 0.063627 -0.724232 0.686615
-0.886843 0.061514 0.063383 -0.000165 0.651569 0.757100
0.343252 -0.060334 0.064507 -0.000810 -0.709542 0.703213
0.394232 -0.648212 -0.687898 -0.048579 0.704600 -0.707940
-0.064229 -0.085917 0.020484 0.000480 -0.964678 0.259217
0.197661 0.033553 0.081704 0.000160 0.425285 0.904203
0.518935 -0.027601 -0.083902 -0.000397 -0.312337 -0.948776
0.223937 -0.156060 -0.186382 -0.013845 0.711957 -0.701623
-1.210115 -0.087038 0.015022 0.000166 -0.984896 0.165461
0.747304 -0.068892 0.055274 -0.000164 -0.795047 0.605034
0.182875 0.249939 0.247288 -0.055580 0.746995 -0.662502
-1.495305 0.084943 -0.024372 -0.002376 0.959915 -0.276498
0.378458 0.537611 0.556461 0.063627 0.724232 -0.686615
0.185466 0.287457 0.314519 -0.048579 -0.704600 0.707940
0.264053 0.314333 -0.346661 -0.048579 -0.704600 -0.707940
0.629389 0.086413 -0.018281 -0.000500 0.963503 -0.263504
1.089639 -0.049488 0.073160 -0.000083 -0.509130 0.859630
