0.715920 0.099009 0.050707 0.000059 0.875165 0.482330
1.273501 -0.072176 -0.084644 0.000182 -0.679503 -0.732821
0.344940 -0.268199 -0.336220 -0.034926 0.753000 -0.657093
1.513907 -0.053483 -0.010381 1.000000 0.000000 -0.000000
0.307387 0.262220 0.300637 -0.056163 0.797309 -0.600953
0.398645 0.107915 -0.026987 0.000653 0.977308 -0.208206
0.292472 0.128790 -0.125004 -0.007303 0.789093 0.613170
0.863877 0.109901 -0.017192 -0.000000 0.990987 -0.128868
0.887992 0.006308 0.111059 -0.000018 0.106397 0.993802
0.912215 -0.071175 0.070916 0.000000 -0.771213 -0.636577
0.069887 0.108232 0.025687 0.000017 0.982968 0.180095
0.309935 0.079710 -0.114287 0.056218 -0.769993 -0.635571
0.229773 -0.337255 -0.407443 -0.056163 -0.797309 0.600953
0.209690 0.110904 0.008621 -0.000062 0.997995 0.051102
0.030097 -0.044218 -0.102072 0.000074 -0.443257 -0.895603
-0.094908 0.033989 0.105918 0.000028 0.280398 0.959189
0.254331 -0.304201 0.372660 -0.034926 0.753000 0.657093
0.284632 -0.017204 -0.109900 0.000003 -0.128981 -0.990972
-0.344553 -0.017190 0.109902 0.000002 -0.128872 0.990987
0.754027 0.109903 -0.017183 -0.000002 0.990992 -0.128836
0.584243 -0.017192 -0.109901 -0.000002 -0.128894 -0.990984
0.429446 0.025704 -0.108228 0.000325 0.203938 -0.978343
0.009944 0.102969 0.042086 0.000060 0.934560 0.353934
0.204914 -0.211339 -0.242708 -0.056163 -0.797309 0.600953
1.367040 0.127076 -0.138641 -0.000000 0.771213 0.636577
0.416506 0.372077 -0.459064 -0.004536 -0.759240 -0.650408
0.674623 0.102743 -0.042636 0.000515 0.913022 -0.406480
-0.925412 0.021880 -0.109065 0.000300 0.203408 -0.978390
0.019901 0.042177 0.102932 -0.000059 0.354544 0.934318
1.417770 -0.147714 -0.163643 -0.000000 -0.771213 0.636577
0.499310 0.025651 0.108240 0.000195 0.205516 0.977962
-0.114813 -0.064662 0.090513 0.000020 -0.538023 0.842135
-1.383132 -0.088369 -0.067564 0.000214 -0.794420 -0.606316
0.225543 0.109033 0.105045 -0.056163 0.797309 -0.600953
-0.032120 0.071890 -0.084887 -0.000052 0.606815 -0.794011
-0.774002 -0.109903 0.017183 0.000002 -0.990992 0.128836
0.402290 0.158869 0.177090 0.090317 0.768061 -0.633976
-0.479339 -0.025653 -0.108240 0.000121 -0.205844 -0.977885
-0.582404 0.017448 -0.109861 -0.000281 0.164580 -0.985698
1.358158 0.096872 -0.054678 -0.000098 0.891469 -0.451735
0.782534 -0.065280 0.090069 -0.000247 -0.543898 0.838346
-1.073619 -0.109895 -0.017233 0.000025 -0.990957 -0.129094
0.100805 0.194785 -0.230475 -0.056163 0.797309 0.600953
1.273144 0.028525 0.107519 -0.000077 0.259649 0.965023
1.082095 0.091547 0.063191 -0.000166 0.836100 0.547423
0.400677 -0.292678 -0.364271 0.056218 0.769993 -0.635571
0.341509 0.210046 -0.269396 -0.004536 -0.759240 -0.650408
0.312719 -0.185671 0.198578 -0.056163 -0.797309 -0.600953
-0.304780 0.081768 0.075418 0.000004 0.753078 0.656933
-1.443129 0.063821 -0.091109 -0.051736 0.616517 -0.784323
1.358348 0.224018 0.286709 0.000000 -0.771213 0.636577
-0.635366 0.091544 -0.063196 0.000133 0.798758 -0.600558
0.306237 0.409170 0.495709 -0.034926 -0.753000 0.657093
0.750968 0.075322 0.081856 -0.000026 0.690509 0.722402
-1.315363 0.094768 0.058249 0.000011 0.850014 0.525499
0.093452 0.094081 0.097553 -0.056163 0.797309 -0.600953
0.714084 0.017233 -0.109895 0.000020 0.129161 -0.990946
0.892540 -0.092945 -0.112603 -0.139906 -0.891377 0.431131
1.364733 -0.199215 0.226037 0.000000 -0.771213 -0.636577
1.411014 -0.128166 0.170584 -0.000000 0.771213 0.636577
0.909708 0.099453 -0.120487 -0.139906 -0.592266 -0.793503
-0.722067 0.056216 -0.095988 -0.000135 0.537767 -0.842300
-1.453970 -0.097922 0.051181 -0.103563 -0.858542 0.500246
0.315548 0.176030 -0.185522 -0.007303 0.789093 0.613170
0.459124 -0.382640 0.456284 0.090317 -0.768061 -0.633976
-1.008474 -0.109506 0.019555 0.000316 -0.978967 0.200764
-0.733966 0.104963 -0.036833 0.000060 0.945862 -0.322486
-0.644165 -0.017189 0.109902 0.000003 -0.128873 0.990986
0.246420 0.196174 0.218708 -0.056163 0.797309 -0.600953
-0.348273 0.027729 -0.107726 -0.000109 0.291093 -0.956011
0.249057 0.255022 -0.296538 -0.056163 0.797309 0.600953
1.298282 0.149455 -0.196376 -0.000000 -0.771213 -0.636577
0.373959 -0.418229 0.501399 -0.056163 -0.797309 -0.600953
1.278381 0.085043 -0.118341 -0.000000 -0.771213 -0.636577
0.457742 0.102675 -0.129035 0.056218 -0.769993 -0.635571
0.196540 -0.095533 0.056986 -0.000409 -0.843152 0.536560
0.333936 0.375324 -0.458396 -0.034926 -0.753000 -0.657093
0.834494 0.018481 0.109692 -0.001082 0.132826 0.990380
0.986577 0.090594 -0.064550 -0.000120 0.827401 -0.560425
-0.108247 -0.102196 0.043931 0.000291 -0.907791 0.417518
1.513907 0.058820 -0.000000 1.000000 -0.000000 -0.000000
-1.070729 -0.025057 0.108379 0.000061 -0.250895 0.967355
-0.411528 0.092511 -0.061770 -0.000774 0.843764 -0.535352
-0.179730 -0.108239 0.025656 0.000000 -0.978021 0.205276
0.077684 0.140916 0.161165 -0.056163 0.797309 -0.600953
1.391989 -0.096533 0.055274 0.000120 -0.887433 0.459646
0.374499 -0.105902 0.034039 -0.000239 -0.966372 0.254819
0.041189 -0.123502 -0.141471 -0.056163 -0.797309 0.600953
1.080751 0.135820 -0.149234 -0.000000 0.771213 0.636577
1.361725 -0.172187 -0.193293 0.000000 -0.771213 0.636577
0.459518 0.280580 -0.332695 0.090317 0.768061 0.633976
-0.396341 0.071502 0.085214 0.000105 0.665416 0.745641
0.057031 -0.055790 0.096236 -0.000331 -0.494368 0.868483
-0.589625 0.071416 0.085286 0.000068 0.601060 0.798374
0.273350 -0.133839 -0.178444 -0.034926 0.753000 -0.657093
0.277160 0.170570 -0.220739 -0.034926 -0.753000 -0.657093
-0.224711 -0.049962 -0.099387 -0.000191 -0.424616 -0.904662
0.510253 -0.256340 0.310556 0.056218 0.769993 0.635571
0.394605 0.425542 -0.519167 -0.034926 -0.753000 -0.657093
0.237287 0.154942 -0.164858 -0.056163 0.797309 0.600953
-0.275715 0.087824 -0.068271 -0.001524 0.769008 -0.638100
1.364733 0.199215 0.226037 0.000000 0.771213 -0.636577
0.492840 -0.293450 -0.357055 0.056218 0.769993 -0.635571
-1.259844 0.047267 -0.100696 -0.000277 0.422484 -0.905576
-1.223533 0.108540 -0.024351 0.000426 0.963987 -0.263438
0.510253 -0.102799 0.124541 0.056218 0.769993 0.635571
0.510253 0.326713 0.395812 0.056218 -0.769993 0.635571
-0.255669 0.047826 -0.100432 -0.000033 0.383996 -0.922674
-1.524362 0.071968 -0.060417 -0.380181 0.693760 -0.609946
0.408290 0.176829 -0.199702 0.090317 0.768061 0.633976
1.249831 -0.159262 -0.208257 -0.000000 0.771213 -0.636577
-0.566687 0.110947 -0.008035 -0.000838 0.991808 -0.122443
1.301695 0.233546 0.289687 -0.139906 -0.592266 0.793503
0.441967 -0.270691 0.333982 0.056218 0.769993 0.635571
0.469141 -0.458714 0.549875 0.090317 -0.768061 -0.633976
1.484264 -0.092252 -0.058545 0.049074 -0.819313 -0.570117
0.485935 -0.084136 0.072767 -0.000121 -0.778464 0.626635
-0.019655 -0.059145 -0.094211 -0.000149 -0.553922 -0.831761
1.167234 -0.197077 -0.238759 -0.139906 -0.891377 0.431131
0.654200 0.050013 0.099361 0.000107 0.402299 0.914786
0.406027 -0.445311 -0.534333 -0.056163 -0.797309 0.600953
1.013686 0.109901 -0.017192 -0.000002 0.990985 -0.128886
0.749021 0.008647 0.110901 0.000798 0.051782 0.997915
-1.113929 -0.099525 0.049686 0.000090 -0.905321 0.423286
0.460986 -0.134188 0.155550 0.090317 -0.768061 -0.633976
1.104287 0.102638 0.109034 0.000000 0.771213 -0.636577
1.227323 -0.219856 -0.266356 -0.139906 -0.891377 0.431131
-0.594077 -0.064834 -0.090390 -0.000018 -0.539618 -0.841115
-1.163580 -0.078007 -0.079302 -0.000196 -0.683054 -0.729411
0.062973 -0.202319 0.244006 -0.056163 -0.797309 -0.600953
0.913815 0.109902 -0.017190 0.000001 0.990989 -0.128858
0.122163 0.259894 0.314862 -0.034926 -0.753000 0.657093
0.318509 -0.419122 0.507765 -0.034926 0.753000 0.657093
0.324645 0.424098 -0.513794 -0.056163 0.797309 0.600953
0.103755 0.244967 -0.296777 -0.056163 0.797309 0.600953
1.389094 0.267489 0.312343 -0.139906 0.891377 -0.431131
-1.263330 0.083112 0.073934 0.000017 0.746874 0.663957
0.903828 -0.000000 -0.111238 -0.000025 -0.026174 -0.998971
0.229134 0.247325 0.306144 -0.034926 -0.753000 0.657093
0.406027 0.445311 0.534333 -0.056163 0.797309 -0.600953
-1.323285 0.111238 -0.000000 -0.000125 0.998968 -0.024927
-1.552102 -0.056821 -0.058046 -0.457662 -0.637111 -0.619017
0.962087 -0.048512 -0.100102 -0.000447 -0.470453 -0.881622
0.482714 0.132727 -0.163235 0.056218 -0.769993 -0.635571
0.406223 -0.085396 0.112659 0.056218 0.769993 0.635571
0.298078 -0.179242 -0.231788 -0.034926 0.753000 -0.657093
0.125646 -0.087228 -0.085453 -0.056163 -0.797309 0.600953
0.188867 0.192366 -0.241022 -0.034926 -0.753000 -0.657093
0.988822 0.049377 0.099679 -0.000530 0.422350 0.905691
1.141585 -0.071175 0.070916 -0.000000 -0.771213 -0.636577
0.176239 -0.244692 0.289638 -0.056163 -0.797309 -0.600953
0.406517 -0.241627 0.277952 0.090317 -0.768061 -0.633976
0.399613 0.125173 0.135886 0.090317 0.768061 -0.633976
0.201472 0.105298 -0.102340 -0.056163 0.797309 0.600953
0.344967 -0.131299 -0.135522 0.090317 -0.768061 0.633976
0.462487 -0.215425 0.254182 0.090317 -0.768061 -0.633976
1.297804 -0.074683 0.082440 0.000002 -0.637830 0.769308
0.367848 0.352105 0.433589 -0.034926 -0.753000 0.657093
-1.453192 -0.023679 0.107994 -0.111472 -0.237297 0.963859
-1.552063 0.080659 0.009761 -0.467547 0.863577 0.180517
-1.546234 -0.063591 0.055279 -0.470214 -0.663401 0.579450
1.148244 0.063302 -0.092002 0.000000 -0.771213 -0.636577
1.266276 -0.183149 0.206573 0.000000 -0.771213 -0.636577
1.227840 0.084031 0.117116 -0.000000 -0.771213 0.636577
1.229764 0.152827 0.169838 -0.000000 0.771213 -0.636577
0.056982 0.090879 -0.117713 -0.034926 -0.753000 -0.657093
0.324470 -0.236712 -0.299049 -0.034926 0.753000 -0.657093
1.211393 -0.056141 -0.083326 -0.000000 0.771213 -0.636577
1.061842 0.056056 -0.096081 0.000333 0.466809 -0.883758
0.565610 -0.081922 -0.075251 -0.000005 -0.751902 -0.658267
1.477070 0.090129 0.062373 0.048476 0.793732 0.605223
0.005782 0.032488 -0.106388 -0.000053 0.324476 -0.945167
-0.016298 0.100253 -0.048200 0.000059 0.921622 -0.386404
0.179948 0.256518 -0.304982 -0.056163 0.797309 0.600953
0.330036 -0.356088 0.436144 -0.034926 0.753000 0.657093
0.240779 0.310750 -0.371249 -0.056163 0.797309 0.600953
0.364444 0.193994 -0.214251 0.090317 0.768061 0.633976
0.562572 0.107978 -0.026731 -0.000454 0.976784 -0.211505
0.275669 -0.115824 -0.109372 -0.056163 -0.797309 0.600953
0.308394 0.041412 0.103242 -0.000106 0.326487 0.944594
-0.505054 0.091397 0.063407 -0.000915 0.847943 0.528845
0.247888 -0.158083 0.168035 -0.056163 -0.797309 -0.600953
0.594234 0.109896 0.017229 -0.000027 0.991173 0.127706
0.669715 0.091768 0.062869 0.000032 0.835607 0.548145
1.428392 0.260479 -0.315570 0.265205 -0.699427 -0.663678
0.450132 -0.343300 -0.407343 0.090317 -0.768061 0.633976
-1.368170 0.074701 -0.082424 -0.000038 0.673584 -0.738304
0.978435 -0.025326 0.108317 0.000306 -0.186339 0.981909
0.331882 0.194922 0.210736 0.090317 0.768061 -0.633976
1.499247 0.080861 -0.097963 0.265205 -0.699427 -0.663678
-0.055269 0.088209 0.108687 -0.034926 -0.753000 0.657093
1.385309 0.097313 0.053890 0.001259 0.867512 0.496319
0.459411 0.352713 0.420068 0.090317 0.768061 -0.633976
1.251287 -0.107511 -0.114938 -0.000000 -0.771213 0.636577
1.445990 0.133766 -0.146745 0.177658 0.784893 0.590022
1.053389 -0.069530 -0.099548 0.000000 0.771213 -0.636577
-0.079926 -0.008631 -0.110903 0.000335 -0.050788 -0.997988
0.866788 0.083183 -0.100776 -0.139906 -0.592266 -0.793503
-0.002701 0.096662 0.121168 -0.034926 -0.753000 0.657093
0.462658 0.477185 0.571329 0.000000 0.636577 0.771213
0.462658 0.477185 -0.571329 0.000854 0.787378 0.614942
1.315760 0.209399 -0.268998 -0.000000 -0.771213 -0.636577
0.407998 -0.178962 0.202245 0.090317 -0.768061 -0.633976
-1.323285 0.000000 -0.111238 0.001260 -0.025375 -0.999271
1.513907 -0.048029 0.096550 0.046901 -0.507585 0.859540
0.251968 -0.097746 -0.053100 -0.000625 -0.864659 -0.501035
1.312509 -0.030166 -0.107070 0.000158 -0.275327 -0.960644
1.068582 0.108223 -0.025725 -0.000333 0.978179 -0.204630
-0.197716 -0.092804 -0.061329 0.000785 -0.820991 -0.569751
0.302881 0.315092 0.371206 -0.056163 0.797309 -0.600953
0.463950 0.214299 -0.253027 0.090317 0.768061 0.633976
0.118197 -0.176114 -0.204077 -0.056163 -0.797309 0.600953
-1.571594 0.023718 0.065552 -0.531894 0.292160 0.792912
0.236338 0.068411 -0.087770 -0.000000 -0.636577 0.771213
1.468512 -0.013471 0.109190 0.046616 -0.121874 0.990741
0.448581 -0.282581 -0.333561 0.090317 -0.768061 0.633976
1.161230 0.132314 0.144986 -0.000000 0.771213 -0.636577
0.996218 0.107990 0.026686 -0.000177 0.956480 0.289450
1.157374 -0.103863 -0.110518 -0.000000 -0.771213 0.636577
-0.248312 -0.041678 0.103135 -0.000185 -0.351646 0.935466
-0.497028 0.102111 -0.044128 -0.000282 0.922580 -0.383756
0.488342 0.204322 0.244414 0.090317 0.768061 -0.633976
0.285712 -0.110224 0.152039 -0.034926 0.753000 0.657093
0.203394 -0.207801 0.238155 -0.056163 -0.797309 -0.600953
-1.341783 -0.038799 0.104252 0.000503 -0.345967 0.937647
-0.453993 -0.109578 0.019144 0.000405 -0.988968 0.142073
-0.134698 0.092136 0.062328 -0.001076 0.841694 0.539017
1.147872 -0.106228 0.033007 -0.000479 -0.937547 0.345694
1.261256 0.071175 0.070916 0.000000 -0.636577 -0.771213
-0.320447 -0.068468 0.087670 -0.001065 -0.658845 0.751192
0.332533 0.127664 -0.170385 0.056218 -0.769993 -0.635571
1.240587 0.206997 0.235465 -0.047086 0.816624 -0.571535
-1.466418 -0.099014 -0.045727 -0.108791 -0.900223 -0.419318
0.015091 -0.137689 0.169128 -0.034926 0.753000 0.657093
-1.383544 0.108622 -0.023982 0.000043 0.965241 -0.259029
1.280223 -0.128229 -0.170661 -0.000000 0.771213 -0.636577
-0.033782 -0.095404 0.111199 -0.056163 -0.797309 -0.600953
-0.588730 0.098927 -0.050866 -0.001202 0.893664 -0.447496
0.463834 -0.200465 -0.236250 0.090317 -0.768061 0.633976
1.334162 -0.087102 0.120836 0.000000 0.771213 0.636577
1.371732 0.158746 0.177008 -0.000000 0.771213 -0.636577
-0.179805 -0.008621 -0.110904 0.000205 -0.051998 -0.997995
0.305000 -0.288815 -0.357721 -0.034926 0.753000 -0.657093
1.018433 0.089278 0.066358 -0.000356 0.783304 0.620683
0.461036 -0.304580 0.373351 0.056218 0.769993 0.635571
0.426795 0.089260 0.066382 0.000091 0.786005 0.617173
1.094225 0.152418 -0.192553 -0.139906 -0.592266 -0.793503
0.346647 0.072700 0.084230 -0.000000 -0.636577 -0.771213
0.325948 0.132129 0.133818 0.090317 0.768061 -0.633976
0.381975 0.039120 -0.104132 0.000343 0.338232 -0.940531
0.664195 -0.049954 -0.099390 0.000025 -0.401978 -0.914918
-0.513200 -0.089609 -0.065910 -0.000507 -0.770326 -0.636408
1.032854 -0.123112 -0.159859 -0.139906 0.592266 -0.793503
1.513907 0.048029 0.096550 0.049870 0.474558 0.878341
-1.159449 0.005228 -0.111115 0.000314 0.032664 -0.999075
0.194016 -0.118541 -0.156696 -0.034926 0.753000 -0.657093
-0.594222 -0.109895 0.017235 -0.000241 -0.990612 0.131268
1.452842 -0.076542 -0.108042 -0.000000 0.771213 -0.636577
0.494597 -0.233941 -0.281189 0.090317 -0.768061 0.633976
-0.639179 0.108236 0.025670 -0.000467 0.982475 0.182288
1.211393 0.071175 -0.070916 -0.000000 -0.636577 0.771213
0.340811 -0.164544 -0.214332 0.056218 0.769993 -0.635571
0.276764 0.270420 -0.335141 -0.034926 -0.753000 -0.657093
0.404464 0.051590 0.098551 0.000240 0.506358 0.861501
-0.434491 0.049983 0.099376 -0.000917 0.425846 0.904040
0.499673 0.188410 -0.229195 0.056218 -0.769993 -0.635571
0.823932 0.109901 0.017194 -0.000592 0.990951 0.129093
0.937175 0.089955 -0.065437 0.000220 0.794085 -0.606724
0.150961 0.103620 -0.137308 -0.034926 -0.753000 -0.657093
1.415831 0.063658 -0.077121 -0.000000 -0.636577 0.771213
1.120634 -0.100443 -0.047803 0.000070 -0.879745 -0.473561
1.513907 -0.010314 -0.053017 1.000000 -0.000000 0.000000
-0.579225 0.025673 0.108235 -0.000010 0.205335 0.978008
0.155138 0.005723 -0.111091 -0.000952 0.097255 -0.994748
0.417709 -0.355348 -0.438689 0.056218 0.769993 -0.635571
-0.679118 -0.108226 -0.025710 -0.000003 -0.982928 -0.180308
-0.079936 -0.025653 0.108240 -0.000002 -0.205272 0.978021
-1.008685 -0.008647 -0.110901 0.000636 -0.052993 -0.997912
0.284631 -0.111238 -0.000000 0.000015 -0.998996 -0.025853
0.239664 -0.025680 -0.108233 -0.000164 -0.205176 -0.978047
-1.373220 0.000000 -0.111238 -0.000276 -0.047892 -0.998259
0.941456 0.106728 0.031354 0.000016 0.949769 0.310836
1.075147 -0.150244 0.171812 -0.139906 -0.891377 -0.431131
0.315615 -0.075511 -0.108698 0.056218 0.769993 -0.635571
0.865811 -0.079422 -0.077885 0.000020 -0.698059 -0.715129
0.248338 0.094239 0.059101 -0.000010 0.831614 0.554148
-1.109298 0.071112 -0.085540 -0.000054 0.674610 -0.737313
-0.800197 0.043086 -0.102555 0.000041 0.349573 -0.936199
1.326466 -0.124625 -0.166295 0.000000 0.771213 -0.636577
-0.669189 -0.057584 -0.095173 0.000245 -0.495320 -0.867924
0.484372 0.111238 0.000000 -0.000161 0.998993 -0.025607
0.293615 0.209675 0.232210 -0.056163 0.797309 -0.600953
0.284528 0.135356 0.180776 -0.034926 -0.753000 0.657093
0.194748 -0.000000 0.111238 -0.000002 -0.025841 0.998997
0.314592 0.109902 0.017189 0.000002 0.990985 0.128883
0.382056 0.140404 -0.151836 0.090317 0.768061 0.633976
1.003032 -0.091910 0.062661 -0.000229 -0.850053 0.525436
0.089850 -0.008627 -0.110903 -0.000376 -0.052946 -0.997989
1.433644 -0.165061 0.184660 0.089256 -0.780559 -0.615229
-0.379545 -0.108239 -0.025658 -0.000011 -0.978019 -0.205280
0.325446 -0.133206 -0.177725 0.056218 0.769993 -0.635571
0.374515 -0.017190 0.109902 0.000000 -0.128855 0.990989
0.819957 0.068353 0.087760 -0.000049 0.629528 0.776156
0.054855 -0.079582 -0.077721 0.000033 -0.695893 -0.717220
-0.634754 0.016899 -0.109947 0.000460 0.199337 -0.979237
1.193393 -0.129916 -0.142081 -0.000000 -0.771213 0.636577
-0.051357 0.100688 0.047284 -0.000040 0.883034 0.468108
-0.780298 -0.069660 0.086726 -0.000469 -0.588698 0.807699
0.758695 -0.026135 -0.108124 -0.000339 -0.256996 -0.965728
-1.457472 0.024144 -0.107472 -0.100085 0.160075 -0.980971
-0.165230 0.072494 -0.084372 -0.000117 0.642735 -0.765116
1.332254 -0.041799 0.103086 -0.000094 -0.376648 0.925662
0.509875 -0.088625 -0.067228 -0.000088 -0.812940 -0.581093
-0.559270 -0.025706 -0.108227 -0.000003 -0.205576 -0.977956
0.379867 -0.468880 0.568048 -0.034926 0.753000 0.657093
0.521459 0.082970 -0.074094 -0.000205 0.778565 -0.626465
0.892540 0.092945 0.112603 -0.139906 -0.592266 0.793503
1.003699 -0.000000 -0.111238 -0.000050 -0.022880 -0.999346
-0.197747 -0.086668 0.069732 -0.000168 -0.793807 0.607095
0.316888 0.325846 -0.400789 -0.034926 -0.753000 -0.657093
-0.264657 -0.000000 0.111238 -0.000000 -0.025832 0.998998
0.099908 -0.008621 0.110903 0.000000 -0.051668 0.997995
0.070920 -0.170354 -0.209529 -0.034926 0.753000 -0.657093
1.394175 -0.203339 -0.231033 0.000000 -0.771213 0.636577
0.719872 0.101551 -0.045402 -0.000094 0.887571 -0.458902
-0.789067 -0.083937 -0.072997 -0.000006 -0.736775 -0.675145
-0.270479 -0.102558 0.043078 0.000362 -0.932424 0.359248
0.136623 0.100965 -0.046691 -0.000360 0.893702 -0.447430
0.488739 0.245486 -0.294341 0.090317 0.768061 0.633976
1.339604 -0.172792 0.194026 -0.000000 -0.771213 -0.636577
0.199655 -0.102967 -0.042091 0.000246 -0.934268 -0.354662
0.396085 0.345741 -0.427798 -0.034926 -0.753000 -0.657093
0.950543 -0.082011 0.114669 -0.047086 0.715957 0.693494
-0.564610 0.064266 -0.090795 -0.000233 0.586617 -0.809074
0.428017 -0.094992 -0.057884 0.000162 -0.838203 -0.544085
0.256196 -0.165258 0.213537 -0.034926 0.753000 0.657093
-0.670579 0.108319 -0.025316 0.000026 0.963119 -0.266691
0.263286 0.374339 -0.453511 -0.056163 0.797309 0.600953
0.161807 0.120085 0.125665 -0.056163 0.797309 -0.600953
0.751638 -0.092410 0.061921 0.000188 -0.859039 0.510310
0.468752 -0.128867 -0.150210 0.090317 -0.768061 0.633976
0.413911 0.389128 0.478465 -0.034926 -0.753000 0.657093
-1.611830 -0.000000 0.037314 -0.714255 0.066934 0.689977
0.510253 0.397086 -0.481069 0.090317 0.768061 0.633976
1.205739 0.041012 0.103402 0.000250 0.402731 0.914622
0.315482 -0.266344 0.332527 -0.034926 0.753000 0.657093
-0.677197 0.093942 0.059571 -0.000239 0.856338 0.514931
0.130618 -0.241502 0.289670 -0.056163 -0.797309 -0.600953
1.377193 -0.094590 0.099284 0.000000 -0.771213 -0.636577
-0.412317 -0.067797 0.088190 0.000913 -0.638847 0.768259
-0.460154 -0.101393 -0.045753 -0.000752 -0.922218 -0.384834
0.824856 -0.064732 0.076235 -0.139906 -0.891377 -0.431131
1.287122 0.010009 -0.110787 0.000486 0.098097 -0.994646
0.917201 -0.063658 -0.077121 0.000000 0.636577 0.771213
-1.392286 -0.078254 0.079058 -0.000018 -0.734767 0.677366
-0.192558 0.100517 -0.047647 0.000218 0.890446 -0.453661
0.838895 -0.008644 -0.110902 0.000006 -0.051780 -0.997986
1.258219 -0.126400 0.137821 0.000000 -0.771213 -0.636577
0.123130 -0.133728 -0.147381 -0.056163 -0.797309 0.600953
1.448459 0.112472 0.151572 0.177658 -0.728094 0.658834
1.306423 0.089037 0.066681 0.000168 0.799475 0.599550
0.242028 0.118749 0.159487 -0.034926 -0.753000 0.657093
1.445495 -0.217123 0.263044 0.265205 0.699427 0.663678
1.417149 -0.051330 -0.098687 -0.000028 -0.461180 -0.886584
0.047129 0.090346 0.116578 -0.034926 -0.753000 0.657093
-0.574360 -0.064755 0.090447 0.000016 -0.560307 0.827474
-0.249693 0.110902 0.008644 -0.000023 0.997986 0.052506
0.255875 -0.173431 -0.187651 -0.056163 -0.797309 0.600953
0.349015 -0.207795 0.228773 0.090317 -0.768061 -0.633976
0.467326 -0.395085 -0.482442 0.056218 0.769993 -0.635571
1.354601 0.137250 -0.181590 0.000000 -0.771213 -0.636577
0.974353 -0.093465 -0.060318 -0.001067 -0.841147 -0.539485
1.315815 -0.099940 0.048846 -0.000459 -0.915958 0.399528
-1.517544 0.094600 -0.019108 -0.356184 0.908737 -0.212096
0.454162 -0.051288 0.098709 -0.000034 -0.491873 0.869898
1.121157 0.161723 0.180615 -0.050444 0.819457 -0.566562
0.483490 0.149698 0.183726 0.056218 -0.769993 0.635571
0.436698 0.415701 -0.510128 -0.004536 -0.759240 -0.650408
1.492825 -0.107193 0.018919 0.048298 -0.983406 0.171380
-1.400572 0.024137 0.108588 -0.000100 0.214368 0.976086
1.005441 0.098356 -0.103847 -0.000000 0.771213 0.636577
0.002165 0.091787 -0.115840 -0.034926 -0.753000 -0.657093
-0.236581 0.103559 -0.040612 -0.000281 0.922004 -0.385489
-1.559109 0.035905 -0.068513 -0.503158 0.461283 -0.728488
1.262766 0.151540 0.198902 -0.000000 -0.771213 0.636577
1.314360 -0.123805 0.134678 0.000000 -0.771213 -0.636577
0.373731 0.463904 0.562020 -0.034926 -0.753000 0.657093
0.106636 -0.206490 0.245458 -0.056163 -0.797309 -0.600953
0.510253 -0.173172 0.209798 0.056218 0.769993 0.635571
1.421856 0.172573 -0.193760 0.000000 0.771213 0.636577
0.463460 0.241050 0.285366 0.090317 0.768061 -0.633976
0.174821 0.283430 -0.341166 -0.056163 0.797309 0.600953
1.177682 -0.129384 0.141437 -0.000000 -0.771213 -0.636577
1.393942 -0.227865 0.291370 0.000000 0.771213 0.636577
1.415176 -0.191457 0.216639 0.000000 -0.771213 -0.636577
0.191313 -0.111435 -0.111432 -0.056163 -0.797309 0.600953
1.323255 -0.074684 -0.105792 0.000000 0.771213 -0.636577
1.126355 0.103370 -0.041092 -0.000593 0.919694 -0.390868
0.250121 -0.261740 -0.305352 -0.056163 -0.797309 0.600953
-0.286006 -0.098790 -0.051132 -0.000568 -0.861921 -0.505566
-1.143505 0.017214 0.109898 0.000092 0.103499 0.993947
-0.389463 -0.042347 -0.102862 0.000216 -0.405501 -0.913357
0.350784 0.156249 0.203401 0.056218 -0.769993 0.635571
1.073587 0.102264 -0.108581 0.000000 0.771213 0.636577
0.376358 -0.321935 0.373418 -0.056163 -0.797309 -0.600953
-0.134337 -0.034856 -0.105636 0.000496 -0.285275 -0.957632
1.038748 -0.108985 -0.022276 0.000454 -0.980032 -0.195495
0.405273 0.246453 -0.307863 0.056218 -0.769993 -0.635571
0.504341 -0.109900 -0.017199 0.000001 -0.990978 -0.128937
0.164749 0.105921 0.033979 0.000000 0.966082 0.255625
1.397812 -0.257052 -0.324178 -0.003826 0.638734 -0.762352
-0.299605 0.108232 0.025684 0.000074 0.977716 0.206562
0.238633 0.126470 -0.126957 -0.056163 0.797309 0.600953
1.228245 0.104240 0.038831 0.000052 0.936346 0.349169
0.024933 -0.105920 0.033984 0.000270 -0.958894 0.281344
-0.535513 -0.091302 0.063545 -0.000645 -0.802665 0.595278
-1.171809 -0.033969 0.105924 0.000323 -0.278155 0.959875
0.429446 -0.025704 -0.108228 0.000007 -0.205634 -0.977943
-0.309561 0.008621 0.110904 -0.000000 0.051665 0.997995
0.124785 0.049983 0.099376 -0.000039 0.425523 0.904207
0.139083 0.176695 0.220419 -0.034926 -0.753000 0.657093
0.445432 0.286036 0.352266 0.056218 -0.769993 0.635571
-0.164786 -0.000000 0.111238 0.000000 -0.025834 0.998997
-0.384502 -0.000000 -0.111238 0.000153 -0.026362 -0.998993
-1.508947 -0.097138 -0.021135 -0.284107 -0.936170 -0.203548
-0.679140 -0.042099 0.102964 0.000008 -0.354137 0.934475
-0.729021 0.102970 0.042083 0.000485 0.934284 0.354599
-0.980264 -0.030539 0.106964 -0.000044 -0.302331 0.952535
0.340122 0.244578 0.274171 -0.056163 0.797309 -0.600953
0.519289 -0.008621 -0.110904 -0.000000 -0.051666 -0.997995
1.316088 0.023251 0.108781 -0.000107 0.250977 0.967297
1.129389 -0.157572 0.175587 0.000000 -0.771213 -0.636577
-0.803967 0.017234 0.109895 -0.000478 0.129958 0.990820
0.474348 0.034037 -0.105903 0.000092 0.280174 -0.959270
0.454411 -0.000000 0.111238 0.000001 -0.025851 0.998996
0.065777 0.139229 -0.160039 -0.056163 0.797309 0.600953
0.539493 -0.110952 0.007967 -0.000532 -0.994168 0.101735
-1.375619 0.091567 0.063162 -0.000039 0.847832 0.529002
-0.044911 -0.109898 -0.017215 0.000008 -0.990975 -0.128955
0.699056 -0.108239 -0.025655 -0.000002 -0.978020 -0.205277
0.510253 -0.358701 -0.434565 0.056218 0.769993 -0.635571
0.654228 0.049940 -0.099398 0.001134 0.400680 -0.915518
1.201803 -0.107380 -0.029043 -0.000885 -0.949892 -0.310114
-0.868958 0.102027 0.044321 0.000713 0.894635 0.445083
0.492840 0.293450 -0.357055 0.056218 -0.769993 -0.635571
-0.437756 0.057555 -0.095191 0.000168 0.479616 -0.876711
0.297104 -0.294888 0.364261 -0.034926 0.753000 0.657093
-1.242863 -0.025804 0.108204 0.000682 -0.230437 0.972333
-1.092974 -0.067506 -0.088413 -0.000578 -0.644374 -0.763778
0.665932 -0.100614 0.047442 -0.000136 -0.896693 0.441154
-0.254543 0.070696 0.085884 -0.000212 0.674832 0.737060
-0.219629 0.102967 0.042091 -0.000448 0.933317 0.357022
-1.208486 -0.071313 -0.085372 0.000000 -0.673124 -0.738624
0.714373 -0.077773 -0.079531 0.000244 -0.660542 -0.749919
-1.300248 -0.035783 -0.105326 -0.000026 -0.322478 -0.945907
0.062524 0.045268 -0.101611 0.000068 0.400891 -0.915417
0.464398 -0.111238 -0.000000 0.000093 -0.998994 -0.025684
-0.777299 0.106009 -0.033703 0.000062 0.955293 -0.293425
-0.624204 -0.098434 0.051815 0.000136 -0.858951 0.510763
-0.424439 -0.064507 -0.090624 -0.000103 -0.558584 -0.828663
1.374751 -0.037108 0.104866 -0.000033 -0.335366 0.941439
1.282036 0.218084 0.248897 -0.000000 0.771213 -0.636577
-0.454390 0.105700 0.034663 0.000368 0.932900 0.358202
1.456404 -0.124711 -0.161295 0.265205 0.699427 -0.663678
-0.555418 0.089013 0.066712 0.000217 0.782970 0.621047
1.153899 0.103299 0.041270 0.000279 0.921567 0.386514
0.238743 0.354436 0.429398 -0.034926 -0.753000 0.657093
1.400541 0.099016 -0.050693 -0.000092 0.867641 -0.495873
-0.367392 -0.095431 0.057156 -0.000176 -0.870956 0.490140
0.461601 0.373958 -0.446119 0.090317 0.768061 0.633976
1.351486 0.249037 -0.286397 -0.093722 0.856679 0.503053
0.300108 -0.070163 0.086320 0.000282 -0.644706 0.763526
1.137903 -0.145476 -0.191556 0.000000 0.771213 -0.636577
0.373275 -0.050261 -0.099236 0.000044 -0.427919 -0.903028
0.634183 -0.109902 -0.017191 -0.000010 -0.990990 -0.128851
0.944045 -0.112470 -0.136257 -0.139906 -0.891377 0.431131
-0.101753 0.105773 -0.034438 0.001604 0.955589 -0.292686
0.064684 0.098823 -0.051067 0.000005 0.910318 -0.412327
1.209612 -0.136227 0.180351 0.000000 0.771213 0.636577
-0.129794 -0.110904 0.008621 0.000000 -0.997995 0.051665
0.299113 0.233686 -0.263553 -0.056163 0.797309 0.600953
0.510253 0.262738 0.318306 0.056218 -0.769993 0.635571
-1.343587 -0.078589 -0.078726 -0.000968 -0.731012 -0.681653
1.367040 0.127076 0.138641 -0.000000 0.771213 -0.636577
0.805572 0.044799 -0.101818 0.000053 0.447913 -0.893280
0.882823 0.086865 0.069487 -0.000292 0.745857 0.665090
0.474620 0.077725 0.079579 0.000104 0.659692 0.750689
-1.033660 -0.000000 0.111238 0.000267 -0.025901 0.998980
0.231080 0.312107 0.373955 -0.056163 0.797309 -0.600953
-1.367442 -0.111095 -0.005633 -0.000142 -0.995308 -0.091846
0.783022 -0.097411 -0.053712 -0.000017 -0.884005 -0.466445
0.309923 -0.326958 -0.386290 -0.056163 -0.797309 0.600953
1.397812 -0.257052 0.324178 0.131211 0.674454 0.719077
0.195163 0.139949 0.181290 -0.034926 -0.753000 0.657093
-1.203070 0.092698 0.061489 0.000058 0.807043 0.589261
-1.510285 -0.045521 -0.087893 -0.316177 -0.489428 -0.811260
0.164086 -0.093481 0.090156 -0.056163 -0.797309 -0.600953
0.093234 -0.124300 0.157939 -0.034926 0.753000 0.657093
0.194051 -0.267620 -0.318393 -0.056163 -0.797309 0.600953
1.346023 0.063658 -0.077121 -0.000000 -0.636577 0.771213
-1.537156 -0.032913 0.082243 -0.415577 -0.390613 0.819987
0.299573 0.108236 -0.025670 0.000248 0.978177 -0.204622
0.410814 -0.327126 0.405108 0.056218 0.769993 0.635571
0.635174 -0.055490 0.096409 0.000189 -0.527532 0.848760
0.366550 0.098358 -0.051957 -0.000323 0.889467 -0.455851
1.180872 0.169326 0.220450 -0.093722 -0.656308 0.745802
1.415757 0.154750 0.172167 -0.000000 0.771213 -0.636577
-1.032042 0.098969 -0.050784 -0.000640 0.868200 -0.495034
0.176299 0.225089 0.277854 -0.034926 -0.753000 0.657093
0.035699 0.149906 0.177017 -0.056163 0.797309 -0.600953
1.314960 -0.193308 -0.218880 0.000000 -0.771213 0.636577
-0.802815 -0.098746 0.051216 0.000691 -0.858728 0.510717
1.259992 0.183991 -0.238217 -0.000000 -0.771213 -0.636577
1.257734 0.112948 0.121525 0.000000 0.771213 -0.636577
0.538542 -0.035822 0.105312 0.000345 -0.339368 0.939944
0.510253 -0.173172 -0.209798 0.056218 0.769993 -0.635571
1.256270 -0.063658 0.077121 -0.000000 0.636577 -0.771213
0.338733 -0.084945 0.118082 0.056218 0.769993 0.635571
1.360586 -0.130201 0.173050 -0.000000 0.771213 0.636577
-0.009318 -0.108821 -0.134750 -0.034926 0.753000 -0.657093
0.276902 0.061660 -0.092585 -0.000082 0.560808 -0.827145
0.295138 0.110636 0.103390 0.090317 0.768061 -0.633976
0.208401 -0.069536 0.086841 -0.000000 0.636577 -0.771213
0.059111 -0.176991 0.210762 -0.056163 -0.797309 -0.600953
0.485896 0.453868 -0.546390 0.090317 0.768061 0.633976
1.367150 0.042427 0.102829 -0.000143 0.337717 0.940568
1.201984 0.108735 -0.023467 0.000387 0.970206 -0.240418
0.269991 0.253747 0.315674 -0.034926 -0.753000 0.657093
0.918842 -0.110903 -0.008627 0.000411 -0.998050 -0.047772
0.364390 0.100030 0.134088 0.056218 -0.769993 0.635571
-0.719101 0.015648 -0.110132 -0.000853 0.183246 -0.982469
0.016484 -0.046256 0.101165 0.000672 -0.457747 0.888343
1.161056 0.133249 -0.146119 -0.000000 0.771213 0.636577
-1.202555 0.092130 -0.062338 0.000482 0.838326 -0.543727
0.410029 0.207805 0.237477 0.090317 0.768061 -0.633976
0.056982 -0.090879 -0.117713 -0.034926 0.753000 -0.657093
1.235913 0.106868 -0.144783 -0.000000 -0.771213 -0.636577
-0.727235 0.050090 0.099322 0.000421 0.472700 0.880482
1.334364 -0.117242 -0.126727 -0.000000 -0.771213 0.636577
0.580387 0.096326 0.055634 -0.000501 0.877858 0.477634
0.408667 -0.121293 0.132474 0.090317 -0.768061 -0.633976
0.251060 -0.255104 0.296460 -0.056163 -0.797309 -0.600953
1.168571 0.061568 0.089901 0.000000 -0.771213 0.636577
-0.442696 0.104527 -0.038053 0.000159 0.921925 -0.385771
1.279796 0.111032 -0.006775 -0.001365 0.995628 -0.087511
0.485052 0.105868 0.124669 0.090317 0.768061 -0.633976
1.067495 -0.038267 0.104449 -0.000089 -0.382841 0.923143
-0.857994 -0.027660 -0.107744 -0.000163 -0.301628 -0.952583
0.408433 -0.233384 -0.291751 0.056218 0.769993 -0.635571
0.349019 -0.400421 -0.487957 -0.034926 0.753000 -0.657093
1.313165 -0.252398 -0.305779 -0.139906 -0.891377 0.431131
0.150076 0.054183 -0.097150 -0.000050 0.492829 -0.869411
1.292593 -0.218693 0.249635 0.000000 -0.771213 -0.636577
0.262017 -0.108340 -0.148620 -0.034926 0.753000 -0.657093
0.353669 -0.275458 0.313875 -0.056163 -0.797309 -0.600953
0.482336 0.338040 -0.412004 0.056218 -0.769993 -0.635571
1.407255 0.103933 -0.141227 0.000000 -0.771213 -0.636577
0.489065 -0.356768 0.429205 0.090317 -0.768061 -0.633976
-1.434175 -0.110415 0.013510 -0.019717 -0.991086 0.125831
-1.410181 0.107676 0.027926 -0.000078 0.955075 0.294253
0.167493 -0.125330 0.132093 -0.056163 -0.797309 -0.600953
-1.012434 0.072569 -0.084307 -0.000302 0.650669 -0.758633
0.573859 -0.080410 0.076865 -0.000399 -0.752066 0.658418
-0.065140 0.110316 -0.014290 0.000134 0.989031 -0.143699
-1.468231 -0.063523 -0.088335 -0.137068 -0.616596 -0.773812
0.848164 -0.103028 -0.041942 0.000656 -0.915525 -0.400691
-0.074908 -0.077049 0.080233 -0.000337 -0.675604 0.736426
-0.945593 0.094955 -0.057944 -0.001333 0.868357 -0.494631
0.592440 -0.006892 0.111024 -0.001910 -0.104153 0.994111
0.339392 -0.313749 0.388123 -0.034926 0.753000 0.657093
1.398700 -0.100261 0.136778 -0.000000 0.771213 0.636577
-1.215669 -0.009742 -0.110811 0.000454 -0.092044 -0.995230
1.184385 -0.081446 0.083360 0.000000 -0.771213 -0.636577
0.967537 0.082501 0.115262 0.000000 -0.771213 0.636577
1.064634 -0.096754 -0.054886 -0.000103 -0.864499 -0.501181
1.484636 -0.086679 0.066489 0.048135 -0.792558 0.606845
0.532807 0.050061 0.099337 -0.000974 0.473583 0.880044
0.236822 -0.098944 -0.090607 -0.056163 -0.797309 0.600953
-0.014988 -0.017215 0.109898 0.000011 -0.103325 0.993973
0.962078 0.056141 -0.083326 0.000000 -0.771213 -0.636577
-0.354606 0.071012 -0.085622 0.000151 0.600339 -0.798832
1.250662 -0.097650 0.102991 -0.000000 -0.771213 -0.636577
-0.013678 -0.098956 0.050810 0.000897 -0.862715 0.504024
-0.712271 -0.104530 0.038045 -0.000338 -0.930986 0.363311
-1.579634 -0.009819 -0.063499 -0.576377 -0.200483 -0.789992
0.119807 0.110904 0.008621 -0.000144 0.997994 0.051644
-1.008620 0.109535 -0.019392 -0.002246 0.990644 -0.130711
0.557998 0.053259 -0.097659 0.000017 0.522535 -0.851824
0.448236 0.440629 0.539308 0.025845 -0.764905 0.643234
1.399832 0.206467 -0.265446 0.000000 -0.771213 -0.636577
1.441649 0.162113 0.206608 0.265205 -0.699427 0.663678
0.259617 0.332996 -0.399003 -0.056163 0.797309 0.600953
1.331242 0.185053 0.208879 0.000000 0.771213 -0.636577
0.510253 -0.403483 0.488820 0.056218 0.769993 0.635571
0.510253 -0.448266 0.543074 0.056218 0.769993 0.635571
0.510253 -0.230750 0.279553 0.056218 0.769993 0.635571
0.510253 -0.090004 -0.109040 0.056218 0.769993 -0.635571
1.111533 -0.108028 0.115563 0.000000 -0.771213 -0.636577
1.246894 -0.032218 0.106470 0.000089 -0.330838 0.942950
1.445495 0.217123 0.263044 0.265205 -0.699427 0.663678
1.499247 -0.080861 -0.097963 0.265205 -0.784216 0.560956
1.460154 -0.179960 -0.218022 0.265205 -0.784216 0.560956
1.457711 0.186154 -0.225525 0.265205 -0.699427 -0.663678
-1.506739 0.007838 -0.099795 -0.303814 0.114156 -0.944722
-1.316933 -0.111042 -0.006603 -0.000400 -0.995021 -0.094951
0.066940 -0.215112 -0.260607 -0.056163 -0.797309 0.600953
1.167290 0.193574 -0.231497 -0.139906 0.891377 0.431131
0.301120 0.224645 0.283979 -0.034926 -0.753000 0.657093
1.345037 0.181417 -0.235098 -0.000000 -0.771213 -0.636577
0.179681 0.042137 0.102948 -0.000060 0.401992 0.914918
1.513907 0.096523 0.048083 0.053076 0.912191 0.404700
0.107328 -0.155883 0.178252 -0.056163 -0.797309 -0.600953
1.027319 -0.126151 0.137519 -0.093722 -0.856679 -0.503053
1.131465 -0.077794 -0.078936 0.000000 -0.771213 0.636577
0.404600 0.234936 -0.269573 0.090317 0.768061 0.633976
0.462114 -0.104078 0.039265 -0.000087 -0.915822 0.399906
1.321749 -0.255652 0.309722 -0.139906 -0.891377 -0.431131
1.089976 -0.167790 -0.203277 -0.139906 -0.891377 0.431131
-0.664140 0.033973 0.105923 -0.000127 0.279514 0.959472
0.624193 -0.017213 -0.109898 0.000002 -0.128990 -0.990971
-1.143518 0.109902 0.017189 -0.000002 0.990985 0.128884
0.324579 -0.000000 0.111238 0.000000 -0.025832 0.998998
0.394489 0.109902 0.017190 -0.000000 0.990989 0.128857
-0.893845 0.017212 0.109898 -0.000003 0.128978 0.990973
0.344538 -0.105916 -0.033997 -0.000015 -0.959135 -0.280576
-0.933790 -0.111238 0.000000 0.000419 -0.998996 -0.025251
0.263331 -0.106002 0.033726 -0.000613 -0.936183 0.349724
1.385913 -0.063658 -0.077121 0.000000 0.636577 0.771213
0.301126 -0.146505 -0.147698 -0.007303 -0.789093 0.613170
-0.973738 -0.111238 0.000000 0.000042 -0.998979 -0.030221
1.161018 0.007539 -0.110982 -0.002518 0.108696 -0.993598
1.251283 0.071175 -0.070916 -0.000000 -0.636577 0.771213
0.368364 -0.138456 0.180290 0.056218 0.769993 0.635571
1.460745 0.110094 0.008096 0.046193 0.991047 0.119749
0.360494 0.309548 0.358466 -0.056163 0.797309 -0.600953
-0.429443 0.008634 0.110902 0.000014 0.025872 0.998994
0.219681 -0.108230 0.025692 0.000220 -0.977700 0.206651
-1.093583 0.000000 -0.111238 -0.000193 -0.022745 -0.998984
-0.744051 -0.017222 -0.109897 -0.000006 -0.103382 -0.993967
-0.719117 -0.057573 -0.095180 0.000001 -0.472270 -0.880693
0.254801 0.102375 -0.043511 0.000048 0.923602 -0.381608
1.029233 -0.092450 -0.127315 -0.000000 0.771213 -0.636577
0.029258 0.142652 -0.175569 -0.034926 -0.753000 -0.657093
-0.404472 -0.109899 0.017205 0.000148 -0.991084 0.128256
-1.122680 0.098655 0.051392 -0.000004 0.861800 0.505807
0.239727 0.008621 0.110904 -0.000000 0.051666 0.997995
-0.818900 -0.110904 -0.008621 -0.000000 -0.997995 -0.051663
-0.783999 -0.017222 -0.109897 -0.000006 -0.103382 -0.993967
-0.249669 -0.108233 -0.025680 0.000001 -0.977993 -0.205396
0.138276 0.233764 0.285774 -0.034926 -0.753000 0.657093
0.264667 -0.034008 0.105912 -0.000531 -0.280287 0.959228
0.370354 0.272366 0.342345 0.025845 -0.764905 0.643234
-1.082373 0.098479 0.051728 -0.000165 0.860548 0.507952
-0.744031 -0.105918 -0.033989 -0.000003 -0.959114 -0.280639
1.069417 -0.107487 0.028643 -0.000075 -0.952984 0.300830
0.229857 -0.305068 -0.372353 -0.034926 0.753000 -0.657093
-1.018455 0.071694 0.085052 0.000108 0.662935 0.747789
-1.148080 0.099810 -0.049111 -0.000230 0.876375 -0.480356
-0.209695 -0.108238 -0.025661 -0.000003 -0.978014 -0.205308
0.201928 -0.324580 0.393229 -0.034926 0.753000 0.657093
0.214200 0.334532 0.405285 -0.034926 -0.753000 0.657093
-0.055776 -0.115594 0.140042 -0.034926 0.753000 0.657093
0.371811 0.376657 -0.446444 -0.056163 0.797309 0.600953
0.039984 -0.096548 0.105823 -0.056163 -0.797309 -0.600953
-0.858849 -0.110904 -0.008621 -0.000004 -0.997995 -0.051659
-1.077929 0.043465 -0.102395 0.000214 0.432089 -0.901093
-1.058205 0.071681 0.085063 -0.000038 0.662756 0.747950
-1.192938 -0.085910 0.070664 0.000019 -0.741784 0.669654
1.120581 0.028206 0.107603 0.000005 0.224712 0.973716
0.120670 0.084784 -0.114113 -0.034926 -0.753000 -0.657093
0.866788 -0.083183 0.100776 -0.139906 -0.891377 -0.431131
1.056818 0.063658 0.077121 0.000000 -0.636577 -0.771213
0.734027 0.049809 -0.099463 0.000130 0.424852 -0.904521
0.454017 -0.412499 0.491731 0.090317 -0.768061 -0.633976
0.280430 -0.215529 -0.241210 -0.056163 -0.797309 0.600953
1.513907 -0.029463 -0.103733 1.000000 0.000000 0.000000
0.389132 -0.438532 0.533762 -0.034926 0.753000 0.657093
1.026102 0.104415 0.141811 0.000000 -0.771213 0.636577
-0.983769 -0.050013 -0.099361 0.000084 -0.402505 -0.914703
0.843754 0.099611 -0.049514 -0.001033 0.907464 -0.418800
0.207960 -0.130468 0.135128 -0.056163 -0.797309 -0.600953
-0.779574 0.102613 0.042948 -0.000053 0.941544 0.334440
0.390224 -0.166287 -0.212074 0.056218 0.769993 -0.635571
0.996576 0.009550 0.110827 0.000508 0.112095 0.992964
0.997784 -0.111083 -0.005870 0.000313 -0.995573 -0.088721
0.995550 -0.131995 0.159911 -0.139906 -0.891377 -0.431131
0.327722 -0.112552 0.152501 0.056218 0.769993 0.635571
0.332996 0.168578 -0.219910 0.056218 -0.769993 -0.635571
0.277974 0.352796 0.429605 -0.034926 -0.753000 0.657093
1.191907 -0.087557 0.121387 -0.000000 0.771213 0.636577
1.250767 -0.196016 -0.222161 -0.000000 -0.771213 0.636577
1.158491 0.110901 -0.008647 0.000292 0.997985 -0.051398
0.192209 -0.291103 -0.349722 -0.056163 -0.797309 0.600953
-0.918468 -0.057153 0.095433 0.000048 -0.536498 0.843131
0.118547 0.162422 -0.202970 -0.034926 -0.753000 -0.657093
1.388373 -0.143735 -0.189447 -0.000000 0.771213 -0.636577
-0.009395 0.124641 0.147710 -0.056163 0.797309 -0.600953
0.275558 -0.384291 -0.465568 -0.056163 -0.797309 0.600953
0.355931 -0.258700 -0.291430 -0.007303 -0.789093 0.613170
0.259617 -0.332996 0.399003 -0.056163 -0.797309 -0.600953
0.374708 0.261500 -0.328796 0.056218 -0.769993 -0.635571
0.451120 -0.446861 -0.546602 0.025845 0.764905 -0.643234
0.182710 -0.275348 0.329706 -0.056163 -0.797309 -0.600953
1.309639 0.112181 -0.120595 0.000000 0.771213 0.636577
1.070612 0.084771 0.118011 0.000000 -0.771213 0.636577
-1.201671 0.064936 -0.090317 0.000484 0.588380 -0.807782
0.220234 -0.107539 0.103561 -0.056163 -0.797309 -0.600953
1.138443 -0.006436 0.111052 -0.000780 -0.091089 0.995318
-1.050909 -0.069276 0.087033 0.000792 -0.604452 0.795902
-0.859475 -0.095892 0.056380 -0.000148 -0.834487 0.549792
0.094858 -0.105931 0.033950 0.000387 -0.943873 0.328406
-0.903821 0.077740 0.079564 -0.000069 0.717100 0.696019
0.927802 -0.031331 -0.106734 0.000209 -0.324715 -0.945253
1.513907 0.017223 0.038717 1.000000 0.000000 0.000000
0.175352 0.099366 -0.050004 0.000430 0.873952 -0.484772
1.322546 0.101392 0.107525 -0.000000 0.771213 -0.636577
1.358777 -0.104954 0.036858 0.000026 -0.942895 0.331208
1.329017 0.173101 -0.194400 0.000000 0.771213 0.636577
0.068081 0.162431 0.200298 -0.034926 -0.753000 0.657093
0.383424 -0.295090 0.339433 0.090317 -0.768061 -0.633976
-1.170269 0.041590 -0.103171 -0.001455 0.389682 -0.920031
0.241247 -0.220982 -0.252106 -0.056163 -0.797309 0.600953
1.253076 -0.229619 0.278183 -0.139906 -0.891377 -0.431131
1.307553 0.041950 -0.103025 -0.000410 0.357190 -0.933260
0.266217 -0.292190 -0.344247 -0.056163 -0.797309 0.600953
0.124228 -0.080797 0.076457 0.000229 -0.740319 0.671346
1.434469 0.081996 0.075171 0.016012 0.736510 0.675204
0.531155 0.087245 0.069009 0.000239 0.766939 0.640409
-0.876322 0.006159 -0.111067 0.000428 0.089563 -0.995449
1.206464 0.194062 -0.219794 -0.090354 0.853735 0.507955
0.937352 -0.096924 0.054586 -0.000189 -0.846301 0.531502
-0.070653 0.072564 -0.084342 -0.056163 0.797309 0.600953
-1.459276 0.109185 0.013007 -0.117430 0.977350 0.170714
0.080549 0.115339 0.126963 -0.056163 0.797309 -0.600953
-1.581476 -0.062939 0.000000 -0.568973 -0.818109 -0.049234
0.370504 0.197263 0.251345 0.056218 -0.769993 0.635571
-0.940393 -0.089332 0.066285 0.000489 -0.787486 0.615260
1.165209 0.158916 -0.177215 -0.000000 0.771213 0.636577
0.524320 0.111238 0.000000 0.000138 0.998925 -0.026751
1.223525 -0.200529 0.227629 -0.098419 -0.860613 -0.496072
0.386273 0.093892 -0.096088 0.090317 0.768061 0.633976
-0.060567 -0.069452 -0.086911 -0.000000 0.636577 0.771213
1.215324 -0.144791 -0.190727 -0.000000 0.771213 -0.636577
-0.510301 0.110904 -0.008609 0.000471 0.992586 -0.116268
0.373238 -0.294130 -0.336819 -0.007303 -0.789093 0.613170
1.387027 0.181867 -0.235643 0.000000 -0.771213 -0.636577
1.223964 0.155459 -0.173027 0.000000 0.771213 0.636577
-1.193453 -0.111238 0.000000 -0.000279 -0.999051 -0.030896
0.118962 -0.219678 -0.261804 -0.056163 -0.797309 0.600953
1.229488 -0.093007 0.061022 -0.000146 -0.811053 0.583927
0.472199 0.429963 -0.515478 0.090317 0.768061 0.633976
1.024877 0.133476 -0.153457 -0.139906 0.891377 0.431131
1.341047 -0.107617 -0.028150 0.000060 -0.967367 -0.250669
0.224462 0.202349 -0.254355 -0.034926 -0.753000 -0.657093
0.222373 0.162650 0.208750 -0.034926 -0.753000 0.657093
0.390491 0.307446 -0.355409 0.090317 0.768061 0.633976
0.259953 0.040847 0.103467 -0.000793 0.352995 0.934903
1.042627 -0.076561 0.108065 0.000000 0.771213 0.636577
-1.453810 0.065848 0.088744 -0.110698 0.562816 0.817924
0.144029 0.245113 -0.299085 -0.034926 -0.753000 -0.657093
0.347389 -0.093946 -0.128222 0.056218 0.769993 -0.635571
1.243862 0.051308 0.098699 -0.000000 0.415142 0.909016
1.460804 -0.096211 0.101248 0.089256 -0.780559 -0.615229
0.932325 -0.098749 -0.051211 0.000070 -0.905831 -0.422021
0.199113 0.085351 0.118933 -0.034926 -0.753000 0.657093
0.842992 -0.053588 -0.097479 -0.000051 -0.525499 -0.849952
0.276066 -0.333434 -0.407315 -0.034926 0.753000 -0.657093
1.203369 0.120059 -0.130139 -0.000000 0.771213 0.636577
1.476035 0.099451 -0.046196 0.048123 0.924159 -0.377222
0.347666 -0.197820 -0.254039 0.056218 0.769993 -0.635571
0.986966 0.128740 0.155969 -0.139906 -0.592266 0.793503
0.162956 -0.079399 -0.077908 0.000336 -0.732675 -0.679669
-0.279363 -0.065039 0.090244 -0.000067 -0.603549 0.796490
1.418830 0.187581 0.242567 0.177658 -0.728094 0.658834
1.445990 -0.118731 0.159155 0.177658 0.728094 0.658834
1.060852 0.130982 0.170669 -0.139906 -0.592266 0.793503
0.952629 0.115724 -0.140199 -0.139906 -0.592266 -0.793503
1.373220 -0.000000 -0.111238 0.000186 -0.022365 -0.999104
-0.943775 0.109901 0.017197 0.000001 0.990983 0.128899
0.459596 0.162349 -0.189469 0.090317 0.768061 0.633976
0.165113 -0.294725 0.357059 -0.034926 0.753000 0.657093
-1.480408 0.075662 -0.075261 -0.189805 0.729329 -0.656018
1.299753 -0.170961 0.191807 0.000000 -0.771213 -0.636577
0.236825 -0.287001 0.340110 -0.056163 -0.797309 -0.600953
-0.993600 0.098429 0.051823 0.000280 0.873322 0.485622
0.436432 -0.148675 0.186650 0.056218 0.769993 0.635571
-1.308742 -0.090780 0.064288 0.000071 -0.788000 0.614582
-0.492103 -0.042781 0.102683 -0.000191 -0.433216 0.900497
1.093808 -0.109983 -0.148556 0.000000 0.771213 -0.636577
-1.308721 -0.055248 0.096548 0.000015 -0.456338 0.889087
0.325008 -0.229823 0.256008 -0.056163 -0.797309 -0.600953
0.327086 -0.199650 -0.215782 -0.007303 -0.789093 0.613170
0.730555 0.040687 0.103530 -0.000047 0.384534 0.922377
0.105532 0.148001 -0.167962 -0.056163 0.797309 0.600953
-1.482442 -0.000000 0.106312 -0.214906 0.029477 0.975168
0.339912 -0.100433 0.047824 0.000566 -0.878724 0.475684
1.188477 -0.110902 0.008644 0.000412 -0.998119 0.049870
0.128795 0.088000 0.086182 -0.056163 0.797309 -0.600953
-0.749119 -0.083937 -0.072997 -0.000006 -0.736775 -0.675146
0.429576 0.206062 -0.238150 0.090317 0.768061 0.633976
0.414467 0.017193 0.109901 0.000004 0.128871 0.990987
1.002271 -0.065164 0.090153 0.000270 -0.548995 0.835090
1.233401 -0.000000 -0.111238 -0.000634 -0.027237 -0.999003
1.058801 -0.115374 0.155088 -0.000000 0.771213 0.636577
-0.034143 -0.080758 0.076499 0.000937 -0.747798 0.662840
0.268213 0.171777 -0.184303 -0.056163 0.797309 0.600953
0.323958 -0.149864 0.198038 0.056218 0.769993 0.635571
0.272973 0.102928 -0.092514 -0.056163 0.797309 0.600953
1.295708 0.158699 0.176951 -0.000000 0.771213 -0.636577
1.283741 0.100176 -0.048359 -0.000200 0.900378 -0.433853
0.128907 -0.253393 -0.307769 -0.034926 0.753000 -0.657093
1.425809 0.038005 0.104544 0.000001 0.341176 0.939324
1.369214 -0.210002 0.269729 0.000000 0.771213 0.636577
0.252898 0.121027 -0.162675 -0.034926 -0.753000 -0.657093
1.358348 -0.224018 -0.286709 0.000000 0.771213 -0.636577
0.289587 0.097870 0.138087 0.025845 -0.764905 0.643234
0.301126 -0.146505 0.147698 -0.007303 -0.789093 -0.613170
1.113209 -0.111082 0.005891 0.000301 -0.994951 0.094957
-0.012825 -0.150425 -0.182240 -0.056163 -0.797309 0.600953
1.355467 0.084552 0.072284 0.000745 0.733639 0.678587
-1.028696 0.108243 0.025640 0.000008 0.966070 0.255682
0.120681 0.144473 0.161866 -0.056163 0.797309 -0.600953
-0.086455 -0.090715 -0.109901 -0.056163 -0.797309 0.600953
1.294482 0.118740 0.128541 0.000000 0.771213 -0.636577
0.238660 0.069667 0.086733 -0.000000 -0.636577 -0.771213
1.103380 0.105505 0.035250 0.001185 0.939760 0.339874
-1.258181 0.111040 -0.006636 0.000079 0.995232 -0.092115
0.391865 -0.055176 0.096590 -0.000274 -0.538532 0.841774
1.026248 0.068491 -0.087652 0.000186 0.654609 -0.755129
-1.477544 -0.078712 0.072869 -0.200508 -0.705338 0.678085
0.385358 0.373130 0.458614 -0.034926 -0.753000 0.657093
0.174354 0.202799 0.234233 -0.056163 0.797309 -0.600953
0.211735 0.101608 -0.138234 -0.034926 -0.753000 -0.657093
1.420740 -0.215119 -0.270824 0.265205 0.699427 -0.663678
-0.953582 0.098468 0.051749 -0.000246 0.873463 0.485365
0.289231 -0.202100 0.222570 -0.056163 -0.797309 -0.600953
-1.604554 0.041909 -0.014087 -0.660750 0.709786 -0.234933
0.337076 0.403717 -0.485593 -0.056163 0.797309 0.600953
0.170270 0.083932 0.073003 -0.000235 0.737767 0.673934
-0.422837 0.019662 -0.109487 -0.000024 0.222248 -0.974311
1.178201 -0.007467 0.110987 -0.001664 -0.095465 0.994839
-0.980057 -0.089954 0.065438 -0.000145 -0.834735 0.549606
1.238262 0.113923 0.153330 0.000000 -0.771213 0.636577
-0.045143 -0.035084 -0.105561 -0.000151 -0.288128 -0.956746
