-0.159034 -0.200256 -0.141941 -0.067492 -0.615535 0.785214
-0.655442 0.098797 0.025167 0.000563 0.962346 0.269224
1.125182 0.059557 -0.082748 -0.000323 0.626579 -0.778197
1.656080 -0.094537 -0.038171 -0.000016 -0.915713 -0.399849
0.555135 -0.101418 0.010424 0.000374 -0.989860 0.136358
-0.043012 -0.099654 0.053106 -0.067492 -0.615535 -0.785214
-1.056288 -0.059502 -0.082788 -0.000217 -0.627782 -0.777387
-0.532783 0.068584 -0.075435 -0.000397 0.712085 -0.701151
-1.332685 -0.086107 0.054587 0.000090 -0.825591 0.562863
-1.438888 -0.026995 -0.098313 0.000186 -0.243403 -0.969063
1.710643 0.142502 -0.120602 -0.000000 -0.587811 -0.808998
0.082251 -0.065842 -0.077840 0.000856 -0.674561 -0.737182
-1.212270 0.093181 -0.041371 -0.000724 0.913909 -0.404065
1.788884 -0.193188 0.140369 0.208088 0.563519 0.799466
1.336401 -0.070301 0.073838 -0.000009 -0.685389 0.727124
-1.744839 -0.095946 0.026935 -0.120346 -0.965084 0.227422
1.719824 -0.143074 0.121017 0.000000 0.587811 0.808998
-0.539525 0.069473 0.074617 0.000042 0.703843 0.709234
-0.938159 0.067048 -0.076804 -0.000097 0.651706 -0.757427
1.567275 0.093730 0.085164 -0.000000 -0.587811 0.808998
0.171768 0.663159 0.476381 -0.067492 0.615535 -0.785214
1.641979 -0.306950 -0.240088 -0.000000 0.587811 -0.808998
-0.272053 -0.041842 0.092970 0.000046 -0.396818 0.917029
1.583727 -0.114732 0.100424 -0.000000 0.587811 0.808998
-1.706190 -0.058397 -0.083571 -0.000356 -0.528794 -0.847837
0.205602 0.441664 -0.311524 0.105967 0.584501 0.804443
-0.542551 -0.065520 0.078111 0.000248 -0.621038 0.782803
1.380718 -0.058141 -0.083748 0.000105 -0.614792 -0.787681
0.165048 0.101952 -0.000000 -0.004295 0.997742 0.053299
1.199704 -0.036645 0.095139 0.000211 -0.314373 0.948413
1.610881 -0.199835 -0.128137 0.000000 -0.587811 0.808998
-0.040148 0.028206 0.097973 -0.001240 0.321488 0.946322
0.018287 -0.394755 0.279169 -0.067492 -0.615535 -0.785214
-1.040226 -0.010283 0.101432 -0.000385 -0.127695 0.990868
1.798950 0.047901 -0.068069 1.000000 -0.000000 0.000000
0.407078 -0.077208 -0.066582 -0.000020 -0.790902 -0.610664
0.577055 0.033121 0.096422 -0.000165 0.309992 0.949987
1.750036 0.387788 0.275755 0.208088 0.586250 -0.782950
-1.726747 0.030414 0.096805 -0.074423 0.252908 0.963808
-0.779492 0.009426 0.101515 0.000069 0.118649 0.992097
1.152042 0.159520 0.118050 -0.102897 -0.428123 0.897844
0.082186 -0.269340 -0.208067 -0.042946 0.568368 -0.821653
0.058022 0.249800 0.162122 -0.067492 0.615535 -0.785214
-1.852960 -0.008851 0.058131 -0.540328 -0.164922 0.823005
-1.852960 -0.008851 -0.058131 -0.540328 -0.164922 -0.823005
-1.187458 -0.074386 -0.069720 0.000009 -0.750656 -0.659485
0.221855 -0.288845 0.202627 0.105967 -0.584501 -0.804443
-0.910076 0.070408 0.073736 0.000144 0.709059 0.704030
0.137009 0.370662 -0.281020 -0.006105 -0.575016 -0.817686
0.425579 0.081978 0.060612 0.000136 0.781054 0.623184
1.776394 -0.261659 0.188318 0.208088 -0.586250 -0.782950
1.290521 0.049332 -0.089222 -0.000042 0.509605 -0.859484
0.238849 0.064996 0.078548 0.001372 0.670510 0.740737
1.171340 0.124878 -0.073674 -0.069767 0.680661 0.727532
-0.003643 0.011144 -0.101341 -0.000727 0.160397 -0.986236
0.276851 0.326461 -0.237204 0.067537 -0.586469 -0.807151
0.276851 0.204470 0.148566 0.067537 -0.586469 0.807151
1.266366 0.194967 -0.148055 -0.102897 -0.428123 -0.897844
1.483978 0.268337 -0.177910 -0.068788 0.679454 0.728807
0.147974 -0.060468 0.082084 0.000564 -0.577689 0.815283
1.089319 0.054269 0.086308 0.000422 0.522921 0.851461
-0.026637 0.365783 -0.269092 -0.042946 -0.568368 -0.821653
1.698237 0.343973 0.232867 0.000000 0.587811 -0.808998
0.251264 -0.112147 -0.078115 0.105967 -0.584501 0.804443
-0.137103 0.295315 -0.214573 -0.067492 0.615535 0.785214
-1.072431 0.038337 -0.094470 0.000065 0.369539 -0.928361
1.015296 -0.101952 -0.000000 0.000019 -0.998784 -0.028842
-1.458336 0.073195 0.070970 -0.000073 0.707192 0.705906
0.108904 -0.664230 -0.482623 -0.067492 -0.615535 0.785214
1.798950 -0.040182 0.070982 1.000000 0.000000 -0.000000
0.221545 -0.668692 0.478580 0.105967 -0.584501 -0.804443
1.732586 0.082358 0.076902 0.139110 -0.573744 0.805616
1.683074 0.083920 -0.043914 -0.034370 -0.808520 0.587464
0.124943 -0.585363 0.419420 -0.067492 -0.615535 -0.785214
-1.082897 -0.085609 0.055366 -0.000402 -0.823400 0.566141
0.214999 -0.221923 -0.153100 0.105967 -0.584501 0.804443
0.665543 -0.042222 -0.092798 -0.000238 -0.390344 -0.919829
1.005295 0.100770 0.073218 -0.102897 0.721646 -0.684572
-0.144990 -0.132732 -0.087801 -0.067492 -0.615535 0.785214
-1.464282 0.084382 -0.057218 0.000016 0.823899 -0.565336
-1.470525 -0.008493 0.101598 0.000395 -0.121165 0.991657
0.483457 -0.057781 0.083998 -0.000060 -0.525029 0.850017
1.352335 -0.187046 -0.118845 -0.000000 -0.587811 0.808998
-1.702843 -0.056587 0.084806 0.000070 -0.598074 0.800600
-0.054456 -0.226950 0.153878 -0.067492 -0.615535 -0.785214
0.201760 -0.591413 0.435998 0.067537 0.586469 0.807151
1.613761 0.221351 0.177893 -0.000000 -0.587811 0.808998
-0.241182 -0.139235 0.101167 -0.042946 0.568368 0.821653
-1.183640 0.039183 -0.094122 -0.000796 0.426102 -0.903783
1.680523 -0.041928 -0.092932 0.000001 -0.358863 -0.932535
1.017303 -0.036266 -0.095284 0.000425 -0.407062 -0.912497
0.194813 0.750523 -0.542885 -0.067492 0.615535 0.785214
1.540683 -0.071655 -0.069125 0.000000 0.587811 -0.808998
-1.660194 0.093227 -0.041267 -0.000593 0.910754 -0.411224
-0.162753 0.172333 -0.120372 -0.067492 0.615535 0.785214
1.345406 0.056116 0.085119 -0.000130 0.553238 0.832176
-0.118329 0.037863 0.094661 -0.000580 0.421217 0.906153
-0.398111 -0.047166 0.090386 -0.000306 -0.507270 0.860968
1.735711 0.263429 0.203719 0.208088 -0.563519 0.799466
1.212028 -0.048676 -0.089582 0.000155 -0.526374 -0.849306
1.587895 0.075024 -0.061726 -0.034370 -0.808520 0.587464
1.516260 -0.335234 -0.243578 -0.102897 0.428123 -0.897844
0.016440 0.321045 0.240397 -0.042946 -0.568368 0.821653
0.945625 -0.019277 0.100113 -0.000127 -0.190337 0.980925
0.276851 0.407789 -0.296296 0.067537 -0.586469 -0.807151
0.190178 0.162172 -0.125085 0.067537 -0.586469 -0.807151
-0.005001 0.101952 -0.000000 0.000231 0.997047 0.063150
1.725666 -0.287003 -0.193813 0.208088 -0.586250 0.782950
1.352178 0.105387 -0.093634 0.000000 -0.587811 -0.808998
0.276851 0.570443 0.414479 0.067537 -0.586469 0.807151
0.097204 0.507848 -0.373837 -0.042946 -0.568368 -0.821653
0.074124 -0.082806 0.077129 0.067537 0.586469 0.807151
0.789378 -0.025706 0.098658 0.000470 -0.291589 0.955889
1.725569 -0.078567 0.074147 0.000000 0.587811 0.808998
0.101184 0.271863 -0.175708 -0.067492 0.615535 0.785214
-1.198245 -0.007913 0.101645 0.000181 -0.131564 0.990575
-0.128021 -0.205806 0.153131 -0.042946 0.568368 0.821653
0.242945 0.694903 0.500444 0.105967 0.584501 -0.804443
-0.085163 0.242169 0.180525 -0.042946 -0.568368 0.821653
0.222817 -0.513977 -0.377972 0.067537 0.586469 -0.807151
0.203481 -0.673810 -0.494194 -0.042946 0.568368 -0.821653
1.427982 0.057890 0.083922 -0.000947 0.559253 0.828459
-0.000757 -0.167119 -0.133022 -0.042946 0.568368 -0.821653
-0.835553 0.091136 -0.045700 0.000007 0.911770 -0.408755
0.180502 -0.167691 0.129904 0.067537 0.586469 0.807151
0.495206 0.014217 0.100956 -0.001346 0.130482 0.990714
-0.193303 -0.099549 -0.022007 -0.000244 -0.971446 -0.233981
-1.162071 0.100552 0.016837 -0.000841 0.980115 0.194536
0.710671 0.047940 0.089977 -0.000017 0.422374 0.905576
1.385952 -0.267844 -0.192125 -0.102897 -0.721646 0.684572
1.219999 0.095078 0.086144 -0.000000 -0.587811 0.808998
-1.676285 0.081492 0.061263 -0.000151 0.764507 0.643464
-1.196366 -0.100911 0.014536 0.001343 -0.984391 0.171981
0.154567 -0.037627 -0.094754 -0.000333 -0.376428 -0.925637
1.485393 -0.259719 -0.171649 -0.000000 -0.587811 0.808998
0.089674 -0.433023 0.321684 -0.042946 0.568368 0.821653
-0.093194 0.146175 0.093887 -0.067492 0.615535 -0.785214
0.168469 -0.380064 -0.261874 0.105967 -0.584501 0.804443
1.465272 -0.085640 -0.052257 -0.000000 0.808998 0.587811
0.020224 0.313503 -0.235378 -0.042946 -0.568368 -0.821653
-0.412941 0.033072 0.096439 -0.000030 0.347718 0.936774
0.580929 0.096386 0.033227 -0.000105 0.942521 0.331973
1.772780 0.386156 -0.280578 0.208088 -0.563519 -0.799466
1.588941 -0.101737 0.006616 0.001462 -0.993318 0.110310
-0.098584 -0.071980 -0.072201 -0.001513 -0.744054 -0.666863
-0.025323 0.182380 -0.142294 -0.042946 -0.568368 -0.821653
-0.056369 -0.324763 0.230718 -0.067492 -0.615535 -0.785214
0.167728 -0.341115 0.233476 0.105967 -0.584501 -0.804443
0.475139 0.101952 -0.000000 0.000482 0.998054 0.052328
-1.479765 -0.094287 0.038784 -0.002421 -0.939570 0.341067
1.459644 -0.042853 0.092509 -0.000000 -0.416888 0.908239
0.804246 -0.096130 -0.033961 0.000235 -0.923122 -0.382677
1.558890 -0.046895 0.090527 -0.000028 -0.459502 0.887394
0.525474 -0.086360 -0.054187 -0.000040 -0.866192 -0.498159
0.374202 0.073235 -0.070929 0.000044 0.745340 -0.665511
1.772780 -0.386156 -0.280578 0.208088 0.563519 -0.799466
1.227949 0.093517 -0.040606 0.000030 0.892669 -0.448944
0.774582 0.096715 0.032255 -0.000119 0.929322 0.367038
0.189642 0.267619 0.182961 0.105967 0.584501 -0.804443
-1.578640 -0.010547 0.101405 -0.000322 -0.135209 0.989794
-1.054605 -0.100167 -0.018997 0.000527 -0.986628 -0.157010
0.857029 0.048408 0.089727 -0.000002 0.509639 0.859462
1.005295 0.100770 -0.073218 -0.102897 0.721646 0.684572
0.109778 -0.163982 -0.133128 0.067537 0.586469 -0.807151
0.112745 0.186564 -0.113938 0.105967 0.584501 0.804443
1.595445 0.310845 -0.208796 0.000000 0.587811 0.808998
-0.676642 0.014408 -0.100929 0.001384 0.131025 -0.990578
1.166400 -0.101617 0.008263 0.000128 -0.991652 0.122929
-1.763335 -0.083284 -0.048644 -0.227087 -0.844756 -0.481949
0.154089 -0.290637 -0.195003 0.105967 -0.584501 0.804443
-1.579494 0.006166 -0.101765 -0.000279 0.095001 -0.994956
-0.601967 0.082640 -0.059707 0.001483 0.782339 -0.621920
0.065440 0.078371 -0.065582 0.000000 -0.808998 0.587811
-0.075601 0.387543 0.281585 -0.067492 0.615535 -0.785214
1.637099 0.257252 -0.169856 -0.000000 0.587811 0.808998
0.627551 -0.079428 0.063917 0.000084 -0.774372 0.631474
0.125941 0.216574 0.169988 0.067537 -0.586469 0.807151
1.265108 0.219989 0.159842 -0.102897 0.721646 -0.684572
1.572501 0.135285 -0.115358 0.000000 -0.587811 -0.808998
0.065491 -0.278092 0.213248 -0.042946 0.568368 0.821653
1.105304 0.098256 -0.027202 -0.000103 0.954772 -0.294670
-0.021257 -0.278199 0.191198 -0.067492 -0.615535 -0.785214
-1.341516 -0.024293 0.099015 -0.000154 -0.259803 0.964853
0.965606 0.100836 0.015044 -0.000609 0.986312 0.159965
1.603707 0.354880 0.251144 -0.102897 0.721646 -0.684572
0.276851 -0.318328 -0.231295 0.105967 -0.584501 0.804443
1.252884 -0.113919 -0.065712 0.000000 -0.587811 0.808998
-0.954356 -0.099763 0.021011 -0.000049 -0.971713 0.232548
1.727543 0.273691 -0.213079 0.208088 -0.563519 -0.799466
0.745028 0.073018 -0.071152 0.000323 0.736195 -0.675734
1.359952 0.101475 0.009855 0.001554 0.986375 0.157326
-0.032540 -0.134716 -0.079691 -0.067492 -0.615535 0.785214
-1.326191 0.081310 0.061506 -0.000198 0.762816 0.645432
1.262724 -0.206439 -0.145917 -0.102897 -0.721646 0.684572
0.036652 0.037868 0.094659 0.000068 0.401637 0.915016
-1.317460 0.022715 -0.099389 -0.000110 0.221939 -0.974236
0.132559 -0.699702 0.508397 -0.042946 0.568368 0.821653
-0.047216 -0.430110 0.312514 -0.042946 0.568368 0.821653
0.276851 -0.399656 0.290386 0.105967 -0.584501 -0.804443
1.772780 -0.386156 0.280578 0.208088 0.563519 0.799466
1.789555 0.185148 -0.134527 0.208088 -0.563519 -0.799466
1.268740 -0.057309 0.084320 -0.000075 -0.558474 0.828591
0.175454 -0.243977 0.163914 0.105967 -0.584501 -0.804443
-0.024952 -0.100005 -0.019829 -0.000035 -0.971975 -0.231304
0.238957 0.036850 -0.095060 0.000027 0.350346 -0.935783
1.605468 0.101952 -0.000000 -0.003565 0.996463 0.071058
0.093494 -0.477847 -0.352890 -0.042946 0.568368 -0.821653
1.441846 0.041019 -0.093336 -0.000538 0.422112 -0.905740
0.224415 -0.496590 0.353911 0.105967 -0.584501 -0.804443
1.659729 -0.159941 -0.099151 -0.000000 -0.587811 0.808998
-0.302189 -0.101731 -0.006712 0.000539 -0.993340 -0.110078
0.100178 0.075449 0.069604 -0.000000 -0.808998 -0.587811
1.524961 0.221760 -0.144068 0.000000 0.587811 0.808998
-0.099255 0.352071 -0.255811 -0.067492 0.615535 0.785214
1.334236 -0.115339 -0.066743 -0.000000 -0.587811 0.808998
-0.203335 0.195991 0.142406 -0.067492 0.615535 -0.785214
0.151086 0.166535 0.104436 0.105967 0.584501 -0.804443
-1.321259 -0.087893 -0.051664 -0.000128 -0.876758 -0.479287
0.009555 -0.515245 0.374372 -0.042946 0.568368 0.821653
1.462725 0.098154 0.027569 -0.001094 0.947029 0.318681
1.778819 -0.313793 -0.227999 0.208088 0.563519 -0.799466
-0.681102 0.006044 0.101773 -0.001749 0.099811 0.994497
0.228730 0.220147 -0.163983 0.067537 -0.586469 -0.807151
0.276851 -0.171939 0.124929 0.105967 -0.584501 -0.804443
-0.070276 -0.298106 -0.211017 -0.067492 -0.615535 0.785214
-1.706388 0.014150 -0.100965 -0.000040 0.190903 -0.980477
-1.482822 0.026503 -0.098447 -0.000602 0.208552 -0.977249
-1.592461 0.089720 -0.048420 -0.000043 0.853401 -0.519741
0.085982 -0.555855 -0.399638 -0.067492 -0.615535 0.785214
1.592449 -0.219265 0.142255 -0.000000 -0.587811 -0.808998
-0.212230 0.072152 0.072030 -0.000103 0.687319 0.725261
1.383791 -0.168212 0.139282 -0.000000 0.587811 0.808998
0.210139 -0.742390 -0.535193 -0.067492 -0.615535 0.785214
0.395115 -0.101952 -0.000000 -0.000663 -0.995452 -0.081901
0.327170 0.088061 0.051376 0.000034 0.856145 0.515199
0.297851 -0.008615 -0.101587 0.000925 -0.121146 -0.991814
1.136213 0.115608 0.069182 -0.102897 0.721646 -0.684572
0.468468 0.024708 -0.098913 0.000382 0.293418 -0.955208
1.740151 0.088262 -0.079094 0.208088 -0.563519 -0.799466
1.674648 0.039872 0.093832 0.000430 0.420759 0.906122
0.116084 -0.098266 0.027165 0.000056 -0.952590 0.301664
-0.356286 0.066162 0.077568 -0.000080 0.630534 0.775221
1.473052 -0.192304 -0.122665 0.000000 -0.587811 0.808998
0.227900 0.512458 -0.365899 0.105967 0.584501 0.804443
0.111117 0.583389 0.426819 -0.042946 -0.568368 0.821653
0.075804 0.207742 -0.165124 -0.042946 -0.568368 -0.821653
-0.389377 -0.096857 -0.031827 0.000419 -0.948977 -0.312853
-1.054505 0.054470 0.086182 -0.000321 0.558475 0.828530
-0.960687 0.100822 0.015137 -0.000124 0.983706 0.175760
-1.594370 0.066379 0.077382 0.000129 0.681441 0.730833
-0.204845 -0.057813 0.083975 -0.000178 -0.532748 0.845376
1.360372 -0.263703 0.191604 -0.102897 0.428123 0.897844
0.118329 0.572507 -0.409911 -0.067492 0.615535 0.785214
-0.330428 -0.004834 -0.101837 -0.000613 -0.090421 -0.995372
1.610404 -0.057273 -0.084345 0.000023 -0.585199 -0.809906
-0.165488 -0.252747 0.183644 -0.042946 0.568368 0.821653
0.276851 0.123143 -0.089474 0.067537 -0.586469 -0.807151
0.172141 -0.469225 -0.349696 0.067537 0.586469 -0.807151
0.020118 0.196405 0.154371 -0.042946 -0.568368 0.821653
0.365653 -0.028352 0.097930 -0.000539 -0.225548 0.973351
0.080519 -0.621662 0.451694 -0.042946 0.568368 0.821653
-0.032476 -0.360065 -0.264832 -0.042946 0.568368 -0.821653
0.126890 -0.112572 -0.094342 0.067537 0.586469 -0.807151
1.446438 0.162149 0.100755 0.000000 0.587811 -0.808998
1.653006 -0.239645 0.157063 -0.000000 -0.587811 -0.808998
-0.499933 0.101621 0.008211 0.000243 0.992987 0.111294
1.456943 0.211962 0.171070 -0.000000 -0.587811 0.808998
0.095792 -0.325001 0.247281 -0.042946 0.568368 0.821653
0.212128 0.143458 0.109651 0.067537 -0.586469 0.807151
-0.332346 -0.063435 0.079814 -0.000033 -0.589467 0.806800
1.235360 -0.101952 -0.000000 -0.002732 -0.999423 -0.020054
-0.557460 -0.006161 0.101766 -0.000441 -0.083817 0.995956
-0.519776 0.008556 -0.101592 -0.000217 0.134153 -0.990276
0.827457 -0.073765 0.070377 0.000047 -0.686655 0.725893
1.712456 0.323559 -0.252156 0.069747 -0.581841 -0.808793
1.242269 0.099465 0.022381 -0.000705 0.961063 0.272691
1.650878 0.164339 -0.136468 -0.000000 -0.587811 -0.808998
0.171977 0.038681 0.094329 -0.000144 0.354474 0.934286
1.660452 0.041928 -0.092932 -0.000001 0.358860 -0.932536
-1.315384 0.101952 -0.000000 0.003859 0.997726 0.052477
0.184308 -0.555143 -0.411105 -0.006105 0.575016 -0.817686
0.183849 -0.093798 0.039952 0.000018 -0.896152 0.441974
-1.870420 0.043156 0.016184 -0.628888 0.745541 0.210974
-0.049339 0.336719 0.239487 -0.067492 0.615535 -0.785214
1.118931 -0.108212 0.063983 -0.102897 -0.721646 -0.684572
1.081879 -0.077496 -0.063466 0.000000 0.808998 0.587811
1.006397 -0.051392 0.088052 0.000001 -0.545734 0.837014
1.596093 -0.232760 -0.186182 -0.000000 0.587811 -0.808998
0.173192 0.658365 -0.481927 -0.042946 -0.568368 -0.821653
1.553306 0.159063 0.098513 -0.000000 0.587811 -0.808998
1.667192 -0.038217 0.094518 0.000540 -0.375028 0.926257
-0.388798 0.094462 -0.038356 -0.000607 0.905844 -0.421824
0.065758 -0.193029 0.116954 -0.067492 -0.615535 -0.785214
1.446901 -0.138460 0.117665 0.000000 0.587811 0.808998
-0.070597 0.091785 -0.077260 -0.042946 -0.568368 -0.821653
0.323454 0.094995 -0.037017 0.000717 0.915675 -0.400296
-0.721096 -0.091531 -0.044903 0.001204 -0.899817 -0.433938
-0.717692 -0.093066 0.041628 0.000066 -0.924141 0.380168
1.706789 0.422661 0.307102 -0.102897 0.721646 -0.684572
-0.038577 0.431036 0.313606 -0.042946 -0.568368 0.821653
-0.294187 0.100769 0.015488 -0.000756 0.983651 0.175783
-0.131790 0.111497 -0.087697 -0.042946 -0.568368 -0.821653
1.400776 -0.072787 0.069947 -0.000000 0.587811 0.808998
0.676511 -0.090647 -0.046663 0.000180 -0.861781 -0.505751
-0.027873 0.114263 0.095042 -0.042946 -0.568368 0.821653
0.098214 0.138660 0.077218 0.105967 0.584501 -0.804443
0.799670 -0.055555 -0.085486 -0.000239 -0.524491 -0.850595
0.147035 0.341985 0.231383 0.105967 0.584501 -0.804443
1.562506 0.190800 0.155694 0.000000 -0.587811 0.808998
0.174445 0.477808 -0.355739 0.067537 -0.586469 -0.807151
1.179742 -0.164286 0.113953 -0.102897 -0.721646 -0.684572
0.446345 -0.036130 -0.095335 0.000087 -0.372929 -0.927045
1.588191 -0.316156 0.212655 -0.068788 -0.679454 -0.728807
1.457238 -0.091073 0.045826 0.000603 -0.868757 0.493762
1.798950 -0.063398 -0.009598 1.000000 0.000000 -0.000000
-1.075099 0.100180 -0.018924 0.000725 0.970419 -0.237125
-0.224909 0.096908 -0.066588 -0.067492 0.615535 0.785214
0.276851 0.643638 -0.467662 0.067537 -0.586469 -0.807151
0.155119 0.512430 0.380034 -0.042946 -0.568368 0.821653
1.733569 0.185119 0.149079 0.208088 -0.563519 0.799466
-0.195057 0.000000 -0.101952 -0.000690 -0.026827 -0.998862
0.250402 -0.612771 -0.447447 0.067537 0.586469 -0.807151
0.276851 -0.261399 0.189930 0.105967 -0.584501 -0.804443
0.214239 0.751296 0.541821 -0.067492 0.615535 -0.785214
0.069111 0.309285 0.207800 -0.067492 0.615535 -0.785214
-1.407345 -0.073422 -0.070735 0.000527 -0.709561 -0.703592
0.016603 0.440224 -0.314957 -0.067492 0.615535 0.785214
0.894522 -0.078137 0.065489 0.000591 -0.796399 0.603515
0.030663 -0.106643 -0.052252 -0.067492 -0.615535 0.785214
-0.598165 0.083377 0.058673 0.000155 0.801742 0.596363
0.191095 0.609650 0.449164 -0.042946 -0.568368 0.821653
0.628806 0.061385 -0.081401 -0.000527 0.634505 -0.771806
-1.274510 -0.095849 0.034746 0.000118 -0.946787 0.319234
1.465571 0.116196 -0.067366 -0.000000 0.587811 0.808998
-0.426740 -0.053250 -0.086941 -0.000118 -0.476668 -0.878196
-0.256630 0.022252 0.099494 -0.000360 0.238687 0.970561
0.154162 0.083630 -0.058345 0.000000 -0.808998 0.587811
1.408015 0.250841 0.170885 -0.102897 0.721646 -0.684572
-0.118179 -0.323693 0.235192 -0.042946 0.568368 0.821653
-0.099645 -0.117006 0.071576 -0.067492 -0.615535 -0.785214
1.356979 -0.099898 0.020363 0.000291 -0.979931 0.195610
1.285134 -0.187819 0.146797 -0.102897 0.428123 0.897844
-0.824329 -0.099649 0.021546 -0.000738 -0.969231 0.242388
-0.707685 0.100190 -0.018872 -0.000117 0.970708 -0.236957
1.544892 -0.018409 -0.100276 0.000004 -0.151352 -0.987614
0.901772 0.101711 0.007006 -0.000449 0.994204 0.101261
0.735214 -0.101952 -0.000000 -0.000573 -0.996386 -0.071658
-0.015022 -0.181119 0.141961 -0.042946 0.568368 0.821653
-0.929963 0.010766 -0.101382 -0.001055 0.157549 -0.986450
-1.033582 0.098495 0.026325 -0.000245 0.958435 0.282785
-0.431573 0.054460 -0.086188 0.000294 0.494116 -0.868621
1.720508 -0.227079 -0.182055 0.064762 0.582401 -0.808991
1.377792 0.227982 -0.151331 -0.102897 0.721646 0.684572
-0.034851 0.224563 0.150321 -0.067492 0.615535 -0.785214
0.571456 -0.049714 -0.089010 -0.000270 -0.447676 -0.893472
0.915267 -0.101952 -0.000000 0.000221 -0.998489 -0.033740
0.215356 0.567045 -0.403909 0.105967 0.584501 0.804443
1.405819 -0.216246 0.174183 -0.068788 0.483229 0.871382
0.128469 -0.588508 -0.431267 -0.042946 0.568368 -0.821653
0.965196 0.051285 -0.088114 0.000316 0.465453 -0.884481
-1.440922 0.101447 0.010136 0.000706 0.986022 0.160253
-1.358776 0.089263 -0.049259 -0.000364 0.898621 -0.436995
1.546060 -0.095389 0.052248 0.000000 -0.587811 -0.808998
0.208363 -0.712718 0.521363 -0.042946 0.568368 0.821653
1.561368 -0.171381 -0.107463 0.000000 -0.587811 0.808998
1.665658 -0.364725 -0.252210 -0.102897 -0.721646 0.684572
-0.158663 -0.165575 0.114722 -0.067492 -0.615535 -0.785214
1.088701 0.094734 0.037679 -0.000912 0.933490 0.356231
0.870985 0.084598 -0.056898 -0.000051 0.817275 -0.574869
1.664793 -0.121082 0.105038 0.000000 0.587811 0.808998
1.655569 0.341826 -0.262687 -0.102897 -0.428123 -0.897844
1.676880 0.282658 0.188316 -0.000000 0.587811 -0.808998
-0.064274 -0.021303 -0.099702 -0.000193 -0.247536 -0.968024
-0.497286 -0.101650 0.007845 -0.002409 -0.991798 0.122906
0.224582 -0.429268 0.316276 0.067537 0.586469 0.807151
0.615427 -0.101784 0.005853 0.000067 -0.994145 0.102337
0.681543 0.084237 -0.057431 -0.001155 0.818363 -0.573255
0.208472 -0.264439 -0.197861 0.067537 0.586469 -0.807151
1.240815 -0.156758 0.096838 -0.068788 -0.679454 -0.728807
0.029419 0.516793 0.376481 -0.042946 -0.568368 0.821653
0.104104 -0.260021 0.166174 0.048198 -0.596426 -0.800127
1.328078 0.128196 0.110207 0.000000 -0.587811 0.808998
1.324508 -0.016908 0.100540 -0.000558 -0.215138 0.975762
-1.276035 -0.061451 -0.081351 -0.000817 -0.643673 -0.764422
0.139381 0.426091 0.319487 -0.042946 -0.568368 0.821653
0.222157 -0.065298 0.078297 -0.000503 -0.664347 0.746479
-1.802256 0.039077 -0.075451 -0.340372 0.399133 -0.849770
0.633412 0.012640 0.101165 0.000261 0.123675 0.991549
0.536744 0.101153 -0.012738 0.001034 0.989864 -0.135653
0.706846 -0.073606 0.070543 0.000028 -0.687964 0.724647
1.528001 0.119883 -0.070045 -0.000000 0.587811 0.808998
-0.395115 0.000000 -0.101952 -0.000599 -0.023191 -0.999094
-1.555340 0.093443 0.040775 -0.000094 0.909339 0.414140
-0.007621 0.149933 -0.089478 -0.067492 0.615535 0.785214
1.512131 0.287799 0.220486 -0.102897 -0.428123 0.897844
-1.613155 -0.100021 0.019749 -0.000015 -0.967904 0.247975
0.202490 -0.082998 -0.059207 0.000218 -0.782460 -0.621492
0.731583 -0.026052 -0.098567 -0.000072 -0.287221 -0.957114
1.795595 -0.112784 -0.081948 0.208088 0.563519 -0.799466
-1.787937 0.089611 0.008070 -0.299695 0.943060 0.137446
-0.147139 0.099985 0.019930 -0.000155 0.974409 0.220981
-0.926982 -0.091053 -0.045864 -0.000224 -0.904141 -0.425414
-0.818567 -0.094055 -0.039343 0.000028 -0.900658 -0.432931
1.798950 0.058977 0.021160 1.000000 0.000000 0.000000
0.232122 0.395826 0.281711 0.105967 0.584501 -0.804443
-1.120077 -0.071152 -0.073018 -0.000004 -0.713166 -0.699858
-0.239579 -0.038953 -0.094217 -0.000264 -0.369920 -0.928232
1.658489 -0.356083 0.244178 -0.102897 -0.721646 -0.684572
0.377507 0.047304 0.090314 -0.000310 0.495928 0.867496
0.043797 0.472397 0.337840 -0.067492 0.615535 -0.785214
-1.558367 -0.077632 -0.066088 0.001052 -0.750031 -0.660254
-1.737495 0.079535 0.061514 -0.111362 0.807853 0.577240
-0.128903 -0.010067 -0.101454 0.000657 -0.130686 -0.990401
1.072414 0.089712 -0.075638 -0.102897 -0.428123 -0.897844
-0.976972 -0.055067 -0.085801 0.000780 -0.585345 -0.809886
1.517987 0.224472 0.180160 0.000000 -0.587811 0.808998
-0.030876 0.265709 -0.182234 -0.067492 0.615535 0.785214
-0.805235 0.000000 -0.101952 -0.001496 -0.048037 -0.998186
1.223447 -0.132561 -0.113379 -0.034489 0.536459 -0.841767
-0.012512 -0.271844 -0.185465 -0.067492 -0.615535 0.785214
0.730631 -0.006787 0.101726 -0.001641 -0.047415 0.998218
-0.206197 -0.104910 -0.079251 -0.042946 0.568368 -0.821653
-1.246081 0.058278 0.083653 -0.000082 0.528259 0.848276
1.624201 0.129845 0.077283 0.000000 0.587811 -0.808998
-1.238594 0.060125 -0.082336 -0.000513 0.586588 -0.808952
0.042359 0.123212 -0.104904 -0.042946 -0.568368 -0.821653
0.007530 -0.093176 0.082306 -0.042946 0.568368 0.821653
-0.653936 0.068578 0.075440 0.000017 0.714028 0.699014
-0.418654 0.101280 0.011688 -0.001948 0.986739 0.155775
1.564367 0.036076 0.095356 0.000245 0.320829 0.946319
-1.804238 -0.070859 0.045486 -0.351269 -0.758886 0.546041
0.274970 -0.089607 0.048629 -0.000200 -0.893743 0.447019
0.349822 -0.080114 0.063055 0.000214 -0.781414 0.622782
0.029338 0.166421 0.099226 -0.067492 0.615535 -0.785214
0.532098 0.028462 -0.097898 -0.000183 0.262284 -0.964140
-0.865416 -0.074504 -0.069594 0.000697 -0.765016 -0.642940
1.493986 -0.171129 0.107280 -0.000000 -0.587811 -0.808998
-1.017680 0.057185 -0.084405 -0.000013 0.554302 -0.831395
1.570959 0.301392 0.233710 -0.102897 -0.428123 0.897844
0.147035 0.341985 -0.231383 0.105967 0.584501 0.804443
0.258317 -0.705926 -0.510478 0.105967 -0.584501 0.804443
0.294319 -0.095811 -0.034848 -0.000237 -0.952857 -0.300844
1.286872 -0.107319 0.060916 -0.000000 -0.587811 -0.808998
-0.066282 0.291235 0.205288 -0.067492 0.615535 -0.785214
-0.036372 -0.050397 0.088625 -0.000166 -0.480679 0.876056
-1.189952 -0.023638 -0.099174 0.000289 -0.175650 -0.983709
1.416497 -0.015685 -0.100738 0.001330 -0.195579 -0.979492
1.660192 -0.194271 -0.158216 -0.000000 0.587811 -0.808998
0.502821 -0.092863 0.042080 0.000360 -0.908105 0.416803
-0.760873 0.091372 0.045226 -0.000165 0.907761 0.417544
0.118366 0.678419 0.492933 -0.067492 0.615535 -0.785214
0.083281 -0.218991 -0.135800 -0.067492 -0.615535 0.785214
1.673519 0.174545 0.143884 0.000000 -0.587811 0.808998
-1.654431 -0.017739 -0.100397 -0.000390 -0.214613 -0.975955
1.454576 -0.118811 -0.103388 -0.000000 0.587811 -0.808998
0.275080 -0.000000 0.101952 0.000729 -0.017270 0.999378
1.074270 -0.006225 0.101762 0.000488 -0.101967 0.994232
-0.151394 -0.029789 0.097503 0.000054 -0.344403 0.938040
0.654768 0.100326 0.018135 0.000605 0.972881 0.227908
1.778087 -0.000000 -0.092777 0.144811 0.057170 -0.986913
1.722175 -0.351534 0.241204 0.208088 -0.586250 -0.782950
1.545821 -0.269907 0.213173 -0.000000 0.587811 0.808998
1.733743 -0.075946 -0.051924 -0.034370 0.808520 0.587464
-0.830873 0.101377 0.010815 -0.000109 0.988966 0.140553
1.717824 -0.275466 0.183090 0.069747 -0.589460 -0.803257
0.215611 0.095516 0.035649 -0.000035 0.928675 0.368948
-1.091004 -0.042536 0.092655 -0.000259 -0.430837 0.901803
-0.178089 -0.096029 0.034244 -0.000067 -0.921366 0.386643
0.708022 0.089667 0.048518 -0.000062 0.873272 0.485590
1.394293 0.072975 -0.071196 0.000220 0.752720 -0.657148
0.035475 -0.037191 -0.094927 0.000005 -0.323082 -0.945743
1.646166 -0.394844 0.286890 -0.102897 0.428123 0.897844
1.689991 -0.101670 0.007575 -0.000097 -0.993493 0.107991
1.460289 -0.230849 0.184794 -0.000000 0.587811 0.808998
1.700502 0.101657 0.007750 -0.000228 0.994503 0.097566
-1.432877 -0.101730 0.006726 0.001235 -0.994857 0.094811
1.615743 0.063762 0.079552 0.000095 0.580031 0.813621
-0.044003 -0.204493 -0.135375 -0.067492 -0.615535 0.785214
0.114675 0.382219 0.287848 -0.042946 -0.568368 0.821653
0.090450 -0.099121 -0.023860 0.000361 -0.957810 -0.284373
0.977903 0.052703 0.087273 -0.000075 0.502599 0.863643
-0.427405 -0.101410 0.010497 -0.001475 -0.988081 0.147418
1.137224 -0.091521 -0.044924 0.000564 -0.910797 -0.410937
1.160169 0.008387 -0.101606 -0.000144 0.050783 -0.997869
-1.870420 -0.043156 0.016184 -0.628888 -0.745541 0.210973
-0.617917 -0.097040 0.031263 0.000032 -0.943366 0.329365
-0.075254 0.183451 0.140425 -0.042946 -0.568368 0.821653
1.402887 0.186630 -0.118542 0.000000 0.587811 0.808998
-1.401902 0.077821 0.065864 0.000179 0.733425 0.678462
1.168180 -0.077312 0.066461 -0.000257 -0.720716 0.692100
1.545187 -0.258889 -0.171046 -0.000000 -0.587811 0.808998
0.170364 0.595593 -0.423536 -0.067492 0.615535 0.785214
0.156763 -0.498403 0.348517 -0.067492 -0.615535 -0.785214
-0.116012 -0.236871 -0.166946 -0.067492 -0.615535 0.785214
-1.676226 -0.090125 0.047662 -0.001331 -0.873195 0.485900
-1.814213 -0.052585 -0.060350 -0.406692 -0.650824 -0.638601
-0.021599 -0.141738 0.084255 -0.067492 -0.615535 -0.785214
-0.176043 0.149188 0.111457 -0.042946 -0.568368 0.821653
0.918916 -0.052435 -0.087435 -0.000112 -0.561891 -0.826310
0.090786 -0.377323 -0.283212 -0.042946 0.568368 -0.821653
1.637506 0.390870 -0.284002 -0.102897 0.721646 0.684572
0.155737 -0.396618 0.298313 0.067537 0.586469 0.807151
1.734980 0.198102 -0.129722 0.208088 0.586250 0.782950
1.400483 -0.162006 -0.134773 0.000000 0.587811 -0.808998
0.050889 -0.336710 -0.253033 -0.042946 0.568368 -0.821653
0.904995 0.020829 0.099802 0.000558 0.247267 0.968257
-1.563805 -0.088301 0.050963 -0.000099 -0.849860 0.525416
1.070216 -0.008493 -0.101598 0.000395 -0.121165 -0.991657
1.342570 -0.160554 0.099596 -0.000000 -0.587811 -0.808998
1.664033 -0.104229 -0.092793 -0.000000 0.587811 -0.808998
1.787992 0.093033 0.065138 0.208088 0.586250 -0.782950
0.266097 -0.428027 -0.311901 0.067537 0.586469 -0.807151
1.366122 -0.229491 -0.154675 -0.102897 -0.721646 0.684572
-0.522583 -0.091413 -0.045144 0.000446 -0.874426 -0.483653
0.004260 0.087463 0.053070 0.000000 -0.808998 -0.587811
0.276851 -0.668036 0.485389 0.105967 -0.584501 -0.804443
0.108904 0.664230 -0.482623 -0.067492 0.615535 0.785214
0.015646 0.221639 -0.143688 -0.067492 0.615535 0.785214
0.265974 0.314467 0.229399 0.067537 -0.586469 0.807151
-0.023561 -0.465583 -0.338288 -0.067492 -0.615535 0.785214
0.838665 -0.018924 -0.100180 0.000148 -0.239962 -0.969795
0.053498 -0.361236 0.249867 -0.067492 -0.615535 -0.785214
-0.060079 0.101738 -0.006610 -0.000473 0.994248 -0.100766
0.083189 -0.134194 0.113708 0.067537 0.586469 0.807151
0.227052 0.549063 0.403111 0.067537 -0.586469 0.807151
1.395463 0.144952 0.122382 0.000000 -0.587811 0.808998
-0.028990 -0.366592 0.261155 -0.067492 -0.615535 -0.785214
-0.304882 0.049680 -0.089029 -0.000015 0.444103 -0.895099
1.517493 0.076926 0.063226 -0.034370 -0.808520 -0.587464
1.589544 -0.329368 -0.226379 -0.102897 -0.721646 0.684572
-1.123930 0.062981 0.080173 -0.000110 0.642220 0.765491
1.715449 0.426635 -0.309989 -0.102897 0.721646 0.684572
-0.884178 0.075310 -0.068722 -0.000038 0.702171 -0.710927
-1.655274 -0.031385 0.097001 0.000427 -0.277145 0.960107
1.304322 0.127593 -0.075647 0.000000 0.587811 0.808998
0.099571 -0.538814 0.395381 -0.042946 0.568368 0.821653
-0.742721 0.079786 -0.063470 -0.000025 0.775555 -0.630015
1.145553 0.153793 -0.114576 -0.102897 -0.428123 -0.897844
0.234179 0.236271 0.175243 0.067537 -0.586469 0.807151
1.611510 -0.060363 0.082162 0.002907 -0.552617 0.832333
1.724917 -0.423520 -0.305282 -0.102897 -0.721646 0.684572
1.691300 -0.196039 0.125379 0.000000 -0.587811 -0.808998
-0.639875 -0.030035 -0.097428 0.000191 -0.288599 -0.956692
1.527102 0.294635 -0.199151 -0.102897 0.721646 0.684572
-0.089820 -0.125781 -0.077610 -0.067492 -0.615535 0.785214
0.181768 -0.130706 0.082445 0.105967 -0.584501 -0.804443
-0.117241 0.198004 -0.136583 -0.067492 0.615535 0.785214
0.070050 0.429268 -0.318061 -0.042946 -0.568368 -0.821653
-0.165881 0.094234 -0.038913 -0.000008 0.923379 -0.381859
0.059214 0.297498 -0.199410 -0.067492 0.615535 0.785214
0.262256 0.089120 -0.049516 0.000096 0.846208 -0.531371
1.361487 0.205351 0.163908 -0.102897 -0.428123 0.897844
1.212950 0.151983 -0.095993 -0.102897 0.721646 0.684572
-1.546348 0.099758 -0.021037 0.000349 0.976485 -0.211878
1.586953 -0.093914 -0.051176 -0.000000 -0.587811 0.808998
0.151561 0.263524 -0.201957 0.067537 -0.586469 -0.807151
0.225588 -0.372952 -0.264231 0.105967 -0.584501 0.804443
0.467919 -0.076954 -0.066876 -0.000014 -0.779541 -0.625085
1.780425 -0.082232 0.042214 0.145181 -0.877524 0.455359
0.075788 0.614568 -0.446539 -0.067492 0.615535 0.785214
-1.396403 -0.029295 0.097653 0.000114 -0.313374 0.948823
1.168356 -0.144196 -0.112613 -0.102897 0.428123 -0.897844
1.180800 0.071596 -0.072583 0.000865 0.691163 -0.721801
-0.298009 -0.050978 -0.088292 0.000022 -0.454140 -0.890025
-1.002290 0.027944 0.098048 -0.001176 0.326564 0.944263
1.691307 -0.324164 -0.218474 -0.000000 -0.587811 0.808998
1.586881 -0.174839 0.109975 0.000000 -0.587811 -0.808998
-1.315384 -0.101952 0.000000 -0.001214 -0.996835 -0.061896
0.233050 0.473053 0.337946 0.105967 0.584501 -0.804443
0.155804 -0.196765 -0.127022 0.105967 -0.584501 0.804443
-1.614562 -0.093258 -0.041197 -0.000184 -0.930065 -0.365267
0.159176 0.414748 -0.311199 0.067537 -0.586469 -0.807151
-0.451759 -0.046317 0.090824 0.000080 -0.437483 0.898374
-0.870202 -0.022165 -0.099514 0.001115 -0.273756 -0.960954
0.220811 -0.333723 0.235098 0.105967 -0.584501 -0.804443
1.130662 0.004834 0.101837 0.000613 0.090421 0.995372
1.671887 -0.259812 0.205838 -0.000000 0.587811 0.808998
0.024156 0.432354 0.308139 -0.067492 0.615535 -0.785214
1.556411 0.038176 -0.094535 -0.000056 0.332330 -0.942600
0.116797 0.099357 -0.022858 0.000282 0.972838 -0.228537
0.114021 0.058731 -0.083336 0.001323 0.607906 -0.793332
1.221028 0.030250 0.097361 0.000351 0.339739 0.939726
1.300247 0.154769 -0.129515 0.000000 -0.587811 -0.808998
1.551712 0.319948 -0.240352 -0.102897 -0.428123 -0.897844
0.249845 -0.576739 0.415496 0.105967 -0.584501 -0.804443
1.255366 0.000000 -0.101952 0.000233 -0.069054 -0.996634
-0.128584 0.251090 -0.179173 -0.067492 0.615535 0.785214
-0.299573 -0.091287 0.045397 0.000048 -0.869158 0.492904
-0.612190 -0.098920 -0.024679 -0.000951 -0.960687 -0.275018
-0.037239 0.050908 -0.088332 0.000017 0.500444 -0.864850
1.715449 -0.426635 0.309989 -0.102897 0.428123 0.897844
1.357057 -0.130913 -0.112182 -0.000000 0.587811 -0.808998
1.411468 0.093399 0.040877 0.000671 0.895253 0.444091
0.354714 -0.096101 -0.034040 -0.000133 -0.923019 -0.382804
1.633528 -0.301828 0.236366 -0.000000 0.587811 0.808998
-1.260705 0.099834 -0.020676 0.000169 0.966291 -0.254174
1.484560 -0.288135 0.198693 -0.102897 -0.721646 -0.684572
0.058608 0.347965 -0.261222 -0.042946 -0.568368 -0.821653
-0.183798 0.133203 -0.091506 -0.067492 0.615535 0.785214
1.471514 0.201196 -0.129126 -0.000000 0.587811 0.808998
1.512273 -0.286511 -0.219888 -0.102897 0.428123 -0.897844
-0.490708 0.053190 0.086977 -0.000109 0.500606 0.864758
-1.011812 -0.101234 0.012083 -0.000444 -0.982428 0.180959
0.052487 -0.168018 -0.136427 -0.042946 0.568368 -0.821653
-1.130174 0.050143 -0.088769 0.000066 0.502575 -0.863638
0.276851 0.594842 -0.432207 0.067537 -0.586469 -0.807151
-0.955177 -0.064489 0.078965 -0.000010 -0.674722 0.736990
1.286955 0.159158 0.098582 -0.000000 0.587811 -0.808998
1.342934 -0.024471 -0.098972 0.000060 -0.294220 -0.954902
-1.409386 0.095477 -0.035755 -0.000088 0.937270 -0.346337
0.072453 -0.033708 0.096219 0.000954 -0.322102 0.946133
-1.385404 0.000000 -0.101952 -0.000575 -0.025137 -0.998952
-0.809918 0.054580 -0.086112 -0.000001 0.571341 -0.819742
-1.671724 0.101247 0.011971 -0.001853 0.983274 0.176589
1.730898 0.247013 -0.165260 0.208088 0.586250 0.782950
1.412580 -0.088390 -0.050808 -0.000021 -0.853512 -0.519598
1.731459 -0.028907 -0.095326 0.145210 -0.330541 -0.931702
-1.468451 -0.058931 0.083195 -0.000016 -0.599786 0.799167
1.058114 -0.059398 0.082862 0.000255 -0.582667 0.811770
1.175568 0.081049 0.058576 -0.000000 -0.808998 -0.587811
-0.938120 0.096745 -0.032166 -0.000167 0.933798 -0.355603
-0.636069 0.046275 -0.090845 -0.000002 0.461722 -0.886133
0.351755 0.029395 -0.097623 -0.000037 0.328933 -0.943504
-1.808127 0.009965 0.082037 -0.362139 0.151154 0.918064
-1.389305 -0.095470 0.035773 -0.000229 -0.926636 0.373776
1.452245 0.008306 0.101613 -0.001329 0.120600 0.992040
-0.915723 -0.034006 0.096114 0.000087 -0.360819 0.931781
1.757950 -0.198990 -0.152510 0.208088 0.563519 -0.799466
1.608667 0.273411 0.181597 0.000000 0.587811 -0.808998
0.615169 -0.038579 0.094371 0.000089 -0.420917 0.906228
-0.663796 -0.086881 -0.053347 -0.000110 -0.825380 -0.563354
0.762568 0.100235 -0.018634 -0.000485 0.970822 -0.236618
0.156594 -0.319958 -0.242541 0.067537 0.586469 -0.807151
0.123200 0.467635 0.347379 -0.042946 -0.568368 0.821653
1.798950 0.084679 -0.029647 0.147934 0.926137 -0.344277
1.736421 -0.150949 -0.124251 0.208088 0.563519 -0.799466
-1.251966 -0.011505 0.101301 0.000972 -0.140739 0.988947
0.048396 -0.127150 0.066803 -0.067492 -0.615535 -0.785214
-0.855383 0.049691 0.089022 -0.000010 0.462334 0.885804
0.159817 -0.649383 -0.475014 -0.042946 0.568368 -0.821653
1.430985 0.108624 0.095986 0.000000 -0.587811 0.808998
-0.244933 0.096370 0.033274 0.000735 0.952623 0.301423
0.164302 0.138931 -0.086120 0.105967 0.584501 0.804443
0.049167 0.527223 -0.380357 -0.067492 0.615535 0.785214
0.266882 -0.217775 -0.156920 0.105967 -0.584501 0.804443
-0.870727 0.090869 0.046229 0.000048 0.903425 0.426901
0.014647 -0.118809 -0.100409 -0.042946 0.568368 -0.821653
-1.689627 0.062665 -0.080420 -0.000034 0.651390 -0.757732
1.617404 -0.288874 -0.192832 -0.000000 -0.587811 0.808998
1.737664 -0.296494 0.226518 0.208088 0.563519 0.799466
-1.664865 -0.081329 -0.061480 -0.000015 -0.820775 -0.569866
0.047622 0.385149 0.286370 -0.042946 -0.568368 0.821653
0.203997 0.433024 0.305035 0.105967 0.584501 -0.804443
1.674495 0.106346 0.094331 -0.000000 -0.587811 0.808998
-0.760255 -0.065163 -0.078409 -0.000251 -0.656247 -0.753502
0.813981 0.046713 -0.090621 -0.000144 0.472617 -0.880408
0.468047 0.060736 0.081886 0.000510 0.591046 0.805679
0.229138 -0.151583 -0.103853 0.105967 -0.584501 0.804443
0.109833 0.540657 0.397192 -0.042946 -0.568368 0.821653
1.514342 -0.163497 -0.135856 -0.000000 0.587811 -0.808998
-0.770254 0.057684 0.084064 0.000003 0.588181 0.807743
-0.146649 -0.092132 -0.043658 0.000133 -0.925131 -0.377586
0.877185 -0.094434 -0.038425 0.000738 -0.903859 -0.426055
-1.522754 -0.007134 0.101702 -0.000459 -0.089172 0.995475
-1.050575 -0.008237 -0.101619 -0.001080 -0.053578 -0.997848
0.204615 0.515134 0.364776 0.105967 0.584501 -0.804443
0.433288 -0.044401 0.091776 -0.000111 -0.430690 0.901631
-1.212043 -0.080664 0.062351 -0.000053 -0.809474 0.585798
-0.860158 -0.057013 0.084521 -0.000011 -0.535105 0.843843
0.244461 -0.751393 0.541688 0.105967 -0.584501 -0.804443
0.035312 0.045165 -0.091402 -0.000164 0.431334 -0.901429
1.533782 -0.144412 0.087868 0.000000 -0.587811 -0.808998
-0.664324 -0.087656 0.052063 -0.000166 -0.886097 0.461796
-0.820322 -0.025650 0.098673 0.000093 -0.223510 0.973887
1.422663 0.253223 -0.171193 -0.102897 0.721646 0.684572
-0.756091 -0.018614 -0.100238 -0.000291 -0.236485 -0.970803
0.349059 -0.023060 -0.099310 -0.001133 -0.220819 -0.974439
-1.508199 0.081720 0.060960 -0.000111 0.767001 0.640425
-0.000342 -0.423162 -0.303038 -0.067492 -0.615535 0.785214
-1.478323 -0.058909 -0.083210 -0.000438 -0.562037 -0.826176
0.189668 0.706036 -0.515763 -0.042946 -0.568368 -0.821653
0.220906 0.325010 -0.240830 0.067537 -0.586469 -0.807151
-0.995469 -0.035098 0.095720 0.000045 -0.369586 0.928340
1.343360 0.091559 -0.044846 0.000092 0.871322 -0.489093
-1.129323 -0.095564 0.035521 0.000121 -0.928409 0.369399
-0.628449 0.100247 -0.018566 -0.000619 0.979807 -0.196354
-0.167560 0.052107 0.087630 0.000021 0.558590 0.828503
1.277018 0.065701 0.077959 0.000170 0.639822 0.767537
-0.114055 0.083514 0.058504 0.000000 -0.808998 -0.587811
-0.910196 0.025556 0.098697 -0.000012 0.278022 0.959754
0.796969 -0.100583 0.016653 -0.000657 -0.987041 0.155579
1.036932 0.055582 0.085469 -0.000131 0.509151 0.859754
0.427031 0.099484 -0.022296 -0.000048 0.961624 -0.271534
-0.338458 0.090236 -0.047452 -0.000086 0.860844 -0.507350
-0.478603 -0.049525 -0.089115 0.000136 -0.525517 -0.849883
1.551005 0.177760 -0.146220 0.000000 -0.587811 -0.808998
1.674495 0.106346 -0.094331 0.000000 -0.587811 -0.808998
1.674210 -0.274839 -0.216757 0.000000 0.587811 -0.808998
-0.208066 0.188897 -0.137251 -0.067492 0.615535 0.785214
-0.317243 -0.085337 -0.055784 0.000070 -0.811497 -0.583046
0.141844 0.629411 0.452498 -0.067492 0.615535 -0.785214
1.366415 -0.097527 -0.029712 0.000571 -0.938382 -0.343275
1.310793 -0.190096 -0.150824 -0.102897 0.428123 -0.897844
-0.705532 0.094261 0.038847 0.000250 0.913262 0.405491
0.216605 0.099310 -0.023058 0.000458 0.959976 -0.277207
1.487724 0.098869 -0.024882 0.000268 0.962221 -0.269771
0.997697 -0.078104 -0.065528 -0.000060 -0.728037 -0.684381
1.191808 0.143736 0.090477 -0.102897 0.721646 -0.684572
1.550901 -0.351130 0.255128 -0.102897 0.428123 0.897844
0.084728 0.152886 -0.085778 0.105967 0.584501 0.804443
-0.397882 0.085622 0.055345 -0.000100 0.807090 0.589078
1.161337 -0.060126 -0.082335 0.000004 -0.568797 -0.821566
-1.869966 0.032187 -0.033490 -0.643356 0.572109 -0.499929
-0.488100 0.048961 -0.089426 -0.000447 0.484299 -0.874101
1.154326 -0.119094 0.099036 -0.102897 0.428123 0.897844
1.556675 -0.126876 -0.075126 0.000000 -0.587811 0.808998
-0.408743 -0.085815 0.055046 -0.000015 -0.809296 0.586081
0.222279 -0.465510 -0.342801 0.067537 0.586469 -0.807151
1.297831 -0.080900 -0.058781 0.000000 0.808998 0.587811
-0.579112 -0.044966 -0.091500 0.000625 -0.481364 -0.875789
0.165757 -0.011181 0.101337 0.001067 -0.160267 0.986168
1.508607 -0.057509 0.084184 0.000065 -0.604573 0.795560
1.331412 0.202083 -0.158902 -0.102897 -0.428123 -0.897844
1.478307 0.053262 0.086933 -0.000304 0.510535 0.858864
1.500810 -0.215295 0.139370 -0.000000 -0.587811 -0.808998
0.541655 -0.007405 0.101683 -0.001178 -0.124965 0.991394
0.194525 0.706976 0.508773 -0.067492 0.615535 -0.785214
1.509025 0.143011 0.120971 0.000000 -0.587811 0.808998
-0.766050 -0.086096 0.054605 -0.000123 -0.829007 0.557895
1.330299 0.089202 0.049369 -0.000605 0.852024 0.522218
0.499151 0.091517 -0.044933 0.000109 0.913317 -0.405346
0.998654 0.010161 -0.101444 -0.000459 0.127669 -0.990851
0.195876 0.258932 -0.177471 0.105967 0.584501 0.804443
0.912348 0.058733 -0.083334 0.001051 0.594778 -0.802954
1.494543 0.019615 -0.100047 0.000229 0.246607 -0.968312
1.745704 -0.128351 0.080344 0.208088 -0.586250 -0.782950
1.748791 0.036551 0.089928 0.145203 0.372206 0.915861
1.478554 -0.209953 -0.169611 -0.000000 0.587811 -0.808998
0.276851 0.708700 -0.514935 0.067537 -0.586469 -0.807151
0.276851 -0.521647 -0.379024 0.105967 -0.584501 0.804443
0.276851 0.367125 -0.266750 0.067537 -0.586469 -0.807151
0.276851 0.098745 0.071747 0.067537 -0.586469 0.807151
0.276851 -0.497249 0.361296 0.105967 -0.584501 -0.804443
1.435538 -0.261348 -0.177824 -0.102897 -0.721646 0.684572
1.745859 0.142308 0.115704 0.208088 -0.563519 0.799466
-1.723003 -0.099008 -0.023179 -0.078055 -0.975075 -0.201116
0.100906 0.405554 -0.280533 -0.067492 0.615535 0.785214
1.639824 0.210961 0.136221 -0.000000 0.587811 -0.808998
-1.432736 0.023668 -0.099167 -0.000969 0.281387 -0.958773
0.063002 -0.424333 -0.298512 -0.067492 -0.615535 0.785214
1.650585 0.214423 -0.138737 -0.000000 0.587811 0.808998
-0.129444 -0.069998 0.074125 0.000328 -0.674885 0.736909
0.157068 -0.405250 -0.304474 0.067537 0.586469 -0.807151
-0.771028 -0.042707 0.092576 0.000139 -0.442476 0.895905
-1.710229 0.092272 -0.043360 0.001147 0.897129 -0.439685
-0.629229 -0.018035 0.100344 0.000228 -0.202140 0.978646
1.658489 0.342246 0.263222 -0.102897 -0.428123 0.897844
1.356648 0.178089 0.112337 -0.000000 0.587811 -0.808998
0.965282 -0.101952 -0.000000 -0.001496 -0.998522 -0.031167
0.125283 0.096801 0.031996 0.000000 0.936943 0.347553
0.413109 0.048184 -0.089847 0.000849 0.495513 -0.867689
0.135603 -0.178127 0.110819 0.105967 -0.584501 -0.804443
1.462474 0.298390 -0.219845 -0.102897 -0.428123 -0.897844
1.561607 -0.225508 0.180913 -0.000000 0.587811 0.808998
1.671887 0.259812 -0.205838 -0.000000 -0.587811 -0.808998
-0.075601 -0.387543 -0.281585 -0.067492 -0.615535 0.785214
-0.127641 -0.309504 -0.224883 -0.067492 -0.615535 0.785214
-0.174950 -0.238558 -0.173334 -0.067492 -0.615535 0.785214
-0.208066 -0.188897 -0.137251 -0.067492 -0.615535 0.785214
-0.023561 0.465583 -0.338288 -0.067492 0.615535 0.785214
-0.179681 0.231464 0.168180 -0.067492 0.615535 -0.785214
-0.070870 0.394638 -0.286740 -0.067492 0.615535 0.785214
1.790226 0.177107 0.128684 0.208088 -0.563519 0.799466
1.781503 0.281632 -0.204631 0.208088 -0.563519 -0.799466
1.783516 0.257511 0.187105 0.208088 -0.563519 0.799466
0.035153 -0.290189 -0.195749 -0.067492 -0.615535 0.785214
0.068899 -0.514823 -0.377182 -0.042946 0.568368 -0.821653
-1.304904 -0.057370 0.084279 0.000249 -0.543660 0.838381
1.628845 -0.386896 -0.281115 -0.102897 0.428123 -0.897844
1.369033 0.267677 -0.194491 -0.102897 0.721646 0.684572
0.068193 0.143539 0.120314 -0.042946 -0.568368 0.821653
1.633739 0.093720 -0.040135 -0.000302 0.896857 -0.440714
0.821411 0.015458 0.100773 0.001220 0.158275 0.986315
0.272191 -0.061195 -0.081544 0.000227 -0.629735 -0.775874
0.034524 0.269245 0.205510 -0.042946 -0.568368 0.821653
-0.072807 -0.096538 -0.032782 0.000043 -0.941189 -0.335556
0.067407 -0.397039 0.295629 -0.042946 0.568368 0.821653
-0.083722 0.271742 -0.191506 -0.067492 0.615535 0.785214
1.596387 0.219826 -0.176785 0.000000 -0.587811 -0.808998
-0.528919 0.096018 -0.034275 -0.000395 0.937643 -0.345495
-0.904440 -0.099647 0.021557 0.000176 -0.971082 0.234967
1.075687 -0.090895 0.046177 0.000091 -0.892759 0.448785
1.382753 0.150019 -0.091941 0.000000 0.587811 0.808998
-1.213864 0.099786 0.020904 -0.000430 0.963645 0.263682
1.291089 -0.231911 0.168504 -0.102897 0.428123 0.897844
-0.253261 -0.101029 -0.013689 0.000583 -0.988314 -0.147074
1.732422 0.303261 0.232652 0.208088 -0.563519 0.799466
0.176883 -0.684658 0.492794 -0.067492 -0.615535 -0.785214
-1.590673 0.052062 -0.087657 -0.000154 0.505553 -0.861880
1.704658 0.362418 0.278132 -0.102897 -0.428123 0.897844
0.074291 0.474560 -0.336915 -0.067492 0.615535 0.785214
1.713136 -0.379333 -0.287169 -0.102897 0.428123 -0.897844
0.227113 -0.182855 0.126309 0.105967 -0.584501 -0.804443
-1.056039 0.079711 -0.063564 -0.000142 0.776814 -0.628554
0.450378 -0.095091 0.036770 -0.000107 -0.914300 0.403105
-0.729937 0.010213 0.101439 0.000034 0.154668 0.987091
1.624201 -0.129845 0.077283 0.000000 -0.587811 -0.808998
1.478728 0.219633 -0.176645 0.000000 -0.587811 -0.808998
1.698831 -0.119308 0.069627 0.000000 -0.587811 -0.808998
-0.672646 -0.043703 0.092110 -0.000557 -0.454194 0.890006
1.742406 0.237320 0.161061 0.208088 0.586250 -0.782950
1.412335 0.287546 0.208929 -0.102897 0.721646 -0.684572
0.066326 0.600379 0.436230 -0.067492 0.615535 -0.785214
0.237213 0.149940 -0.103724 0.105967 0.584501 0.804443
1.464297 0.311390 0.226253 -0.102897 0.721646 -0.684572
1.215891 0.103445 -0.092223 -0.000000 -0.587811 -0.808998
1.119613 0.115057 -0.071097 -0.102897 0.721646 0.684572
-1.778546 0.080394 -0.046260 -0.247016 0.841479 -0.477933
-0.130246 -0.163714 -0.123898 -0.042946 0.568368 -0.821653
0.245248 0.295587 -0.210608 0.105967 0.584501 0.804443
1.250253 -0.106161 0.094197 -0.000000 0.587811 0.808998
0.062789 -0.471101 0.335192 -0.067492 -0.615535 -0.785214
-0.118296 0.292376 0.210653 -0.067492 0.615535 -0.785214
0.102848 -0.027094 -0.098286 0.000047 -0.307194 -0.950833
0.226758 -0.583299 -0.417221 0.105967 -0.584501 0.804443
0.199481 0.353983 0.263675 0.067537 -0.586469 0.807151
0.498543 0.060544 -0.082028 0.001449 0.559868 -0.827869
0.125295 0.308016 -0.203837 0.105967 0.584501 0.804443
1.574060 0.095351 0.036089 0.000300 0.927872 0.370820
0.076877 0.199104 0.159205 -0.042946 -0.568368 0.821653
1.466133 0.153238 -0.128402 0.000000 -0.587811 -0.808998
0.071277 -0.223409 0.175725 -0.042946 0.568368 0.821653
0.276851 0.220736 -0.160385 0.067537 -0.586469 -0.807151
1.249096 -0.173578 -0.113324 -0.102897 -0.721646 0.684572
0.225738 -0.529594 0.389075 0.067537 0.586469 0.807151
0.379585 0.089755 0.048355 -0.000092 0.872531 0.486972
-0.007803 0.405164 -0.289571 -0.067492 0.615535 0.785214
-0.012471 -0.220388 -0.169258 -0.042946 0.568368 -0.821653
0.104104 -0.260021 -0.166174 -0.009621 -0.606771 0.793717
0.169677 -0.121526 -0.074182 0.105967 -0.584501 0.804443
-0.227020 0.053318 -0.086899 -0.000121 0.563578 -0.825104
1.355977 -0.112390 0.098722 0.000000 0.587811 0.808998
-1.229536 -0.051352 -0.088075 0.000117 -0.550909 -0.833623
