1.645246 -0.172657 0.165531 -0.000000 -0.732739 -0.680510
-0.112987 -0.219511 -0.248024 -0.087996 0.697593 -0.711071
-0.528764 0.036377 -0.083106 -0.000772 0.453234 -0.890352
0.139164 0.391588 0.414135 0.058302 0.731492 -0.679352
-0.749848 -0.055347 0.071879 0.000481 -0.580686 0.812951
1.336914 -0.085134 -0.071291 0.000000 -0.732739 0.680510
0.074300 0.026761 -0.086681 -0.000007 0.353325 -0.934425
-0.010791 -0.446285 -0.478216 -0.071630 -0.755988 0.650655
-0.970532 0.000000 -0.090719 0.001036 0.034125 -0.998418
-0.280154 0.000000 -0.090719 0.002735 0.092194 -0.993571
1.503282 0.236695 0.254861 -0.139178 -0.457585 0.878206
1.692936 0.162733 0.175223 0.353973 0.728554 -0.586441
-0.041311 0.036582 0.083016 -0.000317 0.421666 0.905683
0.370950 0.016752 -0.089158 -0.001156 0.206721 -0.977745
-1.707782 0.081773 -0.023875 -0.208787 0.919284 -0.330536
-1.139693 -0.050069 0.075650 -0.000223 -0.498060 0.866161
-1.233157 0.088682 0.019117 0.000259 0.971482 0.232786
-1.454044 -0.083856 -0.034613 0.000036 -0.900646 -0.432244
1.546467 0.079011 -0.044576 -0.000129 0.900866 -0.431585
-0.070083 0.180917 -0.215471 -0.087996 -0.697593 -0.711071
-0.053115 0.335476 0.369200 -0.087996 -0.697593 0.711071
0.086832 -0.067716 0.087677 0.071681 0.730854 0.678759
0.588960 -0.032720 0.084612 0.000022 -0.392640 0.918595
-0.887403 0.085907 0.029151 -0.001300 0.942939 0.330905
0.079620 0.530466 0.576920 -0.087996 -0.697593 0.711071
0.226638 0.271463 -0.292298 0.058302 0.731492 0.679352
0.226638 0.176747 0.190312 0.058302 0.731492 -0.679352
0.217896 -0.532407 -0.572519 0.058302 -0.731492 0.679352
1.133693 -0.131292 0.141369 -0.139178 -0.909585 -0.391515
-0.519489 0.040082 0.081384 0.000515 0.467228 0.882942
1.611433 -0.172941 -0.206590 -0.000000 0.732739 -0.680510
-0.062781 0.164572 0.156621 -0.071630 0.755988 -0.650655
-1.674757 -0.053281 -0.072472 -0.079365 -0.636590 -0.765829
1.232285 0.093481 0.080279 -0.000000 0.732739 -0.680510
1.534459 -0.221141 0.251697 -0.139178 0.457585 0.878206
0.087661 -0.600855 0.646970 -0.087996 0.697593 0.711071
1.354062 -0.181959 -0.180742 -0.139178 -0.909585 0.391515
-0.658714 -0.029611 -0.085750 0.000102 -0.353063 -0.934528
0.146677 -0.142943 -0.162358 0.071681 0.730854 -0.678759
0.226638 -0.339117 -0.365144 0.071681 0.730854 -0.678759
1.606812 -0.089825 -0.012705 -0.000023 -0.984761 -0.167265
1.397246 0.097912 0.125803 -0.000000 -0.732739 0.680510
1.675089 0.088749 0.024595 -0.056913 0.951876 0.298064
1.370766 -0.120203 0.109052 0.000000 -0.732739 -0.680510
0.063190 -0.231442 -0.235178 0.058302 -0.731492 0.679352
0.720395 0.000000 -0.090719 -0.000783 0.072666 -0.996026
0.054968 0.154520 -0.151646 0.058302 0.731492 0.679352
0.064498 0.570904 -0.614720 -0.087996 -0.697593 -0.711071
1.263049 -0.168183 0.181091 -0.139178 -0.909585 -0.391515
0.290923 -0.067266 0.060870 -0.000285 -0.756678 0.652392
0.123307 0.451490 -0.477273 0.058302 0.731492 0.679352
-1.061054 -0.085322 -0.030823 0.000156 -0.916223 -0.398111
0.226638 0.582673 0.627393 0.058302 0.731492 -0.679352
1.198371 0.149738 -0.161230 -0.139178 0.909585 0.391515
0.170093 0.090719 -0.000000 -0.000891 0.996197 -0.076764
-0.208103 0.089129 -0.016907 -0.001183 0.973028 -0.225995
1.170012 -0.083792 -0.034768 0.000111 -0.912524 -0.406581
0.189929 -0.255211 0.271648 0.058302 -0.731492 -0.679352
-0.171574 -0.028524 0.086117 0.000072 -0.372798 0.926845
-0.005058 -0.090315 -0.008549 -0.000064 -0.997052 -0.062625
0.796299 0.023936 0.087504 -0.000198 0.234074 0.971388
-0.298082 0.025755 0.086986 -0.000081 0.308304 0.950229
-1.314156 -0.071302 -0.056089 0.000408 -0.754501 -0.655389
0.063199 -0.160178 0.189731 0.071681 0.730854 0.678759
-0.066606 -0.231923 0.235296 -0.071630 -0.755988 -0.650655
0.868468 -0.083002 0.036613 0.000206 -0.899451 0.434893
-1.368995 0.073256 0.053511 0.000036 0.790667 0.610670
1.124980 -0.007739 0.090388 -0.000106 -0.058836 0.997410
0.815983 0.082516 -0.037696 0.001373 0.893341 -0.446511
1.422791 0.114230 -0.143374 -0.000000 -0.732739 -0.680510
1.647783 0.204269 -0.199570 0.238012 0.738329 0.625063
-0.123184 -0.125516 -0.154548 -0.087996 0.697593 -0.711071
-1.591535 0.082655 0.037391 -0.000013 0.896929 0.439889
1.130620 0.090719 -0.000000 0.001151 0.996070 -0.075140
-0.824874 -0.086070 -0.028667 0.000351 -0.939946 -0.338750
0.117433 0.329423 -0.345334 0.058302 0.731492 0.679352
0.193707 0.006192 0.090507 0.000196 0.100992 0.994192
0.073325 0.307819 0.347634 0.071681 -0.730854 0.678759
-0.176280 -0.150531 0.152802 -0.071630 -0.755988 -0.650655
-0.231987 0.187530 0.201922 -0.071630 0.755988 -0.650655
1.440790 -0.090719 0.000000 -0.000804 -0.995151 -0.079403
1.725514 0.008975 -0.061328 1.000000 0.000000 0.000000
1.601594 0.011886 0.089936 0.000484 0.142243 0.988878
-0.260143 -0.090719 0.000000 0.000924 -0.998767 -0.028415
-0.408221 -0.029968 0.085626 -0.000455 -0.299726 0.953035
-0.406949 0.018510 -0.088810 0.000031 0.263043 -0.963737
-0.037418 -0.439119 0.472821 -0.087996 0.697593 0.711071
0.942922 0.064664 -0.076419 0.000000 -0.680510 0.732739
0.177006 0.195644 -0.206401 0.058302 0.731492 0.679352
-1.570861 -0.090719 0.000000 -0.000600 -0.996406 -0.064527
0.601389 0.069144 -0.058728 0.001073 0.792473 -0.608447
-1.087390 0.039931 -0.081458 -0.000120 0.496127 -0.867165
0.419893 0.029819 0.085678 -0.000084 0.343812 0.938002
-1.476754 0.090367 -0.007982 0.000656 0.993845 -0.104155
-0.035001 0.285863 -0.294489 -0.071630 0.755988 0.650655
-1.022617 -0.016702 0.089168 -0.000027 -0.215323 0.975537
0.468842 -0.052975 -0.073645 -0.000017 -0.610418 -0.790812
0.106191 -0.624816 -0.672770 -0.087996 0.697593 -0.711071
0.035012 0.090305 0.008648 0.000062 0.996931 0.064794
-0.775328 0.060961 0.067183 -0.000594 0.623091 0.780926
0.169351 -0.419717 0.447014 0.058302 -0.731492 -0.679352
-0.027433 -0.287000 -0.294977 -0.071630 -0.755988 0.650655
1.420779 0.000000 -0.090719 -0.002993 0.025279 -0.999031
0.250137 0.000000 -0.090719 0.000433 0.072429 -0.996053
1.411703 -0.012289 0.089882 0.000366 -0.182976 0.982026
-1.757163 0.017569 0.067182 -0.399554 0.155909 0.901504
1.404033 0.186684 0.213074 -0.139178 -0.457585 0.878206
1.299198 0.120849 -0.109748 -0.000000 0.732739 0.680510
1.106241 0.009747 -0.090193 -0.000245 0.141493 -0.988761
-0.037096 -0.015889 -0.089316 -0.000689 -0.228152 -0.972587
1.484788 -0.166971 0.159409 0.000000 -0.732739 -0.680510
0.185196 -0.561864 0.601430 0.058302 -0.731492 -0.679352
-0.165197 0.010524 -0.090106 -0.001437 0.169763 -0.984139
1.014587 0.029779 0.085692 0.000032 0.357041 0.933012
1.477818 0.078461 0.045539 -0.001255 0.851659 0.521932
1.615905 -0.008673 -0.090303 -0.000016 -0.126957 -0.990892
0.339785 -0.081040 -0.040772 -0.000805 -0.909077 -0.414589
-0.644746 -0.012387 0.089869 -0.000477 -0.195113 0.979664
1.074413 -0.087157 0.025171 0.000484 -0.941994 0.332931
0.113607 0.194247 0.199455 0.058302 0.731492 -0.679352
0.090767 -0.087514 -0.082570 0.058302 -0.731492 0.679352
0.117433 -0.329423 0.345334 0.058302 -0.731492 -0.679352
1.725514 -0.094960 -0.000000 -0.054641 -0.996959 -0.032039
-1.226955 -0.090154 0.010106 0.000974 -0.987426 0.150017
1.608554 0.200536 0.236304 0.000000 -0.732739 0.680510
0.073645 -0.389278 -0.435312 0.071681 0.730854 -0.678759
0.111761 0.455406 0.502490 0.071681 -0.730854 0.678759
-0.176114 0.206929 -0.227869 -0.087996 -0.697593 -0.711071
-1.757466 -0.069309 0.000000 -0.382150 -0.921704 -0.037247
0.093835 -0.478272 -0.527475 -0.087996 0.697593 -0.711071
0.391346 0.090146 -0.010174 0.000569 0.987806 -0.147037
-0.514579 -0.069553 -0.058243 -0.002174 -0.798230 -0.600652
-0.152021 0.125132 -0.150603 -0.087996 -0.697593 -0.711071
-1.258261 0.046506 -0.077891 -0.000256 0.565110 -0.823801
-0.008224 -0.312277 0.351996 -0.087996 0.697593 0.711071
-0.076647 0.234007 0.238822 -0.071630 0.755988 -0.650655
-0.106907 0.349266 -0.376071 -0.087996 -0.697593 -0.711071
0.530104 -0.089484 0.014917 -0.000324 -0.973213 0.225524
1.588441 0.121371 -0.151063 0.000000 -0.732739 -0.680510
0.690378 0.000000 0.090719 -0.000707 -0.036656 0.997978
-0.051316 0.421148 -0.453471 -0.087996 -0.697593 -0.711071
0.468842 0.052975 -0.073645 -0.000017 0.610418 -0.790812
1.020559 0.090719 -0.000000 -0.000037 0.999020 -0.022150
-1.419582 -0.065187 0.063091 -0.000075 -0.742115 0.668868
1.179891 0.144468 0.155556 -0.139178 -0.457585 0.878206
0.968353 -0.090431 -0.007211 -0.000119 -0.993098 -0.109888
1.318625 0.034910 0.083733 -0.000054 0.419521 0.906634
0.601596 0.073029 0.053820 0.000054 0.824257 0.564433
-0.560307 0.090719 -0.000000 -0.001344 0.997588 -0.044765
1.648484 -0.102017 0.089470 -0.000000 -0.732739 -0.680510
0.029882 0.386326 0.404073 -0.071630 0.755988 -0.650655
-0.717886 -0.088318 -0.020732 -0.002280 -0.981489 -0.184957
-0.111813 0.086687 0.026744 0.000094 0.934455 0.353254
1.604249 -0.126081 -0.115381 0.000000 -0.732739 0.680510
1.320034 0.020037 -0.088478 0.000249 0.254747 -0.965873
1.558720 0.252505 -0.271885 -0.139178 0.909585 0.391515
0.216202 0.106663 0.115952 0.071681 -0.730854 0.678759
0.122320 -0.477844 0.525535 0.071681 0.730854 0.678759
-0.847867 -0.007882 0.090375 0.001649 -0.148743 0.987919
1.453653 -0.165436 -0.157757 -0.000000 -0.732739 0.680510
-0.082656 -0.071704 0.055574 0.000320 -0.815374 0.577148
-1.225964 0.015272 0.089424 -0.000483 0.218354 0.974614
0.226638 0.352648 0.379714 0.058302 0.731492 -0.679352
-0.695950 0.064315 -0.063980 0.000031 0.732126 -0.679691
1.425833 0.210778 -0.222181 -0.139178 0.909585 0.391515
1.274689 0.089931 -0.011929 0.000087 0.977884 -0.202455
-0.969085 0.085309 -0.030859 0.000078 0.950120 -0.309018
-1.460801 0.000000 -0.090719 -0.000916 0.075305 -0.995803
0.634050 -0.090425 0.007287 0.000213 -0.992214 0.116825
-1.771126 0.008870 -0.062251 -0.453940 0.042743 -0.887796
0.216167 0.577290 -0.622702 0.071681 -0.730854 -0.678759
0.182714 -0.095508 0.099068 0.058302 -0.731492 -0.679352
-0.126321 -0.276742 0.302520 -0.087996 0.697593 0.711071
1.573378 -0.243983 -0.269767 -0.139178 0.457585 -0.878206
0.126647 0.253327 0.283330 0.071681 -0.730854 0.678759
-0.956743 -0.082836 -0.036988 -0.000181 -0.899418 -0.435145
-0.213456 -0.211490 -0.227722 -0.087996 0.697593 -0.711071
-0.301475 0.097676 -0.105173 -0.087996 -0.697593 -0.711071
0.226638 0.420303 0.452561 0.058302 0.731492 -0.679352
-0.218890 -0.084452 -0.102419 -0.087996 0.697593 -0.711071
-0.487090 -0.076937 0.048068 -0.000061 -0.831946 0.553042
0.120364 0.508148 -0.558371 0.071681 -0.730854 -0.678759
0.299271 0.079055 -0.044500 0.000054 0.837918 -0.543961
1.238916 -0.079166 -0.105618 -0.000000 0.732739 -0.680510
1.626944 0.100226 0.128294 -0.000000 -0.732739 0.680510
0.128203 0.107262 -0.107047 0.058302 0.731492 0.679352
0.962398 -0.031551 -0.085055 0.000265 -0.319792 -0.946458
0.919071 -0.015536 0.089378 0.000015 -0.203826 0.977786
0.036095 0.157988 0.153761 0.058302 0.731492 -0.679352
-0.153233 -0.289363 -0.311572 -0.087996 0.697593 -0.711071
1.121361 -0.124651 -0.130324 -0.139178 -0.909585 0.391515
0.169258 -0.280652 -0.308252 0.071681 0.730854 -0.678759
-0.021496 -0.185899 -0.226371 0.018437 0.721421 -0.691139
1.333359 -0.086740 0.026572 -0.000024 -0.936155 0.348719
-1.145298 0.062664 0.065598 -0.000136 0.673121 0.738280
0.054326 0.026404 0.086791 0.000133 0.347744 0.936212
-0.008633 -0.369546 -0.388817 -0.071630 -0.755988 0.650655
-0.287577 0.115647 0.124523 -0.071630 0.755988 -0.650655
0.774784 -0.072278 -0.054824 -0.000066 -0.755492 -0.653761
-0.971395 0.061035 0.067116 -0.000024 0.649925 0.758674
0.091794 0.379640 -0.423018 0.071681 -0.730854 -0.678759
0.218148 0.443761 -0.477090 0.058302 0.731492 0.679352
-0.880318 -0.029448 -0.085806 -0.000198 -0.354912 -0.933946
0.226638 -0.109093 -0.117466 0.071681 0.730854 -0.678759
-1.565706 -0.042136 0.080340 0.000016 -0.491037 0.869984
-0.801950 0.088794 -0.018585 -0.000124 0.972109 -0.230256
-1.156263 0.083856 -0.034612 -0.000046 0.944459 -0.325773
1.141451 0.104215 -0.091837 -0.000000 0.732739 0.680510
0.491856 -0.029361 0.085836 -0.000548 -0.345285 0.937056
-1.669011 0.045033 0.078313 -0.069539 0.549329 0.831013
-0.030201 0.117426 -0.153562 0.071681 -0.730854 -0.678759
1.628212 -0.212852 0.249565 -0.000000 0.732739 0.680510
-0.886522 0.062876 -0.065394 -0.000393 0.672991 -0.738470
0.156793 -0.019887 -0.088512 0.000006 -0.279039 -0.959141
1.520834 0.000000 -0.090719 -0.000288 0.071027 -0.996205
-0.300165 0.090719 -0.000000 0.000092 0.996790 -0.064435
-1.650905 0.039380 -0.081725 -0.011295 0.426560 -0.903494
-0.310740 -0.085696 -0.092273 -0.087996 0.697593 -0.711071
1.567927 -0.125706 0.155731 -0.000000 0.732739 0.680510
-1.533267 -0.053230 -0.073460 0.000115 -0.628182 -0.776860
0.143114 -0.570182 -0.606775 0.058302 -0.731492 0.679352
-0.339785 -0.081040 0.040772 0.000805 -0.909077 0.414589
-0.003081 -0.068795 0.098334 0.071681 0.730854 0.678759
1.310233 0.123727 0.112846 0.000000 0.732739 -0.680510
-0.057478 -0.105192 -0.088883 0.058302 -0.731492 0.679352
-0.141271 0.173141 0.199033 -0.087996 -0.697593 0.711071
1.581439 0.082245 0.038283 -0.000273 0.907180 0.417757
0.136492 -0.208711 0.216993 0.058302 -0.731492 -0.679352
1.488389 0.162068 0.194883 -0.000000 -0.732739 0.680510
1.634834 0.070690 -0.055739 0.000000 0.732739 0.680510
1.414251 -0.089868 -0.117142 0.000000 0.732739 -0.680510
-0.105460 0.089435 0.121345 -0.087996 -0.697593 0.711071
1.676646 -0.222112 -0.239159 0.353973 -0.728554 0.586441
1.692936 -0.162733 -0.175223 0.353973 -0.728554 0.586441
-0.027433 0.287000 0.294977 -0.071630 0.755988 -0.650655
0.005254 0.089496 -0.077365 0.058302 0.731492 0.679352
1.711035 0.096757 0.104183 0.353973 0.728554 -0.586441
0.166476 0.541042 0.577403 0.058302 0.731492 -0.679352
0.101254 -0.538565 0.587543 -0.087996 0.697593 0.711071
-0.475326 0.088682 -0.019112 0.000099 0.983584 -0.174096
0.011010 0.212289 -0.210077 0.058302 0.731492 0.679352
0.226638 -0.169982 -0.183028 0.071681 0.730854 -0.678759
0.115566 -0.090280 0.008905 0.001077 -0.986309 0.158362
1.460391 0.078211 -0.063838 -0.000000 -0.680510 0.732739
1.504311 0.141600 -0.132091 0.000000 0.732739 0.680510
-0.069846 0.397187 0.427671 -0.071630 0.755988 -0.650655
0.146357 -0.364100 -0.385155 0.058302 -0.731492 0.679352
1.254131 -0.089305 -0.015951 -0.000266 -0.975179 -0.216935
-1.319780 0.089370 -0.015581 -0.000075 0.989008 -0.142254
1.163330 -0.074621 0.051590 0.000589 -0.853393 0.519525
-0.024130 -0.380146 0.402838 -0.071630 -0.755988 -0.650655
1.288109 -0.102299 0.130527 0.000000 0.732739 0.680510
1.293450 -0.140466 -0.130871 -0.000000 -0.732739 0.680510
0.033305 0.424455 -0.467187 -0.087996 -0.697593 -0.711071
1.022190 0.033059 -0.084481 -0.000007 0.335705 -0.940921
0.146193 -0.201128 -0.225060 0.071681 0.730854 -0.678759
0.046662 -0.453094 0.479803 -0.071630 -0.755988 -0.650655
-1.140625 -0.090719 0.000000 0.001600 -0.998219 -0.031403
1.522967 -0.085982 -0.028931 -0.000876 -0.956027 -0.289792
-0.610719 0.061153 -0.067009 -0.000014 0.698658 -0.714046
-0.435091 0.050979 0.075040 -0.000262 0.536316 0.842751
0.340186 0.000000 0.090719 -0.000299 -0.029632 0.998680
0.013300 0.103216 0.092829 0.058302 0.731492 -0.679352
1.533934 -0.144872 -0.176368 -0.000000 0.732739 -0.680510
-0.217212 0.102594 -0.101610 -0.071630 0.755988 0.650655
0.047657 0.284833 -0.325595 0.071681 -0.730854 -0.678759
-1.009950 -0.082309 0.038145 -0.000033 -0.931134 0.361933
-0.098703 -0.164923 0.196239 -0.087996 0.697593 0.711071
1.495294 0.007434 0.090413 0.000407 0.111531 0.992910
0.685931 -0.071632 -0.055667 0.000295 -0.803907 -0.593630
-1.388116 -0.041790 -0.080520 0.000190 -0.462510 -0.885302
1.725514 0.022117 0.020852 1.000000 0.000000 0.000000
-1.660728 -0.090670 0.000000 -0.006996 -0.998159 -0.033543
0.226638 -0.474426 -0.510838 0.071681 0.730854 -0.678759
0.734283 0.072826 -0.054095 -0.000435 0.762178 -0.645911
-0.126054 0.312604 0.337735 -0.087996 -0.697593 0.711071
0.152851 0.330721 0.349772 0.058302 0.731492 -0.679352
-0.102005 0.246820 -0.256501 -0.071630 0.755988 0.650655
-1.350655 -0.089364 0.015616 0.000056 -0.971449 0.233056
-0.561792 -0.031400 0.085111 0.000039 -0.368409 0.928582
1.066981 -0.093933 0.111331 -0.139178 0.457585 0.878206
0.206193 0.635720 0.686670 0.071681 -0.730854 0.678759
1.151057 0.069679 0.095403 0.000000 -0.732739 0.680510
-0.254149 -0.052076 0.074283 -0.000012 -0.553685 0.831517
1.208319 -0.120954 0.109861 -0.000000 -0.732739 -0.680510
0.008907 0.499021 0.537321 -0.071630 0.755988 -0.650655
0.008907 -0.499021 -0.537321 -0.087996 0.697593 -0.711071
0.540717 0.017569 -0.089001 -0.000107 0.214812 -0.975659
-0.120968 -0.094083 0.123986 -0.087996 0.697593 0.711071
-0.018151 -0.167973 0.206717 0.071681 0.730854 0.678759
-1.499209 -0.082616 0.037475 0.000415 -0.882135 0.468968
-0.236109 0.069625 0.058157 -0.000027 0.724968 0.687321
0.145844 0.269159 -0.298349 0.071681 -0.730854 -0.678759
0.072182 -0.163353 -0.192202 0.071681 0.730854 -0.678759
1.725514 0.086743 -0.038640 -0.053689 0.891590 -0.447454
-0.749132 -0.041314 -0.080765 -0.000018 -0.427339 -0.902994
-1.380757 -0.000000 0.090719 -0.000813 -0.062425 0.997066
1.347934 -0.149061 0.180877 0.000000 0.732739 0.680510
0.120244 -0.122047 0.142650 0.071681 0.730854 0.678759
0.191551 0.064640 -0.073306 0.071681 -0.730854 -0.678759
-0.664485 -0.078430 0.045591 -0.000049 -0.851631 0.522254
1.675506 -0.054395 -0.048381 -0.154984 0.672287 0.723885
1.581904 -0.063254 0.060193 -0.154984 0.672287 -0.723885
0.834319 0.079476 0.043743 -0.000147 0.901833 0.430035
0.118526 0.578964 0.629314 -0.087996 -0.697593 0.711071
-0.065214 -0.403178 -0.434121 -0.087996 0.697593 -0.711071
-0.236619 -0.181539 0.195472 -0.087996 0.697593 0.711071
0.226638 -0.393241 -0.423422 0.071681 0.730854 -0.678759
-1.291207 0.056646 0.070860 0.000017 0.651392 0.757419
1.210721 0.016709 0.089166 0.000171 0.121974 0.991543
0.796157 0.023324 -0.087669 0.000655 0.279748 -0.959046
-0.596001 0.057427 0.070228 -0.000048 0.603532 0.796018
-0.637819 -0.084626 -0.032685 -0.000011 -0.907253 -0.418186
-1.784134 0.055809 -0.000000 -0.519831 0.851284 -0.040251
0.198519 0.228552 0.249063 0.071681 -0.730854 0.678759
0.539156 0.035100 0.083653 0.000561 0.420903 0.906048
0.015847 -0.076162 -0.104268 0.071681 0.730854 -0.678759
-1.099018 -0.039250 -0.081788 -0.000444 -0.383173 -0.922715
0.798927 -0.053194 0.073487 -0.000280 -0.564364 0.824331
-0.578987 -0.033265 -0.084400 -0.000010 -0.424412 -0.904356
-0.827081 -0.073583 0.053061 0.000334 -0.798297 0.600838
0.145364 -0.634858 0.687470 -0.087996 0.697593 0.711071
0.097828 0.082666 -0.037364 -0.000267 0.883574 -0.466146
1.608641 0.171157 0.163917 -0.000000 0.732739 -0.680510
0.101350 0.077258 0.047551 0.000995 0.879421 0.474141
-1.399054 0.089197 -0.016547 -0.000907 0.988762 -0.143569
0.204071 0.326000 -0.349084 0.058302 0.731492 0.679352
1.586439 0.260410 0.280397 -0.139178 -0.457585 0.878206
-0.012384 0.204666 0.199861 0.058302 0.731492 -0.679352
-0.042329 -0.281172 0.289845 -0.071630 -0.755988 -0.650655
1.442919 -0.101860 0.130054 0.000000 0.732739 0.680510
-0.930510 0.000000 0.090719 -0.000507 -0.026867 0.998915
1.075380 0.070895 0.056601 -0.000293 0.795689 0.604148
0.893364 0.088494 -0.019965 0.001981 0.967102 -0.249500
0.047933 -0.264171 -0.303319 0.071681 0.730854 -0.678759
0.899623 -0.081318 -0.040215 -0.001402 -0.878161 -0.475933
0.640013 0.004882 -0.090587 0.001315 0.107164 -0.993684
-0.182213 -0.084024 0.034203 0.000074 -0.915537 0.399721
0.140209 0.581682 -0.618908 -0.028330 0.748961 0.661239
-0.714850 0.019850 0.088520 0.001276 0.178533 0.982743
1.400697 0.072782 0.054153 -0.000386 0.788674 0.613387
0.265814 -0.071992 -0.055199 -0.000044 -0.777090 -0.627793
0.102919 0.179621 -0.206472 0.071681 -0.730854 -0.678759
1.701985 -0.129745 0.139703 0.353973 -0.728554 -0.586441
1.377630 0.072944 -0.098919 -0.000000 -0.732739 -0.680510
-0.151250 0.043973 0.079349 -0.000279 0.516590 0.854788
1.358137 0.164849 0.157125 0.000000 0.732739 -0.680510
-0.040022 0.090719 -0.000000 -0.000483 0.998424 -0.035040
0.245119 0.090306 0.008642 -0.000493 0.997160 0.060667
-0.359155 0.071710 -0.055566 -0.000288 0.778033 -0.626348
-1.550696 0.086977 -0.025784 -0.000012 0.937873 -0.344063
0.023254 -0.133505 0.126297 0.058302 -0.731492 -0.679352
-1.096621 0.009690 0.090200 -0.000437 0.172578 0.983838
0.159592 0.146868 0.152386 0.058302 0.731492 -0.679352
1.184009 -0.030348 -0.085492 0.000463 -0.392997 -0.918490
0.226638 -0.582673 -0.627393 0.071681 0.730854 -0.678759
1.563760 -0.194084 0.188603 -0.000000 -0.732739 -0.680510
1.468333 -0.196171 0.228208 -0.139178 0.457585 0.878206
1.081574 0.073464 -0.053225 0.000329 0.828346 -0.558548
-0.085472 -0.183755 -0.181407 -0.071630 -0.755988 0.650655
-1.595414 0.025670 0.087011 -0.000048 0.314340 0.948253
1.539574 -0.214470 -0.210554 -0.000000 -0.732739 0.680510
-0.204177 -0.091984 0.111629 -0.087996 0.697593 0.711071
-1.629777 0.086973 -0.025797 -0.001350 0.941082 -0.336027
-1.443826 0.071722 0.055550 0.000155 0.814061 0.579160
-0.730400 0.090719 -0.000000 0.002194 0.999160 -0.021472
-0.107112 -0.038233 -0.082269 0.000102 -0.475026 -0.878818
1.675089 0.024595 0.088749 -0.056913 0.298064 0.951876
0.222666 -0.082520 0.037687 0.000033 -0.901938 0.429563
-1.607516 -0.026866 -0.086649 0.000638 -0.303684 -0.951886
0.011408 -0.233643 0.233104 0.058302 -0.731492 -0.679352
0.059806 0.417164 0.463314 -0.087996 -0.697593 0.711071
-1.257048 -0.031961 -0.084902 0.000087 -0.384720 -0.921994
1.337150 -0.039087 0.081866 0.000022 -0.376380 0.925369
0.226638 -0.210574 0.226736 0.058302 -0.731492 -0.679352
-0.370466 -0.043919 -0.079379 -0.001299 -0.499041 -0.865423
0.872590 0.045688 -0.078374 0.000252 0.473886 -0.879466
1.674837 0.228710 0.246263 0.353973 0.728554 -0.586441
-0.174924 -0.165175 -0.187053 -0.087996 0.697593 -0.711071
1.458640 0.141430 0.131908 -0.000000 0.732739 -0.680510
1.249976 0.123150 0.152979 0.000000 -0.732739 0.680510
1.206000 0.090100 0.010573 -0.001407 0.979496 0.193556
1.117563 -0.064808 -0.090159 0.000000 0.732739 -0.680510
-1.521359 0.074596 0.051626 -0.000027 0.802386 0.595117
0.396261 -0.051720 -0.074531 -0.000333 -0.596384 -0.801548
1.417420 -0.187763 -0.215758 -0.139178 0.457585 -0.878206
0.185339 -0.300171 0.327571 0.071681 0.730854 0.678759
1.330716 0.084626 0.032684 0.000158 0.932764 0.357682
1.625789 0.227803 -0.265664 -0.000000 -0.732739 -0.680510
0.144857 -0.521060 -0.554033 0.058302 -0.731492 0.679352
1.571938 -0.065280 -0.090667 -0.000000 0.732739 -0.680510
0.161120 -0.368272 0.390914 0.058302 -0.731492 -0.679352
1.227070 0.109841 -0.097895 -0.000000 0.732739 0.680510
-0.469625 -0.015497 -0.089385 0.000020 -0.213153 -0.975973
1.419156 -0.150813 0.182764 -0.000000 0.732739 0.680510
1.389018 0.173955 -0.166929 -0.000000 0.732739 0.680510
1.275741 0.147358 -0.172252 -0.139178 -0.457585 -0.878206
-0.153038 0.082953 -0.071725 -0.071630 0.755988 0.650655
0.160096 -0.094657 -0.096211 0.058302 -0.731492 0.679352
0.120066 0.000000 0.090719 -0.000600 -0.027536 0.998860
-0.103782 -0.007564 0.090403 0.000472 -0.104931 0.993714
-1.041923 0.079348 -0.043974 0.000133 0.886160 -0.461258
1.410880 -0.078211 0.063838 0.000000 -0.732739 -0.680510
-1.026797 -0.041743 -0.080544 0.000257 -0.462396 -0.885254
-1.080700 -0.081946 0.038918 -0.000134 -0.890768 0.452309
-1.215946 -0.056222 0.071197 -0.000010 -0.637644 0.769027
0.267639 0.022691 0.087835 0.000105 0.274655 0.960535
1.454407 -0.061841 -0.066374 -0.000549 -0.707232 -0.705801
0.761935 0.077111 0.047788 -0.000085 0.815764 0.576729
0.173689 0.071365 0.072299 0.058302 0.731492 -0.679352
0.153291 0.150952 -0.156243 0.058302 0.731492 0.679352
1.586439 -0.260410 0.280397 -0.139178 -0.909585 -0.391515
0.070535 0.485090 -0.514350 -0.071630 0.755988 0.650655
-1.158036 0.030922 -0.085286 -0.000640 0.372904 -0.926666
1.579820 0.216851 -0.213118 0.000000 0.732739 0.680510
0.157518 0.402402 -0.440585 0.071681 -0.730854 -0.678759
-0.359666 0.055634 0.071657 0.000651 0.644761 0.763060
1.494042 0.234060 -0.252024 -0.139178 0.909585 0.391515
0.396883 -0.041144 0.080852 -0.001100 -0.414098 0.909187
0.660572 -0.059280 0.068671 0.000030 -0.678829 0.732927
-1.320724 0.000000 -0.090719 -0.000343 0.027011 -0.998549
1.013576 0.097037 0.104484 -0.139178 -0.457585 0.878206
0.354856 -0.085664 0.029857 0.001149 -0.932013 0.359116
1.539648 0.070902 0.096720 0.000000 -0.732739 0.680510
0.318073 -0.028587 -0.086097 -0.000247 -0.336518 -0.940615
0.019944 -0.322867 -0.331435 -0.071630 -0.755988 0.650655
0.032070 0.528972 -0.569571 -0.087996 -0.697593 -0.711071
0.052619 -0.351270 0.363295 0.058302 -0.731492 -0.679352
1.677978 -0.059211 0.043379 0.139871 -0.739012 -0.650701
-1.491105 0.059597 -0.068396 -0.000162 0.673101 -0.738157
0.121977 -0.273193 0.305214 0.071681 0.730854 0.678759
1.057278 -0.024647 0.087306 -0.000286 -0.330487 0.942764
1.357528 -0.120232 -0.149837 -0.000000 0.732739 -0.680510
0.065793 -0.448151 -0.471953 -0.071630 -0.755988 0.650655
0.101559 0.618826 -0.666320 -0.087996 -0.697593 -0.711071
0.527006 0.078041 -0.046254 0.000047 0.889823 -0.454098
-0.074289 -0.089121 -0.016948 -0.000734 -0.988328 -0.146088
1.545058 0.201125 0.196185 0.000000 0.732739 -0.680510
-0.091765 0.159481 -0.153896 -0.071630 0.755988 0.650655
0.072287 -0.133275 -0.130257 0.058302 -0.731492 0.679352
-1.733581 -0.049066 0.061058 -0.328766 -0.578571 0.744394
1.688137 0.156329 -0.171723 0.353973 -0.638617 -0.683280
-0.892659 -0.089683 -0.013671 0.000545 -0.983615 -0.175437
0.008765 0.233968 -0.274934 0.071681 -0.730854 -0.678759
0.173661 0.481142 -0.513523 0.058302 0.731492 0.679352
0.439171 0.080508 0.041813 0.000731 0.868984 0.491964
-0.099880 0.266034 0.295288 -0.087996 -0.697593 0.711071
0.171342 -0.612165 -0.654403 0.058302 -0.731492 0.679352
0.806327 -0.090192 0.009761 0.000613 -0.983545 0.174103
0.180171 0.451580 0.491146 0.071681 -0.730854 0.678759
-0.258892 0.060683 -0.067434 0.000568 0.700990 -0.711838
0.045529 -0.083183 0.036199 0.000138 -0.889804 0.454150
0.116313 -0.244681 -0.275111 0.071681 0.730854 -0.678759
1.543473 0.084969 -0.111867 -0.000000 -0.732739 -0.680510
-0.335528 -0.085795 -0.029479 0.000799 -0.934974 -0.352472
1.260098 -0.017257 -0.089062 -0.000425 -0.153064 -0.987211
0.937413 -0.074871 0.051227 -0.000431 -0.802469 0.594909
-1.721774 0.070722 0.041152 -0.279669 0.832799 0.475488
0.226638 -0.393241 0.423422 0.058302 -0.731492 -0.679352
-0.480347 -0.022937 0.087771 -0.000399 -0.280217 0.958913
-0.337660 -0.030645 0.085386 -0.000296 -0.360768 0.931607
-0.045125 0.319869 -0.354878 -0.087996 -0.697593 -0.711071
0.061802 0.089299 -0.113561 0.071681 -0.730854 -0.678759
-0.158846 -0.196915 0.204775 -0.071630 -0.755988 -0.650655
1.500073 -0.084083 0.034058 -0.000245 -0.907418 0.417923
0.226638 0.224105 -0.241305 0.058302 0.731492 0.679352
0.040398 0.285925 0.291886 0.058302 0.731492 -0.679352
0.226638 -0.440599 0.474415 0.058302 -0.731492 -0.679352
0.226638 0.163216 -0.175743 0.058302 0.731492 0.679352
0.109657 -0.429704 0.475038 0.071681 0.730854 0.678759
0.669353 0.063425 -0.064862 0.000050 0.679587 -0.732218
0.870811 0.029933 0.085638 -0.000857 0.357611 0.932897
-1.793879 -0.030382 0.039522 -0.560676 -0.488253 0.664947
-0.091539 -0.272983 -0.285748 -0.071630 -0.755988 0.650655
1.448933 0.157018 -0.189445 -0.000000 -0.732739 -0.680510
-0.180986 0.214280 0.234477 -0.087996 -0.697593 0.711071
1.177740 -0.107857 -0.095758 0.000000 -0.732739 0.680510
-0.842639 0.058617 0.069238 0.000174 0.622842 0.781228
1.281528 -0.173453 -0.186766 -0.139178 -0.909585 0.391515
-0.024860 0.110892 0.145963 0.071681 -0.730854 0.678759
-0.004768 -0.248077 -0.247257 0.014981 -0.740796 0.670805
-0.780428 0.000000 0.090719 0.000351 -0.030008 0.998646
0.532274 -0.073390 -0.053328 -0.000070 -0.843889 -0.534635
-0.413044 -0.079696 0.043341 -0.000251 -0.905976 0.421019
0.369338 0.072956 0.053919 -0.001517 0.821689 0.568013
-0.095790 0.025996 -0.086914 0.000461 0.332991 -0.941843
0.153565 0.357125 -0.392251 0.071681 -0.730854 -0.678759
0.089379 0.362894 0.378966 0.058302 0.731492 -0.679352
0.159740 -0.521816 0.556123 0.058302 -0.731492 -0.679352
-0.145780 -0.083242 -0.110280 -0.087996 0.697593 -0.711071
0.058117 0.335011 -0.378520 0.071681 -0.730854 -0.678759
-0.235019 0.009586 0.090211 -0.000684 0.128902 0.990633
-1.710275 0.000000 -0.084648 -0.235350 0.034234 -0.969968
-1.041504 0.048643 0.076575 -0.000120 0.511824 0.857914
0.465747 -0.089116 -0.016978 -0.000114 -0.967587 -0.248576
-0.239347 -0.137713 0.144851 -0.071630 -0.755988 -0.650655
0.010492 0.344918 0.358096 -0.071630 0.755988 -0.650655
0.069232 -0.204577 0.236901 0.071681 0.730854 0.678759
-0.059008 -0.126690 -0.163643 -0.087996 0.697593 -0.711071
-0.816132 -0.037563 -0.082576 -0.000067 -0.448164 -0.892858
0.570313 0.090719 -0.000000 0.002149 0.996527 -0.066039
0.226638 0.623265 -0.671101 0.058302 0.731492 0.679352
1.357528 0.120232 -0.149837 -0.000000 -0.732739 -0.680510
-0.173252 -0.246556 -0.264039 -0.071630 -0.755988 0.650655
-0.187028 -0.132341 -0.132850 -0.071630 -0.755988 0.650655
0.670553 0.058942 0.068962 0.000071 0.626571 0.778071
-0.770371 -0.089174 0.016670 0.000126 -0.991592 0.121586
0.174423 0.538634 -0.585489 0.071681 -0.730854 -0.678759
-0.464101 0.054742 -0.072341 0.000131 0.617079 -0.785622
1.047435 -0.025749 -0.086987 -0.000103 -0.252864 -0.966481
-0.093336 0.290695 -0.320291 -0.087996 -0.697593 -0.711071
0.636975 0.090161 -0.010042 -0.002145 0.996899 -0.064430
1.683886 -0.195721 0.210743 0.353973 -0.728554 -0.586441
1.311857 0.078211 -0.063838 -0.000000 -0.680510 0.732739
1.467699 0.082588 0.109303 -0.000000 -0.732739 0.680510
0.058543 -0.364903 -0.378483 0.058302 -0.731492 0.679352
-0.071377 -0.316483 0.334070 -0.071630 -0.755988 -0.650655
-1.188913 -0.080975 -0.040901 0.000071 -0.890795 -0.452243
-0.131962 -0.235836 0.247037 -0.071630 -0.755988 -0.650655
0.145241 0.500507 0.531936 0.058302 0.731492 -0.679352
1.635425 -0.069410 -0.095114 0.000000 0.732739 -0.680510
0.054097 0.187347 0.219947 0.071681 -0.730854 0.678759
-0.200653 0.152220 0.157448 -0.071630 0.755988 -0.650655
0.290159 -0.090719 0.000000 0.000370 -0.995483 -0.079031
-0.139680 0.140162 0.136725 -0.071630 0.755988 -0.650655
-1.023548 0.033462 -0.084322 -0.000164 0.338682 -0.939836
0.053914 -0.085534 -0.030229 -0.000171 -0.935631 -0.350139
0.064055 -0.308622 0.318355 0.058302 -0.731492 -0.679352
1.489004 -0.175116 -0.208932 0.000000 0.732739 -0.680510
-0.056380 0.100000 0.083386 0.058302 0.731492 -0.679352
-1.286633 -0.085869 0.029264 0.000029 -0.936626 0.347456
-0.572506 -0.082506 -0.037717 0.000041 -0.880524 -0.471866
0.958235 0.090409 -0.007493 -0.000132 0.992539 -0.114439
1.393237 -0.078955 -0.044676 0.000290 -0.837362 -0.544847
0.440241 0.000000 -0.090719 -0.000357 0.072405 -0.996055
-0.045940 -0.326908 -0.343383 -0.071630 -0.755988 0.650655
-1.616408 -0.078599 0.045299 -0.000011 -0.881280 0.470463
-0.203453 -0.084575 -0.032817 0.000016 -0.925810 -0.375326
-0.024142 0.178779 -0.170978 0.058302 0.731492 0.679352
-1.218095 0.079500 -0.043698 0.000567 0.849865 -0.525725
0.154565 -0.471867 -0.515693 0.071681 0.730854 -0.678759
0.623456 0.022942 0.087770 -0.000081 0.285796 0.957231
-1.476852 -0.043005 0.079877 0.000450 -0.444084 0.894911
-0.491799 0.081237 0.040379 0.000030 0.879244 0.474270
0.239833 -0.034935 0.083722 0.000003 -0.440142 0.896807
0.097164 0.143308 0.167980 0.071681 -0.730854 0.678759
0.015132 -0.409456 -0.432571 -0.071630 -0.755988 0.650655
1.460539 0.213607 0.216417 -0.139178 0.909585 -0.391515
-0.195477 0.171311 -0.179059 -0.071630 0.755988 0.650655
-0.044477 0.235285 -0.236766 -0.071630 0.755988 0.650655
-0.063031 0.378493 -0.410175 -0.087996 -0.697593 -0.711071
0.408194 0.064449 -0.063845 -0.000140 0.752971 -0.656570
-1.615888 -0.075800 -0.049842 0.000052 -0.830120 -0.555846
0.010028 0.023997 -0.087487 -0.000953 0.316566 -0.947625
0.989134 -0.026455 0.086775 0.000137 -0.320257 0.946351
-0.760662 0.066846 -0.061331 0.000047 0.758349 -0.650498
-0.707230 0.009739 -0.090194 0.000259 0.137474 -0.989371
-0.215901 -0.024319 -0.087398 0.000031 -0.311498 -0.949187
1.725514 -0.030523 -0.011095 1.000000 0.000000 -0.000000
-1.160862 0.005765 0.090535 -0.001307 0.112117 0.993153
-0.172657 0.083562 0.035316 -0.000173 0.942811 0.330306
1.626411 0.087214 -0.114285 0.000000 -0.732739 -0.680510
-1.802648 -0.032458 -0.029648 -0.579729 -0.664451 -0.465566
0.739146 -0.041567 0.080635 -0.000051 -0.400793 0.915077
0.140645 0.227325 -0.253853 0.071681 -0.730854 -0.678759
1.176016 0.080410 -0.042001 -0.000143 0.873869 -0.484136
0.977541 0.076385 0.048941 -0.000264 0.859758 0.508632
-1.664128 0.086231 0.027683 -0.043126 0.933302 0.353578
-0.480718 -0.089980 -0.011556 -0.000052 -0.987947 -0.147988
0.857571 -0.038208 0.082280 0.000527 -0.471701 0.880822
1.090641 -0.082323 -0.038114 0.000280 -0.877520 -0.477428
0.226638 -0.122624 0.132035 0.058302 -0.731492 -0.679352
0.451065 0.086892 -0.026069 0.000007 0.948509 -0.313559
0.836643 -0.074415 -0.051887 -0.000333 -0.803526 -0.593765
1.707844 -0.087878 0.091227 0.353973 -0.728554 -0.586441
0.068958 0.495878 0.527057 -0.071630 0.755988 -0.650655
-1.393110 -0.084433 -0.033181 0.000018 -0.931154 -0.361856
0.147115 -0.167435 0.173461 0.058302 -0.731492 -0.679352
0.057864 -0.031825 -0.084953 0.000077 -0.389737 -0.919826
1.363675 -0.032210 -0.084808 -0.000232 -0.413896 -0.909215
1.570634 0.034257 -0.084002 -0.000000 0.406955 -0.912348
1.015213 -0.082306 0.038152 0.000305 -0.931109 0.362048
-1.428461 0.051264 -0.074846 0.000404 0.510202 -0.858845
1.654872 -0.118706 -0.148194 -0.000000 0.732739 -0.680510
1.518265 -0.131537 0.121256 0.000000 -0.732739 -0.680510
0.997223 0.088268 -0.089926 -0.139178 0.909585 0.391515
1.107315 -0.067425 0.073855 0.000000 0.680510 -0.732739
1.601525 0.162889 -0.195767 0.000000 -0.732739 -0.680510
-0.338824 0.015471 -0.089390 0.001481 0.241680 -0.969214
0.214564 -0.047943 -0.077015 -0.000007 -0.560214 -0.827131
0.132992 0.049084 -0.076293 -0.000112 0.525712 -0.849687
1.687624 0.062613 -0.084399 0.353973 -0.638617 -0.683280
0.170878 0.604471 0.646079 0.058302 0.731492 -0.679352
0.396412 -0.088450 -0.020162 -0.000573 -0.982320 -0.180271
0.007753 -0.406878 0.446781 -0.087996 0.697593 0.711071
0.226638 0.535315 0.576400 0.058302 0.731492 -0.679352
0.170181 -0.460793 0.491314 0.058302 -0.731492 -0.679352
0.143690 -0.058175 0.069609 0.000309 -0.675400 0.736090
-0.971878 -0.047308 0.077407 0.000060 -0.465701 0.883803
1.492655 0.089947 -0.011807 -0.002983 0.978242 -0.201487
0.090287 0.233092 0.239280 0.058302 0.731492 -0.679352
0.580544 -0.088377 -0.020476 -0.000139 -0.967155 -0.249998
1.027034 -0.088310 -0.020767 -0.000177 -0.982873 -0.181205
1.725514 -0.047441 -0.082261 -0.053760 -0.446581 -0.892021
0.145785 -0.586795 0.640370 -0.034789 0.710334 0.701910
1.618165 -0.230729 -0.228061 -0.000000 -0.732739 0.680510
1.142932 0.133927 -0.144206 -0.139178 0.909585 0.391515
1.207610 -0.152373 0.164067 -0.139178 -0.909585 -0.391515
-0.130377 0.176412 -0.203589 -0.087996 -0.697593 -0.711071
0.208318 -0.598588 0.642957 0.058302 -0.731492 -0.679352
-1.740380 -0.052522 -0.054980 -0.328800 -0.595131 -0.731071
0.479443 0.051027 0.075008 -0.000719 0.575907 0.816301
-0.717013 0.071926 0.055286 0.000217 0.771935 0.633875
-0.046648 -0.029730 0.085709 -0.000217 -0.286115 0.957043
1.637569 0.084891 0.071029 -0.000000 0.732739 -0.680510
1.270697 0.000000 0.090719 -0.001308 -0.073599 0.996035
0.078396 -0.588874 -0.634070 -0.087996 0.697593 -0.711071
-0.009623 -0.475060 0.511521 -0.087996 0.697593 0.711071
-0.259487 -0.065410 -0.063060 -0.000000 0.680510 0.732739
0.587088 -0.078177 0.046024 -0.000017 -0.845969 0.531336
-0.096507 0.102885 -0.135648 -0.087996 -0.697593 -0.711071
0.226638 -0.528549 0.569115 0.058302 -0.731492 -0.679352
0.226638 -0.298525 -0.321436 0.071681 0.730854 -0.678759
-0.450138 -0.065408 -0.062862 -0.000291 -0.679111 -0.732764
-0.620052 0.089410 -0.015353 0.000866 0.978397 -0.202256
1.568432 -0.108497 0.096448 -0.000000 -0.732739 -0.680510
-1.513014 -0.086414 -0.027613 0.000292 -0.934377 -0.353552
-0.259782 0.151588 0.163223 -0.071630 0.755988 -0.650655
0.302012 0.034632 -0.083848 -0.000105 0.438454 -0.897633
1.158917 0.036633 -0.082993 0.000467 0.433346 -0.900240
0.985857 -0.089131 -0.095972 -0.139178 -0.909585 0.391515
1.641947 -0.034984 0.083702 -0.001522 -0.332490 0.941969
-1.122127 0.088942 0.017868 -0.000789 0.965297 0.257211
1.553090 0.170106 -0.162785 0.000000 0.732739 0.680510
-1.249981 -0.077118 -0.047776 -0.000187 -0.867594 -0.495098
-0.419245 0.081012 -0.040828 0.000380 0.906500 -0.419775
0.115117 -0.395423 0.416200 0.058302 -0.731492 -0.679352
1.459480 -0.048005 0.076977 -0.000817 -0.541919 0.839349
-0.001075 0.401749 -0.425400 -0.071630 0.755988 0.650655
-0.907001 0.053117 0.073542 -0.000105 0.634650 0.771517
1.151171 -0.082727 0.109452 0.000000 0.732739 0.680510
-0.041684 0.048947 -0.076381 -0.000723 0.532109 -0.845518
1.412551 0.143360 0.174739 -0.000000 -0.732739 0.680510
-0.070083 0.180917 0.215471 -0.087996 -0.697593 0.711071
1.674243 -0.008622 -0.091641 -0.056897 -0.031086 -0.996925
-0.664948 0.049965 0.075719 -0.000105 0.496206 0.867022
1.546086 -0.125914 -0.115201 -0.000000 -0.732739 0.680510
0.137421 -0.394338 -0.434025 0.071681 0.730854 -0.678759
0.164911 -0.319868 -0.350937 0.071681 0.730854 -0.678759
-0.944009 0.049558 -0.075986 0.000624 0.596385 -0.801438
1.296338 -0.085170 0.071330 -0.000000 -0.732739 -0.680510
0.914520 0.007316 -0.090423 -0.000857 0.056575 -0.997592
1.637795 0.150441 -0.141611 -0.000000 0.732739 0.680510
0.483691 -0.074971 0.051081 -0.001024 -0.844282 0.534005
0.104016 -0.247840 0.256338 0.058302 -0.731492 -0.679352
0.729438 0.041992 0.080415 0.000044 0.436864 0.898403
0.765192 0.090340 -0.008283 -0.000140 0.997259 -0.060169
-0.023263 -0.078645 0.045219 -0.000282 -0.857924 0.511807
1.346206 0.191899 0.206627 -0.139178 -0.457585 0.878206
1.634460 -0.114734 0.143916 -0.000000 0.732739 0.680510
0.230047 0.066404 0.061809 -0.000032 0.720913 0.691565
-1.432649 0.024543 0.087336 -0.001138 0.233007 0.971643
-0.999753 0.087861 0.022589 -0.000008 0.958834 0.280520
-0.066105 -0.078993 0.115971 -0.034789 0.710334 0.701910
0.946547 0.034619 0.083853 0.000499 0.344748 0.937566
1.542994 -0.024382 0.087381 0.000161 -0.302041 0.952475
1.220292 -0.085560 0.030155 0.000149 -0.920560 0.388013
-0.094623 0.054635 0.072421 -0.000085 0.637580 0.769053
0.009295 -0.008617 0.090308 -0.001700 -0.137239 0.989423
-0.828770 0.064510 -0.063784 -0.000146 0.736056 -0.675599
0.248160 0.058398 -0.069423 -0.000034 0.672109 -0.739091
-0.106362 -0.147411 0.141480 -0.071630 -0.755988 -0.650655
1.403146 -0.143527 -0.174919 -0.000000 0.732739 -0.680510
1.654865 0.198963 0.197253 0.353973 0.728554 -0.586441
0.114582 0.427582 0.450782 0.058302 0.731492 -0.679352
-0.010666 0.149132 0.185638 0.071681 -0.730854 0.678759
-0.858802 0.088341 -0.020633 0.000154 0.964071 -0.261935
0.195921 0.388991 0.416210 0.058302 0.731492 -0.679352
1.725514 0.062050 0.061615 1.000000 -0.000000 -0.000000
0.171186 -0.246422 -0.260576 0.058302 -0.731492 0.679352
-0.185661 0.247432 -0.266422 -0.087996 -0.697593 -0.711071
1.276104 0.077993 0.046335 -0.000180 0.877577 0.477328
-0.138403 -0.083799 0.071096 -0.071630 -0.755988 -0.650655
-1.076755 -0.042372 0.080215 0.000247 -0.436563 0.898580
1.443572 0.034103 0.084065 0.000379 0.424549 0.904328
0.172326 0.189638 0.199531 0.058302 0.731492 -0.679352
-0.065214 -0.403178 0.434121 -0.087996 0.697593 0.711071
0.064498 0.570904 0.614720 -0.071630 0.755988 -0.650655
0.336933 0.090573 0.005131 0.003368 0.993655 0.107098
1.673064 0.132621 0.125819 0.353973 0.728554 -0.586441
1.285550 -0.062705 -0.065559 -0.000068 -0.716656 -0.695986
-0.855813 0.021208 -0.088205 0.001291 0.302999 -0.951588
1.349353 0.077558 0.103887 0.000000 -0.732739 0.680510
-1.100001 0.083622 -0.035174 -0.000125 0.896816 -0.440456
1.141544 0.121351 0.115482 -0.139178 0.909585 -0.391515
-0.059760 -0.226976 -0.228794 -0.071630 -0.755988 0.650655
-1.325644 0.010596 0.090098 -0.000711 0.187160 0.980976
-0.027285 -0.066376 -0.061839 -0.000108 -0.687521 -0.724780
1.474377 0.089689 -0.116949 0.000000 -0.732739 -0.680510
-0.269657 -0.110247 -0.121443 -0.087996 0.697593 -0.711071
0.014268 0.130112 -0.121872 0.058302 0.731492 0.679352
-0.697809 -0.037695 0.082516 0.000683 -0.360415 0.931816
-0.106907 0.349266 0.376071 -0.071630 0.755988 -0.650655
0.045968 -0.546943 0.588920 -0.087996 0.697593 0.711071
0.083103 -0.523824 -0.557970 -0.071630 -0.755988 0.650655
0.014748 -0.292985 0.297287 0.014981 -0.740796 -0.670805
-0.101887 -0.308276 -0.327893 -0.071630 -0.755988 0.650655
1.557038 0.143785 0.175197 -0.000000 -0.732739 0.680510
0.014113 -0.187316 -0.183453 0.058302 -0.731492 0.679352
-0.013598 0.077514 0.047131 -0.000028 0.844303 0.534011
1.620888 0.090719 -0.000000 -0.000720 0.995113 -0.081272
-1.700492 -0.000000 0.086616 -0.159489 0.033169 0.985397
0.166235 0.286792 0.315182 0.071681 -0.730854 0.678759
-1.177649 0.089124 0.016937 0.000753 0.987641 0.150446
1.129205 -0.090087 0.010686 -0.001511 -0.986035 0.160732
0.040361 0.456903 0.499893 -0.087996 -0.697593 0.711071
-0.145794 0.089113 -0.016991 0.000140 0.977846 -0.204700
1.306537 -0.152752 0.144099 0.000000 -0.732739 -0.680510
-0.017643 0.451620 -0.485169 -0.071630 0.755988 0.650655
-0.199673 0.053337 -0.074272 -0.000000 -0.680510 0.732739
-0.025814 0.250723 0.252649 -0.071630 0.755988 -0.650655
-1.312924 0.055218 -0.071978 0.000050 0.630583 -0.774821
-1.215711 0.010233 -0.090140 0.000911 0.138602 -0.989131
1.192199 0.098955 0.126926 0.000000 -0.732739 0.680510
1.664917 -0.091108 -0.008622 -0.057511 -0.996841 -0.031629
0.069812 -0.104137 0.128691 0.071681 0.730854 0.678759
-1.176016 -0.080410 0.042001 0.000143 -0.873869 0.484136
-0.295545 0.074134 0.052288 -0.000055 0.778668 0.625840
-0.131962 0.235836 0.247037 -0.071630 0.755988 -0.650655
1.304007 -0.088117 -0.115257 0.000000 0.732739 -0.680510
0.226638 -0.433833 -0.467130 0.071681 0.730854 -0.678759
1.178675 -0.033319 0.084378 0.000566 -0.332091 0.941766
-1.209848 0.062212 0.066027 -0.000206 0.712057 0.700698
-0.615720 -0.055287 0.071925 0.000309 -0.579452 0.813718
1.231162 0.079619 -0.043482 -0.000030 0.845178 -0.532633
-0.939643 -0.043735 -0.079480 -0.001091 -0.544688 -0.836776
-1.366559 -0.055210 0.071984 -0.000176 -0.656096 0.753356
1.488433 -0.122762 -0.152560 -0.000000 0.732739 -0.680510
1.283061 0.077309 0.103619 0.000000 -0.732739 0.680510
-0.023904 0.373528 0.410146 -0.087996 -0.697593 0.711071
0.731731 -0.087237 -0.024892 -0.000084 -0.942759 -0.330834
1.584950 -0.166923 -0.159358 0.000000 -0.732739 0.680510
0.114567 -0.293863 -0.306798 0.058302 -0.731492 0.679352
0.801280 -0.030812 -0.085326 0.000292 -0.396522 -0.916990
0.121991 -0.440529 -0.485391 0.071681 0.730854 -0.678759
-0.551700 0.074493 -0.051775 0.000388 0.803575 -0.593466
0.060833 0.078661 0.102208 0.071681 -0.730854 0.678759
0.139787 -0.078211 -0.045966 -0.000037 -0.847847 -0.528474
1.559287 0.215999 0.252953 -0.098283 -0.546666 0.827761
1.266375 0.064753 -0.090099 0.000000 -0.732739 -0.680510
-1.139516 -0.067989 -0.060061 -0.000141 -0.711974 -0.700844
0.535504 -0.057430 0.070226 0.000253 -0.658136 0.751556
0.011216 0.324004 -0.333717 -0.071630 0.755988 0.650655
-0.695953 -0.064327 -0.063968 0.000031 -0.732252 -0.679556
-1.734900 0.048766 -0.060749 -0.298085 0.570083 -0.763915
1.247445 -0.117181 -0.146551 0.000000 0.732739 -0.680510
-1.009236 -0.089446 -0.015142 0.000583 -0.981130 -0.189158
1.557650 -0.088607 0.019458 -0.000752 -0.963645 0.263609
-0.643406 0.021837 -0.088051 -0.001894 0.206934 -0.977078
-0.716477 -0.084321 0.033465 0.000291 -0.913051 0.405397
-0.535381 -0.090027 0.011180 0.000496 -0.978464 0.199071
0.353006 0.061916 -0.066305 -0.000042 0.725274 -0.686951
0.172709 -0.132162 0.137677 0.058302 -0.731492 -0.679352
1.629017 -0.244366 -0.278785 -0.139178 0.457585 -0.878206
-0.025759 -0.097253 -0.131371 0.071681 0.730854 -0.678759
-0.071026 0.304820 0.320480 -0.071630 0.755988 -0.650655
1.586409 0.106042 0.093804 0.000000 0.732739 -0.680510
0.080925 0.399191 0.417323 0.058302 0.731492 -0.679352
-0.051083 -0.342333 0.376179 -0.087996 0.697593 0.711071
1.437782 0.089908 0.012101 0.000020 0.987431 0.150156
0.097006 0.290489 -0.301659 0.058302 0.731492 0.679352
0.632366 -0.078888 -0.044794 0.000673 -0.880685 -0.471187
-1.446236 -0.088931 0.017920 0.001206 -0.974318 0.221202
-0.766961 -0.081218 -0.040415 0.000545 -0.878740 -0.475293
1.466151 0.027682 -0.086392 -0.000959 0.330969 -0.942499
1.631246 -0.083980 0.034311 0.000086 -0.904460 0.424242
0.098177 -0.351205 0.391726 0.071681 0.730854 0.678759
1.611433 -0.172941 0.206590 -0.000000 0.732739 0.680510
-0.241898 0.100091 0.101420 -0.071630 0.755988 -0.650655
1.511080 -0.050039 -0.075670 -0.000080 -0.577390 -0.815242
1.187711 0.104798 -0.133218 0.000000 -0.732739 -0.680510
-0.115383 -0.089018 0.017481 0.000537 -0.974652 0.219325
0.047666 0.174087 -0.206349 0.071681 -0.730854 -0.678759
1.515736 -0.169102 0.202457 0.000000 0.732739 0.680510
-1.811808 0.018990 0.032018 -0.627286 0.424299 0.647736
-0.954773 -0.089364 0.015617 0.000014 -0.978329 0.202323
1.671217 -0.241905 0.260471 0.353973 -0.728554 -0.586441
-0.165440 -0.045778 -0.078321 0.000012 -0.555838 -0.830079
0.069372 -0.480321 0.526458 -0.087996 0.697593 0.711071
1.583385 -0.229634 0.226882 -0.000000 -0.732739 -0.680510
-0.940099 0.087408 0.024285 0.000054 0.943656 0.327897
0.084449 0.428742 -0.449445 0.058302 0.731492 0.679352
1.458506 -0.115853 -0.104369 -0.000000 -0.732739 0.680510
1.188667 0.069561 0.058233 0.000205 0.750952 0.658855
-1.091080 0.063073 0.065205 0.000175 0.671400 0.739830
-0.025814 -0.231462 0.270537 -0.087996 0.697593 0.711071
0.172204 -0.089374 0.015561 -0.000449 -0.981640 0.184932
-0.527986 -0.020201 -0.088441 0.000557 -0.242833 -0.968998
-1.545239 0.009560 0.090213 0.000058 0.167166 0.984851
1.509888 0.056835 -0.081574 -0.000000 -0.732739 -0.680510
1.674837 0.228710 -0.246263 0.353973 -0.638617 -0.683280
-1.615943 -0.025635 0.087021 0.000018 -0.251481 0.966820
1.382796 -0.090302 0.008683 0.000790 -0.986953 0.154643
-1.448090 -0.049060 -0.076308 0.000049 -0.491551 -0.869703
1.374078 0.035845 0.083337 -0.000006 0.372898 0.926786
1.213944 -0.068515 -0.059460 -0.000169 -0.779337 -0.624994
1.249976 -0.143471 0.134106 -0.000000 -0.732739 -0.680510
0.148690 0.214609 0.239312 0.071681 -0.730854 0.678759
-0.126400 -0.315082 0.338500 -0.071630 -0.755988 -0.650655
-1.275971 -0.007696 0.090392 -0.000436 -0.122352 0.991516
-0.012035 -0.132782 0.168179 0.071681 0.730854 0.678759
-1.520834 0.000000 -0.090719 -0.000554 0.041329 -0.997720
-0.441153 0.086806 0.026356 -0.000153 0.946923 0.318368
-1.707326 -0.082238 -0.022585 -0.209077 -0.921890 -0.322826
-1.596156 0.065641 -0.062619 0.000148 0.677752 -0.733918
0.053390 0.067282 -0.060852 -0.000063 0.769445 -0.637147
-0.153919 -0.205043 -0.213677 -0.071630 -0.755988 0.650655
0.912003 -0.045956 -0.078217 -0.000058 -0.535533 -0.843360
1.333326 -0.083717 0.110518 0.000000 0.732739 0.680510
0.168787 0.414783 0.452727 0.071681 -0.730854 0.678759
1.478309 0.205199 -0.200571 -0.000000 0.732739 0.680510
-0.882576 -0.045469 0.078501 -0.000205 -0.554455 0.831032
-0.259905 0.120751 -0.132954 -0.087996 -0.697593 -0.711071
0.520006 -0.030230 -0.085533 -0.001114 -0.342251 -0.938959
0.199393 0.012118 -0.089906 -0.001981 0.183510 -0.981862
1.092625 0.077681 -0.104019 0.000000 -0.732739 -0.680510
0.951006 -0.072365 -0.054710 -0.000074 -0.778159 -0.626469
-0.917420 0.087859 -0.022599 -0.000145 0.975323 -0.217114
0.121233 -0.110743 -0.130374 0.071681 0.730854 -0.678759
0.206472 0.316660 0.339233 0.058302 0.731492 -0.679352
-0.035436 -0.177507 -0.168639 0.014981 -0.740796 0.670805
1.083577 0.028863 0.086004 -0.000671 0.287594 0.956668
0.198509 -0.139985 -0.148315 0.058302 -0.731492 0.679352
-1.265670 0.087368 -0.024426 0.000183 0.943397 -0.328638
0.045000 0.381812 -0.397163 -0.071630 0.755988 0.650655
-0.052007 -0.175443 0.168065 -0.071630 -0.755988 -0.650655
0.346713 -0.052438 0.074028 -0.001182 -0.621533 0.782260
-0.002886 0.406859 0.445446 -0.087996 -0.697593 0.711071
-0.820814 0.085412 0.030571 0.000068 0.933372 0.355973
-1.700599 -0.079284 0.034830 -0.198675 -0.883541 0.421229
-0.096161 -0.090247 -0.123292 -0.087996 0.697593 -0.711071
0.013187 0.292661 0.335402 -0.087996 -0.697593 0.711071
