1.029720 0.026727 0.107842 -0.000021 0.278784 0.959666
-0.050487 0.438919 -0.394987 0.085133 -0.660406 -0.746067
1.114988 0.100785 0.083240 -0.021753 0.686925 -0.726402
1.349953 0.117678 -0.114121 0.038699 -0.656620 -0.753228
-1.380463 0.088092 -0.067705 -0.000090 0.764720 -0.643362
0.208636 0.104344 0.038165 0.000016 0.921021 0.387904
-1.250900 -0.056704 -0.095545 0.000459 -0.500729 -0.864857
-1.031030 -0.040310 0.103534 0.000035 -0.322894 0.945728
-0.072588 -0.259228 -0.238450 0.085133 0.660406 -0.746067
-1.381683 -0.019740 0.109337 -0.000155 -0.177404 0.983638
1.155724 0.162887 -0.147428 -0.021753 -0.637667 -0.770005
-0.078634 -0.446780 -0.385658 0.086419 -0.660332 0.745985
-0.162993 0.104860 -0.036721 -0.000504 0.935709 -0.351523
-1.562076 -0.097060 0.007686 -0.323253 -0.936732 0.127791
-1.388691 -0.028441 -0.107403 -0.000929 -0.252748 -0.966793
-1.186203 0.032415 -0.106271 -0.000043 0.336445 -0.941043
-0.770806 0.026661 0.107858 0.000206 0.287175 0.957219
0.006161 -0.344495 0.304941 0.086419 -0.660332 -0.745985
1.465849 -0.225380 -0.202055 0.038699 0.656620 -0.753228
-0.430209 0.061688 -0.092405 0.000115 0.592278 -0.805017
-0.062046 0.574480 -0.500618 0.029269 0.673744 0.737191
-0.306808 0.122033 0.125129 -0.083774 -0.624773 0.776299
1.198603 -0.197163 0.171876 -0.021753 -0.686925 -0.726402
1.403691 0.279228 -0.243340 -0.021753 0.686925 0.726402
-1.500888 -0.092505 0.060243 -0.103128 -0.858582 0.500269
-0.031151 0.101267 -0.045707 -0.000057 0.888475 -0.457449
0.480739 -0.109322 0.019820 -0.000598 -0.976248 0.213298
0.000680 0.060742 0.093030 0.000076 0.566669 0.823152
-0.504133 0.101743 -0.044637 -0.000025 0.905072 -0.423683
0.651992 -0.031825 0.106449 0.000904 -0.259580 0.965029
-0.013181 0.346125 -0.308591 0.085133 -0.660406 -0.746067
-0.452855 -0.103999 0.039093 0.000187 -0.916397 0.398632
-0.902089 0.070396 -0.085957 0.000015 0.596925 -0.801367
-0.242961 0.404071 -0.356208 -0.085037 0.695172 0.713795
1.464761 -0.042721 0.102562 0.000097 -0.340763 0.939469
-0.083841 0.621300 0.548813 -0.085037 0.695172 -0.713795
-1.219730 -0.107602 0.027676 0.000124 -0.956620 0.289023
-0.226950 -0.108550 -0.023688 -0.000912 -0.976673 -0.211454
-1.551561 0.088019 0.048986 -0.307660 0.836284 0.451234
-0.128100 -0.574841 0.508839 -0.085037 -0.695172 -0.713795
-0.041421 -0.116846 -0.108859 0.085133 0.660406 -0.746067
0.662772 -0.052951 -0.097675 -0.000381 -0.508212 -0.860582
1.141068 0.179931 0.157304 -0.021753 0.686925 -0.726402
-0.065321 0.308147 -0.264485 0.086419 0.660332 0.745985
1.265980 -0.266675 0.235593 -0.021753 -0.686925 -0.726402
-0.146267 0.535054 0.474858 -0.083774 -0.624773 0.776299
-1.422890 -0.106972 0.030020 0.000038 -0.950486 0.308798
-0.193654 -0.393425 0.339966 -0.085037 -0.695172 -0.713795
-0.112835 -0.107121 0.029483 0.000972 -0.955307 0.293683
1.072916 -0.178728 -0.158207 -0.021753 -0.686925 0.726402
0.826215 0.108483 0.023993 0.000097 0.962417 0.268921
-0.222880 -0.063614 -0.091090 0.000018 -0.536416 -0.843165
-0.284980 -0.222651 0.208464 -0.083774 0.624773 0.776299
1.376985 -0.127636 0.104436 0.038699 -0.667973 -0.743178
1.490384 0.120284 -0.103733 0.038699 0.667973 0.743178
1.165853 -0.108584 0.089091 -0.021753 -0.686925 -0.726402
-1.155879 -0.090115 0.064988 0.000045 -0.785794 0.617425
-1.156067 -0.037828 0.104466 0.001121 -0.386037 0.921755
1.022584 0.153804 0.136145 -0.021753 -0.637667 0.770005
-0.195352 -0.187342 0.142487 0.086419 -0.660332 -0.745985
-0.308018 -0.127703 -0.094801 -0.085037 -0.695172 0.713795
-0.154753 0.328961 -0.272549 0.029269 0.673744 0.737191
-1.647236 0.047568 -0.008018 -0.670456 0.723406 -0.154531
-0.283477 0.109446 0.019125 0.000043 0.974466 0.221489
-0.122947 -0.340419 0.286377 0.086419 -0.660332 -0.745985
-0.519109 -0.100305 -0.047781 -0.000046 -0.883022 -0.467982
-1.134982 0.105276 -0.035513 -0.000710 0.930593 -0.364006
-0.841349 0.110589 0.010693 0.000253 0.990979 0.128037
0.283170 -0.102296 -0.043356 -0.000346 -0.904196 -0.425763
-1.320720 -0.099899 -0.048624 0.000734 -0.899232 -0.435867
0.212253 0.046593 0.100863 -0.000334 0.419651 0.906969
-0.943781 -0.050807 0.098807 0.000021 -0.497590 0.866638
1.176313 0.049215 0.099609 0.000695 0.472434 0.880783
-0.157748 0.465674 -0.406052 -0.085037 0.695172 0.713795
-0.732996 0.109273 0.020091 0.000191 0.974611 0.221301
-0.060317 -0.065778 0.089540 0.000055 -0.604715 0.795593
0.931170 -0.106296 0.032331 0.000020 -0.942319 0.332693
0.840117 0.049855 0.099291 0.000029 0.455574 0.889448
1.169702 0.098964 -0.050501 -0.000165 0.908285 -0.416712
-1.028170 0.060842 -0.092965 0.000644 0.582959 -0.811381
1.494705 -0.158260 -0.138090 0.038699 -0.667973 0.743178
-1.481736 0.067611 0.088164 -0.023002 0.606516 0.793742
1.099454 -0.110264 -0.013637 -0.002030 -0.991928 -0.121573
-0.077112 -0.393080 0.357450 0.085133 0.660406 0.746067
1.555201 0.053107 -0.034636 1.000000 0.000000 0.000000
0.137432 -0.052351 0.097998 -0.000109 -0.454133 0.890198
0.006161 -0.120522 0.106684 0.086419 -0.660332 -0.745985
-0.639412 -0.095299 -0.057116 -0.000006 -0.856209 -0.515335
-1.025773 -0.065685 -0.089608 -0.000171 -0.629816 -0.775861
1.507435 -0.097680 -0.045565 0.190954 -0.889088 -0.414472
-0.440244 -0.057448 -0.095100 -0.000027 -0.513555 -0.857420
-0.245737 0.332262 -0.286603 -0.085037 0.695172 0.713795
1.430250 -0.051611 -0.098390 -0.000143 -0.462062 -0.886104
0.383716 -0.097461 -0.053344 -0.000372 -0.894824 -0.444951
-0.348140 -0.195383 -0.179702 -0.083774 0.624773 -0.776299
-0.205639 0.269452 0.220655 -0.085037 0.695172 -0.713795
-0.189418 0.393324 0.356135 -0.083774 -0.624773 0.776299
-0.259675 0.272938 -0.230487 -0.085037 0.695172 0.713795
1.032622 -0.105554 0.090216 -0.021753 -0.686925 -0.726402
1.246848 0.121738 0.115925 -0.021753 -0.637667 0.770005
-0.359464 -0.037074 -0.104736 0.000007 -0.373685 -0.926831
0.595010 -0.007494 0.110851 0.000034 -0.053279 0.998186
1.316956 0.252848 -0.226482 -0.021753 -0.637667 -0.770005
0.747311 0.106037 0.033171 0.001256 0.936236 0.348670
-0.317195 0.287579 0.251599 -0.085037 0.695172 -0.713795
-0.834205 -0.054918 0.096583 0.000391 -0.495657 0.867739
0.115460 0.035829 0.105169 0.000122 0.273016 0.961169
0.483311 0.104607 -0.037436 -0.000010 0.926267 -0.375110
0.549099 -0.057712 -0.094940 0.000192 -0.561754 -0.826376
-0.664070 0.037141 0.104712 0.000759 0.382267 0.923155
-0.240925 -0.101939 0.044189 -0.000559 -0.906074 0.421684
-0.300554 0.113913 -0.119269 -0.083774 -0.624773 -0.776299
1.254763 -0.127343 -0.120790 -0.021753 0.637667 -0.770005
-0.340447 -0.103855 -0.039477 -0.000004 -0.935430 -0.351604
-0.889431 -0.023289 0.108636 0.000021 -0.254326 0.966393
0.764310 -0.061313 -0.092655 -0.000168 -0.549253 -0.834863
-0.992140 -0.110196 0.014174 0.000135 -0.990603 0.132092
0.010003 0.000000 0.111104 -0.000562 0.036982 0.998392
1.341314 -0.074868 -0.066294 0.000000 0.748786 0.662812
-1.255328 0.102029 -0.043980 -0.000058 0.915324 -0.401048
1.555201 -0.036353 0.055712 1.000000 0.000000 0.000000
0.197704 -0.110815 0.008012 0.000464 -0.991956 0.121646
-0.060832 0.387940 0.335637 0.086419 0.660332 -0.745985
-0.643823 0.106338 -0.032193 0.000057 0.949096 -0.312919
0.270072 0.000000 -0.111104 0.001606 0.049944 -0.997945
-0.938771 -0.091527 -0.062983 0.000019 -0.797260 -0.602429
-1.464936 0.011424 0.110515 0.000002 0.116455 0.992470
1.340594 -0.255926 0.229699 -0.021753 0.637667 0.770005
-0.773332 0.064649 -0.090358 0.000524 0.558091 -0.829004
0.496929 0.064078 0.090765 -0.001547 0.618038 0.785218
0.990544 0.049133 -0.099650 0.000094 0.485286 -0.873473
1.235354 -0.007958 -0.110819 0.000146 -0.104672 -0.993875
-0.134463 0.223131 0.181221 0.086419 0.660332 -0.745985
1.106716 0.008392 -0.110787 0.000046 0.109432 -0.993357
-0.900158 0.048056 0.100174 0.000343 0.461280 0.886609
-0.246352 -0.356369 -0.310155 -0.085037 -0.695172 0.713795
1.278971 -0.016798 0.109827 -0.001206 -0.188256 0.981468
-1.320409 0.012788 0.110366 -0.000177 0.146012 0.988699
1.199513 -0.061782 -0.092342 -0.000021 -0.559093 -0.828318
1.507435 0.101299 -0.036825 0.191061 0.921580 -0.336095
1.171213 0.104533 0.037644 0.000105 0.940199 0.338725
-0.157864 -0.204566 -0.162077 0.086419 -0.660332 0.745985
1.505961 0.094339 0.052723 0.191344 0.831927 0.519630
-0.699536 -0.098466 -0.051464 0.000032 -0.905486 -0.422815
1.379971 0.278695 0.243547 -0.021753 0.686925 -0.726402
1.348356 0.037656 -0.104528 -0.000607 0.298027 -0.953904
1.366514 -0.324117 0.286902 -0.021753 -0.686925 -0.726402
1.425233 -0.353194 0.312641 -0.021753 -0.686925 -0.726402
1.098081 0.191190 -0.169238 -0.021753 0.686925 0.726402
-0.258193 0.311952 0.268308 -0.085037 0.695172 -0.713795
0.701529 0.036899 -0.104798 -0.000264 0.374774 -0.926380
0.436024 -0.008879 -0.110749 -0.001691 -0.126870 -0.991235
-0.250155 -0.410959 0.363773 -0.085037 -0.695172 -0.713795
-0.303860 -0.338850 0.299944 -0.085037 -0.695172 -0.713795
-1.649447 -0.033431 -0.032027 -0.649860 -0.571275 -0.497067
-0.084859 0.075402 -0.081601 -0.000002 0.658077 -0.752077
-0.222332 -0.173378 -0.129076 -0.085037 -0.695172 0.713795
-1.580841 0.069976 -0.056719 -0.394668 0.669325 -0.627683
1.275955 0.107287 -0.028874 -0.000093 0.964313 -0.262475
-0.658617 -0.068230 0.087686 -0.000015 -0.583496 0.811297
-1.262001 -0.037377 0.104628 -0.000135 -0.347549 0.936979
-1.456622 -0.096294 -0.055422 -0.000115 -0.888216 -0.458046
0.312865 0.097846 0.052633 -0.000002 0.900472 0.433374
-0.615910 -0.047232 -0.100565 -0.000014 -0.465819 -0.884124
-0.125966 -0.243647 0.200366 0.086419 -0.660332 -0.745985
0.750193 0.086136 -0.070177 -0.000015 0.776786 -0.628760
0.014685 -0.098571 0.051263 0.000081 -0.900621 0.433068
-0.236451 -0.228367 -0.218300 -0.083774 0.624773 -0.776299
-0.047649 -0.399802 -0.360038 0.085133 0.660406 -0.746067
-0.312538 -0.194331 0.160229 -0.085037 -0.695172 -0.713795
-0.282770 -0.139299 0.103087 -0.085037 -0.695172 -0.713795
-0.557056 0.050316 -0.099058 0.000111 0.406834 -0.912771
-0.062636 -0.179643 0.151047 0.086419 -0.660332 -0.745985
0.810197 0.085076 -0.071458 0.000058 0.769203 -0.637969
0.655065 0.108084 -0.025728 -0.000434 0.960684 -0.275338
0.584971 -0.103344 0.040794 0.000040 -0.945978 0.322143
0.714385 0.107485 -0.028128 0.000034 0.954102 -0.297333
1.039361 0.162112 -0.143499 -0.021753 0.686925 0.726402
-0.900613 0.110465 -0.011900 -0.000615 0.987580 -0.152577
-0.372040 0.047265 -0.100549 0.000018 0.401754 -0.915045
0.035512 0.060352 -0.093283 -0.000119 0.583714 -0.811150
0.006289 -0.019531 -0.109374 0.000320 -0.214034 -0.976141
-1.090985 -0.033558 -0.105915 0.000362 -0.268684 -0.962461
-0.735551 -0.051944 -0.098214 0.000071 -0.504351 -0.862767
-0.331578 0.213552 0.196111 -0.083774 -0.624773 0.776299
1.298510 0.254759 0.223350 -0.021753 0.686925 -0.726402
-0.400529 -0.122498 -0.115390 -0.083774 0.624773 -0.776299
-0.178592 -0.265827 0.213902 0.029269 -0.673744 -0.737191
0.979211 0.076677 0.080404 0.000722 0.716983 0.696182
1.305233 0.208739 -0.189623 -0.021753 -0.637667 -0.770005
0.027612 0.101450 -0.045300 -0.000750 0.903746 -0.426704
0.720191 -0.111104 -0.000000 0.000047 -0.997500 0.056774
-1.110295 -0.000000 0.111104 -0.001212 0.016690 0.999259
1.128389 -0.115475 -0.107392 -0.021753 0.637667 -0.770005
-0.792502 -0.109931 -0.016105 0.000456 -0.988643 -0.145807
-0.223474 0.167930 0.171061 -0.083774 -0.624773 0.776299
1.454476 -0.230316 0.200760 0.038699 -0.667973 -0.743178
1.473076 0.019299 -0.109415 0.000237 0.168863 -0.984844
-1.372020 0.096087 0.055780 -0.000255 0.885176 0.463838
-0.399199 0.045349 0.101428 -0.000847 0.429107 0.902496
-0.133563 0.369133 -0.342694 0.028832 -0.650182 -0.758104
-0.324392 -0.101098 0.046079 0.000261 -0.902098 0.430231
-1.140086 0.069868 -0.086386 0.000050 0.593633 -0.804039
-1.571811 -0.010133 0.093245 -0.380860 -0.130286 0.914243
-0.015729 0.513022 -0.451582 0.086419 0.660332 0.745985
-0.905762 -0.049133 -0.099650 0.000229 -0.439876 -0.897333
1.440017 -0.150802 0.128539 0.038699 -0.667973 -0.743178
-0.025075 0.503738 0.442281 0.086419 0.660332 -0.745985
0.006161 0.598331 -0.529632 0.085133 -0.660406 -0.746067
1.179613 -0.099317 -0.049803 -0.000316 -0.913688 -0.404889
-0.076747 0.382565 -0.348100 0.085133 -0.660406 -0.746067
0.994744 -0.106713 -0.030929 0.000190 -0.960504 -0.275547
-0.052300 0.110761 0.008733 0.000152 0.990804 0.130204
1.229757 0.092700 -0.061244 0.000587 0.811634 -0.583155
0.006161 0.254906 -0.225638 0.085133 -0.660406 -0.746067
-0.479938 -0.004582 0.111010 -0.000887 -0.083100 0.996197
-0.242445 0.115855 0.075451 -0.085037 0.695172 -0.713795
1.270694 -0.104870 0.102630 -0.021753 0.637667 0.770005
0.704876 0.008161 0.110804 -0.000138 0.051827 0.998240
-0.218189 0.098264 -0.051849 0.000171 0.858180 -0.512140
1.141223 0.133574 0.122743 -0.021753 -0.637667 0.770005
1.052196 0.110585 0.010731 0.000054 0.994811 0.096282
-0.324507 -0.040816 0.103336 0.000600 -0.394840 0.918074
0.006161 -0.277303 -0.245464 0.085133 0.660406 -0.746067
-0.375520 -0.181794 0.165811 -0.083774 0.624773 0.776299
-0.119325 0.120484 -0.092114 0.086419 0.660332 0.745985
-0.099129 0.464256 -0.422966 0.028832 -0.650182 -0.758104
-0.165101 -0.097179 -0.053855 -0.000042 -0.851924 -0.522394
-0.111757 0.165521 0.159972 0.085133 -0.660406 0.746067
0.453708 -0.073526 -0.083295 0.000030 -0.661199 -0.749454
1.148412 -0.216113 0.191300 -0.021753 -0.686925 -0.726402
1.346845 0.080219 0.060248 -0.000000 -0.748786 -0.662812
-0.469637 0.102069 0.089090 -0.085037 0.695172 -0.713795
1.198743 0.241037 -0.213362 -0.021753 0.686925 0.726402
-0.556130 -0.023793 -0.108527 -0.000231 -0.221135 -0.974533
-0.937915 -0.097947 0.052445 -0.000204 -0.861447 0.506684
-1.105778 -0.109926 -0.016137 -0.000967 -0.980253 -0.194649
1.124858 -0.078654 0.062016 -0.021753 -0.686925 -0.726402
-0.105422 0.215269 -0.203285 0.085133 -0.660406 -0.746067
0.655967 0.083648 0.073124 -0.000137 0.743528 0.667709
1.529951 -0.170250 0.150702 0.038699 0.656620 0.753228
-0.090186 0.536828 0.482337 -0.083774 -0.624773 0.776299
-0.267290 -0.102086 -0.065000 -0.085037 -0.695172 0.713795
1.311146 0.074908 -0.066248 0.000000 -0.748786 0.662812
0.540207 0.110046 -0.015299 -0.000305 0.988941 -0.143810
1.322272 -0.177052 0.163863 -0.021753 0.637667 0.770005
-0.229548 0.151779 -0.108901 -0.085037 0.695172 0.713795
1.412297 0.106477 -0.031729 0.000112 0.959466 -0.279434
1.380424 -0.284468 -0.254461 -0.021753 0.637667 -0.770005
1.467804 0.221649 0.193664 0.038699 0.667973 -0.743178
-0.010433 0.178271 0.155880 0.086419 0.660332 -0.745985
1.545490 0.110859 -0.098130 0.038699 -0.656620 -0.753228
-0.098807 0.614173 -0.543655 -0.085037 0.695172 0.713795
0.954520 -0.096529 -0.084020 -0.021753 -0.686925 0.726402
-1.244218 0.068414 -0.087543 -0.000339 0.615724 -0.787111
-0.136304 -0.269390 -0.254716 0.085133 0.660406 -0.746067
-0.374106 0.156159 -0.130388 -0.085037 0.695172 0.713795
-0.234712 -0.221773 0.177683 -0.085037 -0.695172 -0.713795
1.464615 0.013903 0.110231 0.001530 0.124299 0.991527
-0.390899 0.144912 0.121435 -0.085037 0.695172 -0.713795
-0.175889 -0.131890 0.137520 0.085133 0.660406 0.746067
1.522010 0.158411 0.139648 0.038699 0.667973 -0.743178
-0.005403 -0.580568 -0.512569 0.086419 -0.660332 0.745985
1.379699 0.045501 0.101360 0.000210 0.453217 0.890656
-0.315454 0.076781 -0.080305 -0.000125 0.725191 -0.687618
-0.009233 -0.564770 0.498141 0.086419 -0.660332 -0.745985
-0.128248 -0.350918 -0.325963 0.085133 0.660406 -0.746067
1.079643 -0.018433 0.109565 0.000787 -0.207543 0.977521
0.546835 -0.047495 0.100441 -0.000040 -0.417670 0.907867
-1.009525 0.057450 0.095098 0.000022 0.501414 0.864429
1.441421 -0.274631 -0.246243 0.038699 0.656620 -0.753228
0.381905 -0.075709 0.081316 0.000124 -0.663720 0.747096
0.177736 -0.041040 -0.103247 0.000014 -0.404756 -0.913701
1.253620 -0.196303 0.177866 -0.021753 0.637667 0.770005
1.268708 -0.096815 -0.054508 -0.000042 -0.892005 -0.450572
1.307595 -0.255763 -0.224028 -0.021753 -0.686925 0.726402
-1.210593 -0.008836 0.110752 -0.000704 -0.122134 0.991805
0.006161 -0.337029 -0.298332 0.085133 0.660406 -0.746067
0.310647 0.100917 -0.046475 0.000082 0.890385 -0.453772
0.263629 -0.071393 0.085130 0.000146 -0.664488 0.746451
-1.447357 0.110975 -0.005366 -0.000211 0.995921 -0.084856
0.327514 -0.006110 -0.110936 0.000650 -0.088294 -0.995565
-0.207743 0.051851 -0.098263 0.000253 0.491120 -0.870359
-0.657319 0.083883 0.072855 0.000106 0.745749 0.665200
0.133068 -0.009984 -0.110655 -0.000501 -0.105628 -0.993702
0.783399 -0.009584 -0.110690 0.001019 -0.121647 -0.991880
0.901755 0.042642 0.102595 -0.000032 0.389138 0.920451
-0.197134 0.216723 -0.168289 0.023532 0.674873 0.736075
-0.632354 0.063597 -0.091102 0.000461 0.539592 -0.841074
-0.702777 0.105922 -0.033537 -0.000378 0.960140 -0.277414
1.475585 0.156795 -0.141766 0.038699 -0.656620 -0.753228
0.413473 0.073494 -0.083324 0.000219 0.697171 -0.716004
-0.333744 0.098880 0.050665 -0.000064 0.864960 0.500515
0.386860 0.040385 0.103505 -0.000763 0.402451 0.914819
-0.416277 0.125777 -0.105823 -0.085037 0.695172 0.713795
1.426310 -0.141247 -0.119237 0.038699 -0.667973 0.743178
1.476436 -0.287035 0.252882 0.038699 -0.667973 -0.743178
0.069447 -0.053172 -0.097555 0.000217 -0.435090 -0.899675
-0.101956 -0.528494 -0.460587 -0.085037 -0.695172 0.713795
1.361960 -0.214128 0.183027 -0.021753 -0.686925 -0.726402
1.383691 0.192306 0.177444 0.038699 -0.656620 0.753228
-0.292703 -0.264880 0.241616 -0.083774 0.624773 0.776299
1.072847 -0.155956 0.136675 -0.021753 -0.686925 -0.726402
-0.190899 0.133011 0.140225 0.085133 -0.660406 0.746067
-0.236475 0.232850 0.188682 -0.085037 0.695172 -0.713795
-0.043228 -0.427679 0.384210 0.085133 0.660406 0.746067
-0.137882 0.482587 0.420158 -0.085037 0.695172 -0.713795
-1.149015 -0.074153 -0.082738 -0.001442 -0.646702 -0.761877
1.417708 0.139389 0.117119 0.038699 0.667973 -0.743178
1.430393 -0.102530 0.042799 -0.000166 -0.923421 0.382065
0.102650 -0.109517 0.018716 0.000083 -0.975214 0.218297
-0.150614 0.308250 0.254696 0.086419 0.660332 -0.745985
-1.414151 -0.108653 -0.023208 0.000725 -0.977202 -0.209002
-0.175943 0.252059 -0.243898 0.028832 -0.650182 -0.758104
1.140769 0.119982 -0.100622 -0.021753 0.686925 0.726402
1.036824 0.117269 -0.106291 -0.021753 -0.637667 -0.770005
-0.086640 -0.088574 -0.088994 0.085133 0.660406 -0.746067
0.410864 -0.018396 0.109571 0.000515 -0.202118 0.978599
1.418317 0.078385 0.062320 0.000000 -0.748786 -0.662812
-0.019384 0.426009 0.380011 0.085133 -0.660406 0.746067
0.940315 0.109659 -0.017862 -0.000009 0.978174 -0.204519
-0.265271 0.050020 -0.099208 0.000411 0.474341 -0.879600
1.426990 0.238957 -0.207095 0.038699 0.667973 0.743178
1.390168 -0.203894 -0.187212 0.038699 0.656620 -0.753228
1.073012 -0.068334 0.087605 0.000054 -0.610232 0.791433
0.595671 -0.031351 -0.106589 0.000184 -0.284251 -0.958089
0.006161 0.583400 0.516415 0.085133 -0.660406 0.746067
-0.491456 0.069545 -0.086646 -0.000117 0.579486 -0.813953
1.274240 0.278423 -0.246455 -0.021753 0.686925 0.726402
-0.719750 0.048161 -0.100123 -0.000052 0.475711 -0.878870
1.446533 0.284995 0.249492 0.038699 0.667973 -0.743178
-0.811067 -0.080551 -0.076522 0.000102 -0.754925 -0.654865
-1.054972 -0.106230 -0.032547 0.000009 -0.952944 -0.300970
-0.125606 0.532804 -0.475276 -0.083774 -0.624773 -0.776299
-0.153594 -0.008961 0.110742 -0.001133 -0.112400 0.992743
0.148881 0.086259 -0.070025 0.000285 0.800287 -0.598589
-0.085471 0.345204 0.316024 0.085133 -0.660406 0.746067
-0.212536 -0.282094 0.264121 -0.083774 0.624773 0.776299
-0.086127 -0.306301 -0.260441 0.086419 -0.660332 0.745985
-0.124109 -0.192868 0.185588 0.085133 0.660406 0.746067
-0.250109 -0.102054 -0.115169 -0.083774 0.624773 -0.776299
-1.137428 0.075566 0.081449 -0.000041 0.641531 0.766223
0.673924 -0.074114 0.082773 -0.001821 -0.697746 0.715488
-0.244199 0.050884 0.098767 -0.000016 0.479632 0.876709
1.246891 0.147387 -0.123359 -0.021753 0.686925 0.726402
-1.010486 0.104656 -0.037299 0.000016 0.954662 -0.295449
0.542276 0.084128 0.072572 0.000331 0.785969 0.617284
-0.096172 -0.103788 0.080016 0.086419 -0.660332 -0.745985
-0.279001 0.190405 -0.183157 -0.083774 -0.624773 -0.776299
-0.396004 -0.022766 0.108747 -0.000241 -0.224260 0.973820
-0.186538 -0.244782 -0.194354 -0.027883 -0.685357 0.726461
0.501659 0.018161 -0.109610 0.000029 0.209290 -0.977130
-0.255817 -0.200420 -0.159402 -0.085037 -0.695172 0.713795
0.879003 -0.108099 0.025667 -0.000088 -0.961317 0.273027
-0.568535 0.098802 0.050816 0.000640 0.877743 0.477840
-0.279843 -0.018407 -0.109569 0.000109 -0.212232 -0.976562
-0.551387 -0.095391 0.056962 -0.000037 -0.876673 0.479692
1.338270 -0.018222 0.109600 0.000917 -0.203392 0.978434
-1.602217 0.063524 0.047967 -0.469640 0.663632 0.579650
0.172872 -0.085450 -0.071011 0.000131 -0.743947 -0.667259
0.982054 -0.109300 0.019944 -0.000084 -0.982620 0.182079
1.101100 0.102231 -0.043509 0.000203 0.900441 -0.433519
0.263317 0.030977 0.106699 -0.000247 0.317335 0.947711
1.203998 -0.104856 0.036734 -0.000333 -0.948471 0.314642
-0.845945 -0.098860 0.050704 -0.000155 -0.892197 0.450218
-1.047973 -0.081289 0.075738 0.001028 -0.741693 0.669890
-0.149586 0.084670 0.071938 -0.000423 0.745077 0.666010
-0.100027 0.000000 0.111104 0.000728 0.057840 0.997328
1.366514 0.324117 0.286902 -0.021753 -0.637667 0.770005
1.366514 -0.324117 -0.286902 -0.021753 -0.686925 0.726402
-0.216890 -0.422561 -0.376701 -0.083774 0.624773 -0.776299
-1.607732 -0.038844 0.065887 -0.518085 -0.422672 0.741498
-0.396621 0.214299 -0.189694 -0.085037 0.695172 0.713795
1.500431 -0.106600 0.023452 0.127453 -0.966757 0.214195
0.985266 -0.006604 -0.110908 0.001026 -0.093068 -0.995140
1.220844 0.209407 0.187792 -0.021753 -0.637667 0.770005
-0.556230 -0.058631 0.094374 0.000697 -0.552236 0.832965
1.490384 -0.120284 0.103733 0.038699 -0.667973 -0.743178
0.306866 -0.105501 0.034839 -0.000411 -0.943662 0.329267
-1.234532 0.069236 0.086894 0.000059 0.646028 0.762481
-0.795368 0.067811 0.088011 -0.000021 0.570166 0.820772
0.019165 -0.102418 -0.043066 -0.000195 -0.902131 -0.430057
0.650303 -0.095254 -0.057190 -0.000156 -0.849646 -0.525597
1.000762 0.089835 -0.065375 -0.000306 0.806819 -0.589793
-0.384943 0.104510 0.037706 0.000209 0.935838 0.350819
1.376536 -0.284113 0.254057 -0.021753 0.637667 0.770005
-0.365323 0.095963 -0.055994 0.000251 0.876943 -0.479258
1.430250 -0.093901 -0.059387 -0.000215 -0.843322 -0.536181
1.084980 -0.103490 0.040422 -0.000320 -0.915493 0.400946
1.222674 0.101912 0.044250 0.000019 0.917263 0.396696
-0.310395 -0.181407 -0.147387 -0.085037 -0.695172 0.713795
1.191909 -0.038094 0.104369 0.000003 -0.385449 0.922009
0.237882 0.048883 -0.099773 -0.000076 0.449128 -0.892726
0.390727 0.109295 0.019967 -0.000250 0.974408 0.221812
-0.105582 -0.478858 0.434021 -0.083774 0.624773 0.776299
0.018759 0.095392 0.056961 -0.000008 0.844896 0.533784
-1.106161 -0.097206 0.053806 0.000461 -0.876943 0.479062
-0.044787 -0.159088 -0.146636 0.085133 0.660406 -0.746067
-0.003182 0.212855 -0.189481 0.085133 -0.660406 -0.746067
0.254573 0.086810 -0.069342 0.000104 0.804858 -0.592317
-0.239914 -0.028193 0.107468 0.000060 -0.303716 0.952076
-0.464992 0.110614 -0.010427 -0.000054 0.988834 -0.143973
0.833435 0.106737 -0.030844 -0.000017 0.958369 -0.283350
-0.157748 -0.465674 -0.406052 -0.085037 -0.695172 0.713795
-1.000265 0.000000 0.111104 -0.001361 0.022221 0.999009
0.984518 -0.116484 0.104163 -0.021753 0.637667 0.770005
0.246465 -0.110771 -0.008602 -0.000339 -0.995724 -0.087335
0.630875 0.106054 0.033117 -0.000067 0.950190 0.309529
-0.002783 -0.496878 -0.440848 0.085133 0.660406 -0.746067
-0.043642 -0.594764 0.532158 0.085133 0.660406 0.746067
-1.305333 -0.110769 0.008626 -0.000258 -0.997956 0.052311
1.124727 -0.045803 -0.101224 -0.000262 -0.377581 -0.925371
1.323953 0.190106 0.161449 -0.021753 0.686925 -0.726402
-0.460780 -0.006408 -0.110919 0.000263 -0.104426 -0.993934
-1.318936 0.099704 0.049023 0.001277 0.880757 0.472332
-0.362446 -0.260187 0.230313 -0.085037 -0.695172 -0.713795
1.089693 0.187036 0.165561 -0.021753 -0.637667 0.770005
-0.117670 0.427168 0.363777 0.029269 0.673744 -0.737191
1.351442 0.109094 -0.021038 -0.000015 0.982299 -0.183724
0.600766 0.050161 0.099137 0.000330 0.480248 0.876400
-0.339468 0.058784 0.094280 -0.000002 0.551333 0.833502
-0.051451 -0.595965 -0.534111 0.023181 0.648957 -0.759076
1.424265 -0.196455 0.168753 0.038699 -0.667973 -0.743178
1.051044 0.123062 0.106221 -0.021753 0.686925 -0.726402
-0.560597 0.034038 0.105762 -0.000331 0.280399 0.959205
-0.174220 0.010911 -0.110567 -0.000162 0.154379 -0.987145
-0.122931 -0.167272 -0.162797 0.085133 0.660406 -0.746067
-1.439371 -0.018687 -0.109522 -0.000763 -0.210332 -0.976943
-0.625690 -0.104915 0.036564 0.000143 -0.939762 0.339866
0.429637 0.071369 0.085151 0.000288 0.605929 0.794767
-1.490396 0.063744 -0.090999 -0.051462 0.616528 -0.784335
-0.264802 0.391293 0.346365 -0.085037 0.695172 -0.713795
-0.420469 0.112797 0.093681 -0.085037 0.695172 -0.713795
1.518296 -0.214793 0.190131 0.038699 0.656620 0.753228
0.268668 0.106882 0.030338 -0.000125 0.962206 0.269834
-0.354232 -0.103833 -0.105364 -0.083774 0.624773 -0.776299
1.030973 -0.157958 -0.139822 -0.021753 -0.686925 0.726402
1.207132 -0.245191 -0.217039 -0.021753 -0.686925 0.726402
1.433622 0.357348 0.316318 -0.021753 -0.637667 0.770005
1.433622 -0.357348 -0.316318 -0.021753 -0.686925 0.726402
1.114858 -0.199498 -0.176592 -0.021753 -0.686925 0.726402
-0.324445 0.155380 -0.150064 -0.083774 -0.624773 -0.776299
1.210574 -0.116505 0.110567 -0.021753 0.637667 0.770005
0.333875 -0.094616 -0.058241 -0.000067 -0.824632 -0.564566
0.556270 -0.093287 -0.060346 0.000096 -0.814017 -0.579662
-0.211098 0.463401 0.410195 -0.085037 0.695172 -0.713795
-0.440561 -0.155302 -0.137470 -0.085037 -0.695172 0.713795
-0.118336 -0.587952 -0.520445 -0.085037 -0.695172 0.713795
-0.425915 0.174968 0.154878 -0.085037 0.695172 -0.713795
0.318038 -0.037481 0.104591 -0.000095 -0.364782 0.930374
0.653746 0.050456 -0.098987 0.000022 0.496561 -0.867227
-0.022804 -0.203716 0.176971 0.086419 -0.660332 -0.745985
-1.593007 -0.016781 -0.082730 -0.453717 -0.223430 -0.861424
-0.407470 -0.091717 0.062706 0.000661 -0.837568 0.544943
1.512469 0.237065 0.209845 0.038699 -0.656620 0.753228
1.515834 0.040549 0.098098 0.191828 0.375125 0.906255
-0.034164 -0.254737 0.230090 0.085133 0.660406 0.746067
1.267362 0.041647 0.103004 -0.000605 0.338798 0.940295
0.006161 0.434084 -0.384244 0.085133 -0.660406 -0.746067
0.006161 -0.195180 -0.172770 0.085133 0.660406 -0.746067
0.006161 -0.419153 -0.371027 0.085133 0.660406 -0.746067
1.287556 -0.205998 -0.177567 -0.021753 -0.686925 0.726402
0.943663 -0.041818 -0.102934 0.000013 -0.418511 -0.907443
0.985247 -0.010273 0.110628 -0.000331 -0.098546 0.994589
1.555201 0.049025 0.017681 1.000000 0.000000 -0.000000
0.211105 0.106241 -0.032513 -0.000074 0.943495 -0.329407
-0.287669 -0.253254 -0.232803 -0.083774 0.624773 -0.776299
-0.086058 0.261179 -0.220508 0.086419 0.660332 0.745985
-0.107583 0.140577 -0.137415 0.085133 -0.660406 -0.746067
1.265851 -0.274269 -0.242778 -0.021753 -0.686925 0.726402
-0.474350 -0.084588 -0.072035 -0.000004 -0.760325 -0.648646
-1.076248 0.042774 -0.102540 -0.000579 0.394434 -0.918164
1.555201 -0.049239 -0.000000 1.000000 0.000000 -0.000000
1.555201 0.000000 -0.049239 1.000000 0.000000 -0.000000
-0.005071 -0.110825 0.007874 0.000547 -0.995013 0.093577
-0.244383 -0.131244 0.139279 -0.083774 0.624773 0.776299
-1.346283 0.106024 -0.033212 0.000415 0.953844 -0.298164
-0.069908 -0.110646 -0.010081 -0.000680 -0.990300 -0.134623
-0.079071 0.059604 0.093763 -0.000120 0.560252 0.827552
-1.657007 0.020684 0.033421 -0.710786 0.312555 0.623112
-0.194649 0.098922 0.050583 0.000035 0.864906 0.500592
-0.323287 -0.103382 0.108341 -0.083774 0.624773 0.776299
-0.292881 0.168378 0.132612 -0.085037 0.695172 -0.713795
-0.177938 -0.304765 -0.251746 -0.085037 -0.695172 0.713795
-0.039644 0.275576 -0.238629 0.086419 0.660332 0.745985
0.561778 0.107414 0.028395 0.000335 0.968943 0.244539
1.087745 0.099526 -0.093036 -0.021753 -0.637667 -0.770005
-0.314426 0.262811 -0.237607 -0.083774 -0.624773 -0.776299
-0.040356 0.232110 0.200071 0.086419 0.660332 -0.745985
-0.212887 -0.125518 -0.136102 0.085133 0.660406 -0.746067
-0.200177 -0.349573 0.319763 -0.083774 0.624773 0.776299
-0.041162 0.476821 -0.427474 0.085133 -0.660406 -0.746067
1.512469 -0.237065 -0.209845 0.038699 -0.667973 0.743178
-0.023414 0.143692 -0.123768 0.086419 0.660332 0.745985
-0.807509 0.091304 -0.063307 0.001133 0.799953 -0.599067
0.200605 -0.095960 0.055999 -0.000274 -0.848517 0.528075
0.582249 0.096523 -0.055022 -0.000517 0.862119 -0.504989
-0.032539 0.110869 0.102555 0.085133 -0.660406 0.746067
1.381191 -0.051953 -0.098209 -0.000240 -0.469782 -0.882183
1.323456 -0.108326 0.024691 -0.000402 -0.972530 0.229982
0.933202 0.094613 0.082847 -0.021753 0.686925 -0.726402
-0.379491 -0.124905 0.119597 -0.083774 0.624773 0.776299
0.113941 0.107712 -0.027244 0.000195 0.958559 -0.282653
0.220058 0.000000 0.111104 -0.001310 0.042237 0.998603
-0.722527 0.015917 0.109958 0.000400 0.156424 0.987063
-0.210580 0.255749 -0.207898 -0.085037 0.695172 0.713795
1.082265 0.100286 0.047821 -0.000279 0.884552 0.465442
1.456296 0.344385 -0.303381 -0.003039 0.681300 0.731855
-0.237901 0.194603 -0.151602 -0.085037 0.695172 0.713795
-0.512573 0.030751 0.106764 0.000040 0.320849 0.946516
0.133235 0.107772 0.027008 0.000660 0.977968 0.205830
1.263657 0.109710 0.017547 0.000036 0.978582 0.202413
0.674446 -0.110119 -0.014761 0.000465 -0.989559 -0.138321
1.338612 -0.105103 0.082184 0.038699 -0.667973 -0.743178
0.888525 -0.017932 -0.109648 0.000231 -0.201326 -0.978823
-0.052231 0.469540 0.422292 0.085133 -0.660406 0.746067
-0.474737 -0.109415 0.096852 -0.085037 -0.695172 -0.713795
1.555201 -0.086841 0.046439 0.194640 -0.886185 0.418619
1.297358 -0.011259 -0.110532 -0.000257 -0.165382 -0.985161
-0.673339 -0.099397 0.049642 0.000004 -0.870725 0.490409
-0.122539 -0.426589 -0.390124 -0.083774 0.624773 -0.776299
0.006161 -0.120522 -0.106684 0.085133 0.660406 -0.746067
0.992427 0.102637 0.042542 -0.001150 0.917209 0.396830
-0.169034 0.177227 -0.176870 0.085133 -0.660406 -0.746067
-0.401737 -0.106985 -0.029975 0.000024 -0.949955 -0.310256
-1.294091 -0.016379 -0.109890 -0.000348 -0.180773 -0.982829
-0.559691 0.109045 -0.021293 -0.000038 0.969608 -0.241908
-0.061590 -0.469914 -0.423690 0.085133 0.660406 -0.746067
-0.486356 0.101823 0.044455 -0.000082 0.899393 0.435357
0.905145 0.095648 -0.084666 -0.021753 0.686925 0.726402
-0.246582 0.110880 0.122653 -0.083774 -0.624773 0.776299
0.713646 -0.064853 -0.090212 0.000121 -0.577102 -0.815863
0.360512 -0.101732 0.044663 -0.000389 -0.893526 0.447413
1.397537 0.059086 -0.094091 -0.000019 0.566870 -0.823050
1.086796 -0.098689 -0.082102 -0.021753 -0.686925 0.726402
0.164787 0.046369 0.100966 -0.000269 0.455076 0.889788
0.892196 0.107115 0.029505 -0.000172 0.966582 0.253092
-0.725168 -0.052490 0.097923 -0.000025 -0.479920 0.876596
1.456988 0.100793 0.046744 -0.000066 0.925023 0.378193
-0.790210 0.111104 -0.000000 0.000171 0.996834 0.065314
-1.083476 0.105467 0.034942 -0.000147 0.941996 0.333538
0.947088 0.116418 -0.103051 -0.021753 0.686925 0.726402
0.384975 -0.110863 -0.007320 0.000448 -0.999277 -0.023125
0.767735 -0.110788 0.008379 -0.000678 -0.991212 0.127196
-0.044125 0.541038 0.473092 0.086419 0.660332 -0.745985
0.759826 -0.031363 0.106586 -0.000075 -0.271250 0.961822
-0.070532 -0.234356 -0.198563 0.086419 -0.660332 0.745985
-0.004966 0.251687 0.224058 0.085133 -0.660406 0.746067
-0.103102 0.089475 0.066544 0.086419 0.660332 -0.745985
1.004108 -0.103798 -0.089409 -0.021753 -0.686925 0.726402
-0.081562 0.107526 0.105190 0.085133 -0.660406 0.746067
-1.288327 0.045735 -0.101254 -0.000013 0.413627 -0.909710
-0.030801 -0.369838 0.323093 0.086419 -0.660332 -0.745985
1.435970 -0.262796 0.228990 0.038699 -0.667973 -0.743178
0.058433 0.034195 0.105711 -0.000714 0.352772 0.934877
-0.171104 -0.066731 -0.088832 -0.000007 -0.562166 -0.826213
-0.733274 0.086943 -0.069175 0.000058 0.810831 -0.584290
-0.850226 0.000000 -0.111104 -0.000266 0.026371 -0.999084
-0.093631 -0.252352 0.234764 0.085133 0.660406 0.746067
-0.032078 -0.030240 0.106910 0.001224 -0.248516 0.967791
-0.700418 0.094494 0.058438 -0.000161 0.838851 0.543125
1.366514 0.324117 -0.286902 -0.021753 0.686925 0.726402
1.441426 0.295862 -0.264751 0.038699 -0.656620 -0.753228
-0.053141 -0.473644 0.412392 0.086419 -0.660332 -0.745985
-1.286350 0.062788 0.091661 -0.000261 0.589650 0.806849
1.260977 -0.057046 0.095341 -0.000018 -0.475724 0.878869
-0.093274 -0.305109 0.281423 0.085133 0.660406 0.746067
-1.504512 -0.018656 -0.108453 -0.114791 -0.119694 -0.985310
-0.190004 0.094728 -0.106236 0.085133 -0.660406 -0.746067
-0.095384 0.244342 0.204524 0.086419 0.660332 -0.745985
-1.369092 0.031321 0.106598 0.000195 0.323757 0.945280
-0.111654 -0.122049 0.121479 0.085133 0.660406 0.746067
1.216393 0.068618 0.087383 0.000254 0.619019 0.784519
-0.169622 0.130617 0.095256 0.086419 0.660332 -0.745985
-0.148643 -0.110906 -0.006633 -0.000669 -0.994716 -0.097117
-0.238382 0.271784 0.253035 -0.083774 -0.624773 0.776299
0.525173 -0.106469 0.031756 -0.000093 -0.956315 0.290043
-0.040011 0.000000 -0.111104 -0.000432 0.041781 -0.998621
-0.030757 -0.356365 -0.319661 0.085133 0.660406 -0.746067
-1.603609 -0.078831 0.000000 -0.504194 -0.861200 -0.034578
-0.331406 -0.240950 -0.218180 -0.083774 0.624773 -0.776299
-0.122968 -0.413139 0.350744 0.029269 -0.673744 -0.737191
-0.196451 0.483067 -0.427602 -0.085037 0.695172 0.713795
0.046428 -0.046636 0.100843 -0.000018 -0.437751 0.898352
1.357107 -0.247269 -0.222997 -0.021753 0.637667 -0.770005
-1.276682 -0.090704 -0.064163 -0.000421 -0.814340 -0.579222
0.335698 0.044091 -0.101981 0.000030 0.386827 -0.921428
1.160308 0.000000 0.111104 -0.000640 0.032057 0.998732
0.453558 -0.092483 0.061572 0.000001 -0.809871 0.585461
1.151280 0.074842 0.066322 -0.000000 -0.748786 -0.662812
0.627453 -0.095834 0.056215 -0.000277 -0.882828 0.468340
-0.199782 0.209708 0.161772 0.029269 0.673744 -0.737191
-0.084071 -0.528981 0.476682 -0.083774 0.624773 0.776299
1.323249 0.135447 0.129436 -0.021753 -0.637667 0.770005
-0.174465 0.049468 0.099484 -0.000048 0.423859 0.904925
1.432024 0.170152 -0.145515 0.038699 0.667973 0.743178
-0.131106 0.317419 0.296637 0.085133 -0.660406 0.746067
1.167795 0.039581 -0.103815 -0.000090 0.397224 -0.916996
-0.197888 -0.102563 0.067149 0.086419 -0.660332 -0.745985
1.358067 0.278221 -0.243754 -0.021753 0.686925 0.726402
-0.621208 0.099386 0.049665 -0.000106 0.908688 0.415889
-0.745949 0.093015 0.060764 0.000046 0.825295 0.563523
-0.237746 0.369770 -0.322181 -0.085037 0.695172 0.713795
-0.277161 0.357766 0.318049 -0.083774 -0.624773 0.776299
-0.163523 0.143660 -0.146528 0.085133 -0.660406 -0.746067
0.469307 0.110970 0.005457 0.000114 0.995198 0.092401
-1.439964 0.064408 -0.090531 -0.000138 0.574894 -0.817483
-0.033263 -0.314398 0.273732 0.086419 -0.660332 -0.745985
-0.025601 -0.075200 -0.081787 0.000523 -0.642220 -0.765574
-0.396621 -0.214299 0.189694 -0.085037 -0.695172 -0.713795
1.381928 0.143014 -0.134565 0.038699 -0.656620 -0.753228
1.260458 0.207135 -0.179454 -0.021753 0.686925 0.726402
1.161588 0.110861 -0.007343 -0.000427 0.999191 -0.023394
-0.430906 -0.100196 -0.082652 -0.085037 -0.695172 0.713795
1.228768 -0.096948 -0.076204 -0.021753 -0.686925 0.726402
-0.189187 0.215473 -0.213024 0.028832 -0.650182 -0.758104
-0.533077 0.082760 -0.074127 -0.000013 0.760453 -0.648358
-0.052414 0.301046 0.273164 0.085133 -0.660406 0.746067
-0.885071 -0.107172 0.029296 0.000274 -0.963577 0.264829
-1.584379 0.032885 0.082173 -0.415300 0.390271 0.820326
-0.436333 0.007884 0.110824 0.000013 0.095769 0.994852
0.916405 0.052076 -0.098144 -0.000067 0.471097 -0.881326
0.503172 0.060423 -0.093238 0.000012 0.583488 -0.811297
0.453593 0.087941 -0.067900 0.000013 0.796066 -0.604093
-0.044125 0.541038 -0.473092 0.086419 0.660332 0.745985
-0.151069 -0.394824 -0.336255 -0.085037 -0.695172 0.713795
-0.932226 0.102311 -0.043321 0.000120 0.917165 -0.396851
-0.159272 0.294071 -0.241142 0.086419 0.660332 0.745985
-0.090267 -0.370385 0.316688 0.086419 -0.660332 -0.745985
0.898580 -0.096313 -0.055389 0.000013 -0.888844 -0.456745
0.501735 0.022832 0.108733 0.001356 0.250116 0.967608
0.006161 0.322098 0.285115 0.085133 -0.660406 0.746067
-1.339319 -0.103374 0.040718 -0.000002 -0.928408 0.369766
-0.104426 0.449622 0.410616 0.028832 -0.650182 0.758104
-1.260335 0.111104 -0.000000 -0.000147 0.997125 0.064749
0.088556 0.053229 -0.097524 0.000491 0.469404 -0.882288
1.069732 0.057602 0.095006 -0.000218 0.511640 0.858540
-0.295427 -0.153454 0.151645 -0.083774 0.624773 0.776299
1.254542 0.063357 -0.091269 -0.000033 0.567195 -0.822772
0.820832 -0.097634 -0.053026 0.000041 -0.875961 -0.480992
1.459159 -0.072421 0.069058 -0.000000 0.748786 -0.662812
1.438070 0.108035 0.089999 0.038699 0.667973 -0.743178
-0.028386 -0.100899 0.085312 0.086419 -0.660332 -0.745985
0.499066 -0.108613 -0.023395 0.001222 -0.966033 -0.255533
1.555201 0.013626 0.048098 1.000000 -0.000000 0.000000
-0.170646 0.266693 0.256247 0.028832 -0.650182 0.758104
1.252088 -0.232914 0.204082 -0.021753 -0.686925 -0.726402
0.842890 0.090446 0.064527 0.000291 0.792403 0.608933
-1.578436 0.026258 -0.087240 -0.385197 0.320965 -0.864045
-1.660963 0.012761 -0.033033 -0.699838 0.303701 -0.642967
-0.268898 0.128323 -0.090744 -0.085037 0.695172 0.713795
0.759454 0.045878 0.101190 -0.000054 0.455793 0.889352
1.479126 -0.189218 -0.169849 0.038699 0.656620 -0.753228
-0.156536 -0.339462 0.316335 -0.083774 0.624773 0.776299
0.923585 -0.074007 0.067265 -0.021753 0.637667 0.770005
1.351053 0.199868 -0.183571 -0.021753 -0.637667 -0.770005
-0.034882 0.096604 -0.090195 0.085133 -0.660406 -0.746067
-0.012259 -0.492033 0.437640 0.085133 0.660406 0.746067
1.430688 0.042418 0.102688 -0.000016 0.378941 0.924719
1.390360 0.107665 -0.087182 0.038699 0.667973 0.743178
-1.152201 -0.102358 -0.043209 -0.000002 -0.935904 -0.350375
-1.422315 0.100738 -0.046861 -0.000151 0.885949 -0.462386
-0.196241 0.312800 -0.290592 -0.083774 -0.624773 -0.776299
-0.201102 -0.101281 0.113303 0.085133 0.660406 0.746067
-0.259135 -0.324850 -0.280981 -0.085037 -0.695172 0.713795
0.269349 -0.078472 -0.078653 -0.000071 -0.716989 -0.695893
-1.340104 0.061738 -0.092372 -0.000605 0.517957 -0.854664
-0.759123 -0.080172 0.076920 0.000595 -0.733399 0.678790
-0.217848 -0.389827 -0.339344 -0.085037 -0.695172 0.713795
-1.136393 -0.029363 -0.107154 -0.000009 -0.299797 -0.953308
1.187891 0.194842 -0.170002 -0.021753 0.686925 0.726402
-0.146550 0.132927 0.135090 0.085133 -0.660406 0.746067
1.502760 0.187565 -0.167193 0.038699 -0.656620 -0.753228
-0.322645 0.250748 0.227011 -0.083774 -0.624773 0.776299
1.143750 -0.108291 -0.024845 0.000033 -0.962944 -0.267303
-0.112391 0.313766 -0.291268 0.085133 -0.660406 -0.746067
0.828877 -0.029436 0.107134 -0.000261 -0.302020 0.952615
-0.167110 -0.346685 -0.291283 -0.085037 -0.695172 0.713795
-0.961646 0.102197 0.043588 0.000624 0.912438 0.407604
1.306004 0.068489 0.073499 -0.004959 -0.643150 0.765603
-0.163650 0.249852 0.201493 0.086419 0.660332 -0.745985
0.364294 -0.030726 -0.106771 0.000066 -0.240505 -0.970009
1.474082 0.231421 -0.206898 0.038699 -0.656620 -0.753228
1.475130 0.168647 0.146407 0.038699 0.667973 -0.743178
-0.958918 -0.108368 -0.024507 -0.000357 -0.976927 -0.210335
-1.360254 -0.067459 -0.088281 0.000256 -0.631092 -0.775078
1.010820 0.106949 0.097010 -0.021753 -0.637667 0.770005
1.028802 -0.027423 -0.107667 0.000278 -0.289185 -0.956582
1.083203 0.050686 -0.098869 -0.000154 0.494728 -0.868291
-0.215035 0.328857 0.301487 -0.083774 -0.624773 0.776299
1.185427 -0.110845 -0.007592 -0.000227 -0.994157 -0.102549
0.377012 0.108487 -0.023975 -0.000168 0.977614 -0.207079
0.475202 0.091127 0.063562 0.000005 0.791767 0.609737
-0.142368 -0.144104 -0.110352 0.086419 -0.660332 0.745985
1.183666 -0.146458 -0.134612 -0.021753 0.637667 -0.770005
-1.178364 0.106982 0.029985 0.000113 0.969813 0.241253
-0.480127 -0.111104 0.000000 0.000121 -0.998928 0.027872
-0.299394 0.334584 -0.295258 -0.085037 0.695172 0.713795
-0.255162 0.131668 -0.138457 -0.083774 -0.624773 -0.776299
0.307655 0.007315 0.110863 0.000323 0.097641 0.994682
-0.218512 -0.226265 0.218545 -0.083774 0.624773 0.776299
1.490396 -0.071393 -0.085130 0.064042 -0.672942 -0.734661
-0.161382 -0.164850 0.165040 0.085133 0.660406 0.746067
0.107497 0.080797 0.076263 0.001259 0.707068 0.706072
-0.153085 0.361612 -0.304150 -0.085037 0.695172 0.713795
-1.200327 -0.109657 -0.017875 -0.000740 -0.977441 -0.208125
0.127570 -0.010884 0.110570 -0.000104 -0.135063 0.989934
-0.162699 -0.073630 0.084445 -0.000000 0.748786 -0.662812
1.397105 -0.094532 0.075729 0.038699 -0.667973 -0.743178
-0.333104 0.119179 0.089488 -0.085037 0.695172 -0.713795
-1.431511 -0.024346 0.108404 0.000200 -0.257760 0.965604
-1.113984 0.042764 0.102545 -0.000019 0.431061 0.901578
-0.458468 0.089442 -0.065911 -0.000067 0.819293 -0.572244
-0.095116 0.109702 0.017596 0.000008 0.982487 0.182660
-1.554109 0.099737 0.006698 -0.283908 0.952467 0.103652
-1.515474 -0.063452 -0.088237 -0.136615 -0.616635 -0.773861
-0.885235 -0.108026 -0.025973 0.000036 -0.970578 -0.237894
-0.123975 -0.200732 -0.192534 0.085133 0.660406 -0.746067
1.503168 0.108309 0.008162 0.191196 0.980622 0.024670
-0.165348 -0.300901 0.246484 0.035006 -0.672542 -0.738229
0.874740 0.026484 -0.107902 -0.000004 0.240863 -0.969838
-1.490396 0.109425 -0.019245 -0.048500 0.990401 -0.121638
0.629914 0.094389 -0.058607 0.000059 0.825062 -0.563892
-0.560973 -0.104935 -0.036507 0.000083 -0.943990 -0.328000
-1.211614 0.034450 0.105628 0.000181 0.358846 0.932677
-0.326385 0.104300 -0.038284 0.000411 0.927177 -0.372879
-0.987464 -0.041127 0.103212 0.000091 -0.375016 0.926304
0.596276 0.027818 -0.107565 -0.000004 0.257919 -0.965470
1.284016 -0.170505 0.144109 -0.021753 -0.686925 -0.726402
0.201688 0.080875 0.076180 -0.000095 0.731898 0.680447
0.454021 -0.026824 0.107818 0.001242 -0.208742 0.977203
-0.218845 -0.289990 -0.242231 -0.085037 -0.695172 0.713795
-0.101576 -0.044685 -0.101722 -0.000164 -0.408418 -0.912107
1.249318 0.178831 0.163275 -0.021753 -0.637667 0.770005
-0.275740 0.134196 0.097280 -0.085037 0.695172 -0.713795
-0.643267 -0.014856 -0.110107 0.000236 -0.133083 -0.990283
0.439413 -0.110928 0.006256 0.000873 -0.993865 0.105077
-0.703819 -0.022996 -0.108699 0.000310 -0.253403 -0.966706
-1.430028 -0.059768 -0.093659 -0.000091 -0.499028 -0.865837
-1.523832 -0.106819 -0.010361 -0.155773 -0.978956 -0.123402
1.270337 -0.111104 -0.000000 -0.000224 -0.996585 0.072978
-0.176922 -0.509288 0.450813 -0.085037 -0.695172 -0.713795
0.869219 0.096121 -0.055722 0.000030 0.842327 -0.537722
1.166790 -0.186366 -0.162619 -0.021753 -0.686925 0.726402
0.565292 0.055909 -0.096012 -0.000013 0.460592 -0.886856
-0.778557 -0.048014 -0.100194 0.000042 -0.472298 -0.880690
0.749607 -0.071410 0.085117 0.000734 -0.633027 0.773270
0.479218 -0.059798 0.093640 0.000009 -0.504960 0.862365
0.821549 0.051232 -0.098587 -0.000042 0.464357 -0.884894
-1.456403 -0.096432 0.055182 0.000338 -0.844072 0.535007
-0.242719 -0.142766 -0.101692 -0.085037 -0.695172 0.713795
1.041210 0.063899 -0.090891 0.000031 0.574191 -0.817939
1.180208 -0.074806 0.066363 -0.000000 0.748786 -0.662812
-0.194483 -0.034549 -0.105596 -0.000091 -0.312684 -0.949162
-0.859059 0.068029 -0.087842 -0.000639 0.610280 -0.791008
-0.211491 -0.183283 0.184710 -0.083774 0.624773 0.776299
-1.363464 -0.102216 -0.043543 0.000184 -0.920973 -0.387948
-0.033240 -0.538780 0.472354 0.086419 -0.660332 -0.745985
0.680181 0.000000 -0.111104 0.000506 0.049948 -0.998143
1.422414 -0.054417 0.096866 -0.000035 -0.492150 0.869804
0.910242 0.000000 0.111104 0.000865 0.040910 0.998418
1.555201 0.019159 0.096597 1.000000 -0.000000 -0.000000
0.185235 0.048911 -0.099759 0.000009 0.448203 -0.893188
1.380952 0.234789 0.213335 -0.021753 -0.637667 0.770005
0.889046 -0.044561 0.101777 -0.000217 -0.397342 0.916973
-1.009564 0.110736 0.009033 0.000208 0.990242 0.134343
1.307482 0.131701 -0.125888 -0.021753 -0.637667 -0.770005
-0.051864 0.330098 -0.298818 0.085133 -0.660406 -0.746067
-1.219491 0.103072 0.041476 0.000322 0.920703 0.388704
-0.158268 0.187695 0.184907 0.085133 -0.660406 0.746067
-1.231312 -0.021083 -0.109086 0.001016 -0.229090 -0.972715
-0.826738 -0.102365 -0.043193 -0.000122 -0.901431 -0.431423
1.271640 0.165729 -0.153056 -0.021753 -0.637667 -0.770005
1.197133 0.151213 -0.138930 -0.021753 -0.637667 -0.770005
0.863203 -0.074879 -0.066281 -0.021753 -0.686925 0.726402
-0.976849 -0.078975 -0.078148 -0.000808 -0.671900 -0.739592
1.421259 0.212033 0.182597 0.038699 0.667973 -0.743178
-0.124158 0.492508 -0.443002 -0.083774 -0.624773 -0.776299
0.556727 -0.087093 0.068985 0.000171 -0.807808 0.588202
-0.800212 0.000000 -0.111104 0.000532 0.068741 -0.996686
-0.751641 -0.103806 0.039605 0.000125 -0.934742 0.353396
1.245313 -0.202070 -0.182408 -0.021753 0.637667 -0.770005
-0.026497 -0.139164 0.126912 0.085133 0.660406 0.746067
0.746509 0.011814 -0.110474 -0.001751 0.118563 -0.992198
0.071511 0.106593 -0.031338 -0.000073 0.944319 -0.326955
-1.396209 -0.061943 0.092235 -0.000466 -0.553855 0.831826
1.504084 0.105193 0.095318 0.038699 -0.656620 0.753228
-1.554974 -0.070551 -0.070437 -0.278861 -0.646637 -0.708542
-0.130492 0.091676 -0.062767 0.000153 0.807226 -0.589117
-0.020366 0.102873 0.041969 -0.000075 0.915509 0.400709
-1.616405 0.062188 -0.034700 -0.552836 0.724509 -0.407988
1.312386 -0.049729 -0.099354 0.000243 -0.488494 -0.871891
-0.158357 -0.217388 -0.211201 0.085133 0.660406 -0.746067
-0.863332 -0.051514 -0.098440 -0.000048 -0.503750 -0.863126
-0.159796 -0.267923 -0.217936 0.086419 -0.660332 0.745985
1.465288 0.102814 -0.042112 0.000145 0.907006 -0.419566
-1.533289 0.080655 -0.067909 -0.226779 0.782854 -0.577341
1.113162 -0.144060 0.130634 -0.021753 0.637667 0.770005
-0.990820 -0.014042 -0.110213 -0.001080 -0.125425 -0.991367
0.019675 0.023778 -0.108530 -0.000559 0.262326 -0.964323
-0.941194 -0.010884 -0.110570 -0.000589 -0.106929 -0.993609
-0.095296 0.276768 0.256567 0.085133 -0.660406 0.746067
-0.252444 0.083776 -0.072978 0.000231 0.736237 -0.675777
1.340387 0.255565 0.229394 -0.021753 -0.637667 0.770005
1.331865 -0.182373 -0.153899 -0.021753 -0.686925 0.726402
-0.186669 0.176831 -0.134189 0.086419 0.660332 0.745985
-0.321724 -0.241445 0.219624 -0.083774 0.624773 0.776299
-0.193934 -0.024137 0.108451 -0.000006 -0.267368 0.962907
-0.114226 0.406634 -0.345999 0.086419 0.660332 0.745985
-1.381515 0.067285 0.088413 0.000467 0.605633 0.795052
-0.345632 -0.110568 0.010903 0.000786 -0.988070 0.147970
-0.410109 0.111104 -0.000000 -0.002097 0.998061 0.049208
-0.620078 -0.047350 0.100510 -0.000029 -0.436405 0.899003
-1.264251 -0.109658 0.017868 0.000005 -0.977431 0.208130
0.047560 0.107782 0.026966 0.000081 0.963837 0.264194
0.703043 0.092245 0.061928 0.000226 0.837525 0.545158
-0.248759 -0.120799 0.081018 -0.085037 -0.695172 -0.713795
-0.139224 -0.300663 0.282731 0.085133 0.660406 0.746067
-0.314969 0.195676 0.161828 -0.085037 0.695172 -0.713795
-0.208171 -0.092835 -0.061040 0.000148 -0.805853 -0.590748
-0.253700 0.187610 0.146674 -0.085037 0.695172 -0.713795
-0.943382 0.057414 -0.095120 0.000393 0.551541 -0.833393
1.358207 -0.124579 -0.119713 0.038699 0.656620 -0.753228
-0.289288 0.222671 0.208014 -0.083774 -0.624773 0.776299
-0.193739 -0.425377 0.371095 -0.085037 -0.695172 -0.713795
-0.098528 0.135356 0.131761 0.085133 -0.660406 0.746067
-1.481736 -0.067654 0.088131 -0.022890 -0.608944 0.791921
-0.489354 -0.044408 0.101843 0.000197 -0.368004 0.929115
1.292285 0.099685 0.049062 0.000037 0.916154 0.399196
-1.510575 0.087708 0.065306 -0.145658 0.786049 0.599624
-0.355940 0.007145 -0.110874 0.000024 0.088705 -0.995524
1.513475 0.008633 -0.106258 0.191694 0.025790 -0.980437
1.456100 -0.018999 -0.109468 -0.000237 -0.171120 -0.984623
-1.641400 -0.020489 0.049049 -0.618702 -0.342944 0.702939
1.192325 0.140071 0.129567 -0.021753 -0.637667 0.770005
-0.809377 -0.081346 0.075676 0.000375 -0.740674 0.670900
-0.298310 -0.306250 -0.274306 -0.083774 0.624773 -0.776299
-1.318766 -0.083649 0.073123 0.000381 -0.746766 0.664058
-0.213257 0.121207 -0.132328 0.085133 -0.660406 -0.746067
-0.235737 -0.170536 0.127906 -0.085037 -0.695172 -0.713795
