-1.298760 -0.109662 0.046501 -0.000535 -0.904003 0.426472
0.001817 -0.112242 0.102632 0.091031 -0.770932 -0.630379
-0.997148 -0.088662 0.079543 0.000018 -0.771953 0.634776
1.382590 -0.218430 0.246490 -0.097667 -0.868750 -0.480080
1.464759 -0.049022 -0.102207 0.243087 -0.406260 -0.879959
0.087821 0.420435 -0.503013 -0.074011 0.799404 0.596217
-0.171206 0.194640 0.232424 -0.074011 0.799404 -0.596217
0.191827 -0.423749 -0.524081 0.074084 0.772019 -0.631267
1.476576 0.270562 -0.330888 -0.145628 0.905995 0.397449
-0.912576 -0.112632 0.038757 -0.000433 -0.945158 0.324960
0.268984 -0.105211 -0.055845 -0.000181 -0.883398 -0.467342
0.134062 -0.122758 -0.162758 0.074084 0.772019 -0.631267
0.990858 0.118840 -0.008067 0.000508 0.996501 -0.078061
0.241674 0.366837 0.448629 0.091031 0.770932 -0.630379
0.241674 -0.366837 -0.448629 0.091031 -0.770932 0.630379
0.182782 -0.496544 0.598752 0.091031 -0.770932 -0.630379
-1.135506 0.118799 0.008648 -0.000327 0.993761 0.105992
-0.394602 0.049257 -0.108452 0.000883 0.372351 -0.927599
-0.010194 -0.399627 -0.487281 -0.074011 -0.799404 0.596217
0.164835 -0.315254 -0.374449 0.091031 -0.770932 0.630379
0.763744 -0.066126 -0.099073 0.000027 -0.586063 -0.809546
-1.307038 0.112742 0.038436 0.000528 0.930811 0.363959
-0.021507 0.400010 -0.489199 -0.060224 -0.749328 -0.659455
-0.314217 0.091630 -0.112061 -0.060224 -0.749328 -0.659455
0.101739 -0.529854 0.647994 -0.060224 0.749328 0.659455
1.441671 0.047860 -0.109075 0.081351 0.361209 -0.926521
0.137112 0.179519 0.204446 0.091031 0.770932 -0.630379
0.199068 -0.270618 0.324804 0.091031 -0.770932 -0.630379
-1.217241 -0.008312 -0.118823 0.000639 -0.103860 -0.994042
1.243479 0.113583 0.035874 0.000019 0.952926 0.301287
-0.716406 0.088016 0.080257 0.000032 0.715614 0.697693
0.462436 -0.114333 -0.033408 0.000177 -0.946911 -0.319847
0.075725 0.137493 0.187625 0.074084 -0.772019 0.631267
-0.155024 0.259345 0.317171 -0.074011 0.799404 -0.596217
-0.089868 -0.022031 -0.117058 0.000056 -0.224919 -0.973793
-0.471569 0.037464 -0.113068 0.000050 0.332654 -0.942441
1.340430 -0.156019 0.211449 0.000000 0.774146 0.633007
-1.558394 -0.026659 -0.077434 -0.522271 -0.224696 -0.821630
-0.142644 0.195953 -0.246270 -0.060224 -0.749328 -0.659455
-0.194779 -0.187708 -0.232140 -0.060224 0.749328 -0.659455
0.974580 0.033374 -0.114342 -0.000641 0.317225 -0.947679
0.106322 -0.131543 0.176757 0.074084 0.772019 0.631267
0.785775 -0.097257 0.068769 -0.000423 -0.789008 0.613488
1.200258 0.148415 -0.160864 0.000000 0.774146 0.633007
-0.737146 -0.010764 0.118626 0.000861 -0.100881 0.994295
-0.011237 0.410830 0.502432 -0.074011 0.799404 -0.596217
-0.119485 0.095599 0.134355 -0.060224 -0.749328 0.659455
-0.868202 0.086630 0.081751 0.000215 0.738488 0.673388
-0.972113 -0.113559 0.035950 0.000698 -0.943227 0.330634
0.062677 0.246870 -0.276066 0.091031 0.770932 0.630379
-1.178371 0.083658 -0.084790 -0.000061 0.671945 -0.739858
1.281307 0.108944 -0.048159 -0.000181 0.930544 -0.364555
0.198057 0.467284 -0.576591 0.074084 -0.772019 -0.631267
1.230977 0.031795 0.114792 -0.000190 0.269313 0.962396
-0.245174 0.100587 -0.115499 -0.074011 0.799404 0.596217
1.475790 -0.137076 0.146996 0.195938 -0.754917 -0.620957
1.071547 -0.014947 0.118172 -0.001245 -0.161757 0.986301
0.916930 -0.058805 -0.081091 -0.000000 0.633007 0.774146
1.489834 0.042258 -0.098412 0.241200 0.392127 -0.887035
0.805386 0.117435 0.019926 -0.000362 0.983967 0.175164
0.935932 -0.056557 0.082929 -0.145628 0.569467 0.809012
1.017396 -0.096668 0.102739 -0.145628 -0.905995 -0.397449
1.245916 -0.137164 0.147104 0.000000 -0.774146 -0.633007
0.754566 -0.009695 -0.118718 0.000536 -0.095479 -0.994884
-1.244428 -0.068544 0.097416 0.000143 -0.541868 0.839785
-0.165866 0.124054 0.162451 -0.060224 -0.749328 0.659455
-0.982795 -0.012288 0.118478 -0.000061 -0.140214 0.989561
1.221355 -0.067817 -0.103581 0.000000 0.774146 -0.633007
0.023210 -0.209453 -0.276756 -0.060224 0.749328 -0.659455
0.100659 0.291773 -0.373378 0.074084 -0.772019 -0.631267
1.467640 0.111452 0.016290 0.242390 0.961954 0.121384
0.298841 -0.114736 0.031994 0.000201 -0.950908 0.307523
1.198000 0.095095 -0.095655 0.000000 0.774146 0.633007
-0.046576 0.199309 -0.223213 -0.074011 0.799404 0.596217
-0.137569 0.076177 0.091575 0.000000 -0.633007 -0.774146
1.425024 -0.145398 0.157174 -0.000000 -0.774146 -0.633007
0.028182 0.215739 0.235961 -0.074011 0.799404 -0.596217
-0.048664 -0.107246 -0.154056 -0.060224 0.749328 -0.659455
-0.209031 0.071600 0.095192 0.001210 0.617056 0.786067
1.103102 0.081354 0.120136 0.000000 -0.774146 0.633007
-0.076416 0.117859 0.163581 -0.060224 -0.749328 0.659455
0.525309 -0.073307 0.093883 0.000025 -0.616892 0.786324
0.643180 0.105832 -0.054659 0.000050 0.897878 -0.439006
0.130276 -0.478461 0.575544 -0.074011 -0.799404 -0.596217
-0.042269 0.292733 -0.365405 -0.060224 -0.749328 -0.659455
-0.007744 0.279346 -0.325705 -0.074011 0.799404 0.596217
-0.100291 0.210575 0.244986 -0.074011 0.799404 -0.596217
-0.160186 -0.119114 -0.000000 -0.000629 -0.998908 0.026305
-1.441671 0.065165 -0.099707 -0.028810 0.510871 -0.858270
-0.077155 -0.095404 0.137999 -0.060224 0.749328 0.659455
-0.922553 0.066656 0.098717 0.000202 0.566035 0.823692
0.714465 0.077789 -0.090205 -0.000287 0.669987 -0.741697
-0.193611 0.146636 -0.170841 -0.074011 0.799404 0.596217
0.332970 0.101371 0.062545 0.000220 0.855801 0.516300
1.112225 0.014558 0.118221 0.000098 0.162118 0.986221
0.067083 0.379761 0.474281 -0.060224 -0.749328 0.659455
0.145802 -0.084576 -0.083874 0.000305 -0.709618 -0.703785
-0.234966 -0.099609 0.128364 -0.060224 0.749328 0.659455
1.353463 0.110365 0.114329 -0.000000 0.774146 -0.633007
-1.530067 0.064278 0.072474 -0.435852 0.588901 0.678935
0.046896 0.305255 0.387778 -0.060224 -0.749328 0.659455
-0.146164 -0.119428 -0.128470 -0.074011 -0.799404 0.596217
1.416831 0.220015 0.284554 -0.145628 -0.569467 0.809012
0.085052 -0.213197 0.238115 0.091031 -0.770932 -0.630379
0.196743 0.328229 0.394925 0.091031 0.770932 -0.630379
-1.514257 -0.075054 0.071108 -0.352445 -0.715780 0.601244
1.124402 -0.073417 0.069143 0.000000 -0.774146 -0.633007
-0.018217 0.193534 0.211948 -0.074011 0.799404 -0.596217
-1.297057 0.063564 0.100736 -0.000159 0.566264 0.823572
-0.508391 -0.106791 0.052761 0.000248 -0.878178 0.477185
1.297929 0.034095 0.114130 -0.000009 0.283848 0.958287
1.496570 0.132184 0.171978 0.303063 -0.740515 0.599825
1.159026 -0.007580 0.118872 -0.001482 -0.099531 0.994478
0.380441 -0.119114 -0.000000 0.001444 -0.997979 0.052138
-0.547133 -0.044783 0.110375 0.000012 -0.378836 0.924835
1.305617 -0.117195 -0.021293 0.000362 -0.983603 -0.177127
0.145199 -0.190516 0.219063 0.091031 -0.770932 -0.630379
0.209301 0.033413 -0.114331 0.000009 0.254341 -0.966604
-0.015330 0.115331 -0.106737 -0.074011 0.799404 0.596217
-0.728973 0.113272 0.036845 -0.000011 0.938948 0.342525
-1.514467 0.042664 -0.094090 -0.331941 0.363435 -0.869284
-0.049027 -0.180195 -0.197889 -0.074011 -0.799404 0.596217
0.024921 -0.094226 0.140673 0.074084 0.772019 0.631267
1.064414 -0.053185 0.085686 -0.000000 0.633007 -0.774146
0.020419 0.172883 -0.234948 -0.060224 -0.749328 -0.659455
-1.147146 -0.074041 -0.093306 0.000398 -0.654414 -0.755329
0.116568 0.101253 -0.138511 0.074084 -0.772019 -0.631267
0.375418 -0.088985 0.079182 0.001831 -0.758256 0.651062
-0.698761 -0.030340 -0.115185 0.000028 -0.297132 -0.954234
-0.310360 -0.000000 0.119114 -0.000411 -0.019447 0.999295
-1.415894 -0.060762 -0.102450 0.000014 -0.545626 -0.837340
1.344741 -0.224843 0.274975 -0.145628 0.569467 0.809012
-0.093720 0.097134 0.068943 0.000026 0.839984 0.541550
1.376267 0.133886 -0.184381 0.000000 -0.774146 -0.633007
-0.052756 -0.109087 -0.103010 -0.074011 -0.799404 0.596217
-1.118414 0.098453 -0.067045 0.000610 0.795657 -0.604414
0.629986 -0.118368 0.013308 0.000862 -0.991608 0.123702
-0.102119 -0.178241 -0.201860 -0.074011 -0.799404 0.596217
1.127333 -0.094955 -0.071914 -0.000667 -0.777167 -0.628504
-0.897530 -0.016238 0.118002 -0.000395 -0.132285 0.990709
0.075907 0.052553 0.106894 -0.001441 0.458541 0.887889
1.226927 0.155490 0.169516 -0.000000 0.774146 -0.633007
1.283219 -0.203507 0.248882 -0.145628 0.569467 0.809012
0.066241 0.102129 0.061300 -0.000028 0.867282 0.496662
-0.743335 -0.097459 -0.068482 -0.000889 -0.817493 -0.574936
1.477688 -0.219833 0.248205 0.203251 -0.754035 -0.620373
-0.080065 0.011991 0.118508 -0.000373 0.131590 0.990640
1.217760 -0.108188 0.111668 -0.000000 -0.774146 -0.633007
0.045542 -0.404052 -0.486295 -0.074011 -0.799404 0.596217
0.241674 0.107078 -0.130952 0.091031 0.770932 0.630379
0.710824 0.119114 -0.000000 -0.000733 0.998612 0.030624
1.468287 0.164099 -0.180044 0.000000 0.774146 0.633007
0.094074 -0.288350 -0.331328 0.091031 -0.770932 0.630379
-0.820273 -0.060273 -0.102739 -0.000380 -0.522540 -0.852180
0.366955 0.114641 0.032333 0.000145 0.950515 0.308935
0.935932 0.070045 -0.071900 -0.145628 0.905995 0.397449
-0.104576 -0.138793 0.184796 -0.060224 0.749328 0.659455
0.032224 0.329463 -0.387941 -0.074011 0.799404 0.596217
1.156089 0.139881 0.150427 -0.049124 0.824800 -0.558600
0.063885 -0.185734 0.201472 0.091031 -0.770932 -0.630379
1.193945 0.024583 -0.116549 -0.000023 0.243959 -0.969243
1.304992 -0.099911 -0.101545 0.000000 -0.774146 0.633007
-1.148066 0.099251 0.065858 -0.000780 0.833167 0.552083
0.886940 -0.007152 -0.118899 0.000677 -0.089006 -0.995535
-0.040529 -0.128821 0.179314 -0.060224 0.749328 0.659455
0.162864 0.070867 -0.095917 0.074084 -0.772019 -0.631267
-0.077057 0.126241 -0.129027 -0.074011 0.799404 0.596217
0.695750 -0.118886 -0.007361 0.000466 -0.995629 -0.086907
-1.396183 0.011027 0.118602 -0.001116 0.109417 0.993309
-0.635143 0.083933 -0.084518 0.000074 0.685871 -0.726999
1.362786 0.033768 -0.114227 0.000039 0.325036 -0.945118
-1.613485 -0.031975 0.017983 -0.718108 -0.590745 0.361196
1.475644 -0.130710 -0.139211 0.195938 -0.754917 0.620957
0.123522 0.354684 0.416705 0.091031 0.770932 -0.630379
0.000410 -0.279140 -0.353858 -0.060224 0.749328 -0.659455
-1.450228 -0.076101 0.090679 -0.116168 -0.667648 0.734311
-0.813848 -0.112377 0.039490 0.001615 -0.949933 0.310769
-0.518552 0.106102 -0.054134 0.000120 0.879213 -0.475334
-0.176790 -0.184142 0.229731 -0.060224 0.749328 0.659455
1.328448 0.118101 0.015495 0.000339 0.984306 0.173202
-0.318224 -0.078230 -0.089823 0.000023 -0.657022 -0.753135
-0.047236 -0.113156 0.107780 -0.074011 -0.799404 -0.596217
1.163773 -0.115022 0.161311 0.000000 0.774146 0.633007
0.482836 -0.118622 0.010815 -0.000006 -0.988473 0.145746
-1.407369 0.056854 0.104669 0.000229 0.439498 0.897596
0.324000 -0.095214 0.071571 -0.000472 -0.800295 0.598745
0.012618 -0.208447 0.274645 -0.060224 0.749328 0.659455
1.504393 -0.078827 -0.102153 0.303063 0.740515 -0.599825
-0.250789 -0.143964 -0.177319 -0.060224 0.749328 -0.659455
0.117985 -0.366340 -0.430161 0.091031 -0.770932 0.630379
-1.186356 -0.117902 -0.016942 0.001242 -0.985088 -0.169141
0.685599 -0.009527 -0.118732 -0.000374 -0.131481 -0.990546
0.142882 0.519865 -0.629494 -0.074011 0.799404 0.596217
-0.198300 -0.093243 0.099833 -0.074011 -0.799404 -0.596217
1.514894 -0.047438 0.026476 1.000000 0.000000 0.000000
-1.449733 -0.117340 -0.016034 -0.118266 -0.982478 -0.139382
0.194027 -0.126081 -0.147312 0.091031 -0.770932 0.630379
-0.744168 -0.118685 0.010099 -0.000097 -0.991644 0.124546
1.336713 0.212116 0.264571 -0.145628 -0.569467 0.809012
0.698167 -0.088467 -0.079759 0.000013 -0.711402 -0.701955
-1.493847 0.007518 0.109810 -0.257458 0.100156 0.960164
1.177986 0.091704 0.132794 -0.000000 -0.774146 0.633007
-0.215793 0.028780 0.115584 0.000230 0.251061 0.967335
0.891894 -0.096010 -0.070500 0.000002 -0.801549 -0.596950
0.065253 0.154066 -0.162941 0.091031 0.770932 0.630379
-0.680664 0.076921 -0.090946 0.000117 0.663606 -0.747313
0.221905 -0.211993 -0.256406 0.091031 -0.770932 0.630379
-0.752122 0.107848 -0.050565 -0.000117 0.897243 -0.440216
0.198047 -0.356149 -0.440678 0.074084 0.772019 -0.631267
-0.810336 -0.052750 0.106797 -0.000027 -0.448220 0.893273
0.034546 0.089443 0.133694 0.074084 -0.772019 0.631267
1.231607 0.165020 -0.212501 -0.145628 -0.569467 -0.809012
-0.300586 0.044183 0.110616 -0.000087 0.404536 0.913881
-0.124580 0.023800 0.116712 0.000073 0.174805 0.984046
0.208615 -0.259330 -0.321032 0.074084 0.772019 -0.631267
0.717830 -0.103437 0.059066 -0.000271 -0.885521 0.463336
1.417870 -0.178621 0.197804 0.000000 -0.774146 -0.633007
-0.065707 0.159127 -0.211452 -0.060224 -0.749328 -0.659455
1.082596 -0.123682 0.140430 -0.145628 -0.905995 -0.397449
0.447887 -0.107343 0.051628 -0.000027 -0.898366 0.437623
-0.049004 0.045431 0.110109 0.000082 0.358492 0.932904
-0.870703 0.112498 0.039145 -0.000168 0.929286 0.367725
0.502566 0.027052 0.116001 0.000064 0.259349 0.965176
1.161405 -0.035367 -0.113742 -0.000107 -0.297282 -0.954284
0.186381 0.275672 -0.329154 0.091031 0.770932 0.630379
-0.396409 -0.097984 -0.067728 -0.000147 -0.816833 -0.575880
1.204848 -0.171909 0.205570 -0.145628 -0.905995 -0.397449
-0.551774 0.065907 -0.099218 -0.000002 0.592768 -0.804656
1.337079 0.119378 -0.166639 -0.000000 -0.774146 -0.633007
-0.061931 0.345278 -0.423316 -0.060224 -0.749328 -0.659455
1.417067 0.121529 0.169269 0.000000 -0.774146 0.633007
1.419585 0.101751 0.103795 0.000000 0.774146 -0.633007
1.185096 -0.114881 -0.161139 0.000000 0.774146 -0.633007
-0.752169 0.061455 0.102036 0.000172 0.485930 0.873339
1.329159 -0.145304 0.157059 -0.000000 -0.774146 -0.633007
0.284170 0.117305 -0.020677 -0.000335 0.980001 -0.195609
-0.896949 -0.006942 -0.118911 0.000679 -0.095733 -0.994965
-0.170430 0.243115 -0.297321 -0.060224 -0.749328 -0.659455
-0.085409 0.241458 -0.303203 -0.060224 -0.749328 -0.659455
0.111841 0.529868 0.646759 -0.074011 0.799404 -0.596217
-0.180605 0.097263 0.068759 -0.000024 0.840912 0.540089
0.011209 0.237413 -0.267128 -0.074011 0.799404 0.596217
1.390189 0.118738 0.009454 -0.001588 0.992395 0.117993
0.254645 0.016853 0.117915 0.000146 0.149974 0.988134
1.364074 -0.033582 -0.114282 -0.000026 -0.321412 -0.946330
-1.057931 -0.019002 0.117588 0.000037 -0.200245 0.979136
0.351038 0.091478 -0.076287 -0.000027 0.797397 -0.602490
1.425032 -0.125535 -0.132882 0.000000 -0.774146 0.633007
0.170891 0.082355 0.086057 0.000153 0.723969 0.688973
0.241674 -0.531562 0.650083 0.074084 0.772019 0.631267
0.444296 0.092877 -0.074578 0.000146 0.747859 -0.662974
-0.487300 0.087569 0.080745 0.000742 0.725278 0.687588
1.470409 0.040133 0.104505 0.242456 0.306380 0.919944
-1.253690 0.112140 -0.040157 0.000155 0.926517 -0.374755
-1.159692 -0.105052 0.056143 0.000022 -0.881195 0.471539
1.306004 -0.073348 0.110345 -0.000000 0.774146 0.633007
-0.657280 -0.062091 0.101650 0.000191 -0.529523 0.847610
0.590685 -0.000000 0.119114 -0.000427 -0.057770 0.997578
1.434338 -0.053185 0.085686 -0.000000 0.633007 -0.774146
0.175994 -0.553558 0.670559 -0.074011 -0.799404 -0.596217
-0.840975 -0.119114 0.000000 0.000751 -0.997574 0.053568
0.847059 -0.090854 -0.077030 -0.000025 -0.757475 -0.651974
0.016149 0.337193 0.421260 -0.060224 -0.749328 0.659455
-0.891033 -0.119114 0.000000 0.000646 -0.999534 0.012619
-0.281959 0.087048 0.081306 0.000073 0.704737 0.708645
-0.376556 -0.029038 0.115520 -0.000289 -0.282035 0.958835
0.674510 0.035626 -0.113661 -0.000100 0.321332 -0.946369
0.131305 0.262565 -0.305171 0.091031 0.770932 0.630379
-0.668224 0.014849 0.118184 -0.000070 0.137883 0.989819
1.165232 0.087087 0.081265 -0.000085 0.727975 0.684761
-1.330399 0.116744 -0.023639 -0.000241 0.987855 -0.150119
-0.502828 -0.064412 0.100196 0.000010 -0.575489 0.817107
-0.693272 -0.096265 -0.070151 -0.001551 -0.777842 -0.627026
0.670279 0.020641 0.117312 0.000434 0.173087 0.984303
0.148948 0.465946 -0.556447 0.036038 0.782345 0.620493
-0.502692 0.118748 0.009330 -0.001240 0.992738 0.115169
0.146597 0.320414 -0.378126 0.091031 0.770932 0.630379
1.264373 0.073417 -0.069143 -0.000000 -0.633007 0.774146
1.026127 0.099696 0.106442 -0.145628 0.905995 -0.397449
0.121337 -0.336820 -0.394542 0.091031 -0.770932 0.630379
-0.141248 -0.229961 0.285039 -0.060224 0.749328 0.659455
0.162138 0.107998 0.050244 0.000030 0.913422 0.405593
-1.328462 -0.118940 -0.006419 -0.000325 -0.996054 -0.083737
1.355732 -0.094273 0.072805 -0.000101 -0.789815 0.612403
0.104700 -0.087607 0.123215 0.074084 0.772019 0.631267
1.319228 0.042274 -0.111360 -0.000178 0.394822 -0.918145
0.623080 0.118585 0.011204 0.001253 0.987784 0.150357
-1.125765 -0.036777 -0.113294 0.001398 -0.350257 -0.936143
1.476576 -0.270562 0.330888 -0.145628 0.569467 0.809012
0.754793 0.099807 0.065013 0.000372 0.861941 0.505844
0.498619 -0.091423 -0.076354 0.000003 -0.762583 -0.646001
1.084410 -0.053185 -0.085686 -0.000000 0.633007 0.774146
-1.504226 -0.060189 -0.088354 -0.292584 -0.519934 -0.801243
-0.771560 0.085101 -0.083342 0.000040 0.696636 -0.716634
1.514894 -0.009826 0.100371 0.243733 -0.029384 0.968508
0.043482 -0.238422 0.264475 -0.074011 -0.799404 -0.596217
0.150922 -0.114032 0.034419 0.000075 -0.944978 0.325433
0.044340 0.183437 0.195841 0.091031 0.770932 -0.630379
-0.846791 0.106906 -0.052527 0.000145 0.872079 -0.487940
0.095388 -0.118735 -0.009490 -0.000036 -0.990567 -0.131303
-0.882779 -0.093939 0.073236 -0.000024 -0.792303 0.609189
0.134562 0.228120 -0.263515 0.091031 0.770932 0.630379
-1.236426 0.109996 0.045705 0.000005 0.906924 0.419943
0.123011 -0.391610 0.492853 -0.015444 0.758122 0.651103
-0.714951 -0.065320 0.099606 0.000120 -0.550170 0.834400
0.002930 0.171742 0.180105 -0.074011 0.799404 -0.596217
0.022013 0.133758 -0.131862 0.091031 0.770932 0.630379
1.504393 -0.084463 0.097544 0.303063 -0.734946 -0.606636
-0.653422 -0.106988 0.052361 0.001195 -0.908722 0.416170
0.646218 0.071549 0.095230 -0.000132 0.594201 0.803616
0.041392 0.242569 0.270296 -0.074011 0.799404 -0.596217
-1.451008 0.090919 0.075687 -0.119635 0.738183 0.662793
-0.987255 0.045100 0.110245 -0.000228 0.381459 0.923812
0.411337 -0.113708 -0.035475 -0.000140 -0.942419 -0.332687
0.070772 -0.085490 -0.124608 0.074084 0.772019 -0.631267
-1.320727 -0.048819 0.108650 -0.000197 -0.406367 0.913109
0.173305 0.128087 0.164670 0.074084 -0.772019 0.631267
0.221382 0.255780 -0.309880 0.091031 0.770932 0.630379
0.942199 0.051682 0.107317 0.000007 0.394205 0.918387
1.432631 -0.255322 0.312250 -0.145628 0.569467 0.809012
-0.663919 -0.116224 -0.026078 0.000068 -0.974447 -0.221821
0.190025 -0.216662 0.257512 0.091031 -0.770932 -0.630379
0.051814 0.374194 -0.445484 -0.074011 0.799404 0.596217
1.514894 -0.006493 -0.045575 1.000000 0.000000 -0.000000
-0.852449 -0.088333 -0.079908 -0.000367 -0.744539 -0.666768
-1.535607 -0.092197 -0.019758 -0.450417 -0.863766 -0.221391
-1.399319 0.116632 0.024187 -0.000185 0.969388 0.243206
-0.175258 -0.161094 -0.203682 -0.060224 0.749328 -0.659455
-0.206502 0.018849 -0.117613 0.000171 0.202848 -0.978635
0.205285 -0.317996 -0.393169 0.074084 0.772019 -0.631267
0.224337 0.099561 -0.065389 -0.000031 0.860669 -0.508038
0.047096 -0.350160 -0.413844 -0.074011 -0.799404 0.596217
0.114367 0.174550 -0.195084 0.091031 0.770932 0.630379
-0.767705 0.009903 -0.118701 -0.000202 0.103422 -0.994009
1.079020 0.085410 -0.125097 0.000000 -0.774146 -0.633007
-1.336694 0.009207 0.118757 0.000362 0.091671 0.995262
0.843427 -0.018180 -0.117718 -0.000214 -0.159954 -0.986536
1.369352 -0.063301 -0.077415 0.000000 0.633007 0.774146
1.237196 -0.050261 0.107990 -0.000130 -0.456010 0.889418
0.257935 0.118295 0.013944 0.000011 0.988755 0.145729
-0.963257 -0.062193 -0.101588 -0.000070 -0.521425 -0.852627
0.222048 -0.476771 0.580241 0.091031 -0.770932 -0.630379
0.583935 0.049875 0.108169 0.001622 0.452497 0.891016
0.737845 -0.036218 0.113474 0.000004 -0.304249 0.951979
1.393999 -0.168468 -0.226674 -0.000000 0.774146 -0.633007
-0.278199 0.060453 -0.102633 0.000202 0.525160 -0.850339
-0.706885 0.111305 -0.042417 0.000060 0.948885 -0.313810
-1.031195 -0.119114 0.000000 0.001171 -0.998692 0.029474
0.227296 -0.097227 0.068811 -0.000099 -0.819434 0.572146
-0.742102 -0.031159 -0.114966 0.000008 -0.265161 -0.963598
-0.035306 -0.192834 -0.252528 -0.060224 0.749328 -0.659455
0.967601 -0.113654 -0.035647 -0.000048 -0.951274 -0.306457
0.087359 -0.358158 0.419570 -0.074011 -0.799404 -0.596217
0.816408 -0.068161 -0.097684 -0.000007 -0.608263 -0.793008
-0.533842 0.085647 0.082780 0.000014 0.747716 0.663148
0.760959 -0.118025 -0.016068 -0.000424 -0.983231 -0.179207
-0.896537 -0.095000 -0.071854 -0.000121 -0.800649 -0.598158
1.475060 0.085014 -0.124613 0.203251 -0.757770 -0.615805
1.153869 -0.083774 -0.123095 -0.000000 0.774146 -0.633007
-1.563684 0.078573 -0.000000 -0.556913 0.827775 -0.036745
0.511795 -0.012976 -0.118405 -0.001776 -0.117224 -0.992499
-0.104628 -0.082691 -0.121044 -0.060224 0.749328 -0.659455
1.102031 -0.117833 -0.017420 0.000378 -0.988733 -0.145425
-1.123307 0.034618 0.113972 0.000680 0.287397 0.957267
-0.004454 0.130332 -0.184326 -0.060224 -0.749328 -0.659455
0.143760 -0.441564 0.551509 -0.015444 0.758122 0.651103
-1.138775 -0.116136 -0.026465 0.000147 -0.973049 -0.227996
1.514894 -0.089302 -0.010028 1.000000 0.000000 -0.000000
-0.959245 -0.109950 -0.045815 0.000084 -0.906452 -0.420941
-1.613937 0.025977 0.025203 -0.745708 0.407086 0.522544
-0.443033 0.067103 -0.098413 0.000440 0.586320 -0.809260
-0.054181 0.119151 -0.167079 -0.060224 -0.749328 -0.659455
-0.763215 -0.065469 -0.099508 0.000015 -0.515831 -0.856023
1.300461 0.084874 0.124441 -0.000000 -0.774146 0.633007
-0.087384 -0.281688 -0.338731 -0.074011 -0.799404 0.596217
0.118431 -0.254944 -0.293990 0.091031 -0.770932 0.630379
0.148054 0.275716 0.323673 0.091031 0.770932 -0.630379
1.424302 0.207843 -0.274828 0.000000 -0.774146 -0.633007
-0.909989 -0.056837 -0.104678 -0.000094 -0.511802 -0.858437
0.559369 -0.044080 -0.110657 0.000064 -0.411123 -0.910944
1.468286 -0.152588 -0.207254 0.000000 0.774146 -0.633007
0.084108 -0.257368 0.333244 0.074084 0.772019 0.631267
0.423578 0.113119 -0.037313 0.000265 0.946043 -0.322481
0.550083 -0.107568 0.051159 0.000352 -0.900958 0.432534
-0.028594 0.137701 0.138376 -0.074011 0.799404 -0.596217
0.152658 0.323250 0.405770 0.074084 -0.772019 0.631267
-0.814734 -0.112679 -0.038621 0.000338 -0.929784 -0.366534
1.338157 -0.021830 0.117096 -0.000493 -0.220288 0.974915
0.066274 -0.105133 0.055992 -0.000074 -0.888067 0.458465
0.805906 0.100003 0.064710 -0.000853 0.811047 0.583841
-0.294870 -0.102171 0.061230 0.000068 -0.860271 0.508566
-0.311167 -0.116905 0.022833 0.000082 -0.972062 0.232299
1.108483 0.104592 -0.056997 -0.000032 0.857145 -0.513970
-1.094161 0.045783 -0.109964 -0.001346 0.426762 -0.903576
0.108610 0.118656 0.010430 0.000848 0.993170 0.111498
1.411527 0.105577 -0.149760 -0.000000 -0.774146 -0.633007
-0.022905 -0.080613 0.087690 0.000285 -0.642176 0.765765
1.204246 -0.109521 0.046832 -0.000072 -0.901254 0.431995
-0.379298 -0.096516 0.069804 0.000124 -0.784743 0.618969
0.739109 0.056137 0.105056 0.000190 0.433504 0.900499
-0.434997 0.110400 -0.044721 -0.000089 0.906739 -0.420366
-0.109792 -0.152218 -0.167921 -0.074011 -0.799404 0.596217
0.596872 0.022531 -0.116963 0.000400 0.210046 -0.977104
-0.324487 -0.080810 0.098828 -0.060224 0.749328 0.659455
-0.788495 -0.017752 0.117783 -0.000569 -0.140700 0.989444
0.077201 -0.373035 -0.440778 -0.074011 -0.799404 0.596217
-0.377602 0.117126 0.021667 -0.000218 0.974574 0.221513
0.881324 0.063256 -0.100929 -0.000163 0.535145 -0.844114
1.086397 -0.115712 -0.120869 -0.049124 -0.824800 0.558600
1.485235 0.083283 0.117335 0.303063 -0.740515 0.599825
0.407121 -0.112044 0.040424 0.000012 -0.952616 0.302314
0.085523 0.099604 0.099263 0.091031 0.770932 -0.630379
-0.981226 -0.057836 0.104130 -0.000560 -0.485640 0.873535
0.040358 -0.296564 0.377305 -0.060224 0.749328 0.659455
-0.621342 -0.114509 -0.032798 -0.000258 -0.960370 -0.276793
-0.248136 0.113658 -0.035635 -0.000088 0.960254 -0.277146
0.133061 -0.163644 0.184447 0.091031 -0.770932 -0.630379
0.096247 0.139654 0.149791 0.091031 0.770932 -0.630379
-0.187190 -0.087218 -0.090376 -0.074011 -0.799404 0.596217
-0.763352 -0.113897 -0.034866 0.000243 -0.942894 -0.331383
-0.814610 0.009142 -0.118762 -0.001288 0.045504 -0.998450
-1.568730 0.035894 0.066120 -0.550756 0.451018 0.700412
0.197322 -0.169185 -0.212112 0.074084 0.772019 -0.631267
0.014492 -0.047060 -0.109423 -0.000499 -0.434506 -0.900005
1.152547 -0.118802 0.008615 0.001246 -0.992621 0.116292
-0.426322 -0.030716 -0.115085 -0.000096 -0.263082 -0.964178
1.225545 -0.100740 -0.143844 0.000000 0.774146 -0.633007
1.368288 -0.076072 0.113677 -0.000000 0.774146 0.633007
-0.791972 0.075023 0.092518 -0.000043 0.603053 0.796969
0.202204 0.501448 -0.607555 0.091031 0.770932 0.630379
-0.569375 -0.037450 -0.113073 0.000150 -0.321090 -0.946469
0.065253 -0.154066 -0.162941 0.091031 -0.770932 0.630379
0.395663 -0.093717 -0.073520 -0.000100 -0.782677 -0.621500
-0.607220 -0.097275 -0.068743 -0.000098 -0.838989 -0.543077
1.266948 0.165024 -0.181176 0.000000 0.774146 0.633007
1.294923 -0.034767 -0.113927 0.000041 -0.251026 -0.967414
-0.233491 -0.009513 0.118733 -0.000429 -0.094115 0.995041
-1.049418 0.010152 -0.118680 0.000442 0.105790 -0.993758
-0.141109 -0.034155 -0.114112 -0.000019 -0.245014 -0.968916
0.177654 -0.108986 -0.048064 -0.000480 -0.895842 -0.443020
1.403926 -0.135761 -0.186674 -0.000000 0.774146 -0.633007
0.178469 -0.091414 0.102668 0.091031 -0.770932 -0.630379
-1.245144 0.006224 0.118951 0.000416 0.084791 0.995958
-1.056897 0.107649 0.050987 -0.000058 0.883250 0.467659
-0.085217 -0.216929 -0.275348 -0.060224 0.749328 -0.659455
-0.549846 -0.110004 0.045685 0.000097 -0.921643 0.386669
0.164004 0.224849 0.263767 0.091031 0.770932 -0.630379
0.936902 0.100215 0.064382 -0.000001 0.818041 0.574160
0.092185 -0.186917 -0.246138 0.074084 0.772019 -0.631267
1.102518 0.126187 0.138841 -0.145628 0.905995 -0.397449
-0.541965 -0.074049 -0.093300 -0.000141 -0.654660 -0.755205
-1.270753 -0.019893 -0.117441 0.000312 -0.206243 -0.977959
-0.005678 -0.361316 -0.435353 -0.074011 -0.799404 0.596217
0.234906 0.308250 -0.376003 0.091031 0.770932 0.630379
0.197056 0.515929 0.636200 0.074084 -0.772019 0.631267
0.325631 -0.056830 -0.104682 -0.000276 -0.510518 -0.859225
0.712153 0.024552 0.116556 -0.000245 0.246607 0.968546
-1.187578 0.118736 -0.009472 -0.000336 0.991329 -0.125905
-0.133502 0.072429 -0.094563 0.000023 0.645621 -0.762960
1.350016 -0.130754 -0.180551 0.000000 0.774146 -0.633007
0.038129 0.264485 -0.340651 -0.060224 -0.749328 -0.659455
-0.393937 -0.118882 -0.007428 0.001368 -0.994643 -0.098438
-1.616391 0.015595 -0.029627 -0.734415 0.267170 -0.618915
0.309218 0.025690 -0.116310 -0.000492 0.243958 -0.969199
-0.633717 -0.074363 -0.093049 0.000029 -0.591358 -0.805732
1.484133 0.267328 0.329972 -0.145628 -0.569467 0.809012
1.484133 -0.267328 -0.329972 -0.145628 0.569467 -0.809012
0.011480 -0.123111 0.177576 -0.015444 0.758122 0.651103
-0.521646 0.015016 0.118163 0.000317 0.169144 0.985024
1.255934 0.132855 0.141834 0.000000 0.774146 -0.633007
0.302037 0.075940 -0.091767 0.000040 0.622238 -0.782074
0.194042 -0.396546 0.490553 0.074084 0.772019 0.631267
-0.323249 0.095321 0.071427 -0.000058 0.777340 0.628157
1.334058 -0.178574 -0.197747 -0.000000 -0.774146 0.633007
-0.010058 0.196599 0.259112 -0.060224 -0.749328 0.659455
-0.981394 -0.091647 -0.076085 0.000252 -0.793615 -0.607542
0.043595 -0.251301 -0.326168 -0.060224 0.749328 -0.659455
0.012895 -0.366360 0.454105 -0.060224 0.749328 0.659455
1.305173 -0.117358 0.020375 -0.000169 -0.976856 0.211162
0.059659 0.173294 0.233294 0.074084 -0.772019 0.631267
0.101242 0.308011 0.356408 0.091031 0.770932 -0.630379
1.144725 0.090002 -0.078023 -0.000146 0.730783 -0.681835
1.134968 0.041442 -0.111672 0.000097 0.386420 -0.921739
1.371402 -0.114970 -0.031145 -0.000191 -0.965230 -0.259141
0.000949 -0.197712 0.215172 -0.074011 -0.799404 -0.596217
0.088142 -0.083908 0.084543 -0.000027 -0.675155 0.736907
-0.017601 0.104555 -0.153835 -0.060224 -0.749328 -0.659455
-1.261724 -0.083148 -0.085291 -0.000118 -0.669137 -0.742372
0.065536 0.187625 -0.250130 0.074084 -0.772019 -0.631267
-0.500580 0.000000 -0.119114 0.000643 0.057732 -0.997628
0.680988 0.115090 0.030696 0.000137 0.952782 0.301817
-0.670777 0.000000 -0.119114 -0.000869 0.044401 -0.998418
1.278110 -0.148155 -0.160546 -0.000000 -0.774146 0.633007
-1.244358 -0.117699 -0.018302 -0.000217 -0.980261 -0.195113
1.207154 -0.108320 0.153115 -0.000000 0.774146 0.633007
-0.224936 -0.138747 0.173752 -0.060224 0.749328 0.659455
1.070806 0.096795 0.097734 -0.000000 0.774146 -0.633007
-0.413329 0.105988 0.054356 -0.000256 0.905080 0.424083
0.556940 0.108551 -0.049039 0.000264 0.890043 -0.454620
-0.288408 -0.028148 -0.115740 0.000401 -0.276469 -0.960468
-0.221782 -0.189013 0.231157 -0.060224 0.749328 0.659455
0.231429 0.556315 0.681558 0.074084 -0.772019 0.631267
-0.610654 -0.036303 -0.113447 0.000047 -0.301749 -0.952823
1.244546 0.088840 0.079345 -0.000820 0.747320 0.663477
0.241674 0.100742 0.123204 0.091031 0.770932 -0.630379
1.050414 -0.113828 0.035090 0.000418 -0.941404 0.335671
-0.002783 0.370314 -0.457166 -0.060224 -0.749328 -0.659455
0.798904 0.041844 0.111522 0.000384 0.398913 0.916249
0.091299 -0.293995 0.377194 0.074084 0.772019 0.631267
0.856412 0.107582 -0.051130 -0.000578 0.882171 -0.469461
-1.015117 0.080744 -0.087569 0.000361 0.680963 -0.731549
0.241674 0.417522 0.510615 0.091031 0.770932 -0.630379
-1.184535 0.043804 0.110767 -0.000077 0.371060 0.928028
-0.155635 0.112224 -0.119987 -0.074011 0.799404 0.596217
-0.202048 0.071767 -0.095066 0.000163 0.639705 -0.767939
-0.254208 -0.108233 -0.126872 -0.074011 -0.799404 0.596217
0.121502 -0.094747 -0.129976 0.074084 0.772019 -0.631267
0.175801 -0.009514 0.118733 0.000097 -0.092576 0.995200
1.309630 0.158324 0.172982 -0.000000 0.774146 -0.633007
-0.424134 -0.093131 0.074260 0.000223 -0.784452 0.619498
0.241674 -0.303481 -0.371147 0.091031 -0.770932 0.630379
0.026809 -0.106528 -0.053291 -0.000580 -0.878847 -0.476083
-0.185539 -0.113619 -0.035759 -0.001722 -0.944303 -0.328245
0.039326 0.210201 -0.279078 -0.060224 -0.749328 -0.659455
0.352563 -0.087644 -0.080663 0.000222 -0.707767 -0.705754
0.058594 0.433591 0.534672 -0.060224 -0.749328 0.659455
-0.293676 -0.113271 0.138527 -0.060224 0.749328 0.659455
1.514894 0.009826 -0.100371 1.000000 -0.000000 -0.000000
0.113423 0.435488 0.541834 -0.060224 -0.749328 0.659455
0.038238 -0.260331 0.335940 -0.060224 0.749328 0.659455
0.048842 0.095685 -0.089174 0.091031 0.770932 0.630379
-0.916780 -0.112842 -0.038140 -0.000085 -0.947873 -0.316850
0.152736 -0.281496 0.331417 0.091031 -0.770932 -0.630379
0.066084 -0.143944 0.196646 0.074084 0.772019 0.631267
1.380596 0.185002 0.205608 -0.000000 0.774146 -0.633007
-0.157718 -0.204346 -0.254430 -0.060224 0.749328 -0.659455
0.141643 -0.190895 -0.245198 0.074084 0.772019 -0.631267
0.342015 -0.118342 -0.013535 -0.001380 -0.987854 -0.151664
-0.460534 -0.000000 0.119114 -0.000590 -0.059502 0.997521
-0.048292 -0.149656 -0.156851 -0.074011 -0.799404 0.596217
-0.121030 0.150446 -0.196535 -0.060224 -0.749328 -0.659455
0.044032 -0.207547 -0.225282 0.091031 -0.770932 0.630379
-0.987727 -0.118874 -0.007549 -0.000616 -0.995152 -0.093546
-1.285227 -0.112151 -0.040128 0.000173 -0.925133 -0.378199
1.285324 -0.104830 -0.148846 0.000000 0.774146 -0.633007
-0.320371 0.000000 -0.119114 -0.000158 0.053222 -0.997839
1.424351 -0.038637 -0.112673 0.000019 -0.324157 -0.945401
-0.247346 -0.116044 -0.026868 0.000137 -0.964249 -0.262911
1.265352 0.109653 -0.154745 0.000000 -0.774146 -0.633007
1.034889 0.011497 0.118557 0.000958 0.104054 0.993943
0.102655 0.220321 0.285760 0.074084 -0.772019 0.631267
-0.320428 0.110282 -0.045010 0.001198 0.916103 -0.399100
1.292008 0.206555 -0.252610 -0.145628 0.905995 0.397449
-1.015722 0.116651 -0.024097 0.000044 0.983554 -0.177816
-0.159932 -0.105957 0.112118 -0.074011 -0.799404 -0.596217
-0.008244 -0.120953 -0.173323 -0.060224 0.749328 -0.659455
1.214024 0.110161 -0.155366 0.000000 -0.774146 -0.633007
0.072851 0.242611 -0.316518 0.074084 -0.772019 -0.631267
0.390229 -0.059944 0.102931 -0.000010 -0.467569 0.883295
0.907731 -0.118337 0.013581 -0.000049 -0.987159 0.155534
1.241082 0.117289 -0.020770 0.000545 0.977921 -0.205980
-0.247459 -0.161962 0.198075 -0.060224 0.749328 0.659455
-0.675621 -0.070745 -0.095829 -0.000023 -0.595115 -0.802980
1.514894 -0.000000 0.060510 1.000000 -0.000000 0.000000
0.201836 0.372262 0.449512 0.091031 0.770932 -0.630379
0.609301 -0.073025 0.094103 -0.000240 -0.646576 0.762137
-0.320278 -0.115715 -0.028251 -0.000017 -0.960807 -0.275054
1.328646 0.106987 -0.052362 0.001119 0.919965 -0.390013
0.046542 0.421430 -0.509472 -0.074011 0.799404 0.596217
-0.347875 0.069870 0.096469 0.000577 0.623144 0.781356
-1.475828 0.107227 -0.040014 -0.209838 0.932467 -0.290652
1.177751 -0.166931 -0.204151 -0.145628 -0.905995 0.397449
1.111839 -0.034658 -0.113960 -0.000031 -0.331482 -0.942791
0.949237 -0.087684 -0.107235 -0.145628 -0.905995 0.397449
1.406264 -0.246178 -0.301068 -0.145628 -0.905995 0.397449
0.121502 0.094747 0.129976 0.074084 -0.772019 0.631267
-1.078904 0.118154 0.015089 0.000264 0.990584 0.132487
-0.643222 -0.016452 0.117972 0.000049 -0.128947 0.990907
-0.550638 0.000000 -0.119114 -0.000017 0.027644 -0.999018
0.440511 0.119114 -0.000000 -0.001799 0.999491 0.018183
-0.630731 0.000000 -0.119114 0.000694 0.038795 -0.998584
0.241674 0.202112 -0.247176 0.091031 0.770932 0.630379
0.051876 0.292834 -0.374119 -0.060224 -0.749328 -0.659455
1.243205 -0.149860 -0.203917 -0.049124 0.711281 -0.697429
-0.133383 0.149526 0.194362 -0.060224 -0.749328 0.659455
0.929235 -0.031290 0.114930 0.000056 -0.268060 0.962800
0.062399 -0.180429 0.241698 0.074084 0.772019 0.631267
1.079411 0.063301 0.077415 0.000000 -0.633007 -0.774146
-0.434472 -0.118882 0.007424 0.000339 -0.998650 0.040898
-0.924515 0.021907 -0.117082 0.000377 0.229151 -0.972759
0.285553 0.041349 0.111706 -0.000187 0.356260 0.933748
0.660254 -0.039628 0.112328 -0.000003 -0.292668 0.955612
1.477396 0.207101 -0.232635 0.102230 0.767102 0.629163
-1.372494 0.080717 0.087594 -0.000147 0.709263 0.704145
-1.112468 0.080520 0.087776 0.000036 0.645195 0.763255
-0.021554 0.151031 0.206284 -0.060224 -0.749328 0.659455
0.011587 -0.010549 0.118645 -0.000192 -0.132873 0.990556
-0.501429 -0.069908 -0.096441 0.000032 -0.548854 -0.835221
0.060657 0.486572 0.595062 -0.074011 0.799404 -0.596217
0.117144 0.546084 -0.667843 -0.060224 -0.749328 -0.659455
-0.268000 0.140322 -0.171609 -0.060224 -0.749328 -0.659455
0.076062 0.502803 -0.614911 -0.060224 -0.749328 -0.659455
-0.011237 -0.410830 0.502432 -0.060224 0.749328 0.659455
-0.134483 -0.280986 0.343637 -0.060224 0.749328 0.659455
-0.303946 -0.102451 -0.125294 -0.060224 0.749328 -0.659455
-0.835023 -0.025792 -0.116288 -0.000178 -0.220451 -0.974897
1.484593 0.246757 0.284274 0.303063 0.734946 -0.606636
0.023523 -0.086478 -0.131361 0.074084 0.772019 -0.631267
0.639228 -0.096966 -0.069178 0.000028 -0.835147 -0.548976
0.451418 -0.049603 0.108294 0.000006 -0.414419 0.909442
-0.703497 0.048521 -0.108783 0.000378 0.360843 -0.932036
0.148098 -0.524976 -0.646685 -0.060224 0.749328 -0.659455
-1.015488 0.107647 0.050991 -0.000446 0.920020 0.390639
0.093221 -0.216607 -0.282325 0.074084 0.772019 -0.631267
0.241674 -0.278139 -0.340154 0.091031 -0.770932 0.630379
-0.081984 -0.311375 -0.377865 -0.074011 -0.799404 0.596217
-0.580259 -0.072439 0.094555 -0.000048 -0.607833 0.793294
0.104125 -0.245987 0.280971 0.091031 -0.770932 -0.630379
1.034420 -0.073417 0.069143 0.000000 -0.774146 -0.633007
0.118847 0.053159 -0.106593 -0.001018 0.467288 -0.883220
1.403785 -0.141642 0.193867 0.000000 0.774146 0.633007
1.518068 0.178836 -0.218711 0.303063 -0.740515 -0.599825
1.515616 0.071871 -0.087896 0.303063 -0.740515 -0.599825
1.519944 -0.260633 0.318746 0.303063 -0.734946 -0.606636
0.876350 0.093551 0.073730 -0.000025 0.757209 0.652309
0.105584 0.261223 -0.335438 0.074084 -0.772019 -0.631267
0.702795 -0.062535 0.101377 0.000005 -0.488318 0.871994
0.055573 -0.253134 -0.282700 0.036038 -0.782345 0.620493
0.384608 -0.024556 -0.116555 0.000607 -0.191398 -0.981015
0.008494 -0.169802 0.176813 -0.074011 -0.799404 -0.596217
-1.475538 -0.113056 0.018186 -0.209637 -0.956793 0.197404
0.524413 -0.010189 0.118677 -0.000169 -0.095992 0.994847
0.050237 -0.379638 0.452979 -0.074011 -0.799404 -0.596217
0.520216 0.115460 0.029274 -0.000072 0.959627 0.279205
1.347744 0.206346 -0.231711 -0.097667 0.868750 0.480080
1.391302 -0.201219 -0.266728 -0.049124 0.711281 -0.697429
1.443571 -0.219346 -0.288896 -0.049124 0.711281 -0.697429
0.252725 -0.023322 -0.116808 -0.000697 -0.234216 -0.971518
-0.059021 0.084838 0.083610 0.001487 0.747026 0.663783
0.610795 -0.115481 -0.029192 -0.000018 -0.957002 -0.288058
1.422674 0.166886 -0.183453 -0.000000 0.774146 0.633007
-0.336062 0.115836 0.027749 -0.000094 0.981341 0.188789
-0.204228 0.097805 0.129122 -0.060224 -0.749328 0.659455
0.150591 -0.533462 0.646767 -0.074011 -0.799404 -0.596217
0.314765 -0.038547 0.112704 0.000064 -0.364906 0.930425
1.365107 0.051924 0.107200 0.000099 0.472697 0.880605
1.384349 -0.053185 0.085686 -0.000000 0.633007 -0.774146
-1.245222 0.043433 -0.110913 0.000273 0.362933 -0.931242
0.622583 0.086285 -0.082115 -0.000070 0.756828 -0.652721
-0.033966 0.222182 0.285999 -0.060224 -0.749328 0.659455
1.469706 0.248641 -0.283437 -0.097667 0.868750 0.480080
-0.068369 -0.195607 0.252659 -0.060224 0.749328 0.659455
-0.107691 -0.196660 0.227247 -0.074011 -0.799404 -0.596217
1.310954 0.104938 -0.107693 0.000000 0.774146 0.633007
0.493738 0.118786 -0.008823 -0.000130 0.994929 -0.094957
1.145714 0.078968 -0.117218 0.000000 -0.774146 -0.633007
1.471648 0.108809 -0.024969 0.242264 0.954765 -0.168992
1.475060 -0.085014 0.124613 0.203251 0.757770 0.615805
0.038168 -0.129361 0.128817 0.091031 -0.770932 -0.630379
-0.888104 0.085071 -0.083373 0.000022 0.701115 -0.712255
-0.828644 0.049377 -0.108397 0.000461 0.455267 -0.889638
0.020537 0.046603 -0.109618 0.000890 0.364922 -0.930453
0.034980 0.459522 -0.561980 -0.060224 -0.749328 -0.659455
1.198043 -0.053758 0.106293 0.000119 -0.483822 0.874685
0.090109 0.340627 0.431916 -0.060224 -0.749328 0.659455
1.189911 0.017706 0.117790 0.000339 0.187363 0.981683
1.119837 -0.127942 -0.166282 -0.145628 0.569467 -0.809012
1.371437 -0.116319 0.121611 -0.000000 -0.774146 -0.633007
1.276510 -0.095010 0.095551 -0.000000 -0.774146 -0.633007
1.429339 -0.063301 -0.077415 -0.000000 0.633007 0.774146
-0.676207 0.084349 0.084103 0.000497 0.681906 0.730681
1.082096 0.117503 0.019519 0.000163 0.986772 0.158770
1.356783 0.108489 0.153322 0.000000 -0.774146 0.633007
-1.036718 0.056554 0.104832 -0.000083 0.512693 0.857920
0.219628 0.189628 0.234496 0.074084 -0.772019 0.631267
1.484851 -0.230568 -0.299360 0.303063 0.740515 -0.599825
-0.459859 0.118881 0.007447 -0.000228 0.994076 0.103174
1.329543 0.096365 0.070014 -0.000072 0.783837 0.620043
-0.027569 -0.288290 0.361700 -0.060224 0.749328 0.659455
1.364192 0.083803 0.084647 -0.000103 0.704387 0.709017
0.206499 -0.097686 -0.123595 0.074084 0.772019 -0.631267
0.174108 0.421815 0.506109 0.091031 0.770932 -0.630379
1.304365 -0.073417 -0.069143 0.000000 0.633007 0.774146
-0.121870 -0.137513 0.149703 -0.074011 -0.799404 -0.596217
-0.074103 0.115992 -0.027090 -0.000330 0.961126 -0.273861
0.139656 0.007653 0.118868 -0.000687 0.099451 0.994352
-0.136672 -0.098694 0.066690 -0.000179 -0.831546 0.554612
0.459840 -0.065831 -0.099269 -0.000144 -0.582952 -0.811769
-0.043929 0.167465 -0.180188 -0.074011 0.799404 0.596217
0.163422 -0.314377 0.393657 0.074084 0.772019 0.631267
-0.750535 0.049038 -0.108551 -0.000059 0.455124 -0.889806
1.064391 -0.076654 -0.114388 0.000000 0.774146 -0.633007
-0.874554 0.055821 -0.105224 0.000001 0.425511 -0.904325
1.357170 -0.191112 0.213081 -0.000000 -0.774146 -0.633007
0.052654 0.121637 0.121463 0.091031 0.770932 -0.630379
1.475644 0.130710 0.139211 0.102230 0.767102 -0.629163
1.217760 0.087957 0.128211 -0.000000 -0.774146 0.633007
0.191311 -0.361440 0.447939 0.074084 0.772019 0.631267
-0.768930 0.114801 0.031762 -0.000023 0.954751 0.295595
0.234503 -0.052424 0.106957 -0.000005 -0.445898 0.894432
-0.358523 -0.075976 -0.091737 -0.000578 -0.632863 -0.773575
-1.312093 0.102279 -0.061049 -0.000162 0.857316 -0.513692
0.087221 0.117507 -0.161833 0.074084 -0.772019 -0.631267
0.840155 -0.118881 0.007440 -0.000634 -0.993479 0.109104
0.616133 0.106270 0.053803 -0.000196 0.874498 0.483875
0.087475 0.464054 -0.561541 -0.074011 0.799404 0.596217
0.009265 -0.170988 -0.231775 -0.060224 0.749328 -0.659455
0.152190 -0.360879 0.428421 0.091031 -0.770932 -0.630379
-0.014750 -0.314194 -0.373299 -0.074011 -0.799404 0.596217
1.229843 0.007655 -0.118867 -0.000574 0.107678 -0.993666
0.011296 0.279864 0.324036 -0.074011 0.799404 -0.596217
1.004013 0.069340 0.096851 -0.000109 0.581094 0.813134
-0.066824 -0.255524 0.301099 -0.074011 -0.799404 -0.596217
0.136373 0.408536 0.511984 0.074084 -0.772019 0.631267
0.085744 0.117277 -0.020836 0.000164 0.979313 -0.199068
1.002001 -0.081800 -0.086584 -0.000024 -0.652954 -0.756628
-0.107400 0.119346 -0.162441 -0.060224 -0.749328 -0.659455
-1.373783 0.104790 0.056631 -0.000044 0.898925 0.436823
0.849997 0.118585 0.011211 0.000873 0.989708 0.138890
0.154540 0.366188 0.458061 0.074084 -0.772019 0.631267
0.076415 -0.177853 -0.193644 0.091031 -0.770932 0.630379
-1.054297 0.116869 -0.023017 0.000407 0.977702 -0.207701
1.356732 -0.120828 0.168412 -0.000000 0.774146 0.633007
-0.023897 0.295161 0.348915 -0.074011 0.799404 -0.596217
0.560413 0.038059 -0.112869 -0.000381 0.343320 -0.938639
0.158230 -0.289739 -0.342292 0.091031 -0.770932 0.630379
0.928366 0.118791 -0.008755 -0.000313 0.996269 -0.081651
0.172555 0.410997 -0.510748 0.074084 -0.772019 -0.631267
-0.609661 0.058530 0.103741 0.000252 0.525142 0.850249
0.201964 0.117773 -0.148693 0.074084 -0.772019 -0.631267
0.002525 0.205701 -0.225687 -0.074011 0.799404 0.596217
0.837049 -0.027932 0.115792 0.000154 -0.261786 0.964674
-1.279617 0.060932 -0.102349 -0.000212 0.473966 -0.879909
1.045197 -0.111524 -0.041838 0.000042 -0.921707 -0.386369
-0.005696 -0.163394 -0.169983 -0.074011 -0.799404 0.596217
0.043428 0.115482 0.164496 0.074084 -0.772019 0.631267
1.444663 -0.172825 0.232002 -0.000000 0.774146 0.633007
-1.455585 -0.016284 0.116644 -0.150501 -0.125491 0.979604
1.400353 0.186359 0.248553 -0.000000 -0.774146 0.633007
1.209384 0.063301 -0.077415 -0.000000 -0.633007 0.774146
1.245874 -0.090961 -0.076904 -0.000058 -0.737786 -0.674210
0.824212 0.044935 -0.110313 -0.000694 0.383867 -0.922836
1.001971 0.105972 -0.129600 -0.145628 0.905995 0.397449
-0.043157 -0.360159 0.441940 -0.060224 0.749328 0.659455
1.330828 -0.091037 -0.131979 -0.000000 0.774146 -0.633007
-0.937051 0.090267 -0.077717 0.000096 0.768644 -0.638766
-0.070563 -0.165115 0.180342 -0.074011 -0.799404 -0.596217
1.437289 -0.077492 0.115413 -0.000000 0.774146 0.633007
0.023210 0.209453 0.276756 -0.060224 -0.749328 0.659455
-1.424400 0.029121 -0.115499 0.000009 0.285019 -0.957928
1.244814 -0.035906 -0.113573 -0.000018 -0.340088 -0.939811
-0.826936 0.118019 0.016114 -0.000017 0.984045 0.174568
0.216251 -0.051457 -0.107425 -0.000105 -0.430613 -0.901890
0.814303 0.006445 -0.118939 0.001060 0.087494 -0.995809
-0.029954 0.111376 0.103250 -0.074011 0.799404 -0.596217
1.267616 -0.159723 0.174693 -0.000000 -0.774146 -0.633007
1.438949 0.165793 -0.223402 -0.000000 -0.774146 -0.633007
-1.330698 -0.076354 -0.091423 0.000038 -0.673679 -0.738240
1.045916 0.121212 -0.148238 -0.145628 0.905995 0.397449
1.497878 0.195569 0.228896 0.303063 0.734946 -0.606636
-0.021178 0.117756 0.017931 0.000657 0.981628 0.187917
1.251450 -0.000000 0.119114 -0.000694 -0.045972 0.998628
-0.018971 0.353811 -0.426941 -0.074011 0.799404 0.596217
-0.012801 0.364976 0.441145 -0.074011 0.799404 -0.596217
0.804309 0.103009 -0.059810 -0.001101 0.839966 -0.541620
-0.231527 -0.113853 0.035009 -0.000158 -0.955190 0.294037
0.207199 -0.310592 0.383889 0.074084 0.772019 0.631267
0.104938 0.490847 0.595296 -0.074011 0.799404 -0.596217
0.076908 0.326686 0.378670 -0.074011 0.799404 -0.596217
1.389918 0.112654 -0.038692 0.000023 0.930493 -0.364751
0.653916 -0.035121 -0.113818 -0.000016 -0.330742 -0.943105
0.068542 0.260483 0.338880 0.029326 -0.765686 0.641707
0.198957 0.208980 0.260589 0.074084 -0.772019 0.631267
-0.912476 -0.077787 0.090206 0.000152 -0.655052 0.754774
1.401219 0.147038 -0.159179 0.000000 0.774146 0.633007
0.065407 0.337902 -0.426564 -0.060224 -0.749328 -0.659455
0.251472 -0.117789 -0.017715 0.001314 -0.984673 -0.171220
1.457270 0.101412 0.054698 0.242713 0.871117 0.425894
-0.104782 0.037524 -0.113049 -0.000191 0.359339 -0.932605
0.089030 0.079130 -0.114687 0.074084 -0.772019 -0.631267
-0.065031 0.271871 0.322794 -0.074011 0.799404 -0.596217
0.040421 0.146614 0.202922 0.074084 -0.772019 0.631267
-0.081044 0.155002 0.168084 -0.074011 0.799404 -0.596217
0.158931 -0.555432 -0.682280 -0.060224 0.749328 -0.659455
-0.004083 -0.117171 -0.107807 0.036038 -0.782345 0.620493
-0.249808 -0.091000 -0.076858 0.000108 -0.735087 -0.677128
0.241674 0.145091 0.177442 0.091031 0.770932 -0.630379
1.474330 -0.053185 0.085686 0.253157 0.749143 0.607815
1.518068 -0.178836 -0.218711 0.303063 -0.734946 0.606636
0.591951 -0.108093 0.050039 0.000229 -0.908054 0.417591
-0.572740 0.115240 -0.030129 -0.001567 0.962262 -0.270314
1.344357 0.053185 -0.085686 -0.000000 -0.633007 0.774146
-0.093401 -0.324267 0.396568 -0.060224 0.749328 0.659455
0.092185 0.186917 0.246138 0.074084 -0.772019 0.631267
-0.012439 -0.187521 -0.203169 -0.074011 -0.799404 0.596217
0.997733 -0.009534 0.118731 -0.001332 -0.113674 0.992863
-1.079222 0.103026 -0.059779 -0.000088 0.865036 -0.500507
0.383793 0.062172 0.101601 -0.000019 0.533797 0.844975
0.022173 -0.145997 -0.146852 0.091031 -0.770932 0.630379
0.047874 0.143564 -0.198318 0.074084 -0.772019 -0.631267
-0.536521 -0.115576 -0.028815 -0.000034 -0.968439 -0.246907
0.203695 -0.165099 0.196426 0.091031 -0.770932 -0.630379
1.425032 0.125535 0.132882 0.000000 0.774146 -0.633007
0.158178 -0.409448 0.488684 0.091031 -0.770932 -0.630379
0.219026 -0.533881 -0.655577 0.074084 0.772019 -0.631267
1.166556 -0.098941 -0.066323 0.000375 -0.803805 -0.593772
0.485107 0.094489 -0.072525 -0.000056 0.763173 -0.645310
1.482887 -0.071310 -0.070866 -0.000000 0.633007 0.774146
1.415981 -0.113184 0.117777 -0.000000 -0.774146 -0.633007
-1.203429 0.010339 0.118664 0.001245 0.129496 0.991036
0.204389 0.229195 -0.274914 0.091031 0.770932 0.630379
0.972894 0.090030 -0.077991 0.000001 0.758379 -0.650915
1.189347 -0.091124 0.090798 -0.000000 -0.774146 -0.633007
1.477542 -0.193235 -0.256963 0.203251 0.757770 -0.615805
1.299366 0.063301 0.077415 0.000000 -0.633007 -0.774146
1.134400 -0.053185 -0.085686 -0.000000 0.633007 0.774146
-1.433011 -0.107027 0.052281 -0.029190 -0.897646 0.437962
-0.105395 0.102293 -0.100435 -0.074011 0.799404 0.596217
0.068380 -0.284975 -0.366696 -0.060224 0.749328 -0.659455
0.446527 0.028365 -0.115687 -0.000086 0.266434 -0.963234
1.514894 0.039229 0.045863 1.000000 0.000000 0.000000
0.156729 -0.472784 -0.588169 -0.015444 0.758122 -0.651103
-0.115341 -0.190568 -0.242644 -0.060224 0.749328 -0.659455
1.171692 0.135578 -0.180991 -0.145628 -0.569467 -0.809012
1.289388 0.110849 0.156208 -0.000000 -0.774146 0.633007
-0.016666 -0.256079 0.326095 -0.060224 0.749328 0.659455
-0.019382 0.076814 -0.091055 0.000000 -0.633007 0.774146
0.139344 0.145652 -0.190136 0.074084 -0.772019 -0.631267
1.429339 0.063301 -0.077415 -0.000000 -0.633007 0.774146
1.379350 0.063301 -0.077415 -0.000000 -0.633007 0.774146
0.024710 -0.448701 -0.548747 -0.060224 0.749328 -0.659455
-1.263494 0.041095 0.111800 -0.000121 0.377653 0.925417
1.107038 -0.073015 0.109938 0.000000 0.774146 0.633007
1.457806 0.141482 -0.152384 0.000000 0.774146 0.633007
-0.387152 0.028723 0.115599 0.000014 0.280369 0.959290
0.781872 -0.069119 0.097009 -0.000607 -0.614361 0.788162
-1.373688 0.008053 -0.118841 0.000281 0.115013 -0.992679
-0.090104 -0.119114 -0.000000 -0.000282 -0.998439 0.045808
0.241402 0.086290 0.082110 0.000883 0.757315 0.652005
0.681792 0.105448 -0.055397 -0.000074 0.905834 -0.422250
-1.381601 -0.119114 0.000000 0.000185 -0.999591 0.016029
-0.075576 0.192967 0.218309 -0.074011 0.799404 -0.596217
-0.600542 -0.009073 0.118768 0.000579 -0.081959 0.996210
