2.757074 0.656059 0.905181 -0.000000 0.200793 0.000075
0.610958 0.728073 0.730595 0.000000 0.821421 -0.000011
0.167693 0.670100 0.690626 -0.162904 0.000091 -0.000243
1.894100 1.010146 0.340045 -0.053559 0.005703 0.004206
2.082980 0.922445 1.156467 0.053585 -0.006540 0.005161
1.615523 0.652079 0.905883 -0.000000 0.154118 0.000099
1.659826 0.780513 0.628553 -0.053557 0.017033 0.012041
3.026480 0.639183 0.907179 0.000000 0.023710 0.000043
0.839269 0.522272 0.777615 0.000000 -0.988053 -0.000002
1.849922 0.521083 0.793389 0.000000 -0.999710 -0.000000
1.943600 0.453660 0.994163 0.120099 -0.003613 -0.002871
1.067579 0.668053 0.902141 0.000002 0.218875 0.000008
1.880793 1.160604 1.452132 -0.053557 0.006883 -0.005064
0.464840 0.632784 0.680848 -0.000000 -0.011676 -0.000176
1.868268 0.740680 0.944856 -0.023796 -0.009372 0.007148
1.909598 0.223496 1.293818 -0.053555 -0.005015 -0.003704
3.205717 0.745478 0.654232 -0.191473 -0.002539 -0.002159
2.620088 0.523333 0.816565 0.000000 -0.979412 0.000003
1.968883 0.105899 1.447029 -0.053555 -0.006884 -0.005064
1.908651 0.075404 0.094560 -0.053557 -0.006097 0.004493
0.336986 0.645817 0.906702 -0.000000 0.106867 0.000286
2.415967 0.712960 0.892994 0.070457 0.005820 -0.006658
2.802737 0.655853 0.682902 0.000000 0.201014 -0.000037
1.569861 0.641033 0.681038 0.000000 0.059469 -0.000065
1.935158 0.621108 0.681604 0.000001 -0.086173 -0.000022
1.204565 0.540814 0.730180 -0.000001 -0.791285 -0.000003
1.714900 0.999893 0.337734 -0.053557 0.003098 0.002294
2.209130 0.699013 0.701154 0.000000 0.570281 -0.000044
3.093788 0.391392 1.099571 0.070460 -0.005820 -0.006658
1.443418 0.500223 0.962693 -0.053554 -0.007474 -0.005490
2.437440 0.534622 0.740354 -0.000001 -0.873363 -0.000002
1.295889 0.746600 0.808507 -0.000000 0.989730 0.000001
1.836659 0.401486 0.490212 -0.023796 0.007881 -0.006133
0.747945 0.737981 0.839561 -0.000001 0.776882 0.000001
2.754877 0.795084 0.996283 0.070459 0.006005 -0.006868
2.300454 0.582414 0.894708 0.000000 -0.468810 0.000058
3.064532 0.747412 0.789012 0.000000 0.999719 -0.000000
3.064532 0.521187 0.799114 0.000000 -0.999719 0.000000
1.918269 0.221573 0.267661 -0.023796 0.010650 -0.007969
2.843791 0.499255 0.947801 -0.000001 0.782738 0.000317
3.093788 0.391392 0.488554 0.070460 -0.005820 0.006658
3.093788 0.877208 1.099571 0.070460 0.005820 -0.006658
1.607590 0.499419 0.948996 -0.053561 -0.002802 -0.002076
1.690988 0.398765 1.077194 -0.053562 -0.003884 -0.002873
1.742758 0.236115 1.291825 -0.053559 -0.002704 -0.002003
1.728156 0.634468 0.680834 0.000000 0.023710 -0.000043
0.976255 0.606992 0.684178 -0.000000 -0.245195 -0.000015
1.432875 0.644560 0.906825 -0.000000 0.083192 0.000092
1.977734 0.321934 1.196005 0.053588 0.006020 0.004757
2.553117 0.636825 0.680890 0.000000 0.023710 -0.000022
2.082980 0.097383 0.118775 0.053587 0.012870 -0.009951
2.082980 0.283962 0.353437 0.053588 0.005709 -0.004514
2.072144 0.669097 0.901812 0.000002 0.314053 0.000046
0.336986 0.561370 0.707454 0.000001 -0.645138 -0.000018
2.784503 0.479325 0.607202 0.070459 0.008069 -0.004269
2.528764 0.747027 0.804742 -0.000001 0.935527 0.000000
3.093788 0.877208 0.488554 0.070460 0.005820 0.006658
2.913035 0.833408 0.543641 0.070459 0.005820 0.006658
1.684377 0.412669 0.529083 -0.053558 -0.016124 0.011453
2.081276 0.634973 0.680846 0.000000 0.024064 -0.000021
1.673660 0.271241 0.337438 -0.053557 -0.012389 0.008953
0.565296 0.552349 0.872202 0.000000 -0.731784 0.000014
2.082980 0.486088 0.980470 0.053587 0.008615 0.006763
1.889496 0.604669 0.903346 0.000000 -0.270418 0.000027
1.952702 0.851312 0.546447 0.120099 0.003427 0.002724
1.929216 1.079274 1.338120 -0.053555 0.004622 -0.003416
0.113222 0.576683 0.867328 -0.375096 -0.000057 0.000069
2.082980 1.186765 0.099220 0.053588 -0.012870 -0.009950
1.918853 0.455612 0.601229 0.120100 -0.001806 0.001436
2.082980 1.264506 1.586681 0.000000 0.622341 0.000411
2.163468 0.556407 0.876243 0.000000 -0.681536 0.000008
2.898581 0.755222 0.658086 -0.000000 -0.782739 -0.000816
2.923707 0.739528 0.942518 0.000000 0.782739 -0.000408
0.473972 0.746069 0.775951 0.000000 0.988053 -0.000005
2.574426 0.625215 0.906923 0.000001 -0.083088 0.000184
1.417836 0.525666 0.657432 -0.053558 -0.007473 0.005490
1.752509 0.663769 0.903392 -0.000000 0.270254 0.000027
1.823436 0.430229 1.062352 -0.023795 0.008308 0.006429
1.615523 0.741824 0.758586 0.000001 0.946284 -0.000005
2.315675 0.747505 0.792884 0.000000 0.999719 -0.000000
2.939723 0.545504 0.864321 -0.000000 -0.778195 0.000006
1.521395 0.747284 0.927235 -0.053561 0.007473 -0.005490
1.158903 0.739786 0.835204 -0.000002 0.830626 0.000002
2.102585 0.747509 0.793052 0.000000 0.999719 -0.000000
1.686652 0.853709 0.512198 -0.023796 -0.008733 -0.006721
1.785826 0.857488 1.084262 -0.023796 -0.016612 0.011167
2.117806 0.528540 0.753628 0.000001 -0.931447 -0.000006
1.891111 1.213621 0.065443 -0.023797 -0.012779 -0.009229
2.596719 0.756759 0.640044 0.070459 0.005820 0.006658
3.202318 0.831365 0.554265 -0.191475 -0.002784 -0.002367
1.295889 0.525016 0.823694 -0.000000 -0.962740 0.000004
0.098445 0.569007 0.737486 -0.432811 -0.000054 -0.000044
1.916694 0.029537 1.554682 -0.053557 -0.007473 -0.005490
1.158903 0.539900 0.856581 -0.000000 -0.834705 0.000010
2.898581 0.513378 0.658086 0.000000 0.782739 -0.000408
3.122371 0.650415 0.681982 0.383344 0.000014 -0.000109
0.676407 0.630764 0.680914 0.000000 -0.023710 -0.000022
3.122834 0.554492 0.910547 0.000003 -0.782699 -0.000272
3.197312 0.714559 0.895006 -0.191474 -0.002539 0.002159
2.317197 0.635142 0.680850 0.000000 0.023710 -0.000022
3.230933 0.430365 0.537571 -0.191475 -0.002676 0.001987
3.230933 0.838235 1.050555 -0.191476 -0.002539 0.002159
1.948720 0.304331 0.367479 0.053588 0.006124 -0.004838
1.453778 0.732260 0.675059 -0.053560 0.007473 0.005490
2.677927 0.635563 0.680845 0.000000 0.012030 -0.000043
1.524199 0.555859 0.875719 -0.000000 -0.697514 0.000008
0.930593 0.542063 0.859744 0.000000 -0.821504 0.000005
1.667899 0.523845 0.645822 -0.023792 0.014165 -0.009978
0.098445 0.719816 0.781767 -0.432808 0.000072 -0.000009
2.082980 0.081835 1.488905 0.053587 0.012870 0.009951
0.717503 0.521081 0.795242 0.000000 -0.999928 0.000000
3.197312 0.554041 0.693119 -0.191473 -0.002676 0.001987
1.961804 0.397480 1.102363 0.053587 0.007370 0.005805
0.859056 0.747473 0.791537 0.000000 0.999710 -0.000000
1.953759 1.064782 0.244668 -0.023789 -0.009801 -0.007429
1.718097 1.003073 1.254391 -0.053555 0.006097 -0.004493
3.010604 0.471011 0.604801 0.000000 0.782739 -0.000249
1.571331 0.895589 1.122690 -0.023795 -0.033626 0.015935
1.979440 0.744853 0.675145 0.120100 0.003914 0.003110
1.843834 0.726633 0.728520 -0.000000 0.817634 -0.000003
1.732991 0.350615 0.432044 -0.023796 0.007562 -0.005907
1.964933 0.802282 0.982390 0.120101 0.001922 -0.001528
2.875796 0.636237 0.907272 0.000000 0.012030 0.000043
2.775339 0.747452 0.797430 0.000000 0.999719 0.000000
1.532957 0.411174 0.513435 -0.053558 -0.009341 0.006826
2.082980 0.423896 0.529434 0.053587 0.015567 -0.011888
1.949265 0.140069 0.185399 -0.053556 -0.007670 0.005632
2.711412 0.533990 0.741544 0.000000 -0.883297 -0.000008
2.082980 0.283962 1.234688 0.053586 0.011417 0.008879
3.026309 0.823009 1.015296 -0.000002 -0.782728 0.000354
1.980820 0.532919 0.743645 -0.000000 -0.894217 -0.000015
2.890441 0.440666 1.037598 0.070461 -0.006004 -0.006868
1.113241 0.599183 0.686419 -0.000000 -0.315823 -0.000092
1.930515 0.925426 0.457546 -0.053556 0.003294 0.002439
1.524199 0.544806 0.724702 0.000000 -0.793198 -0.000012
2.346116 0.522016 0.808633 0.000001 -0.990782 0.000002
1.819804 0.938089 1.157620 -0.053556 0.006589 -0.004850
0.245662 0.578822 0.892764 0.000002 -0.489483 0.000110
0.656620 0.692944 0.890922 -0.000000 0.510326 0.000006
2.665750 0.723307 0.864058 -0.000000 0.793281 0.000006
2.711412 0.556160 0.876013 0.000000 -0.698652 0.000032
1.696231 0.560866 0.880339 -0.000002 0.622336 -0.000347
2.574125 0.517316 0.941195 0.070459 -0.006005 -0.006868
2.528937 0.528265 0.660702 0.070459 -0.006005 0.006868
0.291324 0.662301 0.684355 0.000000 0.247279 -0.000121
2.997864 0.719917 0.702490 0.000000 -0.782739 -0.000249
0.230441 0.747408 0.788843 0.000000 0.999719 -0.000000
1.975458 0.953903 1.175132 0.120099 0.002686 -0.002135
2.049415 0.984134 0.360596 0.120098 0.002501 0.001988
1.818065 0.572002 0.698933 -0.023796 0.018740 -0.012071
1.755549 0.223393 0.280301 -0.053558 -0.010816 0.007864
1.664541 0.856082 1.077992 -0.023798 -0.008733 0.006720
0.382648 0.730987 0.852997 -0.000000 0.859981 0.000002
1.814765 0.843292 0.557862 -0.053557 0.008063 0.005914
0.976255 0.718925 0.869285 0.000001 0.682347 0.000002
1.991387 1.019497 1.260727 0.120102 0.002316 -0.001841
1.563111 0.852600 0.522655 -0.053559 0.005605 0.004135
1.843834 0.738050 0.839407 0.000000 0.914394 0.000003
2.939723 0.527242 0.757188 -0.000000 -0.948720 -0.000010
2.060793 1.120944 0.186316 0.120095 0.003613 0.002871
3.103363 0.478232 1.006460 0.000002 -0.782729 -0.000354
1.555355 0.750091 0.643537 -0.023800 -0.005058 -0.004056
1.868268 0.500974 0.923431 -0.053555 -0.008654 -0.006337
1.235006 0.632953 0.680862 0.000000 -0.024072 -0.000043
3.206521 0.421775 1.053304 -0.191474 0.002784 0.002367
1.986656 1.204809 1.502200 -0.053558 0.005900 -0.004350
0.200000 0.568618 0.701826 -0.068945 -0.000187 -0.000256
3.065288 0.531736 0.681176 0.000000 0.782739 -0.000698
1.985129 0.171587 1.357003 0.120099 -0.003520 -0.002798
1.854435 0.827163 1.004947 -0.053557 0.008063 -0.005914
1.947866 0.699095 0.887207 0.053587 -0.009342 0.007317
1.341551 0.541415 0.729315 -0.000000 -0.821053 -0.000011
1.387213 0.727257 0.858706 0.000000 0.821243 0.000011
2.985385 0.728514 0.856863 0.000000 0.834746 0.000041
2.040313 0.862247 1.072461 0.120098 0.003242 -0.002577
0.793607 0.574581 0.697867 0.000001 -0.526947 -0.000012
1.998783 1.139910 1.413608 -0.053560 0.014944 -0.010678
1.675973 0.738547 0.901539 -0.053558 0.013077 -0.009423
0.428310 0.593590 0.899716 -0.000000 -0.360573 0.000159
0.571385 0.638004 0.680918 0.000000 0.023710 -0.000043
1.700423 0.931721 0.416508 -0.023797 -0.015121 -0.010463
0.793607 0.548262 0.867668 0.000000 -0.763284 0.000013
1.600124 0.802373 0.994420 -0.053561 0.005605 -0.004135
0.473972 0.541583 0.729073 -0.000000 -0.821097 -0.000011
2.737073 0.733879 0.652712 0.000000 0.782738 0.000453
1.800243 0.969331 0.386623 -0.053556 0.012389 0.008954
1.387213 0.739907 0.753235 0.000000 0.932614 -0.000001
1.765406 0.774046 0.646777 -0.053558 0.017033 0.012041
1.021917 0.576597 0.891481 -0.000001 -0.510111 0.000052
1.387213 0.557640 0.877390 -0.000000 -0.680036 0.000008
3.095404 0.721329 0.887411 0.000000 -0.782740 0.000272
0.336986 0.543986 0.862355 -0.000000 -0.792356 0.000006
0.565296 0.744174 0.821411 -0.000000 0.968966 0.000004
2.520393 0.521141 0.797177 0.000005 -0.204951 0.000000
2.300454 0.683472 0.896058 0.000000 0.426070 0.000033
1.902923 0.517320 0.681935 0.120097 -0.002084 0.001657
2.826830 0.743924 0.915830 0.000000 -0.782738 0.000635
0.930593 0.535578 0.738621 0.000000 -0.871890 -0.000017
1.469405 0.633711 0.680844 -0.000000 -0.024055 -0.000043
2.082980 0.984638 1.234688 0.053589 -0.005709 0.004514
2.082980 0.844704 0.529434 0.053588 -0.015567 -0.011887
2.082980 0.144028 1.410685 0.053586 0.016190 0.012324
0.880364 0.632785 0.680866 -0.000000 -0.023710 -0.000043
3.153538 0.721209 0.743886 0.381456 0.000382 -0.000195
1.929485 0.016815 0.017444 -0.053557 -0.007473 0.005490
1.859331 1.134372 0.169427 -0.053558 0.003835 0.002837
1.798172 0.551976 0.871802 -0.000000 -0.731386 0.000007
2.391778 0.618185 0.906143 0.000000 -0.154291 0.000025
1.069101 0.747505 0.795241 0.000000 0.999719 0.000000
1.822469 1.043355 0.275737 -0.023799 -0.005751 -0.004582
2.808055 0.544447 0.697162 0.000000 0.782738 -0.000317
1.896809 0.335772 0.444533 -0.053558 -0.003294 0.002439
0.787518 0.637499 0.907219 0.000000 0.023719 0.000043
1.830377 0.268704 1.259666 -0.023795 0.024699 0.014052
0.070325 0.663399 0.857780 -0.542842 0.000018 0.000038
2.980818 0.418767 1.065142 0.070457 -0.006005 -0.006868
3.003412 0.855308 0.516098 0.070458 0.005820 0.006658
2.506343 0.734859 0.667588 0.070461 0.005820 0.006658
3.003412 0.413292 0.516098 0.070458 -0.005820 0.006658
2.506343 0.734859 0.920538 0.070459 0.005820 -0.006658
1.569861 0.735850 0.844142 0.000000 0.894197 0.000015
2.437440 0.612623 0.682927 0.000001 -0.200455 -0.000075
1.807402 1.029589 1.282101 -0.053560 0.002704 -0.002003
1.865529 0.080422 1.490683 -0.053557 -0.012193 -0.008818
1.584122 0.360289 1.138690 -0.053556 -0.007375 -0.005419
1.801573 1.124572 1.410685 -0.023799 -0.018313 0.011899
2.613393 0.564218 0.722028 0.000000 -0.622350 -0.000317
2.163468 0.586119 0.691601 0.000000 -0.426138 -0.000016
1.021917 0.690623 0.695835 0.000000 0.489589 -0.000027
1.250227 0.725394 0.726817 0.000000 0.807663 -0.000011
1.986656 1.198199 0.080670 -0.023795 -0.012780 -0.009230
1.729793 0.353795 1.152081 -0.023797 0.015121 0.010463
0.702282 0.740792 0.755601 -0.000001 0.940334 -0.000006
2.814406 0.572065 0.872337 0.000000 -0.622350 0.000634
1.155859 0.632448 0.907251 0.000000 -0.024072 0.000011
1.899747 0.158135 1.397161 -0.023796 0.035749 0.016252
1.752509 0.528753 0.753078 -0.000001 -0.872285 -0.000002
3.169121 0.540900 0.784246 0.362299 -0.000102 -0.000001
3.030564 0.533149 0.905173 0.000000 0.782739 0.000125
1.954693 0.539349 0.924545 0.053586 0.008771 0.006882
2.254792 0.527793 0.832484 -0.000000 -0.940156 0.000003
2.221306 0.632279 0.907247 0.000000 -0.023710 0.000043
2.894061 0.632447 0.680852 -0.000005 -0.002667 -0.000385
1.696231 0.718076 0.716010 0.000001 -0.622349 0.000405
0.382648 0.683776 0.692211 0.000000 0.425593 -0.000004
2.346116 0.552585 0.715682 -0.000001 -0.714208 -0.000015
1.935158 0.527608 0.831969 0.000000 -0.940930 0.000003
1.295889 0.697205 0.888207 0.000001 0.550301 0.000047
0.291324 0.718869 0.869348 -0.000000 0.747866 0.000027
2.483102 0.645231 0.906765 0.000000 0.106858 0.000072
1.787094 0.785538 0.954889 -0.053558 0.017033 -0.012041
1.430627 0.755655 0.946693 -0.023795 -0.016187 0.010972
1.991387 0.261623 1.270682 0.053589 0.005190 0.004107
2.209130 0.746786 0.781122 -0.000001 0.993340 -0.000002
3.020584 0.750826 0.956727 0.000000 0.782739 -0.000125
1.954978 0.419862 0.513323 0.053587 0.014530 -0.011151
1.569861 0.521363 0.802225 0.000000 -0.996565 0.000000
2.665750 0.640444 0.907122 -0.000000 0.059540 0.000516
2.082980 1.109024 1.391129 0.053588 -0.016189 0.012324
1.524130 0.466373 1.001065 -0.053555 -0.003737 -0.002765
2.434396 0.747477 0.796420 0.000000 0.999719 0.000000
2.777471 0.468041 1.003169 0.070459 -0.005820 -0.006658
2.031210 0.755908 0.936948 0.120100 0.003914 -0.003110
1.746580 0.442120 1.013736 -0.053557 -0.017033 -0.012041
1.524199 0.658533 0.904670 0.000001 0.221336 0.000034
2.574426 0.726338 0.728109 -0.000001 0.807105 -0.000011
1.768268 0.430628 0.560848 -0.053557 -0.008063 0.005914
1.993663 0.241953 0.317964 0.120099 -0.004631 0.003680
2.848398 0.726777 0.728727 0.000000 0.821097 -0.000005
0.063635 0.652730 0.731296 -0.569077 0.000010 -0.000038
1.730556 0.291615 1.218095 -0.053558 -0.003098 -0.002294
0.519634 0.707551 0.707726 -0.000000 0.645581 -0.000018
3.133724 0.797589 0.604801 -0.000001 -0.782737 -0.000354
0.592694 0.631101 0.907219 0.000000 -0.023710 0.000022
0.536377 0.521086 0.792463 -0.000000 -0.999928 -0.000000
2.117806 0.711761 0.711481 0.000001 0.661032 -0.000004
1.615523 0.557855 0.710534 0.000000 -0.681208 -0.000017
1.995328 0.050281 0.068491 -0.053557 -0.005310 0.003919
2.860752 0.779070 0.992251 0.070461 0.006004 -0.006868
1.891111 1.213621 1.522682 -0.023798 -0.012778 0.009229
2.016703 0.441000 1.042893 0.053586 0.007681 0.006046
0.839269 0.716365 0.872079 0.000000 0.731784 0.000007
1.995328 0.050281 1.519634 -0.053557 -0.005310 -0.003919
1.619311 0.454902 1.024587 -0.023797 0.036862 0.016404
0.884931 0.714368 0.713995 0.000000 0.715549 -0.000008
3.077609 0.452812 0.549694 -0.000001 -0.782728 0.000236
1.524199 0.726065 0.727735 -0.000000 0.807525 -0.000006
2.737073 0.749573 0.922935 0.000001 -0.782739 0.000453
0.702282 0.553585 0.714658 0.000000 -0.715441 -0.000030
1.865727 0.130900 0.159016 -0.023797 0.016611 -0.011167
3.137954 0.645463 0.900271 0.404429 0.000001 0.000104
1.843010 1.074178 1.350762 -0.023796 -0.010650 0.007969
1.980820 0.620523 0.906451 0.000000 -0.130587 0.000117
1.875622 0.859737 0.497748 -0.023795 -0.007882 -0.006133
2.300454 0.714247 0.713877 0.000000 0.698563 -0.000008
1.341551 0.625634 0.906958 -0.000001 -0.083088 0.000184
2.760385 0.529072 0.942518 0.000000 -0.782739 -0.000272
1.841872 0.198152 1.346169 -0.023793 0.005326 0.004260
1.843834 0.653077 0.682398 0.000000 0.177016 -0.000021
2.437440 0.525654 0.825964 0.000000 -0.962795 0.000001
1.113241 0.533655 0.742176 0.000000 -0.894286 -0.000008
2.574426 0.717054 0.871339 0.000000 0.731851 0.000014
2.026482 0.729372 0.855562 0.000000 0.834652 0.000010
3.100011 0.738275 0.679400 0.000000 -0.782739 -0.000698
1.724891 0.800135 0.576120 -0.023797 -0.036862 -0.016405
1.887922 0.356826 1.116007 -0.053558 -0.006883 -0.005064
1.941324 0.800017 0.613174 0.120099 0.000949 0.000755
1.619311 0.454902 0.563538 -0.023796 0.036864 -0.016404
1.648078 0.971917 1.218688 -0.023795 -0.028527 0.014986
2.963073 0.789115 0.615458 0.000000 -0.782739 -0.000453
1.836398 0.202844 0.259874 -0.053556 -0.002508 0.001858
2.737073 0.534721 0.652712 0.000003 -0.782731 0.000453
2.082980 0.346155 0.431658 0.053588 0.006539 -0.005161
0.175721 0.623769 0.904344 -0.131706 -0.000039 0.000324
0.336986 0.521787 0.781373 -0.000000 -0.994272 -0.000003
0.428310 0.677551 0.898701 -0.000000 0.382673 0.000149
0.656620 0.536323 0.850824 0.000000 -0.859981 0.000005
3.214123 0.492203 0.615345 -0.191474 -0.002676 0.001987
3.214123 0.776397 0.972780 -0.191474 -0.002539 0.002159
1.843834 0.674813 0.899792 -0.000001 0.358053 0.000020
1.977734 0.946666 0.392121 0.053587 -0.006020 -0.004757
0.976255 0.644476 0.906832 0.000001 0.082943 0.000092
1.469001 0.474781 0.593433 -0.053556 -0.011210 0.008139
3.184704 0.575885 0.859175 0.381984 -0.000066 0.000071
1.615523 0.547446 0.866703 0.000002 -0.762353 0.000026
1.021917 0.548072 0.720683 0.000001 -0.759017 -0.000007
0.656620 0.743174 0.825153 -0.000000 0.962748 0.000009
1.585047 0.804786 0.589095 -0.053560 0.005605 0.004135
1.995938 1.033796 0.308530 0.120098 0.002316 0.001841
1.204565 0.696432 0.888717 0.000000 0.550460 0.000012
2.055957 0.561271 0.707465 0.120100 -0.004400 0.003496
1.681514 0.490165 0.983903 -0.023797 0.036862 0.016405
2.633076 0.562965 0.899890 0.000000 -0.782738 -0.000544
1.981716 0.508823 0.655933 0.120098 -0.003914 0.003110
2.072144 0.587109 0.896991 -0.000001 -0.424894 0.000016
2.931280 0.513537 0.962056 0.000000 -0.782738 -0.000408
2.538014 0.564218 0.866097 0.000000 -0.622350 0.000634
1.830471 0.482028 0.999424 -0.023795 0.036865 0.016404
2.820479 0.748001 0.634950 0.000000 0.782739 0.000317
2.038606 0.135734 0.175636 0.120100 -0.003149 0.002503
3.153538 0.729742 0.825074 0.381455 0.000401 0.000154
1.703203 0.465103 0.601471 -0.053556 -0.017034 0.012042
1.624042 0.719652 0.678092 -0.023796 -0.012141 -0.008865
0.057094 0.575431 0.808344 -0.594732 -0.000031 0.000007
1.818667 0.347267 0.424742 -0.023795 0.007456 -0.005832
0.143916 0.530801 0.803946 -0.255423 -0.000152 0.000011
1.921410 0.272216 1.227067 -0.053557 -0.005703 -0.004207
1.724825 1.048244 0.273439 -0.023795 -0.023422 -0.013688
2.026482 0.733840 0.740094 0.000000 0.883248 -0.000016
3.174345 0.875893 1.105973 0.070461 0.006004 -0.006868
3.174345 0.384859 0.488392 0.070460 0.008069 -0.004269
3.174345 0.883741 0.488392 0.070460 -0.008069 -0.004269
1.897947 0.918321 1.162686 -0.023793 -0.007030 0.005527
1.865652 0.248267 0.323749 -0.053558 -0.005408 0.003991
2.044864 0.345409 1.149995 0.120098 -0.002872 -0.002283
2.985385 0.746257 0.777157 0.000000 0.988045 -0.000010
1.993094 0.462041 0.569659 0.053588 0.004100 -0.003250
0.793607 0.737174 0.746757 0.000000 0.904607 -0.000007
2.007316 1.074749 1.354546 0.053584 -0.004360 0.003455
0.245662 0.662219 0.903791 -0.000001 0.247304 0.000241
1.600587 0.739529 0.933401 -0.023796 -0.005059 0.004056
2.988338 0.519026 0.665190 -0.000002 0.782734 -0.000453
2.005041 0.190657 0.251237 0.120098 -0.001945 0.001546
2.184777 0.521107 0.795746 0.000000 -0.999719 0.000000
1.661185 0.743674 0.823369 -0.000000 0.968916 0.000016
2.142159 0.632616 0.907255 0.000000 -0.023710 0.000022
1.648078 0.971917 0.369437 -0.023797 -0.028524 -0.014987
1.920844 0.697960 0.700016 0.053587 -0.009342 -0.007317
2.757074 0.524032 0.819773 0.000000 -0.974076 0.000002
2.914912 0.696535 0.872337 0.000000 0.622350 0.000634
0.245662 0.717628 0.717402 -0.000001 0.731567 -0.000029
3.154594 0.834307 1.029505 0.000001 -0.782736 0.000471
0.167693 0.731589 0.743906 -0.162907 0.000231 -0.000112
1.865379 0.932058 0.409904 -0.023798 -0.014056 -0.009921
2.117806 0.721933 0.865763 -0.000002 0.535038 0.000002
2.687095 0.778659 0.612500 0.070459 0.005820 0.006658
2.055957 0.734732 0.665418 0.053588 -0.004930 -0.003904
1.769331 0.697506 0.699655 -0.000000 -0.622350 0.000926
1.696231 0.560866 0.707787 -0.000000 0.622350 0.000347
1.763124 0.958348 1.206455 -0.023799 -0.007028 0.005525
1.667855 0.320381 0.403168 -0.053557 -0.006982 0.005135
1.858986 0.448796 0.547090 -0.023796 0.017463 -0.011543
0.519634 0.606013 0.903697 0.000000 -0.246567 0.000030
3.154594 0.449987 0.546142 -0.000000 -0.782738 0.000471
2.006747 0.897967 1.132253 0.053585 -0.006955 0.005484
1.882404 1.090133 0.231150 -0.053552 0.002311 0.001713
1.478537 0.717398 0.870969 0.000001 0.710506 0.000004
2.757074 0.724947 0.726205 0.000000 0.793071 -0.000003
2.860752 0.489530 0.595874 0.000000 -0.782738 0.000363
2.056811 1.217580 1.529919 0.053584 -0.009550 0.007475
2.604868 0.747456 0.797262 0.000000 0.999719 0.000000
0.473972 0.732104 0.851114 -0.000000 0.836690 0.000001
2.009876 0.502252 0.966444 0.053585 0.004256 0.003373
2.241093 0.632785 0.680866 -0.000000 -0.024072 -0.000021
2.656388 0.711283 0.681131 0.000000 0.782739 0.000725
2.483102 0.733721 0.739870 0.000000 0.883409 -0.000002
1.862912 0.505311 0.615889 -0.023803 0.004685 -0.003768
2.853003 0.798027 0.580087 0.070459 0.006005 0.006868
3.115924 0.579912 0.709550 0.000000 -0.622350 -0.000317
1.666169 0.376142 0.465695 -0.023796 0.015973 -0.010873
2.951899 0.629586 0.907183 0.000000 -0.023710 0.000022
2.013290 0.796973 0.583457 0.053589 -0.008096 -0.006365
1.387213 0.587261 0.691063 0.000000 -0.426002 -0.000016
1.295889 0.587261 0.691063 0.000000 -0.426138 -0.000004
2.082980 1.233409 0.040554 0.053588 -0.007888 -0.006205
2.082980 0.237317 0.294772 0.053587 0.010587 -0.008258
2.082980 0.050739 0.060110 0.053585 0.009550 -0.007475
1.763974 0.742083 0.898383 -0.053557 0.017033 -0.012041
1.222830 0.747501 0.792716 0.000000 0.999710 -0.000000
1.799971 0.372224 1.103166 -0.053555 -0.007277 -0.005348
1.903636 0.331627 1.185653 -0.023796 0.007029 0.005526
2.346116 0.727881 0.857807 0.000001 0.820519 0.000011
3.100921 0.821437 0.542589 -0.000000 0.782739 0.000236
2.914912 0.696535 0.715789 0.000000 0.622350 -0.000634
2.757074 0.597585 0.686951 -0.000001 -0.295441 -0.000012
2.709689 0.484466 0.605614 0.070459 -0.006005 0.006868
2.002196 0.867497 0.493801 0.053588 -0.014737 -0.011299
1.204565 0.521326 0.801636 -0.000000 -0.998228 0.000001
2.011299 0.314817 0.406178 0.120097 -0.002686 0.002135
2.117806 0.526024 0.827172 -0.000000 -0.956058 0.000005
1.889496 0.746930 0.782462 -0.000000 0.993621 -0.000000
2.007456 0.634216 0.680832 0.000003 -0.014700 -0.000140
0.519634 0.585395 0.691942 -0.000000 -0.426242 -0.000065
1.490936 0.522595 0.659873 -0.053557 -0.005605 0.004135
1.942276 1.264506 0.001444 -0.023796 -0.016186 -0.010972
0.183787 0.546376 0.863207 -0.100362 -0.000344 0.000257
0.973211 0.521123 0.796420 0.000000 -0.999719 0.000000
1.879796 1.044173 1.295245 -0.053557 0.002655 -0.001967
1.899747 1.110465 1.397161 -0.023791 -0.008948 0.006865
3.047248 0.428644 1.036610 0.000001 0.782738 0.000707
2.512887 0.579912 0.709550 0.000000 -0.622350 -0.000634
2.669379 0.753531 0.952076 0.070458 0.006005 -0.006868
3.161570 0.374967 1.120229 0.070459 -0.005820 -0.006658
3.026006 0.860783 1.078913 0.070461 0.006004 -0.006868
0.930593 0.744794 0.818789 0.000000 0.974497 0.000007
1.250227 0.552791 0.872654 -0.000000 -0.715439 0.000015
2.483102 0.668778 0.686207 0.000000 0.315591 -0.000012
1.907759 0.438621 1.055280 0.053587 0.015360 0.011741
1.763199 0.182192 1.362685 -0.053556 -0.009243 -0.006756
1.609704 0.933753 1.170689 -0.023795 -0.007882 0.006133
1.469001 0.793819 0.994692 -0.023797 -0.012140 0.008865
2.882527 0.557316 0.906995 0.000000 -0.782739 -0.000363
0.382648 0.611880 0.683079 0.000000 -0.201014 -0.000075
1.432875 0.543652 0.726205 0.000000 -0.807725 -0.000011
1.685538 0.634300 0.907295 -0.000000 0.024072 0.000170
2.985385 0.522657 0.812964 0.000000 -0.984005 0.000000
1.878821 0.809970 0.558341 -0.023795 -0.017464 -0.011543
3.122371 0.531300 0.841101 0.381508 -0.000101 0.000045
0.702282 0.695940 0.699083 0.000000 0.550610 -0.000023
1.971158 0.106604 0.125417 -0.023796 0.014483 -0.010142
1.362860 0.521091 0.795073 0.000000 -0.999719 0.000000
1.743347 0.278894 0.354031 -0.053557 -0.006195 0.004565
3.184704 0.624842 0.707100 0.381614 -0.000012 -0.000096
1.528094 0.514760 0.948137 -0.023797 0.016185 0.010972
0.159711 0.740229 0.814479 -0.193949 0.000211 0.000036
1.601623 0.391136 0.492600 -0.053557 -0.003884 0.002874
2.391778 0.554232 0.874130 0.000000 -0.715549 0.000004
1.726322 0.846951 1.043160 -0.053555 0.004032 -0.002982
3.049311 0.639351 0.680950 0.000000 0.023710 -0.000022
2.889785 0.564218 0.722028 0.000000 -0.622350 -0.000634
3.135889 0.438690 1.056193 -0.000001 -0.782735 -0.000471
1.661185 0.658369 0.683418 0.000000 0.224343 -0.000017
1.752509 0.525199 0.824342 0.000000 -0.961730 0.000002
0.747945 0.626558 0.681098 0.000000 -0.059448 -0.000258
0.227397 0.631689 0.680861 -0.000000 -0.012030 -0.000021
0.473972 0.549060 0.868592 0.000000 -0.747956 0.000007
1.757212 0.849495 0.514689 -0.023796 -0.016825 -0.011263
1.841210 0.898910 1.102869 -0.053557 0.007277 -0.005348
0.428310 0.725146 0.726477 0.000002 0.806164 -0.000023
1.932222 0.763645 0.927436 0.120100 0.003914 -0.003110
2.963073 0.789115 0.972668 0.000000 -0.782739 0.000453
1.158903 0.743560 0.764350 -0.000001 0.904117 -0.000001
1.950426 0.826043 1.046651 0.053586 -0.007681 0.006046
2.789279 0.704382 0.866097 0.000000 0.622350 0.000634
1.067579 0.725146 0.861648 0.000000 0.807525 0.000011
2.483102 0.729870 0.854781 0.000000 0.847601 0.000002
1.113241 0.579005 0.892867 0.000000 -0.489592 0.000055
0.839269 0.591048 0.898701 0.000001 -0.382483 0.000037
1.852738 1.175457 0.113442 -0.023795 -0.029802 -0.015252
1.387213 0.695940 0.699083 0.000000 0.550460 -0.000023
1.569824 0.534977 0.663085 -0.023800 0.005058 -0.004056
0.405479 0.747424 0.789517 0.000000 0.999719 -0.000000
2.894061 0.523401 0.816895 0.000000 -0.979596 0.000013
1.866798 0.543359 0.866418 0.120097 -0.004168 -0.003312
1.878602 0.307799 0.374343 -0.023797 0.013205 -0.009465
0.747945 0.691785 0.891609 0.000000 0.509902 0.000026
1.569861 0.600547 0.902141 -0.000000 -0.293106 0.000050
1.798172 0.612252 0.905122 0.000000 -0.200937 0.000038
3.201515 0.538581 0.914449 -0.191473 -0.002934 -0.002178
1.794396 1.002442 0.326704 -0.023796 -0.012566 -0.009109
1.673660 0.271241 1.250687 -0.053557 -0.012389 -0.008953
1.827167 0.726440 0.662185 -0.023796 -0.009372 -0.007148
3.089265 0.818612 1.041984 0.000002 0.782722 -0.000236
2.058445 0.521095 0.792884 0.000000 -0.999719 -0.000000
1.586870 0.836981 1.051774 -0.023796 -0.014163 0.009977
3.031047 0.534247 0.741061 -0.000000 -0.883326 -0.000016
0.120764 0.620601 0.698783 -0.345662 -0.000017 -0.000103
2.010826 1.253277 1.565371 -0.053554 0.008654 -0.006337
1.067579 0.727713 0.730076 -0.000001 0.812935 -0.000005
1.113241 0.522110 0.809342 0.000001 -0.980991 0.000001
1.748216 0.380329 0.491228 -0.053558 -0.003688 0.002729
0.610958 0.521387 0.802518 0.000000 -0.996480 0.000003
1.067579 0.540086 0.856863 -0.000001 -0.834250 0.000010
1.053880 0.632785 0.680866 0.000000 -0.023710 -0.000022
2.711412 0.744728 0.819076 0.000001 0.964764 0.000002
2.163468 0.653077 0.682398 0.000000 0.177297 -0.000043
3.239338 0.869154 0.498684 -0.191475 -0.001270 -0.001080
0.884931 0.568895 0.701634 -0.000001 -0.569574 -0.000022
3.127441 0.537545 0.656264 0.000000 -0.782740 0.000272
2.938854 0.498003 0.606531 0.000003 -0.782730 0.000408
1.989681 1.111312 0.212254 -0.053559 0.016517 0.011708
0.930593 0.595363 0.900384 0.000000 -0.338218 0.000011
1.502890 0.521075 0.793726 0.000000 -0.999719 -0.000000
0.044487 0.684361 0.798843 -0.644255 0.000023 0.000002
2.848398 0.731804 0.851621 -0.000001 0.858531 0.000009
1.641000 0.832947 0.556165 -0.053556 0.017034 0.012042
2.082980 0.439444 1.039136 0.053586 0.015568 0.011888
1.886955 0.164168 0.212282 -0.053557 -0.002114 0.001567
1.168035 0.636068 0.680872 0.000010 0.001407 -0.000365
2.082980 0.035191 1.547571 0.053585 0.007889 0.006206
1.478537 0.596948 0.900954 0.000000 -0.338218 0.000021
1.735699 0.898726 0.476004 -0.053557 0.007375 0.005419
1.765558 0.904248 1.140545 -0.023795 -0.031502 0.015575
1.250227 0.730585 0.853639 -0.000000 0.847353 0.000005
0.610958 0.586233 0.691547 -0.000000 -0.426210 -0.000131
2.574426 0.526444 0.759585 0.000000 -0.956115 -0.000001
2.254792 0.742156 0.828541 -0.000000 0.956050 0.000005
0.903195 0.521133 0.796841 0.000000 -0.999710 0.000000
1.532508 0.787349 0.980251 -0.053557 0.003737 -0.002765
1.930296 0.251162 0.333473 -0.053557 -0.002704 0.002003
0.930593 0.675127 0.688455 0.000000 0.360259 -0.000010
0.245662 0.536968 0.736215 -0.000002 -0.859720 -0.000037
1.889412 0.752559 0.682952 0.120101 0.002084 0.001657
1.295889 0.690623 0.695835 0.000000 0.489505 -0.000027
3.065671 0.696535 0.715789 0.000000 0.622350 -0.000634
3.029273 0.704222 0.898114 0.000000 0.782738 -0.000125
1.801929 0.256067 0.314110 -0.023798 0.006177 -0.004901
1.757212 0.419104 1.073436 -0.023797 0.016824 0.011262
1.889496 0.533033 0.743419 0.000000 -0.892769 -0.000004
1.980820 0.577176 0.696301 0.000000 -0.510326 -0.000026
0.113222 0.695338 0.723621 -0.375091 0.000062 -0.000068
2.016419 0.139362 1.403615 0.120102 -0.003149 -0.002503
1.763974 0.548485 0.672274 -0.023794 0.014058 -0.009922
0.291324 0.746354 0.810344 0.000001 0.974521 0.000001
1.966643 0.003071 1.585868 0.000003 -0.621324 0.000058
1.666169 0.898290 0.470332 -0.053559 0.003687 0.002729
3.076709 0.598583 0.901507 0.000000 -0.315803 0.000185
2.461155 0.544690 0.681359 0.070460 -0.005820 0.006658
0.113222 0.710224 0.848128 -0.375089 0.000074 0.000050
2.053966 0.239071 1.285508 0.120101 -0.002362 -0.001878
1.912523 0.958804 0.375505 -0.023796 -0.013205 -0.009466
2.163468 0.742946 0.825964 -0.000000 0.962769 0.000004
1.867873 0.841636 1.068003 -0.023796 -0.033201 0.015866
1.889496 0.578454 0.695567 0.000000 -0.489724 -0.000007
1.524199 0.596671 0.687271 -0.000000 -0.337663 -0.000021
3.124755 0.497843 0.949578 0.000001 0.782739 0.000698
2.684015 0.521155 0.797767 0.000000 -0.999719 0.000000
1.623130 0.715006 0.874556 0.000001 -0.622348 -0.000579
2.029504 1.073171 0.252483 0.120099 0.003890 0.003092
1.647642 0.767811 0.969671 -0.023795 -0.014164 0.009978
1.707192 0.893280 1.107345 -0.053557 0.003688 -0.002729
1.968631 0.343919 1.137051 0.120099 -0.002872 -0.002283
1.912026 0.504317 0.972285 0.053584 0.004256 0.003373
2.055957 0.530174 0.919770 0.120100 -0.002200 -0.001749
2.681515 0.557316 0.681131 0.000000 -0.782739 0.000725
0.656620 0.631438 0.907227 0.000000 -0.024065 0.000085
1.672565 0.369781 1.130431 -0.023792 0.007989 0.006208
2.757074 0.592844 0.899427 -0.000000 -0.360451 0.000040
0.291324 0.599343 0.686366 -0.000001 -0.315508 -0.000046
0.175721 0.533528 0.748042 -0.131695 -0.000300 -0.000128
1.113241 0.666523 0.685515 0.000001 0.293035 -0.000100
2.620088 0.660052 0.683805 0.000001 0.223860 -0.000067
0.128399 0.662212 0.889123 -0.315888 0.000036 0.000113
2.985385 0.578491 0.892579 -0.000000 -0.489641 0.000110
2.391778 0.655729 0.682876 0.000000 0.200911 -0.000150
2.620088 0.682215 0.896650 0.000001 0.425793 0.000033
3.154871 0.755222 0.930040 -0.191476 -0.002784 0.002367
0.291324 0.525107 0.824018 0.000000 -0.962815 0.000004
0.428310 0.572273 0.699338 0.000000 -0.550573 -0.000023
0.382648 0.534444 0.740689 0.000001 -0.882643 -0.000008
2.000490 0.212730 1.308242 0.120098 -0.002131 -0.001694
1.453778 0.536340 0.913066 -0.053560 -0.007473 -0.005490
1.443418 0.768377 0.625432 -0.023797 -0.016185 -0.010972
0.779908 0.521119 0.796251 0.000000 -0.999719 0.000000
2.957837 0.731054 0.656264 0.000000 0.782739 0.000453
2.813391 0.630091 0.907195 0.000000 -0.023710 0.000086
1.889554 0.796736 0.960761 -0.053558 0.004327 -0.003199
0.610958 0.724178 0.862923 -0.000001 0.793203 0.000024
1.608019 0.880752 0.482158 -0.023797 -0.016824 -0.011263
1.525042 0.448059 0.562451 -0.053561 -0.002335 0.001730
2.060508 0.464528 0.578601 0.053587 0.004100 -0.003250
1.889496 0.714544 0.873950 0.000000 0.714849 0.000004
1.909598 1.033206 0.284847 -0.023796 -0.005751 -0.004583
2.711412 0.685960 0.693304 0.000000 0.447317 -0.000015
2.674257 0.519026 0.922935 0.000000 0.782739 0.000725
1.934848 1.017388 1.284929 -0.023797 -0.022995 0.013559
1.722029 0.732321 0.658958 -0.023795 -0.036865 -0.016404
2.820479 0.520599 0.634950 0.000000 -0.782739 0.000317
1.921413 0.371772 0.495283 0.120099 -0.003057 0.002430
1.600485 0.394711 1.090808 -0.053559 -0.004032 -0.002982
3.055308 0.516362 0.958504 -0.000000 -0.782739 -0.000698
3.020584 0.766520 0.643876 -0.000000 -0.782738 -0.000125
1.929216 0.200291 1.346838 -0.023797 0.004899 0.003933
2.026482 0.690329 0.695670 -0.000001 0.489489 -0.000055
2.015850 0.974453 1.227667 0.053588 -0.012247 0.009494
2.528764 0.684002 0.895801 0.000000 0.447558 0.000031
0.930593 0.687376 0.894076 -0.000001 0.468747 0.000058
1.722029 0.517537 0.914266 -0.053557 -0.017033 -0.012041
2.711412 0.693412 0.890638 -0.000001 0.526222 0.000012
2.332417 0.633121 0.907267 0.000000 -0.023710 0.000043
1.878518 0.115145 1.442698 -0.053555 -0.007670 -0.005632
2.848398 0.593237 0.688546 -0.000000 -0.360497 -0.000040
1.852738 0.093143 0.113442 -0.053557 -0.013765 0.009889
1.841482 0.959616 1.210944 -0.023800 -0.013416 0.009581
1.986836 0.997424 0.356045 0.120100 0.002501 0.001988
3.122371 0.531300 0.747024 0.381508 -0.000101 -0.000045
1.798172 0.743583 0.764432 0.000001 0.959559 -0.000004
2.848398 0.688343 0.893563 0.000001 0.465944 0.000015
2.163468 0.735492 0.743268 0.000000 0.894169 -0.000008
1.935158 0.736151 0.744586 0.000000 0.894215 -0.000008
1.971158 1.161996 1.462708 -0.023794 -0.014484 0.010143
2.163468 0.687339 0.894096 -0.000000 0.468550 0.000014
1.524199 0.679105 0.690074 -0.000000 0.404601 -0.000035
2.300454 0.523768 0.769501 0.000000 -0.974510 -0.000001
0.610958 0.682405 0.691565 0.000000 0.426175 -0.000131
2.043157 1.162712 0.137212 0.120098 0.005558 0.004414
2.043157 0.105887 1.450914 0.120098 -0.005558 -0.004414
1.539420 0.747525 0.793726 -0.000010 0.051343 -0.000000
1.613682 0.499163 0.639332 -0.053558 -0.005605 0.004135
2.836222 0.747432 0.789853 0.000000 0.999719 -0.000000
2.977312 0.807315 0.560351 0.070458 0.006005 0.006868
2.391778 0.740621 0.755126 0.000000 0.939437 -0.000001
1.907759 0.414669 0.551889 0.120099 -0.003427 0.002724
0.044487 0.601368 0.756057 -0.644256 -0.000016 -0.000020
1.745955 1.035665 1.295825 -0.053556 0.002704 -0.002003
3.218325 0.791856 0.595902 -0.191475 -0.002539 -0.002159
1.295889 0.525107 0.764107 0.000000 -0.962769 -0.000009
1.953271 0.979190 1.239020 0.053588 -0.011209 0.008724
1.387213 0.681643 0.896919 0.000000 0.426215 0.000033
1.569861 0.693876 0.890348 -0.000000 0.530562 0.000049
1.788525 0.798779 1.012740 -0.023796 -0.036863 0.016404
1.787517 0.634468 0.680834 0.000000 0.024072 -0.000021
1.935158 0.736510 0.842777 0.000001 0.770844 0.000001
2.254792 0.736205 0.744700 0.000000 0.904658 -0.000004
2.043225 0.747505 0.795241 -0.000000 0.999719 0.000000
0.747945 0.532018 0.745500 -0.000000 -0.904653 -0.000007
1.874484 0.392179 1.069553 -0.053558 -0.014551 -0.010417
1.478537 0.533655 0.845949 -0.000000 -0.894286 0.000008
1.158903 0.566375 0.703466 0.000000 -0.608684 -0.000005
0.839269 0.529178 0.836147 0.000000 -0.932601 0.000006
1.295889 0.582414 0.894708 0.000000 -0.468603 0.000007
1.204565 0.582414 0.894708 0.000000 -0.468741 0.000029
0.470928 0.638172 0.907203 0.000000 0.023719 0.000022
2.985385 0.556314 0.711969 -0.000001 -0.661032 -0.000004
1.021917 0.741917 0.829260 0.000000 0.948825 0.000001
2.042588 0.396951 0.492063 0.053587 0.007370 -0.005805
2.015850 0.284970 1.220371 0.120100 -0.005002 -0.003974
0.473972 0.521510 0.784138 -0.000001 -0.995646 -0.000001
1.827167 0.516808 0.682342 -0.053556 -0.004327 0.003199
0.793607 0.747069 0.804239 -0.000000 0.996515 0.000003
3.168692 0.462537 0.993982 0.000001 0.782728 0.000236
1.827167 0.542160 0.925940 -0.023796 0.009372 0.007148
3.076709 0.668174 0.902104 -0.000001 0.293059 0.000100
1.820194 0.226289 1.298100 -0.053555 -0.002704 -0.002003
0.610958 0.747213 0.785607 -0.000001 0.988613 -0.000001
2.884064 0.483881 0.999356 -0.000000 -0.782738 -0.000725
3.080051 0.800413 0.986877 -0.000001 -0.782740 0.000707
3.171687 0.710840 0.689742 -0.191473 0.002676 0.001987
2.300454 0.581149 0.694088 0.000000 -0.468603 -0.000007
3.031047 0.534365 0.847288 0.000000 -0.883334 0.000016
2.954000 0.466934 1.020670 0.000000 -0.782739 -0.000453
2.985385 0.666080 0.685382 0.000000 0.270418 -0.000007
1.827167 0.751792 0.905783 -0.053558 0.004327 -0.003199
2.968655 0.716932 0.914099 0.000000 0.782739 -0.000453
1.113241 0.699705 0.886491 0.000000 0.570208 0.000022
1.341551 0.722250 0.722755 -0.000001 0.777518 -0.000012
1.979440 0.730699 0.924234 0.053589 -0.008770 0.006882
2.082980 0.735867 0.921805 0.053585 -0.009861 0.007711
2.391778 0.522994 0.773296 0.000001 -0.863021 -0.000000
3.047248 0.839956 0.551515 0.070460 -0.008069 -0.004269
0.336986 0.589110 0.897880 0.000000 -0.404570 0.000139
1.752509 0.579666 0.893238 -0.000001 -0.484449 0.000014
1.661185 0.601110 0.685812 0.000002 -0.224503 -0.000008
1.661185 0.529178 0.836147 0.000000 -0.932852 0.000001
1.849231 0.977718 0.354807 -0.023797 -0.006603 -0.005216
3.172945 0.679972 0.856402 0.888590 0.000050 0.000063
2.391778 0.580033 0.694681 -0.000000 -0.489616 -0.000055
0.702282 0.719456 0.868687 -0.000002 0.731623 0.000007
1.667899 0.509070 0.930555 -0.053558 -0.006539 -0.004815
0.822526 0.631774 0.680890 0.000000 -0.023710 -0.000011
2.038037 0.824001 1.023916 0.120099 0.003659 -0.002908
0.656620 0.524070 0.768188 0.000001 -0.974081 -0.000007
1.701771 0.771534 0.943690 -0.053556 0.017034 -0.012042
1.808783 0.775722 0.602753 -0.023796 -0.036864 -0.016404
1.067579 0.611014 0.904868 -0.000000 -0.200911 0.000150
2.082980 0.937993 0.412103 0.053588 -0.013077 -0.010102
0.729680 0.637667 0.907215 0.000000 0.023710 0.000043
1.980820 0.557855 0.877591 0.000000 -0.680226 0.000008
0.839269 0.544370 0.725269 0.000000 -0.793413 -0.000003
0.610958 0.579262 0.893012 0.000000 -0.489617 0.000055
2.907376 0.806062 0.594143 0.070457 -0.008069 -0.004269
1.706847 0.730228 0.854210 0.000001 0.797466 0.000001
2.024952 1.035392 1.303525 0.053587 -0.010587 0.008258
1.641000 0.832947 1.031960 -0.053558 0.017033 -0.012041
1.980820 0.521187 0.799114 0.000000 -0.999719 0.000000
2.665750 0.535495 0.849357 0.000000 -0.871893 0.000017
2.346116 0.687414 0.694069 -0.000001 0.468593 -0.000058
2.008739 0.772766 0.634344 0.120097 0.001899 0.001510
1.830471 0.460078 0.606154 -0.053556 -0.017034 0.012042
1.856711 0.434287 1.014381 -0.053556 -0.016125 -0.011453
0.038433 0.621664 0.837098 -0.668065 -0.000006 0.000018
1.932222 0.743037 0.644303 0.053588 -0.008771 -0.006882
1.532508 0.787349 0.607874 -0.053559 0.003737 0.002765
2.977312 0.461285 0.560351 -0.000000 -0.782738 0.000453
2.931873 0.554492 0.677578 0.000000 -0.782739 0.000408
0.565296 0.557640 0.710735 0.000000 -0.681536 -0.000008
3.031047 0.736403 0.745119 0.000001 0.903854 -0.000007
3.040545 0.579912 0.709550 0.000000 -0.622350 -0.000634
1.934497 0.510329 0.625339 0.053587 0.004256 -0.003373
1.785467 0.193179 0.238008 -0.023792 0.005433 -0.004342
1.845818 0.289980 1.209923 -0.053557 -0.006097 -0.004493
1.938983 1.185492 0.107677 -0.053555 0.012193 0.008819
1.574396 0.701138 0.702543 -0.000000 -0.622348 0.000463
1.921443 0.062683 1.509565 -0.053557 -0.006097 -0.004493
2.848398 0.534681 0.847883 -0.000000 -0.883340 0.000008
1.935158 0.551718 0.716601 0.000001 -0.728803 -0.000007
1.350683 0.747509 0.795073 -0.000000 0.999719 0.000000
0.245662 0.538305 0.854103 0.000001 -0.847527 0.000039
2.483102 0.539228 0.855562 0.000000 -0.834709 0.000010
1.910247 0.968180 1.190047 -0.053559 0.006097 -0.004493
0.245662 0.736690 0.842396 0.000001 0.904601 0.000029
3.095021 0.738116 0.940742 0.000001 0.782738 -0.000698
1.924506 1.114949 0.184565 -0.023797 -0.017888 -0.011723
1.478537 0.567938 0.702323 0.000001 -0.589601 -0.000042
2.939723 0.736654 0.745653 0.000000 0.904658 -0.000007
2.822659 0.457091 0.571185 0.070458 -0.005820 0.006658
2.822659 0.811508 1.016940 0.070459 0.005820 -0.006658
1.682945 0.444632 1.016078 -0.053557 -0.017033 -0.012041
0.391781 0.635816 0.907277 0.000000 0.012030 0.000341
0.747945 0.531163 0.840793 0.000000 -0.913837 0.000003
2.209130 0.559518 0.709046 0.000001 -0.657228 -0.000004
0.747945 0.719875 0.719911 0.000000 0.747995 -0.000003
2.538014 0.688688 0.709550 0.000000 0.622350 -0.000634
1.341551 0.537570 0.852924 0.000000 -0.859981 0.000002
0.884931 0.563812 0.882673 -0.000001 -0.622304 0.000005
0.519634 0.657792 0.683299 0.000000 0.201014 -0.000037
1.413088 0.635142 0.680850 0.000000 0.023348 -0.000011
2.620088 0.604628 0.684791 -0.000001 -0.267713 -0.000014
1.432875 0.724717 0.725904 -0.000000 0.793148 -0.000012
1.432875 0.741411 0.830778 0.000000 0.948789 0.000003
1.204565 0.678329 0.689747 0.000000 0.382382 -0.000037
3.180496 0.517506 0.655224 -0.191474 0.002784 -0.002367
2.820618 0.708459 0.684683 -0.000000 0.782739 0.000635
2.082980 0.532733 0.666321 0.053586 0.009861 -0.007711
1.067579 0.571184 0.700057 0.000000 -0.550654 -0.000023
2.117806 0.560148 0.708487 0.000000 -0.663738 -0.000017
0.976255 0.715250 0.714899 -0.000000 0.715456 -0.000060
1.158903 0.523443 0.771025 0.000000 -0.979588 -0.000000
1.250227 0.561338 0.707481 -0.000001 -0.643296 -0.000009
2.790816 0.762123 0.970937 0.070459 0.006005 -0.006868
2.967409 0.833596 1.036666 0.070459 -0.008069 0.004269
1.758789 0.317162 0.390264 -0.023796 0.007136 -0.005603
3.122371 0.747020 0.783299 0.381507 0.000109 -0.000012
3.076709 0.552177 0.872017 0.000001 -0.731080 0.000014
1.295889 0.740029 0.753549 -0.000001 0.921375 -0.000002
0.884931 0.734195 0.847362 0.000001 0.882643 0.000008
2.276101 0.635478 0.907267 0.000000 0.023710 0.000043
2.391778 0.741518 0.830458 -0.000000 0.948412 0.000003
1.817041 0.850441 1.039698 -0.053557 0.003884 -0.002874
1.021917 0.695518 0.889320 -0.000000 0.550651 0.000047
3.227334 0.398331 0.493254 -0.191475 -0.002676 0.001987
3.227334 0.874192 1.091752 -0.191476 -0.002539 0.002159
1.793698 0.697052 0.888831 -0.000000 -0.622351 -0.000463
3.140496 0.846857 0.510618 0.070459 0.006005 0.006868
3.090031 0.753650 0.627846 -0.000000 0.782739 0.000698
3.055308 0.516362 0.629622 -0.000000 -0.782739 0.000698
0.519634 0.532448 0.843539 0.000000 -0.894002 0.000002
1.661185 0.682557 0.896489 -0.000000 0.424758 0.000008
1.959448 0.185166 0.221700 -0.023796 0.009798 -0.007427
2.209130 0.580777 0.893839 -0.000000 -0.468550 0.000014
2.757074 0.551202 0.717156 0.000000 -0.730378 -0.000007
1.782527 0.275966 1.234515 -0.053556 -0.006097 -0.004493
1.829197 1.094631 0.220295 -0.053557 0.004622 0.003415
1.607590 0.769181 0.639129 -0.053555 0.002803 0.002076
1.625145 0.903300 1.128242 -0.053557 0.007375 -0.005419
3.184704 0.668181 0.751450 0.888591 0.000050 -0.000063
1.961804 0.871120 1.102363 0.053587 -0.007370 0.005805
1.942905 1.232148 1.542999 -0.053557 0.005310 -0.003919
1.942905 1.232148 0.045126 -0.053555 0.005310 0.003920
2.300454 0.541247 0.858568 0.000000 -0.821391 0.000021
0.336986 0.708259 0.708324 -0.000001 0.641339 -0.000009
1.935158 0.649830 0.906220 0.000000 0.130554 0.000117
2.848398 0.534484 0.740614 -0.000000 -0.883326 -0.000016
0.565296 0.741191 0.756711 -0.000000 0.940809 -0.000006
1.752509 0.732404 0.737520 -0.000000 0.871432 -0.000004
1.971476 1.054116 1.300397 -0.053556 0.009833 -0.007174
1.783664 0.996209 1.239232 -0.053556 0.006097 -0.004493
2.028934 0.535003 0.664516 0.053588 0.004930 -0.003904
2.047139 0.953662 1.188762 0.120100 0.002686 -0.002135
0.336986 0.696994 0.888346 -0.000000 0.550646 0.000093
0.382648 0.564304 0.883070 0.000000 -0.627272 0.000010
3.031047 0.741332 0.831018 0.000000 0.948825 0.000020
1.506013 0.743592 0.664483 -0.053557 0.002803 0.002076
0.291324 0.616771 0.905922 0.000000 -0.154116 0.000197
2.559511 0.552920 0.707819 0.000001 0.782738 -0.000725
2.907376 0.806062 0.993982 0.070458 -0.008069 0.004269
2.995458 0.517774 0.956727 0.000000 -0.782739 -0.000125
3.080051 0.468186 0.601248 0.000001 0.782739 -0.000707
1.935158 0.523553 0.770488 0.000000 -0.979588 -0.000003
1.939617 0.314576 0.419809 0.120100 -0.002686 0.002135
1.250227 0.671015 0.901174 0.000001 0.315349 0.000046
3.239338 0.399446 1.089442 -0.191474 -0.001338 -0.000994
3.184704 0.627200 0.881249 0.382076 -0.000009 0.000096
1.772676 1.062700 0.254007 -0.023795 -0.010863 -0.008101
1.569861 0.530482 0.748872 0.000000 -0.914507 -0.000014
2.830409 0.468201 0.994913 0.070460 0.008069 0.004269
1.898657 0.800137 1.018532 0.053587 -0.016190 0.012324
2.574426 0.532233 0.843082 0.000000 -0.904658 0.000004
1.959244 0.491966 0.949026 0.120099 -0.001899 -0.001510
0.175721 0.613334 0.685282 -0.131703 -0.000069 -0.000316
1.798172 0.521928 0.780161 0.000000 -0.991333 -0.000004
0.473972 0.684379 0.692513 0.000000 0.447638 -0.000061
2.053966 1.021755 0.312395 0.120099 0.002316 0.001841
1.872417 0.469057 0.966089 -0.053557 -0.017033 -0.012041
2.032570 0.633626 0.907279 0.000000 -0.024072 0.000011
0.930593 0.732019 0.736867 -0.000000 0.859971 -0.000018
2.939723 0.740906 0.832207 -0.000000 0.941041 0.000006
2.627633 0.738275 0.908726 0.070459 -0.008069 0.004269
1.572110 0.540507 0.896794 -0.053561 -0.002335 -0.001731
1.728281 0.964625 0.375322 -0.023796 -0.014057 -0.009922
1.204565 0.590193 0.689779 -0.000000 -0.379520 -0.000009
1.954978 0.410138 1.051112 0.120099 -0.003427 -0.002724
2.163468 0.541319 0.729453 0.000000 -0.821544 -0.000005
2.483102 0.592530 0.899306 0.000000 -0.360627 0.000040
0.143916 0.573991 0.709371 -0.255427 -0.000091 -0.000122
1.784688 0.414842 0.508457 -0.023798 0.008307 -0.006429
1.949265 0.140069 1.402726 -0.053556 -0.007670 -0.005632
1.935158 0.579739 0.893280 0.000000 -0.489799 0.000027
1.982339 0.015557 0.020506 -0.053556 -0.009637 0.007035
1.964921 1.094074 1.379612 -0.023797 -0.008946 0.006864
2.254792 0.558920 0.878548 0.000000 -0.659578 0.000004
2.581009 0.557316 0.906995 0.000002 -0.782738 -0.000725
2.604321 0.716932 0.674026 0.070459 0.006005 0.006868
2.757074 0.524509 0.766388 0.000000 -0.967060 -0.000002
1.648668 0.929137 0.427167 -0.053558 0.003491 0.002584
2.209130 0.539506 0.855984 0.000000 -0.833744 0.000005
3.145658 0.705634 0.899890 -0.191472 0.001150 -0.000854
1.921640 0.110128 0.142545 -0.053556 -0.006884 0.005064
0.333942 0.632026 0.680857 -0.000000 -0.012030 -0.000021
3.197711 0.806572 1.018786 -0.191475 0.002934 -0.002178
3.197711 0.454181 0.575579 -0.191475 0.002784 -0.002367
1.567684 0.446267 1.024250 -0.053553 -0.002803 -0.002076
1.478537 0.530686 0.748410 -0.000001 -0.912645 -0.000007
3.159478 0.756474 0.624293 -0.191475 0.002934 0.002178
1.849881 0.356180 0.467822 -0.053557 -0.006982 0.005135
2.738597 0.770304 0.614954 0.070460 0.006005 0.006868
2.058517 0.170353 1.372820 0.120097 -0.003983 -0.003165
1.974889 0.700230 0.701821 0.053588 -0.009860 -0.007711
1.921413 0.874742 0.477723 0.053587 -0.007370 -0.005805
0.747945 0.566850 0.885008 0.000000 -0.589240 0.000005
2.004187 0.525681 0.915358 0.120099 -0.003914 -0.003110
1.722029 0.517537 0.673859 -0.053557 -0.017033 0.012041
1.843834 0.581075 0.893997 -0.000000 -0.468721 0.000029
0.839269 0.672761 0.900555 0.000000 0.336230 0.000011
