0.788139 0.681329 0.614063 0.000000 -0.023392 0.000320
2.733521 0.591396 0.562815 0.000001 -0.833478 0.000005
1.872060 0.843204 0.598699 -0.056902 0.005904 -0.007517
2.416830 0.798790 0.491594 -0.000001 0.992751 -0.000001
0.335724 0.581302 0.543455 -0.000000 -0.926094 0.000012
1.991174 0.339604 0.239597 0.056932 0.003788 -0.005176
1.512002 0.587614 0.445633 0.000001 -0.815105 -0.000002
1.938449 0.232352 0.836072 -0.031057 0.016733 0.020943
1.971713 0.799187 0.501606 -0.000000 0.999727 0.000000
2.281106 0.573905 0.487392 0.000001 -0.929801 -0.000001
1.738209 0.589108 0.559166 0.000000 -0.864274 0.000002
2.926829 0.554357 0.414638 0.020363 0.017079 -0.016617
1.712663 0.486211 0.643702 -0.056902 -0.005322 -0.006782
0.833380 0.584244 0.452095 0.000000 -0.897358 -0.000007
1.879771 0.686960 0.388061 0.000000 0.023383 -0.000041
2.811256 0.821896 0.395764 0.020364 0.008083 0.011116
2.371589 0.596564 0.432103 0.000000 -0.799330 -0.000006
0.085777 0.623146 0.452583 -0.482103 -0.000044 -0.000036
1.919175 0.604163 0.423240 0.000000 -0.723333 -0.000014
2.190623 0.582522 0.546357 0.000001 -0.908160 0.000002
2.885252 0.524533 0.612149 0.020364 0.008541 0.010000
2.371589 0.632106 0.600427 -0.000000 -0.481647 0.000007
2.728472 0.817403 0.592325 0.020363 -0.013397 0.014211
2.100140 0.619245 0.592269 0.000000 -0.601007 0.000020
1.240553 0.796691 0.477428 0.000000 0.980209 -0.000006
2.643038 0.797477 0.520723 -0.000001 0.982961 0.000003
0.192010 0.607506 0.420618 -0.068244 -0.000219 -0.000219
2.758058 0.911787 0.665902 0.020362 0.014144 -0.017190
2.014410 1.246723 0.098572 -0.056901 0.003493 0.004462
2.064790 0.036467 0.032629 0.104068 -0.006058 0.008282
2.064790 0.036467 0.969589 0.104067 -0.006058 -0.008282
1.466760 0.618980 0.592070 -0.000000 -0.600141 0.000010
0.034631 0.658759 0.470323 -0.682757 -0.000012 -0.000014
0.034631 0.700322 0.539783 -0.682757 0.000006 0.000015
0.878622 0.780665 0.439090 0.000001 0.830614 -0.000002
2.190623 0.621400 0.593812 0.000000 -0.582038 0.000021
0.335724 0.757314 0.413263 -0.000000 0.635271 -0.000005
0.290483 0.722030 0.393897 -0.000000 0.311285 -0.000046
0.516690 0.790946 0.458724 0.000000 0.925285 -0.000003
2.507313 0.573636 0.489821 -0.000001 -0.985991 -0.000001
2.688279 0.701738 0.389127 -0.000001 0.127977 -0.000058
2.281106 0.584171 0.549974 0.000000 -0.897287 0.000004
2.869245 0.735146 0.602996 -0.000001 0.441290 0.000061
2.145382 0.595818 0.433096 -0.000001 -0.794177 -0.000006
0.426207 0.756861 0.412901 0.000000 0.615864 -0.000005
1.977371 0.976644 0.722688 0.056933 -0.008013 0.010866
2.235865 0.659062 0.610881 0.000000 -0.243551 0.000030
2.064790 1.143218 0.828952 0.104067 0.003109 -0.004255
2.778762 0.637415 0.399075 0.000000 -0.441375 -0.000030
2.100140 0.583193 0.547871 0.000000 -0.907411 0.000002
1.098991 0.684973 0.388069 0.000000 -0.023383 -0.000010
1.331036 0.575682 0.476943 -0.000000 -0.975253 -0.000003
1.707799 0.526549 0.389678 -0.056901 -0.007982 0.010119
1.887080 0.284032 0.797762 -0.031055 0.004982 0.006992
0.652414 0.732443 0.604257 0.000000 0.399081 0.000017
2.326348 0.609532 0.584267 0.000000 -0.672852 0.000004
0.833380 0.621400 0.408405 0.000000 -0.581952 -0.000010
0.742897 0.776795 0.433560 -0.000000 0.799149 -0.000011
1.897087 1.150376 0.165356 -0.056901 0.005122 0.006530
1.331036 0.734285 0.398814 0.000000 0.420173 -0.000032
2.145382 0.645364 0.395654 0.000000 -0.355283 -0.000020
1.828692 0.590856 0.561981 -0.000001 -0.839372 0.000019
2.747814 0.504979 0.635572 0.020361 -0.014145 -0.017191
2.707539 0.602127 0.446579 -0.000000 -0.807572 -0.000090
0.426207 0.615273 0.589214 0.000001 -0.601449 0.000005
1.986573 1.013988 0.252908 0.056931 -0.007431 -0.010090
1.839323 1.093275 0.799496 -0.031061 -0.002590 0.003669
1.797657 0.526746 0.378608 -0.031057 0.020201 -0.024078
2.078593 0.389145 0.713821 0.104068 -0.002192 -0.003001
0.561932 0.786229 0.553673 -0.000000 0.885996 0.000004
1.955900 0.544479 0.615494 0.056930 0.003643 0.004978
0.085777 0.730112 0.567349 -0.482110 0.000033 0.000047
3.019834 0.973099 0.288441 0.020361 0.008084 0.011118
1.809348 0.282087 0.206040 -0.056901 -0.006054 0.007705
2.326348 0.767700 0.422820 0.000000 0.723552 -0.000014
3.010660 0.443184 0.683799 0.020360 -0.010105 -0.013393
0.245241 0.790221 0.456963 0.000000 0.917019 -0.000007
1.647726 0.647184 0.607256 0.000000 -0.333874 0.000005
2.869245 0.632578 0.401531 0.000001 -0.478044 -0.000007
1.285794 0.584830 0.450906 0.000000 -0.897221 -0.000015
2.003230 0.091826 0.064821 -0.031059 0.005181 -0.007264
0.192010 0.607506 0.581600 -0.068246 -0.000219 0.000219
1.104829 0.619918 0.409466 0.000000 -0.582123 -0.000003
3.130326 0.577057 0.582716 -0.041703 -0.014045 -0.018245
2.953507 0.447785 0.670832 0.020364 0.026774 0.020593
2.060189 0.247279 0.187178 0.104068 -0.001554 0.002128
0.099925 0.773147 0.501109 -0.433798 0.000034 0.000001
2.100140 0.672004 0.613283 -0.000001 -0.121635 0.000031
1.977371 0.395620 0.722688 0.056933 0.008013 0.010866
1.738209 0.777726 0.434828 0.000001 0.812998 -0.000021
1.914041 1.036951 0.747024 -0.056902 0.001572 -0.002011
2.235865 0.650746 0.393730 -0.000000 -0.311285 -0.000046
2.532853 0.799123 0.497879 -0.000010 0.048003 -0.000000
0.788139 0.581396 0.543685 0.000001 -0.922999 0.000003
1.958967 0.455831 0.352596 0.104068 -0.005022 0.006869
0.144776 0.582176 0.496231 -0.251900 -0.000152 -0.000005
2.145382 0.746306 0.596831 0.000000 0.522747 0.000012
3.132071 0.772917 0.462470 0.442015 0.000385 -0.000148
3.010768 0.604700 0.443056 0.000001 -0.807557 -0.000109
0.878622 0.609777 0.584490 0.000000 -0.673225 0.000016
0.561932 0.590676 0.440515 -0.000001 -0.823928 -0.000002
1.974014 1.130867 0.186161 -0.056903 0.005122 0.006530
3.129657 0.987328 0.279290 -0.041702 0.006070 0.008233
3.166481 0.450473 0.329011 -0.041703 -0.010116 0.013475
3.166481 0.921790 0.673207 -0.041704 -0.010128 0.013465
1.707799 0.841955 0.617689 -0.031057 -0.004555 0.006406
3.019834 0.399164 0.713777 0.020365 -0.008083 -0.011116
2.899570 0.566674 0.578585 0.020362 0.017079 0.016617
2.371589 0.798082 0.516962 0.000000 0.991720 0.000001
0.681602 0.689610 0.614094 0.000000 0.023383 0.000083
0.788139 0.603029 0.424448 0.000000 -0.739420 -0.000027
1.647726 0.797448 0.481331 0.000001 0.970158 -0.000001
0.652414 0.737227 0.400245 0.000000 0.462259 -0.000014
1.466760 0.795018 0.470675 -0.000000 0.963838 -0.000002
2.964106 0.799178 0.502931 0.000000 0.999930 0.000000
2.032583 0.475188 0.357194 0.104068 -0.002511 0.003437
3.050210 0.786957 0.449940 -0.000001 0.805286 -0.000001
2.998455 0.408824 0.295496 0.020364 -0.010104 0.013392
2.998455 0.963440 0.706722 0.020365 0.010103 -0.013392
1.104829 0.687126 0.614153 0.000000 0.023751 0.000041
0.607173 0.619312 0.409900 0.000000 -0.582123 -0.000005
1.783450 0.731569 0.604637 -0.000000 0.398795 0.000034
2.950476 0.998725 0.729391 0.020366 0.010103 -0.013391
2.950476 0.373539 0.272826 0.020365 -0.010103 0.013392
2.083194 0.291905 0.216787 0.104068 -0.001913 0.002619
0.290483 0.585049 0.450460 0.000001 -0.896590 -0.000007
2.778762 0.580662 0.541838 0.000002 -0.907437 0.000003
2.235865 0.769457 0.424693 -0.000001 0.736234 -0.000007
2.281106 0.748255 0.406643 0.000001 0.541545 -0.000012
2.597796 0.787964 0.550234 -0.000001 0.896601 0.000007
0.788139 0.742507 0.403106 0.000000 0.503322 -0.000026
1.376277 0.615695 0.412671 0.000000 -0.619504 -0.000005
1.557243 0.601146 0.426542 0.000000 -0.755029 -0.000026
1.692967 0.723205 0.607919 0.000000 0.333418 0.000085
0.697656 0.578998 0.464975 -0.000000 -0.950343 -0.000002
2.000376 0.302260 0.789242 0.056931 0.003497 0.004780
1.778936 0.943810 0.692050 -0.031056 -0.006775 0.009409
1.421519 0.719744 0.609061 0.000000 0.288899 0.000050
2.688279 0.574314 0.484397 0.000001 -0.984413 -0.000001
3.045832 0.799170 0.503594 0.000000 0.999934 0.000000
1.150070 0.756796 0.412850 -0.000000 0.618588 -0.000010
1.647726 0.582456 0.546205 0.000000 -0.917047 0.000001
0.290483 0.613195 0.587502 0.000000 -0.637347 0.000009
3.106335 0.437651 0.685671 -0.041703 -0.008093 -0.010890
3.076507 0.921743 0.324397 -0.041703 0.005059 0.006883
2.733521 0.794562 0.469083 0.000000 0.957122 -0.000005
2.085495 0.253161 0.814023 0.104068 -0.003507 -0.004800
1.376277 0.746165 0.596918 0.000000 0.523565 0.000024
1.557243 0.722659 0.608112 -0.000000 0.332918 0.000021
1.965916 0.258743 0.199127 -0.056901 -0.005355 0.006825
0.471449 0.761568 0.585327 0.000000 0.672694 0.000008
1.738209 0.739795 0.401591 -0.000001 0.481305 -0.000014
1.059587 0.573213 0.506822 0.000000 -0.998299 0.000000
2.416830 0.580471 0.460884 0.000001 -0.933906 -0.000011
1.285794 0.773634 0.572706 0.000000 0.770200 0.000025
1.195312 0.717204 0.609819 0.000000 0.266419 0.000054
1.104829 0.575376 0.478403 -0.000001 -0.859070 -0.000000
1.692967 0.619278 0.409924 0.000000 -0.582123 -0.000003
2.869245 0.753350 0.410197 0.000000 0.600926 -0.000040
1.150070 0.595743 0.569022 -0.000002 -0.570181 0.000002
0.923863 0.767014 0.422101 -0.000000 0.723370 -0.000029
1.889724 0.472221 0.641825 -0.056902 -0.004074 -0.005202
1.602485 0.761476 0.585410 0.000000 0.673112 0.000016
1.014346 0.731304 0.604752 -0.000000 0.398903 0.000069
0.969104 0.630728 0.402551 -0.000001 -0.482414 -0.000027
2.235865 0.780732 0.563024 0.000000 0.839496 0.000010
1.873933 0.626240 0.597005 0.000000 -0.523515 0.000012
3.104370 0.856408 0.622205 -0.041702 -0.007090 0.009563
3.104370 0.515856 0.380013 -0.041702 0.007090 -0.009563
1.512002 0.603141 0.577893 0.000001 -0.733256 0.000007
0.516690 0.750556 0.408196 -0.000001 0.552256 -0.000006
1.647726 0.696720 0.613679 0.000000 0.105059 0.000035
1.240553 0.775468 0.431810 0.000000 0.784367 -0.000001
2.009657 0.746447 0.596745 -0.000000 0.543254 0.000046
0.516690 0.619817 0.592679 -0.000001 -0.581751 0.000021
2.326348 0.610726 0.416863 -0.000001 -0.671587 -0.000017
3.042140 0.794624 0.573827 -0.041701 -0.005911 0.008007
1.602485 0.583263 0.454196 0.000001 -0.906698 -0.000014
2.688279 0.786689 0.552792 -0.000000 0.886521 0.000002
0.742897 0.661158 0.611376 -0.000000 -0.220880 0.000066
2.073992 0.915506 0.663849 0.104068 0.002551 -0.003492
2.621127 0.567916 0.412298 0.020361 -0.008084 0.011118
2.501500 0.795869 0.581248 0.020364 0.008083 -0.011116
1.104829 0.795662 0.473075 -0.000001 0.923880 -0.000001
2.552555 0.573480 0.510706 0.000000 -0.996630 0.000001
2.643038 0.573494 0.510871 -0.000000 -0.996625 0.000002
2.597796 0.574881 0.480964 0.000001 -0.983716 -0.000003
2.899570 0.796291 0.410899 0.020363 0.015456 0.018219
1.557243 0.750248 0.407986 0.000000 0.562826 -0.000022
1.992708 0.791988 0.586753 0.056929 -0.001822 0.002493
1.966636 0.823373 0.419563 0.104070 0.001993 0.002728
2.462072 0.643939 0.606001 -0.000000 -0.377167 0.000037
1.512002 0.722463 0.394039 0.000000 0.311039 -0.000006
2.703464 0.854713 0.379856 0.020364 -0.013396 -0.014211
1.557243 0.653550 0.392846 -0.000000 -0.288774 -0.000025
2.643038 0.643325 0.605751 0.000000 -0.377279 0.000074
3.003121 0.543737 0.388618 -0.041703 -0.007872 0.010602
0.923863 0.699356 0.388818 0.000000 0.128607 -0.000231
0.878622 0.669215 0.389322 -0.000000 -0.151837 -0.000098
2.672539 0.873147 0.637684 0.020361 0.020200 -0.021226
2.932127 0.914819 0.663777 0.020363 -0.015629 0.015743
2.959820 0.884123 0.363337 0.020361 -0.007817 -0.009265
2.054899 0.705175 0.612555 -0.000001 0.171809 0.000043
1.873933 0.746165 0.405300 0.000001 0.522882 -0.000024
2.886337 0.402518 0.293990 0.020362 -0.014144 0.017190
2.886337 0.969746 0.708228 0.020363 0.014143 -0.017190
2.651159 0.508776 0.371588 0.020361 -0.010105 0.013393
2.608399 0.844168 0.385697 0.020364 0.008083 0.011116
2.971855 0.363879 0.736446 0.020362 -0.020199 -0.021226
2.971855 1.008385 0.265772 0.020364 0.020198 0.021226
2.907716 0.979405 0.286935 0.020364 0.012123 0.015415
2.800817 0.931106 0.680010 0.020361 0.016164 -0.018735
1.873933 0.632686 0.401471 0.000000 -0.483044 -0.000027
0.245241 0.635297 0.602100 0.000001 -0.441111 0.000030
2.069391 0.857770 0.621088 0.104068 0.002670 -0.003656
2.688279 0.753615 0.410396 0.000000 0.600959 -0.000080
2.959728 0.746236 0.405343 -0.000001 0.501764 -0.000003
1.910660 1.093584 0.791512 -0.056903 0.002794 -0.003572
2.110800 0.120781 0.088241 0.056932 0.008159 -0.011060
2.110800 1.290985 0.059393 0.056930 -0.005828 -0.007940
2.110800 1.113220 0.189212 0.056930 -0.006411 -0.008724
2.110800 0.915704 0.333456 0.056932 -0.009325 -0.012601
2.110800 1.192227 0.131514 0.056933 -0.010490 -0.014127
2.110800 1.290985 0.942825 0.056932 -0.005828 0.007939
2.069391 0.518442 0.626495 0.056932 0.004881 0.006660
2.069391 0.518442 0.375723 0.056932 0.009762 -0.013175
2.025682 1.056658 0.777710 0.056931 -0.003424 0.004681
0.114513 0.645792 0.416619 -0.369837 -0.000040 -0.000079
2.235865 0.793988 0.467179 0.000000 0.957385 -0.000009
0.426207 0.787964 0.451984 0.000000 0.897144 -0.000002
2.869245 0.630150 0.599342 0.000000 -0.503021 0.000006
1.696205 0.829255 0.401698 -0.056901 0.003991 0.005097
1.195312 0.771443 0.575301 -0.000000 0.755048 0.000013
2.145382 0.781115 0.562433 0.000000 0.839324 0.000005
1.602485 0.684807 0.388073 0.000000 -0.023383 -0.000320
2.110800 1.152724 0.841855 0.056931 -0.005828 0.007940
1.827678 0.833506 0.616299 -0.031055 -0.010105 0.013660
1.886297 0.409581 0.292812 -0.031057 0.006177 -0.008612
0.335724 0.797658 0.519704 -0.000000 0.984463 0.000000
0.788139 0.577797 0.468765 0.000001 -0.907424 -0.000001
1.014346 0.665049 0.612193 0.000000 -0.197915 0.000037
3.125483 0.844000 0.383651 -0.041702 0.007082 0.009570
2.032583 1.208164 0.872208 -0.056901 0.007916 -0.010036
1.887447 0.396468 0.701170 -0.056903 -0.003609 -0.004610
1.376277 0.609961 0.584657 0.000001 -0.669873 0.000008
2.507313 0.732177 0.604372 0.000000 0.398924 0.000034
2.100140 0.774262 0.430282 0.000000 0.784959 -0.000012
1.557243 0.793962 0.467101 0.000000 0.950254 -0.000001
0.290483 0.798571 0.489286 -0.000001 0.993811 -0.000003
1.991174 0.867239 0.641816 0.056932 -0.004881 0.006660
1.991174 0.505024 0.641816 0.056931 0.009762 0.013175
1.285794 0.594393 0.567188 0.000000 -0.811557 0.000003
1.964416 0.634119 0.400724 -0.000000 -0.462055 -0.000014
2.326348 0.651257 0.608656 0.000000 -0.311204 0.000046
3.004969 0.622564 0.594605 -0.000001 -0.562739 0.000044
0.364912 0.573170 0.505581 0.000000 -0.999727 0.000000
1.828692 0.753549 0.591871 0.000000 0.601208 0.000010
2.064790 1.138832 0.167260 0.056931 -0.005828 -0.007940
1.014346 0.735963 0.399624 -0.000000 0.441411 -0.000061
2.190623 0.573115 0.498956 -0.000000 -0.999718 -0.000000
0.343021 0.684310 0.614155 0.000000 -0.011874 0.000081
1.376277 0.585122 0.450311 0.000000 -0.897376 -0.000007
3.092943 0.603515 0.557540 -0.000001 -0.807575 0.000126
0.923863 0.638618 0.603700 0.000000 -0.420244 0.000008
1.965916 1.113521 0.803091 -0.056900 0.005355 -0.006825
2.100140 0.732744 0.398101 0.000000 0.420250 -0.000032
2.552555 0.643019 0.396592 -0.000000 -0.377176 -0.000037
2.019426 1.318202 0.043094 -0.056901 0.005588 0.007119
2.190623 0.792102 0.540521 -0.000000 0.906642 0.000001
2.145382 0.790759 0.458264 0.000000 0.926096 -0.000006
1.878914 1.188935 0.868299 -0.031054 -0.015938 0.020159
1.841277 0.443142 0.684084 -0.031057 0.013149 0.017213
1.059587 0.585785 0.553196 -0.000000 -0.886615 0.000008
2.792165 0.488276 0.359097 0.020362 0.008933 -0.010386
1.104829 0.735294 0.399295 -0.000000 0.441448 -0.000030
1.059587 0.762027 0.417309 -0.000000 0.672694 -0.000008
2.824003 0.751941 0.593041 0.000001 0.581632 0.000021
0.742897 0.661482 0.390769 0.000000 -0.220926 -0.000066
2.281106 0.592729 0.437404 0.000000 -0.826534 -0.000020
0.426207 0.658219 0.610669 -0.000001 -0.243046 0.000060
1.829683 0.912662 0.672064 -0.031057 -0.013946 0.018086
1.104829 0.750864 0.593812 -0.000000 0.582598 0.000003
1.285794 0.710782 0.611449 -0.000000 0.220244 0.000033
0.561932 0.755398 0.590471 -0.000001 0.601449 0.000005
1.910660 0.278680 0.210706 -0.056902 -0.002794 0.003572
3.164764 1.056760 0.230444 -0.041702 -0.008103 -0.010883
3.165991 0.960353 0.701369 -0.041703 -0.008103 0.010882
3.165745 0.392629 0.715450 -0.041703 -0.006070 -0.008233
3.165991 0.411910 0.300849 -0.041703 -0.008093 0.010890
3.164764 0.315503 0.771774 -0.041703 -0.008093 -0.010890
0.969104 0.577488 0.532421 -0.000001 -0.961344 0.000004
2.733521 0.636821 0.602850 0.000001 -0.440082 0.000015
0.516690 0.778281 0.566615 -0.000002 0.812072 0.000021
1.692967 0.799117 0.504587 0.000000 0.999727 0.000000
0.878622 0.577785 0.468805 -0.000001 -0.955060 -0.000005
1.945164 0.845940 0.372707 0.056931 -0.009762 -0.013175
1.945164 0.526323 0.372707 0.056932 0.009762 -0.013175
2.596565 0.806414 0.415128 0.020363 -0.017859 -0.017051
3.132071 0.776480 0.530465 0.442015 0.000348 0.000134
2.145382 0.701656 0.613102 -0.000000 0.128462 0.000058
1.512002 0.778088 0.566885 -0.000001 0.811033 0.000005
0.607173 0.776222 0.432798 0.000001 0.798849 -0.000023
2.055588 0.078197 0.053244 0.056933 0.006702 -0.009115
2.064790 1.335797 0.969589 -0.056900 0.009313 -0.011765
1.557243 0.636003 0.602448 0.000000 -0.441448 0.000015
0.833380 0.641416 0.604950 0.000000 -0.398806 0.000034
2.869245 0.579805 0.462669 -0.000001 -0.942348 -0.000011
0.380966 0.644861 0.606373 -0.000000 -0.355283 0.000020
0.652414 0.779908 0.564266 0.000000 0.826513 0.000020
0.607173 0.794311 0.533968 -0.000001 0.957259 0.000018
2.462072 0.783822 0.558021 0.000001 0.861637 0.000004
3.069531 0.578314 0.427468 -0.041704 0.011820 -0.015559
2.145382 0.576693 0.529504 0.000000 -0.969973 0.000001
1.331036 0.645829 0.395477 -0.000000 -0.355283 -0.000020
1.873933 0.791196 0.542880 0.000000 0.926023 0.000006
1.891290 1.142146 0.830851 -0.056905 0.005122 -0.006530
1.240553 0.645287 0.606535 -0.000000 -0.355413 0.000039
1.331036 0.671635 0.613235 0.000000 -0.128553 0.000116
0.290483 0.769011 0.578015 0.000000 0.739432 0.000007
0.245241 0.788147 0.549863 -0.000001 0.854536 0.000001
0.426207 0.583385 0.548285 -0.000001 -0.905712 0.000007
0.607173 0.667618 0.389568 0.000000 -0.174894 -0.000021
3.004969 0.630365 0.402751 0.000000 -0.503362 -0.000103
0.561932 0.727248 0.395786 0.000000 0.353628 -0.000010
1.466760 0.753946 0.591573 0.000000 0.600073 0.000010
0.335724 0.634082 0.400743 -0.000000 -0.462309 -0.000029
3.121514 0.296260 0.785827 0.020363 -0.016163 -0.018735
3.121514 1.076004 0.216391 0.020361 0.016164 0.018735
3.035995 0.334899 0.244609 0.020363 -0.012124 0.015415
3.035995 1.037364 0.757609 0.020358 0.012127 -0.015417
1.466760 0.575408 0.478240 -0.000000 -0.980208 -0.000006
0.878622 0.701656 0.613102 0.000000 0.128616 0.000116
1.845994 0.366640 0.264134 -0.031058 0.002989 -0.004229
0.516690 0.583698 0.548961 0.000000 -0.907397 0.000014
2.955985 0.610604 0.567247 0.000002 -0.807544 0.000155
2.008045 0.792504 0.416171 0.056933 -0.003643 -0.004978
0.923863 0.609532 0.417951 0.000000 -0.673133 -0.000033
1.728188 0.397305 0.712035 -0.056901 -0.007450 -0.009456
1.936886 0.101030 0.928401 -0.056901 -0.006519 -0.008291
1.832537 0.249167 0.182000 -0.056903 -0.005588 0.007118
1.762971 1.024338 0.748096 -0.031057 -0.011954 0.015859
1.612245 0.810362 0.410386 -0.031058 -0.009109 -0.012424
1.983263 0.035191 0.976482 -0.056902 -0.009312 -0.011764
2.643038 0.609042 0.418397 0.000000 -0.690364 -0.000008
0.426207 0.785510 0.555026 -0.000001 0.875335 0.000017
1.059587 0.790884 0.543647 -0.000000 0.926087 0.000006
2.100140 0.580927 0.459683 0.000000 -0.934693 -0.000006
3.095452 0.573562 0.511697 0.443245 -0.000109 0.000009
1.943050 1.158583 0.152835 -0.031057 -0.008369 -0.011487
1.962035 0.581307 0.414053 0.056934 0.003643 -0.004978
1.783450 0.574975 0.480434 0.000000 -0.984482 -0.000001
1.376277 0.779814 0.564403 0.000001 0.811454 0.000005
1.193852 0.687291 0.388069 0.000000 0.023392 -0.000041
1.059587 0.790023 0.456507 -0.000000 0.916986 -0.000013
1.421519 0.576642 0.529303 0.000000 -0.969930 0.000001
2.733521 0.617920 0.410944 -0.000000 -0.601070 -0.000010
1.883193 0.247464 0.184332 -0.056902 -0.005588 0.007118
1.964416 0.575179 0.522841 0.000000 -0.980233 0.000002
2.003230 1.280438 0.937397 -0.031054 -0.005182 0.007265
0.290483 0.727480 0.606343 0.000000 0.355457 0.000010
3.095452 0.725080 0.394962 0.443555 0.000036 -0.000103
0.697656 0.791705 0.541567 -0.000000 0.934579 0.000006
3.044918 0.971182 0.705248 0.020363 -0.017859 0.017051
3.044918 0.401082 0.296970 0.020363 0.017859 -0.017051
0.697656 0.789279 0.454798 0.000000 0.917024 -0.000007
1.948480 0.084570 0.061797 -0.056902 -0.006519 0.008291
1.832537 0.249167 0.820218 -0.056902 -0.011174 -0.014036
2.190623 0.737814 0.400552 -0.000001 0.462239 -0.000058
3.052998 1.001838 0.273033 0.020366 -0.013395 -0.014210
1.886297 0.962683 0.709406 -0.031058 -0.006177 0.008612
3.052998 0.370426 0.729185 0.020363 0.013397 0.014211
3.095452 0.727557 0.606314 0.447136 0.000039 0.000101
1.964416 0.788037 0.550086 0.000000 0.894556 0.000002
1.783450 0.628755 0.403689 0.000000 -0.503279 -0.000013
1.738209 0.600875 0.426855 -0.000000 -0.753056 -0.000003
0.969104 0.789593 0.455519 -0.000001 0.916462 -0.000007
3.125483 0.526197 0.615737 -0.041704 0.007090 0.009563
1.828692 0.658580 0.391458 -0.000000 -0.243458 -0.000030
0.380966 0.609287 0.418174 -0.000000 -0.673266 -0.000008
2.326348 0.795162 0.471194 -0.000001 0.962589 -0.000004
2.001712 0.161120 0.876768 -0.056901 -0.003958 -0.005054
2.501500 0.576395 0.420969 0.020364 -0.008083 0.011117
2.064790 1.335797 0.032629 -0.056901 0.009313 0.011764
0.969104 0.790172 0.545369 -0.000000 0.916951 0.000007
1.421519 0.749289 0.407333 -0.000000 0.562842 -0.000022
1.602485 0.790072 0.545597 0.000001 0.916787 0.000013
1.376277 0.716166 0.392112 -0.000000 0.266315 -0.000054
0.200000 0.575572 0.524790 -0.068242 -0.000304 0.000061
1.871598 1.105708 0.192749 -0.031057 -0.009564 -0.012993
1.980915 1.158217 0.836924 -0.056903 0.004657 -0.005941
0.923863 0.759260 0.587344 -0.000000 0.655663 0.000035
1.150070 0.790665 0.458034 0.000000 0.925909 -0.000006
3.041400 0.852311 0.373242 -0.041703 0.003541 0.004836
2.110800 0.935456 0.683187 0.056930 -0.004371 0.005968
2.073992 0.456757 0.663849 0.104068 -0.002551 -0.003492
2.054899 0.579833 0.539627 0.000000 -0.941923 0.000003
2.054899 0.789346 0.454950 -0.000001 0.899938 -0.000003
1.285794 0.788583 0.453294 0.000000 0.907411 -0.000002
2.552555 0.604907 0.422461 0.000000 -0.723462 -0.000029
2.054899 0.722581 0.394078 0.000000 0.333497 -0.000042
2.416830 0.758750 0.587766 0.000000 0.637774 0.000002
2.416830 0.740230 0.401831 -0.000000 0.482935 -0.000054
2.914486 0.650155 0.393923 -0.000000 -0.310780 -0.000023
1.421519 0.794120 0.534602 -0.000000 0.957001 0.000005
1.240553 0.640694 0.397581 -0.000001 -0.398770 -0.000069
2.824003 0.793135 0.537636 0.000000 0.942618 0.000001
0.426207 0.640504 0.397664 0.000000 -0.398865 -0.000069
0.290483 0.584647 0.550940 -0.000001 -0.897105 0.000015
0.245241 0.638656 0.398501 0.000001 -0.420206 -0.000129
1.602485 0.586226 0.554040 -0.000000 -0.886691 0.000016
0.245241 0.578302 0.467101 -0.000002 -0.600608 -0.000001
1.150070 0.715807 0.392013 -0.000000 0.266319 -0.000054
1.919175 0.746236 0.596875 -0.000001 0.448281 0.000004
0.399938 0.690603 0.388147 0.000000 0.023392 -0.000021
0.335724 0.774083 0.572163 -0.000000 0.784661 0.000003
1.744915 0.814823 0.585723 -0.056900 0.005322 -0.006783
2.014179 1.126019 0.829175 0.056930 -0.005683 0.007743
0.607173 0.725351 0.607153 0.000000 0.354765 0.000010
0.742897 0.619514 0.409756 0.000000 -0.582123 -0.000021
1.919175 0.644399 0.606189 0.000000 -0.377400 0.000037
1.948363 0.685138 0.614153 0.000000 -0.023743 0.000010
2.073992 1.215679 0.890429 0.056932 -0.009324 0.012601
1.692967 0.575874 0.476095 0.000001 -0.958010 -0.000001
1.240553 0.730886 0.397284 -0.000001 0.397314 -0.000017
1.692967 0.673608 0.388744 0.000001 -0.105215 -0.000283
1.376277 0.789346 0.454950 0.000000 0.917104 -0.000003
3.118119 0.953692 0.308193 -0.041702 -0.008103 -0.010882
0.878622 0.791337 0.542534 0.000000 0.926113 0.000012
1.647726 0.712398 0.391135 0.000000 0.243689 -0.000239
1.828692 0.752211 0.409370 0.000000 0.582123 -0.000005
1.738209 0.573926 0.514990 0.000000 -0.991693 0.000004
1.692967 0.764660 0.419769 -0.000000 0.690254 -0.000031
2.009657 0.582720 0.455405 -0.000000 -0.916664 -0.000007
2.778762 0.654026 0.609515 0.000000 -0.288402 0.000025
1.014346 0.584756 0.451055 0.000002 -0.601463 -0.000001
1.919175 0.583959 0.549525 0.000000 -0.907342 0.000007
2.597796 0.723440 0.394382 0.000000 0.333394 -0.000085
1.647726 0.613003 0.414874 -0.000001 -0.655664 -0.000069
0.516690 0.645868 0.395462 -0.000001 -0.355382 -0.000079
0.516690 0.579957 0.462239 -0.000001 -0.909464 -0.000001
0.833380 0.792693 0.463333 -0.000000 0.942501 -0.000005
2.054899 0.614854 0.413342 0.000000 -0.637635 -0.000018
0.607173 0.598920 0.573057 -0.000001 -0.770179 0.000050
2.000376 0.447277 0.661234 0.104068 -0.002511 -0.003437
2.009657 0.632396 0.600587 -0.000000 -0.482960 0.000054
2.643038 0.740883 0.600027 0.000001 0.482166 0.000027
0.652414 0.646874 0.607138 0.000000 -0.355457 0.000079
0.652414 0.580989 0.542688 0.000000 -0.926050 0.000003
1.828692 0.788931 0.548172 0.000000 0.906793 0.000003
2.009657 0.668642 0.389410 -0.000001 -0.151275 -0.000049
1.905185 0.204541 0.152390 -0.056901 -0.004657 0.005941
2.778762 0.580824 0.459954 0.000000 -0.934693 -0.000001
1.195312 0.793782 0.535668 -0.000000 0.950360 0.000002
2.416830 0.577058 0.530864 -0.000001 -0.962772 0.000004
2.190623 0.586494 0.447663 0.000000 -0.886893 -0.000002
2.507313 0.735815 0.399551 -0.000000 0.441371 -0.000061
0.561932 0.792279 0.462161 -0.000001 0.941633 -0.000005
0.742897 0.753416 0.591971 -0.000001 0.596308 0.000010
0.380966 0.734698 0.603212 0.000000 0.420244 0.000016
1.512002 0.694202 0.613886 -0.000000 0.081830 0.000183
2.817619 0.809071 0.583452 0.020364 -0.004466 0.005539
0.833380 0.755138 0.590676 -0.000000 0.619504 0.000005
1.240553 0.580927 0.542534 0.000000 -0.934693 0.000011
0.184041 0.686132 0.389383 -0.106918 0.000001 -0.000098
2.050987 0.328951 0.766177 0.056932 0.003788 0.005176
1.783450 0.647184 0.607256 0.000000 -0.333418 0.000085
1.873933 0.573548 0.490686 0.000000 -0.996630 -0.000001
1.828692 0.587294 0.446213 -0.000000 -0.874915 -0.000004
2.326348 0.766516 0.580615 0.000000 0.706586 0.000008
2.948036 0.504267 0.626484 0.020359 0.003909 0.004874
2.914486 0.579488 0.463567 -0.000001 -0.940956 -0.000005
2.100140 0.763821 0.583249 0.000000 0.690364 0.000016
2.054899 0.789511 0.546888 -0.000000 0.916024 0.000003
1.033318 0.683979 0.388092 0.000000 -0.023392 -0.000010
1.913697 0.133949 0.097858 -0.056901 -0.003725 0.004758
2.110800 0.856449 0.376729 0.056932 -0.009907 -0.013366
2.685712 0.578609 0.584280 0.020361 -0.012125 -0.015416
1.810107 0.435798 0.314151 -0.031057 0.003388 -0.004787
2.507313 0.794036 0.534880 0.000000 0.957360 0.000005
2.552555 0.790712 0.458149 -0.000000 0.925922 -0.000006
0.516690 0.660835 0.611302 0.000000 -0.220887 0.000066
3.121514 0.296260 0.216391 0.020362 -0.016163 0.018735
3.121514 1.076004 0.785827 0.020361 0.016164 -0.018735
2.371589 0.726938 0.606550 0.000000 0.355418 0.000079
3.058953 0.485237 0.348819 -0.041703 -0.006070 0.008233
3.058953 0.887027 0.653398 -0.041703 0.006070 -0.008233
0.152526 0.763739 0.428777 -0.221699 0.000127 -0.000124
2.069391 1.181203 0.144930 0.104070 0.002790 0.003819
2.069391 1.181203 0.857288 0.104070 0.002790 -0.003819
1.964416 0.790696 0.458111 0.000000 0.925285 -0.000003
1.647726 0.579543 0.463411 -0.000000 -0.936191 -0.000001
3.050210 0.658580 0.391458 0.000001 -0.243664 -0.000239
2.326348 0.730620 0.397168 0.000000 0.398868 -0.000069
0.777923 0.689279 0.388116 0.000000 0.023236 -0.000042
1.647726 0.609042 0.583821 0.000000 -0.673245 0.000002
1.557243 0.574509 0.519090 0.000000 -0.988404 0.000002
2.235865 0.611846 0.415879 -0.000002 -0.651687 -0.000017
1.466760 0.774673 0.430803 0.000000 0.783723 -0.000006
1.950917 1.068825 0.232960 -0.056903 0.002910 0.003721
1.908111 0.538895 0.588408 -0.056906 -0.002993 -0.003826
2.019426 0.054062 0.043094 -0.056901 -0.005588 0.007119
3.136653 0.910396 0.338881 -0.041703 -0.005065 -0.006878
2.898542 0.937452 0.319742 0.020364 -0.007816 -0.009264
2.778762 0.746306 0.405386 0.000001 0.521155 -0.000012
2.914486 0.788165 0.549825 0.000000 0.897285 0.000001
2.012110 0.134657 0.105528 -0.056901 -0.003725 0.004758
1.919175 0.580367 0.461155 0.000000 -0.934693 -0.000006
1.512002 0.678186 0.388321 0.000000 -0.081854 -0.000091
1.738209 0.796197 0.475247 -0.000002 0.931708 -0.000002
2.041785 0.425550 0.305936 0.056931 0.004371 -0.005968
2.733521 0.725080 0.607256 0.000000 0.333874 0.000005
2.073992 1.372264 0.997413 0.000001 0.807567 0.000160
2.281106 0.791396 0.542380 0.000000 0.934693 0.000003
1.760509 0.398227 0.293240 -0.056901 -0.001863 0.002383
2.009578 0.264916 0.815864 0.056930 0.003206 0.004383
2.675022 0.579010 0.427529 0.020364 0.011164 -0.012430
1.421519 0.600495 0.427293 -0.000000 -0.754788 -0.000007
1.786894 0.556767 0.602080 -0.031061 0.005693 0.007959
2.046386 0.985137 0.724017 0.056931 -0.004080 0.005573
0.897594 0.799193 0.500612 -0.000005 0.187773 -0.000000
2.907716 0.392858 0.715283 0.020364 -0.012123 -0.015414
2.643038 0.796563 0.476863 -0.000001 0.972830 -0.000002
0.561932 0.640124 0.604389 -0.000001 -0.394296 0.000009
2.009578 0.264916 0.186354 0.056931 0.003206 -0.004383
1.922576 0.179851 0.867858 -0.056901 -0.004657 -0.005941
1.670217 0.892660 0.651934 -0.031058 -0.006832 0.009484
3.166727 0.469755 0.659126 -0.041703 -0.005059 -0.006883
1.892025 0.474291 0.338120 -0.031056 0.003487 -0.004926
1.919175 0.765784 0.420871 -0.000000 0.707111 -0.000007
1.808584 0.794259 0.587963 -0.031057 -0.005694 0.007960
0.078884 0.718633 0.433037 -0.509084 0.000022 -0.000043
1.806152 0.784743 0.444424 -0.000001 -0.807576 0.000374
2.914486 0.720061 0.608965 0.000000 0.289328 0.000006
2.959728 0.579023 0.537322 0.000001 -0.949764 0.000005
2.416830 0.622461 0.594535 0.000002 -0.561734 0.000044
2.054055 0.833554 0.389441 0.056932 -0.010247 -0.013810
1.970840 1.210175 0.886734 -0.031057 -0.006775 0.009409
1.195312 0.673814 0.613496 0.000000 -0.105231 0.000142
1.331036 0.769374 0.424601 -0.000000 0.734299 -0.000003
2.914486 0.579929 0.539901 0.000000 -0.942618 0.000001
1.681811 0.463144 0.663954 -0.056898 -0.001996 -0.002553
1.059587 0.606216 0.421135 -0.000001 -0.694955 -0.000004
2.110800 1.034214 0.246909 0.056931 -0.007577 -0.010284
0.114513 0.658036 0.590420 -0.369833 -0.000025 0.000088
1.938218 0.339019 0.259838 -0.056901 -0.003143 0.004017
2.987513 0.853426 0.388234 -0.041703 -0.007881 -0.010595
2.190623 0.730012 0.605314 -0.000000 0.399384 0.000009
1.285794 0.723518 0.394409 -0.000000 0.333230 -0.000011
1.720793 0.563891 0.407661 -0.031058 0.009109 -0.012425
0.561932 0.580809 0.542225 -0.000000 -0.906962 0.000001
3.050210 0.602583 0.577280 -0.000001 -0.739363 0.000055
1.964416 0.729552 0.396717 0.000000 0.377257 -0.000037
1.998076 0.915870 0.654278 0.104069 0.005022 -0.006869
2.758058 0.911787 0.336316 0.020362 0.014144 0.017190
1.345630 0.799179 0.501937 -0.000000 0.999718 0.000000
3.150380 0.622249 0.443588 0.439240 -0.000070 -0.000057
2.732100 0.763347 0.437282 0.000000 0.807575 -0.000215
2.956538 0.841967 0.623591 0.020362 0.008084 -0.011117
1.943946 0.971167 0.693468 -0.056902 0.001804 -0.002309
2.892650 0.929389 0.676277 0.020366 -0.007815 0.009263
1.975441 1.228847 0.102173 -0.031058 -0.006775 -0.009409
1.728188 0.974959 0.712035 -0.031058 -0.003288 0.004648
2.736678 0.470137 0.658847 0.020361 -0.014145 -0.017191
1.104829 0.780777 0.562954 0.000000 0.839404 0.000010
1.891449 0.814730 0.427167 -0.056897 0.001497 0.001915
3.132071 0.666381 0.408187 0.442016 -0.000064 -0.000407
2.027982 0.513173 0.385530 0.104068 -0.002670 0.003655
0.200000 0.757219 0.589034 -0.068242 0.000198 0.000239
2.932127 0.457444 0.338441 0.020363 0.015628 -0.015743
0.245241 0.721282 0.608565 0.000000 0.311243 0.000183
0.072122 0.752328 0.475044 -0.535563 0.000040 -0.000015
0.788139 0.784750 0.556404 -0.000000 0.875612 0.000008
3.167217 0.508318 0.630964 -0.041702 -0.006070 -0.008233
2.281106 0.732443 0.604257 0.000000 0.399016 0.000034
2.786694 0.550072 0.396168 0.020361 -0.004042 0.005866
1.818320 0.357112 0.736916 -0.056903 -0.003492 -0.004462
1.692967 0.789808 0.546205 0.000000 0.917047 0.000001
2.904031 0.767185 0.442537 0.000000 0.807575 -0.000323
1.886421 0.852726 0.397119 -0.056902 0.005904 0.007517
1.886421 0.519537 0.397119 -0.056902 -0.011806 0.014798
3.106914 0.819271 0.601484 -0.041702 0.014046 -0.018246
3.106914 0.552993 0.400734 -0.041703 -0.014046 0.018246
3.168689 0.751269 0.460180 0.441876 0.000076 -0.000047
1.014346 0.625469 0.596520 0.000000 -0.543260 0.000023
1.989013 1.169203 0.143618 -0.031056 -0.015141 -0.019348
2.326348 0.647184 0.394962 0.000000 -0.355457 -0.000020
1.240553 0.579819 0.462630 0.000001 -0.939532 -0.000005
2.003230 1.280438 0.064821 -0.031058 -0.010361 -0.013971
2.462072 0.619312 0.409900 0.000000 -0.582123 -0.000005
3.168689 0.683974 0.578007 0.436129 -0.000004 0.000091
2.881397 0.788080 0.585323 0.020365 0.007730 -0.010692
2.110800 0.180036 0.870704 0.056931 0.010490 0.014127
2.552555 0.750864 0.593812 0.000000 0.582123 0.000042
0.380966 0.796106 0.527375 -0.000001 0.970889 0.000002
2.552555 0.618450 0.591672 -0.000001 -0.600539 0.000020
1.891449 0.572229 0.407044 -0.031058 0.005124 -0.007186
0.712250 0.573139 0.504256 0.000000 -0.999718 0.000000
3.083503 0.847468 0.387626 -0.041703 -0.007090 -0.009563
2.701414 0.689941 0.614087 -0.000010 0.001267 0.000383
2.843674 0.877555 0.636719 0.020364 -0.010049 0.011441
1.733787 0.782310 0.561127 -0.000001 -0.807576 -0.000225
2.824003 0.610696 0.585327 -0.000000 -0.673225 0.000008
3.004969 0.727403 0.606373 0.000000 0.355457 0.000010
2.688448 0.823372 0.604433 0.020364 0.024230 -0.023081
0.652414 0.696720 0.388539 0.000000 0.105237 -0.000071
1.647726 0.775699 0.570115 0.000000 0.784920 0.000001
0.426207 0.580250 0.461464 0.000000 -0.934693 -0.000011
2.597796 0.589997 0.441605 0.000000 -0.851575 -0.000009
0.028953 0.721679 0.501109 -0.710605 0.000007 0.000000
1.557243 0.759323 0.587289 -0.000001 0.647999 0.000009
2.038718 0.558977 0.403160 0.056932 0.010247 -0.013810
3.167463 0.844665 0.385335 -0.041703 -0.014177 -0.018366
2.597796 0.656377 0.392035 -0.000000 -0.266322 -0.000054
1.732854 0.564113 0.594859 -0.031057 0.004555 0.006406
2.597796 0.595220 0.568327 0.000000 -0.791661 0.000001
0.516690 0.702721 0.612946 -0.000001 0.151081 0.000049
2.714154 0.514492 0.373903 0.020362 -0.012125 0.015415
1.512002 0.580839 0.542302 0.000000 -0.934693 0.000006
2.032583 0.897076 0.357194 0.104068 0.005022 0.006869
2.846734 0.929067 0.322457 0.020363 0.008084 0.011117
2.959728 0.754873 0.590876 0.000000 0.600806 0.000005
1.855726 0.216248 0.844259 -0.056902 -0.010243 -0.012905
1.989013 0.196700 0.152328 -0.056901 -0.004424 0.005646
1.059587 0.611846 0.586339 0.000003 -0.646079 0.000018
3.168689 0.615913 0.532530 0.442550 -0.000082 0.000035
1.104829 0.645945 0.606785 0.000000 -0.355696 0.000005
1.922254 0.262220 0.803532 -0.056904 -0.005588 -0.007118
1.720659 0.449785 0.330637 -0.056902 -0.011806 0.014798
2.046386 0.991279 0.286610 0.104069 0.002192 0.003001
2.078593 0.369393 0.273972 0.104068 -0.002232 0.003056
0.486043 0.690355 0.388141 0.000011 0.000591 -0.000407
0.697656 0.607007 0.581874 -0.000002 -0.686399 0.000008
1.832214 1.040728 0.755893 -0.056904 0.003260 -0.004165
0.200000 0.654740 0.609731 -0.068248 -0.000090 0.000297
1.104829 0.591126 0.439820 -0.000000 -0.839377 -0.000010
2.800817 0.441157 0.680010 0.020361 -0.016164 -0.018735
2.480121 0.586055 0.574194 0.020362 -0.016163 -0.018735
2.879470 0.600060 0.552809 0.000001 -0.807576 0.000323
2.857993 0.543492 0.389967 0.020366 -0.004547 0.006566
2.959728 0.581380 0.458571 -0.000000 -0.926065 -0.000006
0.274429 0.683730 0.388070 -0.000000 -0.011870 -0.000041
1.602485 0.725660 0.607035 0.000000 0.355446 0.000079
2.854908 0.610393 0.435260 0.000000 -0.807577 -0.000162
1.908111 0.818485 0.608788 -0.031059 -0.005124 0.007186
1.790645 1.019745 0.259712 -0.056902 0.003492 0.004462
2.064790 0.213680 0.849383 0.056934 0.002914 0.003985
0.290483 0.610634 0.416947 -0.000001 -0.672299 -0.000016
1.660489 0.809477 0.409175 -0.031057 -0.004555 -0.006406
0.570688 0.687291 0.388056 0.000000 0.011878 -0.000020
1.972770 0.414292 0.292841 0.056932 0.004371 -0.005968
2.621127 0.806710 0.586686 0.020362 -0.017860 0.017051
1.692967 0.759228 0.587370 0.000000 0.637774 0.000002
1.841277 0.936579 0.328345 -0.056902 0.001921 0.002457
2.824003 0.793833 0.466707 -0.000001 0.866749 -0.000001
0.059012 0.626623 0.483911 -0.586947 -0.000033 -0.000009
0.184041 0.795898 0.480277 -0.099175 0.000418 -0.000069
2.073992 1.219188 0.116594 0.104067 0.004942 0.006760
0.461233 0.573087 0.499204 0.000000 -0.999934 -0.000000
2.046386 0.195813 0.151382 0.104068 -0.002790 0.003819
1.783450 0.725080 0.394962 0.000000 0.355457 -0.000039
2.952161 0.567217 0.576794 -0.041704 0.007881 0.010594
0.152526 0.782913 0.544562 -0.221701 0.000164 0.000069
0.200000 0.753019 0.409948 -0.068246 0.000187 -0.000248
1.798512 0.452257 0.676046 -0.031056 0.006975 0.009673
1.963568 0.934665 0.338685 -0.056902 0.001863 0.002383
1.466760 0.656017 0.610084 -0.000000 -0.266234 0.000027
2.009657 0.751672 0.408984 -0.000000 0.582049 -0.000042
1.672083 0.546327 0.397155 -0.031054 0.006833 -0.009486
1.870287 0.309666 0.770224 -0.056901 -0.003027 -0.003869
3.132071 0.749698 0.571706 0.442014 0.000259 0.000320
0.742897 0.795063 0.470835 0.000001 0.962589 -0.000004
1.376277 0.644861 0.606373 0.000000 -0.355457 0.000020
0.160335 0.686132 0.608973 -0.198961 0.000001 0.000050
1.964416 0.762272 0.584685 -0.000000 0.667233 0.000004
1.856401 0.509499 0.615113 -0.056902 -0.005904 -0.007517
2.371589 0.709163 0.390418 -0.000000 0.197953 -0.000148
2.462072 0.792555 0.462942 -0.000001 0.942203 -0.000005
2.024027 0.035829 0.973036 -0.056901 -0.009313 -0.011764
3.057375 0.325240 0.764664 0.020363 -0.024231 -0.023080
3.057375 1.047024 0.237554 0.020362 0.024232 0.023080
1.790645 0.354164 0.257459 -0.031057 0.005978 -0.008344
0.969104 0.575179 0.479377 0.000000 -0.980233 -0.000001
2.037184 0.928042 0.682971 0.056931 -0.009325 0.012601
1.635434 0.528983 0.615873 -0.056904 -0.005322 -0.006782
1.647961 0.827633 0.602742 -0.056899 0.002661 -0.003403
0.121953 0.594700 0.532246 -0.340803 -0.000098 0.000031
2.824003 0.578843 0.536771 0.000000 -0.950196 0.000005
1.014346 0.648355 0.394547 -0.000000 -0.333412 -0.000085
1.150070 0.625677 0.596655 -0.000001 -0.540893 0.000012
2.009578 1.107347 0.186354 0.056932 -0.003206 -0.004383
1.838012 1.045887 0.236110 -0.031057 -0.005580 -0.007806
2.462072 0.579405 0.538417 0.000000 -0.942593 0.000005
0.788139 0.721597 0.608462 0.000000 0.311283 0.000092
2.054899 0.610788 0.585410 -0.000001 -0.668332 0.000008
0.426207 0.721203 0.393627 0.000000 0.311245 -0.000183
2.552555 0.794610 0.532977 0.000000 0.956057 0.000001
1.331036 0.760667 0.586121 0.000001 0.636412 0.000004
1.150070 0.580132 0.461774 0.000000 -0.934693 -0.000001
1.972196 0.311261 0.761608 -0.056903 -0.002910 -0.003720
2.764072 0.857793 0.623216 0.020363 -0.015629 0.015743
1.988874 0.869528 0.382975 0.104069 0.005341 0.007304
0.742897 0.580750 0.542070 -0.000000 -0.932874 0.000001
0.099925 0.763755 0.540431 -0.426794 0.000065 0.000031
1.873933 0.794287 0.468171 -0.000000 0.955927 -0.000002
1.870700 0.922330 0.680424 -0.031055 -0.003288 0.004648
1.902103 0.150409 0.892340 -0.056901 -0.008381 -0.010614
0.200000 0.642251 0.396904 -0.068245 -0.000124 -0.000285
1.873668 0.366299 0.725736 -0.056902 -0.001746 -0.002234
1.806725 0.995402 0.729401 -0.031057 -0.006177 0.008612
0.335724 0.578559 0.466313 0.000000 -0.950330 -0.000020
0.923863 0.605250 0.580117 0.000001 -0.723241 0.000029
0.923863 0.678186 0.613896 0.000000 -0.081942 0.000365
2.973792 0.922842 0.333201 0.020363 -0.013397 -0.014211
2.869245 0.794371 0.533770 -0.000000 0.957360 0.000002
2.920324 0.689941 0.388125 -0.000067 0.001264 -0.001910
0.072122 0.638859 0.554275 -0.535563 -0.000029 0.000031
3.083257 0.509647 0.634332 -0.041703 -0.012139 -0.015975
2.447478 0.688616 0.614118 0.000000 0.023392 0.000010
0.516690 0.795382 0.530225 -0.000000 0.962822 0.000001
1.885123 0.869965 0.358086 -0.031057 -0.003487 -0.004926
1.968169 0.939300 0.696066 0.056932 -0.008596 0.011639
2.953592 0.534476 0.381524 0.020363 -0.004042 0.005866
3.095452 0.793988 0.535039 0.442203 0.000104 0.000034
2.824003 0.581583 0.458072 -0.000000 -0.926085 -0.000012
1.976314 0.232280 0.823013 -0.056903 -0.004889 -0.006236
0.144776 0.613410 0.575556 -0.251868 -0.000107 0.000105
1.150070 0.631961 0.401871 -0.000001 -0.477209 -0.000007
2.007278 0.400175 0.696526 0.104068 -0.002192 -0.003001
2.898542 0.436878 0.316913 0.020362 -0.007074 0.009887
2.597796 0.793266 0.464975 0.000000 0.950343 -0.000002
1.780700 0.475376 0.343113 -0.031057 0.010105 -0.013659
2.073992 0.136833 0.097365 0.056932 0.009325 -0.012601
0.833380 0.727711 0.395967 -0.000000 0.376933 -0.000018
2.027982 0.190229 0.869108 0.056931 0.010490 0.014127
0.969104 0.595170 0.568261 0.000001 -0.798131 0.000011
3.037282 0.565208 0.582663 -0.041700 0.005911 0.008007
2.110800 0.436808 0.319031 0.056931 0.004371 -0.005968
1.952596 0.986997 0.273188 -0.031056 -0.005779 -0.008076
2.824003 0.626734 0.404909 -0.000000 -0.523349 -0.000024
2.983376 0.771445 0.448371 -0.000001 0.807557 -0.000109
2.078593 1.254102 0.084054 0.056931 -0.008159 -0.011060
0.652414 0.580809 0.459993 0.000000 -0.934693 -0.000006
0.697656 0.722815 0.394161 0.000001 0.316303 -0.000006
2.869245 0.793550 0.465841 0.000000 0.950300 -0.000020
1.954644 1.175043 0.861403 -0.031058 -0.007572 0.010457
1.998076 0.467140 0.333223 0.056931 0.004590 -0.006265
1.694805 0.494846 0.363971 -0.056900 -0.001996 0.002553
2.778762 0.699356 0.613400 0.000000 0.128616 0.000116
1.826380 0.499461 0.377092 -0.056901 -0.011806 0.014798
1.797657 0.845518 0.378608 -0.031057 -0.010105 -0.013659
3.168199 0.585443 0.574640 -0.041703 -0.006370 -0.008630
3.041400 0.519953 0.628976 -0.041705 -0.003541 -0.004836
1.919175 0.690603 0.388147 0.000000 0.023392 -0.000320
1.964416 0.605021 0.579877 -0.000001 -0.722093 0.000014
3.106580 0.918284 0.667547 -0.041703 -0.005065 0.006878
3.106580 0.453980 0.334671 -0.041703 0.005065 -0.006878
3.004969 0.727403 0.395845 -0.000000 0.354765 -0.000010
1.897822 0.917389 0.347427 -0.056901 0.003842 0.004906
0.878622 0.631743 0.401991 0.000000 -0.482838 -0.000027
2.222730 0.687622 0.388077 0.000000 0.023383 -0.000083
1.926094 0.477520 0.663121 -0.031057 0.003288 0.004648
2.918154 0.876100 0.368577 0.020361 -0.004467 -0.005540
2.000376 0.924335 0.319355 0.056932 -0.004663 -0.006364
2.507313 0.794299 0.468210 0.000001 0.957148 -0.000009
2.934918 0.684310 0.614155 0.000000 -0.011874 0.000163
3.088223 0.808108 0.416152 -0.041703 -0.014062 -0.018232
1.862258 0.686877 0.614159 -0.000005 0.004498 0.000215
0.878622 0.753648 0.410421 0.000000 0.600827 -0.000020
2.110800 0.575070 0.420002 0.056931 0.007771 -0.010543
2.110800 0.535567 0.611065 0.056933 0.003886 0.005308
2.110800 0.535567 0.391153 0.056930 0.003886 -0.005308
1.442680 0.799181 0.501854 0.000000 0.999718 0.000000
2.110800 0.836697 0.611065 0.056930 -0.003886 0.005308
1.954366 0.883284 0.346085 0.056932 -0.004954 -0.006758
1.285794 0.622495 0.594558 -0.000001 -0.562401 0.000022
1.862074 0.989505 0.288502 -0.056902 0.006985 0.008874
0.144776 0.782966 0.462980 -0.251866 0.000141 -0.000052
3.088223 0.568081 0.591441 -0.041703 -0.014046 -0.018246
1.673016 0.575928 0.576479 -0.056900 -0.002661 -0.003403
2.480121 0.786209 0.428024 0.020363 0.016162 0.018735
2.627490 0.787980 0.430449 0.020361 -0.008934 -0.010387
2.688448 0.823372 0.397785 0.020361 0.012125 0.015415
2.817619 0.570278 0.593154 0.020365 -0.004042 -0.005866
0.160335 0.745795 0.590970 -0.191315 0.000121 0.000173
1.907093 0.355777 0.748048 -0.031056 0.005580 0.007806
1.943946 0.412721 0.709386 -0.031058 0.003089 0.004369
2.535607 0.604193 0.558468 -0.000000 -0.807571 0.000072
2.914486 0.649214 0.607974 0.000000 -0.332918 0.000021
2.733521 0.579101 0.464660 -0.000001 -0.949223 -0.000005
3.094796 0.473649 0.660001 -0.041702 -0.010116 -0.013475
0.878622 0.585900 0.553416 0.000001 -0.886421 0.000016
2.990796 0.492033 0.351923 0.020364 -0.012123 0.015414
2.550624 0.795278 0.582057 0.020362 0.024232 -0.023080
2.608399 0.844168 0.616521 0.020364 0.008083 -0.011116
2.786247 0.510400 0.632853 0.020363 -0.004042 -0.005866
1.743515 0.862986 0.623450 -0.056900 0.005322 -0.006783
0.561932 0.721006 0.608656 0.000001 0.310411 0.000023
0.380966 0.795151 0.471154 0.000000 0.963756 -0.000004
0.426207 0.707336 0.612168 -0.000001 0.195040 0.000019
2.869245 0.718396 0.392750 -0.000000 0.288806 -0.000025
2.145382 0.711388 0.390906 -0.000000 0.220593 -0.000033
2.200839 0.799156 0.499287 0.000000 0.999727 -0.000000
2.011117 0.799195 0.501275 0.000000 0.999727 0.000000
2.854651 0.684227 0.614154 0.000000 -0.012238 0.000039
1.208446 0.799164 0.499618 0.000000 0.999727 -0.000000
2.791897 0.573158 0.505084 0.000000 -0.999726 0.000000
1.916779 1.184183 0.140370 -0.056902 0.004657 0.005941
0.335724 0.601719 0.576331 -0.000001 -0.736108 0.000007
3.130326 0.575198 0.422047 -0.041703 0.014062 -0.018232
0.939916 0.799172 0.499950 0.000000 0.999727 -0.000000
3.082276 0.428389 0.317222 -0.041703 0.008103 -0.010882
3.082276 0.943875 0.684996 -0.041702 -0.008103 0.010882
1.738209 0.717444 0.609753 0.000000 0.266344 0.000014
0.652414 0.797462 0.481413 0.000000 0.984484 -0.000005
2.014179 0.382037 0.730008 0.056931 0.004080 0.005573
1.331036 0.573995 0.515524 -0.000000 -0.989910 0.000001
1.729452 0.685883 0.388048 0.000000 -0.023392 -0.000021
2.688279 0.663141 0.390410 -0.000000 -0.197966 -0.000074
3.168689 0.650595 0.486389 1.000000 0.000000 -0.000000
3.168689 0.660501 0.529790 1.000000 -0.000000 0.000000
3.168689 0.712557 0.473158 1.000000 0.000000 0.000000
3.168689 0.705675 0.534239 1.000000 0.000000 0.000000
1.769503 0.799581 0.430182 -0.056898 0.001331 0.001703
1.919175 0.611627 0.586149 0.000001 -0.638621 0.000004
1.902639 0.779215 0.565364 0.000001 -0.807570 -0.000225
2.046386 1.256723 0.922352 0.056932 -0.008159 0.011060
2.046386 0.115541 0.922352 0.056933 0.008159 0.011060
3.058953 0.892341 0.356096 -0.041703 -0.006077 -0.008228
1.557243 0.797906 0.518108 -0.000000 0.988317 0.000001
2.069391 0.171309 0.130506 0.104068 -0.004942 0.006760
1.376277 0.586417 0.554408 0.000000 -0.886745 0.000004
0.697656 0.597232 0.431258 0.000000 -0.784644 -0.000012
2.979553 0.804373 0.577717 -0.041704 -0.007881 0.010594
1.647726 0.783822 0.444197 0.000000 0.850529 -0.000001
3.129657 0.987328 0.722928 -0.041702 0.006070 -0.008233
3.129657 0.383164 0.281715 -0.041702 0.006077 -0.008228
2.965291 0.937063 0.688080 0.020363 0.012124 -0.015415
2.110800 0.974959 0.712035 0.056933 -0.004080 0.005572
2.076293 0.944375 0.316989 0.104069 0.002352 0.003219
2.076293 0.408137 0.302564 0.104069 -0.002391 0.003274
1.783450 0.763462 0.583592 0.000000 0.690356 0.000004
1.512002 0.794754 0.532501 -0.000000 0.963903 0.000002
1.150070 0.578276 0.535039 0.000000 -0.957360 0.000005
0.144776 0.686132 0.397038 -0.259416 0.000000 -0.000036
2.914486 0.794084 0.467496 -0.000001 0.953989 -0.000002
1.421519 0.681991 0.614079 0.000000 -0.023751 0.000315
1.765041 0.921963 0.334250 -0.056901 0.004075 0.005202
2.023381 0.316607 0.242577 0.104070 -0.001873 0.002565
2.319051 0.688202 0.614127 0.000000 0.023751 0.000020
1.285794 0.792610 0.539120 -0.000000 0.941923 0.000003
2.027982 1.083766 0.221453 0.104067 0.001714 0.002347
2.110800 0.994711 0.275758 0.056931 -0.008159 -0.011060
1.923196 0.890629 0.660115 -0.031056 -0.003487 0.004926
2.526285 0.683648 0.614118 0.000000 -0.023383 0.000010
3.105353 1.011739 0.260224 -0.041703 0.008093 0.010889
0.471449 0.603085 0.424386 0.000000 -0.739243 -0.000014
2.824003 0.765725 0.420813 0.000000 0.706870 -0.000015
1.150070 0.701491 0.613123 -0.000001 0.127008 0.000059
1.828976 0.557626 0.422720 -0.056902 -0.005904 0.007517
1.859704 0.471614 0.664753 -0.031055 0.003488 0.004926
2.462072 0.695564 0.388444 -0.000001 0.080802 -0.000046
1.910521 0.952969 0.681669 -0.056901 0.003725 -0.004758
0.697656 0.723166 0.607933 -0.000000 0.333440 0.000021
3.022865 0.470458 0.651174 -0.041704 0.005064 0.006878
3.166972 0.489036 0.357173 -0.041702 -0.012139 0.015975
