0.228136 0.528305 0.774144 0.000069 -0.684713 0.000004
2.909883 0.788114 0.982947 0.021530 -0.008795 0.005941
2.638954 0.544311 0.820012 0.000001 -0.810065 0.000019
2.142130 0.673627 0.706001 0.000000 0.668382 -0.000014
1.193648 0.549020 0.713323 0.000000 -0.760986 -0.000006
1.193648 0.606854 0.683393 0.000001 -0.090870 -0.000036
2.862212 0.449169 0.980647 0.021527 -0.009865 -0.007788
2.638954 0.576369 0.692033 -0.000000 -0.449234 -0.000052
1.816921 0.233851 1.239624 0.096925 -0.005036 -0.004006
3.131813 0.747749 0.936499 -0.045992 -0.013023 0.009745
1.701618 0.762568 0.565712 0.068489 -0.011597 -0.009110
1.841331 0.279751 1.185826 0.096926 -0.002715 -0.002162
2.901064 0.701401 0.765784 0.000000 0.999650 -0.000000
1.583693 0.408065 1.035781 -0.048328 0.002494 0.002069
2.588605 0.528198 0.770613 0.000000 -0.999913 0.000000
1.997748 0.701481 0.768811 0.000000 0.999650 -0.000000
1.482413 0.528216 0.770829 0.000000 -0.999650 0.000000
1.473528 0.701428 0.766793 0.000000 0.999650 -0.000000
1.602168 0.864630 1.074565 -0.068459 0.001711 -0.001283
1.238814 0.680647 0.826056 0.000000 0.760986 0.000006
1.740572 0.759434 0.930953 0.096928 0.002148 -0.001710
1.740572 0.470256 0.930953 0.096926 -0.004295 -0.003418
1.839254 0.312932 0.387335 0.068489 0.004122 -0.003278
1.839254 0.916758 1.152017 0.068488 -0.004122 0.003278
3.140220 0.659134 0.840162 0.068548 0.001074 0.001944
0.191965 0.621767 0.683197 0.011944 0.000207 -0.004653
0.041637 0.602048 0.734190 -0.573842 -0.000009 -0.000024
2.973591 0.447527 0.566887 0.021527 0.014072 -0.008596
3.140220 0.536271 0.742182 0.068550 -0.002052 -0.000850
0.470995 0.692066 0.808990 -0.000000 0.892879 0.000007
1.238814 0.570851 0.844337 0.000000 -0.519108 0.000005
1.843409 0.979141 1.222805 0.096929 0.002518 -0.002005
1.843409 0.250549 0.316547 0.096926 -0.002518 0.002005
0.561327 0.689207 0.814163 -0.000001 0.853551 0.000008
1.735638 0.550495 0.711644 -0.000000 -0.737007 -0.000003
2.864784 0.593476 0.853652 -0.000000 -0.250309 0.000050
1.624378 0.903295 0.415767 -0.068458 0.003229 0.002419
2.322793 0.699947 0.786015 0.000001 0.977095 0.000003
2.729286 0.648804 0.689951 0.000000 0.401686 -0.000007
1.540151 0.843040 1.058255 -0.048328 -0.002461 0.002042
1.374311 0.530662 0.749109 0.000000 -0.974485 -0.000003
3.000281 0.540148 0.725744 0.000000 -0.868243 -0.000001
1.825970 0.573616 0.845891 0.000001 -0.464372 0.000006
1.574418 0.502218 0.921776 -0.048328 0.015746 0.012442
0.470995 0.693024 0.732301 0.000000 0.905034 -0.000012
1.419477 0.544755 0.718725 -0.000001 -0.803768 -0.000005
1.743465 1.100585 1.373051 -0.068459 0.007519 -0.005605
1.743465 0.129105 0.166300 -0.068460 -0.007518 0.005605
3.043360 0.781950 0.554501 -0.045992 0.006391 0.005166
3.090613 0.648540 0.689835 0.071551 0.000214 -0.000488
1.645549 0.491408 0.901116 -0.068460 -0.011566 -0.008553
0.290332 0.561219 0.701604 -0.000001 -0.626124 -0.000008
1.685097 0.411866 0.536689 -0.068459 -0.003663 0.002743
2.277628 0.539253 0.727309 -0.000001 -0.851200 -0.000002
1.735638 0.583827 0.850588 0.000000 -0.351746 0.000069
1.780804 0.648639 0.689879 0.000001 0.400561 -0.000030
3.090613 0.687059 0.817581 0.071911 0.000438 0.000299
2.464955 0.528274 0.772991 0.000000 -0.999639 0.000000
0.877487 0.582753 0.850168 0.000001 -0.376406 0.000064
1.329146 0.569341 0.843421 -0.000001 -0.517474 0.000022
3.000281 0.691163 0.728638 0.000000 0.881136 -0.000014
2.581127 0.531196 0.667209 0.021529 0.029532 -0.012702
2.861573 0.717767 0.908355 0.021521 0.005181 -0.004374
1.148482 0.635412 0.685492 0.000000 0.250116 -0.000025
1.679111 0.973401 0.328541 -0.068461 0.010602 0.007858
2.006633 0.536666 0.807051 -0.000001 -0.843449 0.000001
1.742302 0.528274 0.772991 0.000000 -0.999639 0.000000
0.112950 0.685146 0.792932 -0.295145 0.000101 0.000031
1.549697 0.372704 0.463591 -0.048327 0.002362 -0.001961
0.144049 0.546441 0.724298 -0.174091 -0.000171 -0.000107
2.547142 0.701431 0.772414 0.000000 0.999639 0.000000
1.549697 0.370175 1.073745 -0.068461 -0.003615 -0.002707
0.290332 0.659825 0.695613 0.000000 0.519078 -0.000043
1.645306 0.645323 0.850791 0.000000 0.348773 0.000009
2.909949 0.677032 0.830027 0.000000 0.725866 0.000002
2.187296 0.690508 0.727435 -0.000000 0.868051 -0.000007
1.830944 0.796590 0.991717 0.096926 0.003900 -0.003105
1.830944 0.433100 0.991717 0.096926 -0.003900 -0.003105
3.078983 0.739404 0.617545 -0.045992 -0.004070 -0.003153
0.120627 0.680685 0.730880 -0.265237 0.000104 -0.000065
1.058151 0.530087 0.751640 -0.000001 -0.975320 -0.000003
2.969403 0.684840 0.871234 -0.045992 0.010335 -0.008229
2.861573 0.502672 0.900986 0.021527 0.005541 0.003916
0.606492 0.695065 0.736916 0.000000 0.926398 -0.000021
1.419477 0.693346 0.806365 -0.000001 0.899520 0.000003
2.955115 0.692825 0.807475 -0.000000 0.905029 0.000012
3.000281 0.700664 0.781677 0.000001 0.986231 0.000002
3.173292 0.624783 0.730430 1.000000 0.000000 0.000000
2.859178 0.670167 0.685894 -0.000001 0.623104 -0.000290
2.774452 0.596774 0.854427 -0.000001 -0.181851 0.000018
1.012985 0.691470 0.810142 -0.000000 0.881160 0.000002
1.645549 0.738282 0.901116 -0.068460 0.005783 -0.004322
2.774452 0.672581 0.705061 -0.000000 0.666780 -0.000007
2.458291 0.679821 0.827010 -0.000000 0.741829 0.000006
1.645306 0.585447 0.851196 0.000000 -0.325634 0.000005
2.729286 0.680997 0.825644 -0.000000 0.759833 0.000006
2.768067 0.488385 0.615371 0.021530 0.017234 -0.009820
0.512459 0.528289 0.765784 0.000000 -0.999639 -0.000000
1.697203 0.681997 0.712376 0.000002 -0.623105 0.000507
2.819618 0.701027 0.778744 -0.000001 0.975952 0.000000
2.774452 0.699668 0.751958 0.000000 0.980105 -0.000003
0.696084 0.701424 0.766649 0.000000 0.999650 -0.000000
1.690472 0.536375 0.732921 0.000001 -0.901062 -0.000003
1.647182 0.459414 0.978794 -0.048328 0.005250 0.004337
1.503885 0.618304 0.683109 0.000000 0.026872 -0.000242
1.103316 0.566940 0.841890 0.000000 -0.563824 0.000005
2.277628 0.565927 0.841199 0.000000 -0.563767 0.000038
0.245166 0.582820 0.689157 -0.000001 -0.376383 -0.000064
3.134138 0.691466 0.675052 -0.045991 -0.009939 -0.007555
3.173292 0.584375 0.694658 0.066020 -0.000203 -0.000521
1.640331 0.772646 0.591814 -0.068461 0.004000 0.002995
2.864324 0.472647 0.585673 0.021529 -0.008879 0.007127
2.006633 0.661296 0.842827 -0.000000 0.541625 0.000020
1.742302 0.701416 0.772991 0.000000 0.999650 0.000000
1.822114 0.034932 0.036498 0.068487 0.006428 -0.005099
1.822114 1.194758 0.036498 0.068484 -0.006428 -0.005099
1.822114 1.194758 1.502854 0.068484 -0.006428 0.005099
0.967819 0.579928 0.690370 -0.000000 -0.401139 -0.000030
0.335497 0.637436 0.686015 -0.000000 0.250322 -0.000025
0.290332 0.610089 0.683149 -0.000001 -0.066209 -0.000098
2.096964 0.594419 0.685460 0.000000 -0.224407 -0.000028
2.051799 0.621939 0.683309 -0.000000 0.092987 -0.000070
1.833021 0.389218 1.047122 0.096927 -0.007010 -0.005570
1.783680 0.466200 0.596569 0.096926 -0.004098 0.003262
2.367959 0.535699 0.734395 0.000001 -0.912160 -0.000003
1.646748 0.389932 1.062375 -0.048328 0.004725 0.003907
1.634940 0.701502 0.769604 0.000000 0.999650 -0.000000
1.554975 0.679677 0.827171 0.000000 0.743720 0.000023
1.780804 0.578090 0.691205 -0.000000 -0.423355 -0.000007
1.754855 0.706706 0.641696 0.068489 -0.012156 -0.009536
2.844516 0.527516 0.649514 0.021528 -0.010359 0.008106
1.106278 0.701489 0.770252 0.000000 0.999650 0.000000
1.775023 1.171568 1.464098 -0.068461 0.010410 -0.007718
1.775023 1.171568 0.075254 -0.068460 0.010410 0.007718
1.775023 0.058122 0.075254 -0.068460 -0.010410 0.007718
2.006633 0.552961 0.709016 0.000000 -0.707107 -0.000013
0.744211 0.619025 0.856224 -0.000000 0.026872 0.000242
1.759789 0.244180 1.217731 0.096926 -0.005431 -0.004320
0.442859 0.611098 0.683116 -0.000000 -0.026459 -0.000032
1.748882 0.787125 0.999257 0.068489 -0.005519 0.004383
1.748882 0.442565 0.999257 0.068489 0.005519 0.004383
2.232462 0.620716 0.683223 -0.000001 0.066120 -0.000197
1.640849 0.255162 1.216690 -0.068459 -0.005302 -0.003964
0.245166 0.662690 0.841929 0.000002 0.361124 0.000004
2.664020 0.501244 0.629191 0.021531 0.012311 -0.007799
2.638954 0.630618 0.684467 0.000000 0.172701 -0.000019
2.909949 0.571978 0.844981 0.000000 -0.496139 0.000023
0.290332 0.568879 0.843140 0.000000 -0.541671 0.000081
1.825231 0.190444 0.243944 0.096926 -0.004641 0.003693
0.741990 0.667443 0.700814 -0.000001 0.606245 -0.000017
1.825231 1.039245 1.295408 0.096923 0.004641 -0.003693
2.958965 0.684420 0.697249 -0.000001 0.623106 -0.000269
0.380663 0.569002 0.843215 0.000000 -0.518320 0.000011
2.729286 0.701362 0.774576 -0.000001 0.980472 0.000000
1.283980 0.674673 0.706993 0.000000 0.687836 -0.000003
1.645710 0.381281 0.491398 -0.068459 -0.001735 0.001301
2.684120 0.698322 0.746425 0.000001 0.960420 -0.000004
2.051799 0.680880 0.713570 0.000001 0.759920 -0.000011
0.830841 0.617007 0.856278 0.000000 0.026459 0.000008
2.952207 0.791607 0.542981 0.021532 0.013151 0.009746
2.548623 0.655692 0.846096 -0.000000 0.472827 0.000024
0.798262 0.701462 0.771261 0.000000 0.999639 0.000000
1.464643 0.680904 0.825754 0.000000 0.761163 0.000011
2.712846 0.557057 0.851492 0.000001 -0.623099 0.000193
2.142130 0.687743 0.816520 -0.000001 0.839410 0.000008
0.741990 0.668130 0.838013 0.000001 0.605496 0.000017
2.819618 0.680951 0.825699 -0.000000 0.760891 0.000011
1.869897 0.683523 0.683470 0.068488 -0.006637 -0.005263
2.962645 0.806556 1.013929 0.021530 0.013151 -0.009746
1.464643 0.670043 0.702872 0.000001 0.621589 -0.000008
1.961467 0.528552 0.777559 -0.000000 -0.994627 0.000001
3.000281 0.655248 0.693017 0.000000 0.472818 -0.000024
1.283980 0.556706 0.705422 -0.000001 -0.665112 -0.000007
2.638954 0.687723 0.816551 -0.000000 0.840516 0.000017
0.561327 0.535930 0.733867 0.000000 -0.916081 -0.000001
2.548623 0.629055 0.684194 0.000000 0.172322 -0.000037
2.785173 0.530044 0.884977 0.021531 -0.018408 -0.012152
2.593788 0.656518 0.693699 0.000000 0.472818 -0.000003
1.477194 0.521128 0.891659 -0.048328 0.007480 0.006143
1.058151 0.671911 0.834893 -0.000000 0.668491 0.000029
1.769657 0.883661 1.118141 0.068486 -0.004681 0.003721
0.967819 0.544290 0.819983 -0.000001 -0.803768 0.000005
2.939793 0.714936 0.907664 0.021528 0.019726 -0.012632
1.826789 0.491503 0.917759 0.096926 -0.004295 -0.003418
3.050630 0.610377 0.856216 0.000000 -0.026459 0.000016
1.058151 0.657775 0.694406 -0.000001 0.493649 -0.000011
1.826270 0.014363 1.516589 0.096930 -0.004542 -0.003614
1.793029 0.139254 0.164239 0.068489 0.010898 -0.008575
1.793029 1.090436 1.375112 0.068490 -0.010898 0.008575
1.871135 0.693131 0.806822 0.000000 0.901894 0.000002
2.282070 0.618592 0.856235 -0.000000 0.026861 0.000242
0.787156 0.540464 0.814132 0.000000 -0.854709 0.000002
0.470995 0.571227 0.844552 0.000000 -0.496139 0.000011
2.864784 0.650158 0.848808 0.000000 0.401037 0.000060
1.871135 0.580390 0.690168 0.000000 -0.401686 -0.000007
2.770750 0.528289 0.765784 0.000000 -0.999639 -0.000000
1.916301 0.582152 0.849923 -0.000000 -0.376383 0.000032
1.058151 0.575692 0.692374 -0.000000 -0.447674 -0.000007
2.503457 0.653354 0.692050 -0.000000 0.447055 -0.000007
1.869897 0.742243 0.609764 0.068489 -0.011597 -0.009110
1.826789 0.484163 0.612380 0.096926 -0.004098 0.003262
1.735638 0.644378 0.851146 0.000000 0.351128 0.000017
1.238814 0.643732 0.687979 0.000000 0.326443 -0.000038
1.569682 0.796741 0.534577 -0.048326 -0.005250 -0.004337
1.590494 0.734394 0.608029 -0.048328 -0.007874 -0.006458
1.833021 0.835683 1.050938 0.068489 -0.009920 0.007822
3.000281 0.541420 0.815702 0.000000 -0.840722 0.000002
0.922653 0.531557 0.793585 0.000000 -0.961086 0.000001
1.715295 0.275997 1.204673 -0.048326 0.007350 0.006038
1.743169 0.911599 0.383224 0.068489 -0.008803 -0.006956
2.575278 0.615278 0.856329 0.000000 0.013227 0.000032
0.561327 0.652742 0.847610 -0.000000 0.449858 0.000006
0.120627 0.608748 0.845852 -0.265235 -0.000013 0.000118
2.974098 0.728726 0.614680 -0.045992 0.010335 0.008229
2.712846 0.557057 0.687859 0.000001 -0.623097 -0.000193
1.554975 0.638269 0.853103 0.000000 0.275920 0.000091
1.804975 0.166882 1.321818 0.096925 -0.004246 -0.003379
1.238814 0.700696 0.781463 0.000000 0.989299 0.000002
1.702359 0.220913 1.269981 -0.048327 0.012598 0.010131
1.688658 0.979928 1.234227 -0.048328 -0.006824 0.005615
2.688457 0.681267 0.694738 -0.000000 0.623109 -0.000322
0.425829 0.534312 0.737684 0.000001 -0.925102 -0.000011
1.871135 0.660688 0.843215 -0.000000 0.518503 0.000005
3.025446 0.752441 0.934555 -0.045991 -0.008140 0.006234
1.640775 1.031439 1.292590 -0.048328 -0.006299 0.005191
1.678962 1.087223 0.176741 -0.048329 -0.005249 -0.004337
1.411652 0.696735 0.666886 -0.048328 -0.009974 -0.008117
1.678962 0.142467 0.176741 -0.068459 -0.003759 0.002815
1.430746 0.505063 0.631876 -0.068461 -0.007325 0.005462
1.678962 1.087223 1.362611 -0.048329 -0.005249 0.004337
1.583494 0.947763 0.351792 -0.048328 -0.007874 -0.006458
1.669415 0.156413 1.345106 -0.068459 -0.008290 -0.006172
1.593041 0.961709 1.205064 -0.048328 -0.015483 0.012255
1.640775 1.031439 0.246761 -0.048327 -0.006300 -0.005191
1.631228 0.212197 0.264267 -0.068460 -0.009831 0.007298
2.187296 0.556599 0.705519 -0.000000 -0.668133 -0.000015
0.290332 0.692649 0.731521 0.000000 0.893350 -0.000003
0.651658 0.654159 0.846897 -0.000002 0.303770 0.000005
2.979841 0.517723 0.660262 -0.045990 0.010530 -0.007983
1.800300 0.373744 1.079977 0.068489 0.009362 0.007390
0.741990 0.552162 0.709847 0.000000 -0.725200 -0.000012
1.419477 0.550688 0.827922 -0.000001 -0.743270 0.000023
3.092453 0.446382 0.982941 -0.045993 -0.009587 -0.007659
2.367959 0.571352 0.694728 0.000000 -0.493302 -0.000006
0.470995 0.654481 0.846735 0.000001 0.440287 0.000013
2.806255 0.470408 0.954350 0.021530 -0.018409 -0.012152
1.808611 0.314577 1.153328 0.068491 0.008244 0.006521
1.720216 1.058330 0.219989 -0.068460 0.008289 0.006171
1.825970 0.642335 0.851856 0.000001 0.325508 0.000019
1.780804 0.669846 0.836638 -0.000000 0.627837 0.000032
1.783680 0.737614 0.933276 0.068490 -0.002899 0.002308
1.770324 1.100332 0.154050 -0.048326 -0.004725 -0.003908
3.173292 0.695323 0.760768 0.068506 0.000536 -0.000052
1.803157 0.727650 0.620729 0.068490 -0.006078 -0.004824
0.561327 0.687059 0.721770 0.000000 0.825632 -0.000001
1.535439 0.757822 0.939767 -0.068459 0.005784 -0.004322
0.967819 0.542834 0.721473 0.000000 -0.825895 -0.000009
0.035204 0.647567 0.773174 -0.630640 0.000009 0.000001
1.535760 0.878033 0.439318 -0.048327 -0.009318 -0.007603
3.057605 0.850660 0.476089 -0.045991 -0.013023 -0.009745
0.967819 0.668073 0.838057 -0.000001 0.605286 0.000017
1.329146 0.609406 0.683194 0.000000 -0.066438 -0.000098
1.238814 0.539593 0.726715 0.000001 -0.864464 -0.000007
3.090333 0.380474 0.475490 -0.045992 -0.012782 0.010050
3.137738 0.496436 0.918304 -0.045992 -0.007989 -0.006423
2.096964 0.697954 0.794209 0.000000 0.959650 0.000001
2.051799 0.683270 0.822846 0.000000 0.794862 0.000005
0.380663 0.551368 0.710684 0.000000 -0.725866 -0.000006
1.688658 0.242343 0.311036 -0.068461 -0.010602 0.007857
1.820556 0.695554 0.876419 0.068490 -0.003319 0.002641
0.787156 0.685210 0.719105 -0.000001 0.809616 -0.000009
3.020227 0.484136 0.614044 -0.045992 0.008140 -0.006234
1.193648 0.539182 0.811917 0.000000 -0.868243 0.000002
1.697463 0.459633 0.601801 0.096927 -0.004098 0.003262
2.936803 0.754801 0.936311 0.021531 -0.021100 0.011000
1.657001 0.725463 0.656639 -0.068460 0.011566 0.008553
2.232462 0.696778 0.741470 0.000001 0.942961 -0.000005
0.696824 0.571665 0.844802 0.000000 -0.495336 0.000011
0.651658 0.673359 0.705760 0.000000 0.666780 -0.000007
0.651658 0.570605 0.695164 0.000000 -0.518957 -0.000021
1.759269 0.846090 1.042647 0.096926 0.007010 -0.005570
3.103484 0.540363 0.672382 -0.045992 -0.010093 0.008045
2.684120 0.536635 0.806985 0.000001 -0.905007 0.000024
2.367959 0.662265 0.697149 -0.000000 0.541595 -0.000040
1.798742 0.195767 1.284587 0.096926 -0.004641 -0.003693
3.031190 0.723936 0.641020 -0.045992 -0.016031 -0.011774
1.596900 0.792887 1.002198 -0.048328 -0.010498 0.008526
2.727460 0.693561 0.663278 0.021531 0.013809 0.010094
1.835099 0.360016 0.455250 0.096927 -0.003308 0.002634
1.791990 0.806897 0.540785 0.096926 0.003900 0.003105
2.613613 0.730769 0.915186 0.021529 0.036788 -0.016151
2.951700 0.837996 1.049778 0.021528 0.019725 -0.012632
2.951700 0.391694 0.489573 0.021529 -0.019724 0.012632
2.803787 0.438605 0.548458 0.021529 -0.018410 0.012152
2.761526 0.452009 0.565282 0.021529 -0.032198 0.015553
3.036222 0.364887 1.083426 0.021530 -0.026291 -0.014471
2.955115 0.644344 0.851158 0.000001 0.351564 0.000069
2.684120 0.532473 0.742767 -0.000000 -0.953526 -0.000004
0.877487 0.543953 0.819516 -0.000001 -0.733092 0.000001
1.821076 0.219488 0.281049 0.096927 -0.005036 0.004006
1.821076 1.010202 1.258303 0.096927 0.005036 -0.004006
1.775370 0.536562 0.878352 0.068489 0.012156 0.009536
0.380663 0.691060 0.810904 0.000000 0.880546 0.000007
1.697333 0.526072 0.900116 0.068490 0.006637 0.005263
1.329146 0.692131 0.730491 -0.000001 0.889756 -0.000007
0.787156 0.685759 0.819486 -0.000000 0.825895 0.000009
0.832322 0.530289 0.788626 0.000000 -0.971973 0.000002
1.283980 0.692001 0.809118 -0.000002 0.604123 0.000001
3.000281 0.609010 0.683221 0.000000 -0.066549 -0.000391
2.864784 0.532689 0.742117 -0.000001 -0.944070 -0.000005
2.322793 0.541420 0.815702 -0.000002 -0.733498 0.000002
2.096964 0.553318 0.708659 -0.000001 -0.705299 -0.000013
1.869897 1.197323 1.500810 0.068485 -0.005310 0.004218
1.869897 0.859683 1.077000 0.068488 -0.009362 0.007390
1.869897 1.197323 0.038542 0.068485 -0.005310 -0.004218
1.869897 0.223207 1.261265 0.068491 0.006567 0.005208
1.869897 0.340647 1.113853 0.068491 0.008803 0.006956
1.869897 0.502127 0.628190 0.068490 0.002899 -0.002308
1.869897 0.032367 0.038542 0.068487 0.005310 -0.004218
1.869897 0.179167 0.222807 0.068489 0.010898 -0.008575
1.869897 0.384687 0.480778 0.068490 0.004681 -0.003721
1.869897 1.050523 1.316545 0.068490 -0.010898 0.008575
2.819618 0.578319 0.691098 0.000000 -0.425337 -0.000055
2.647777 0.709020 0.648092 0.021528 0.011509 0.008814
1.685097 0.429976 1.017090 -0.048328 0.004987 0.004122
2.920638 0.459732 0.970401 0.021530 -0.008221 -0.006669
0.470995 0.539969 0.726057 0.000000 -0.868166 -0.000007
2.096964 0.544480 0.820246 0.000000 -0.810377 0.000005
2.096964 0.629837 0.855021 0.000001 0.171944 0.000075
3.090613 0.583287 0.688967 0.074476 -0.000193 -0.000475
1.539706 0.674004 0.684546 -0.048330 -0.003740 -0.003099
3.066357 0.479053 0.604049 -0.045993 0.008140 -0.006233
1.765502 0.354715 0.459473 0.096926 -0.003505 0.002791
0.470995 0.574887 0.692778 0.000000 -0.472818 -0.000012
0.651658 0.535410 0.735056 0.000000 -0.916028 -0.000011
3.173292 0.590869 0.802297 1.000000 -0.000000 0.000000
2.232462 0.663852 0.841138 0.000000 0.563594 0.000019
1.459386 0.463225 0.959991 -0.068460 -0.005494 -0.004107
2.006633 0.574887 0.846573 0.000000 -0.449362 0.000013
0.832322 0.661659 0.842593 -0.000000 0.541511 0.000020
2.931584 0.481776 0.612287 0.021528 0.021103 -0.011000
3.064944 0.436289 0.549166 -0.045991 0.009768 -0.007431
1.735638 0.542357 0.817157 0.000001 -0.840277 0.000017
1.664742 0.492835 0.599447 -0.048327 0.005512 -0.004551
1.419477 0.604882 0.683598 0.000000 -0.119433 -0.000108
1.374311 0.640000 0.686750 -0.000000 0.301404 -0.000041
1.509809 0.536911 0.807573 0.000000 -0.905071 0.000003
0.877487 0.687099 0.817520 0.000000 0.840722 0.000002
0.380663 0.672769 0.705230 0.000000 0.668485 -0.000014
1.687174 0.825006 1.012002 -0.068462 0.001831 -0.001373
1.193648 0.699846 0.752841 0.000000 0.980006 -0.000003
0.245166 0.686978 0.721651 0.000000 0.825895 -0.000004
1.787835 0.767197 0.569400 0.068489 -0.011038 -0.008682
0.290332 0.689721 0.813294 -0.000000 0.867944 0.000007
2.812772 0.745057 0.601171 0.021528 0.018411 0.012152
0.832322 0.662988 0.697624 0.000000 0.563824 -0.000019
2.548623 0.531239 0.746875 0.000001 -0.967801 -0.000007
1.554975 0.535843 0.734065 0.000001 -0.905515 -0.000003
1.535439 0.471868 0.599584 -0.068459 -0.005784 0.004322
3.047167 0.833362 1.047577 -0.045991 0.012782 -0.010050
1.148482 0.699231 0.789364 0.000002 0.566488 0.000001
2.277628 0.681278 0.714037 -0.000000 0.759657 -0.000006
0.606492 0.696289 0.799276 0.000000 0.934472 0.000002
0.200000 0.536911 0.731779 0.011947 -0.001404 -0.000655
1.518869 0.544167 0.672262 -0.048328 0.007480 -0.006143
1.961467 0.571571 0.694603 0.000000 -0.496139 -0.000006
2.413125 0.694208 0.804461 -0.000001 0.915128 0.000011
1.012985 0.532830 0.741709 -0.000001 -0.941940 -0.000002
2.864784 0.695160 0.737149 -0.000000 0.926406 -0.000021
1.916301 0.534326 0.737650 -0.000001 -0.921873 -0.000005
2.503457 0.664447 0.840732 -0.000000 0.563594 0.000019
2.187296 0.657963 0.694513 -0.000001 0.496004 -0.000046
1.961467 0.655597 0.693205 0.000000 0.472902 -0.000049
2.503457 0.533065 0.798324 0.000000 -0.945153 0.000002
2.548623 0.573744 0.845959 0.000000 -0.472827 0.000024
1.640775 0.198251 1.292590 -0.068460 -0.009060 -0.006736
1.193648 0.669201 0.837159 -0.000000 0.627525 0.000004
1.058151 0.697336 0.796206 0.000000 0.953526 0.000002
1.374311 0.553165 0.708812 0.000000 -0.706900 -0.000007
0.561327 0.652220 0.691497 0.000000 0.425239 -0.000007
1.638772 0.967346 1.207351 -0.068461 0.005687 -0.004250
2.458291 0.538834 0.728066 -0.000000 -0.876949 -0.000002
0.561327 0.548506 0.825425 0.000000 -0.761062 0.000003
3.045447 0.535916 0.733900 -0.000001 -0.916033 -0.000046
2.638954 0.695418 0.737784 0.000000 0.926178 -0.000001
1.012985 0.539361 0.812230 0.000000 -0.868243 0.000004
0.144049 0.542005 0.807525 -0.174090 -0.000179 0.000087
2.413125 0.585958 0.851373 0.000001 -0.310517 0.000010
1.829386 0.166662 0.202647 0.068489 0.010898 -0.008575
1.829386 1.063028 1.336704 0.068490 -0.010898 0.008575
0.967819 0.691163 0.728638 -0.000000 0.881147 -0.000028
2.955115 0.593825 0.853742 -0.000000 -0.249844 0.000025
1.374311 0.689357 0.813916 0.000000 0.854653 0.000008
2.841830 0.618592 0.683116 0.000000 0.026459 -0.000032
2.142130 0.568728 0.843042 0.000000 -0.541431 0.000020
2.187296 0.541771 0.816248 -0.000000 -0.817060 0.000001
3.045447 0.655851 0.846011 -0.000001 0.472776 0.000097
2.507961 0.532429 0.873125 0.021533 -0.009206 -0.007350
0.877487 0.689650 0.725932 0.000001 0.864952 -0.000007
2.142130 0.580258 0.690226 0.000001 -0.400561 -0.000030
1.780804 0.689207 0.725189 0.000000 0.854745 -0.000008
1.509809 0.663137 0.841626 -0.000003 0.522634 0.000010
2.187296 0.632457 0.854520 -0.000000 0.198418 0.000064
1.680843 0.517087 0.676516 0.096925 -0.004690 0.003732
0.651658 0.688036 0.816066 -0.000001 0.822456 0.000004
2.822176 0.696212 0.679142 0.021527 -0.009851 -0.006537
0.470995 0.657337 0.694156 -0.000001 0.496008 -0.000046
2.693296 0.514380 0.899999 0.021529 -0.013810 -0.010094
2.909949 0.539110 0.811792 -0.000000 -0.867251 0.000004
0.335497 0.646737 0.850249 0.000001 0.373348 0.000016
2.638954 0.541732 0.723164 -0.000001 -0.839410 -0.000008
1.058151 0.572291 0.845160 0.000002 -0.492180 0.000023
1.464643 0.537818 0.729975 0.000001 -0.879174 -0.000002
1.554854 0.905925 1.135043 -0.048328 -0.008793 0.007189
1.596430 0.332491 1.118651 -0.068458 -0.006458 -0.004822
0.380663 0.537948 0.809634 0.000000 -0.893412 0.000013
1.808611 0.923071 0.392365 0.096927 0.003110 0.002477
1.552554 0.460343 0.953178 -0.068462 -0.004048 -0.003031
1.488027 0.421387 1.012507 -0.068461 -0.007615 -0.005675
1.825970 0.532618 0.742322 0.000000 -0.945153 -0.000002
0.877487 0.598152 0.684646 -0.000001 -0.198125 -0.000129
1.374311 0.573871 0.846028 0.000000 -0.472818 0.000003
0.922653 0.648540 0.689835 0.000000 0.400992 -0.000015
2.819618 0.534009 0.800896 0.000000 -0.935006 0.000002
2.458291 0.690508 0.727435 0.000000 0.868205 -0.000007
1.613397 0.704912 0.897579 -0.048327 -0.015746 0.012443
1.869897 0.727563 0.911161 0.068490 -0.002899 0.002308
2.768067 0.741305 0.923981 0.021528 -0.017236 0.009820
3.075382 0.804825 1.010551 -0.045992 0.009587 -0.007659
1.916301 0.695884 0.738995 -0.000001 0.934747 -0.000005
3.108110 0.805730 0.530074 -0.045993 -0.013022 -0.009745
3.108110 0.423960 0.530074 -0.045992 -0.012781 0.010050
1.148482 0.541869 0.722952 0.000001 -0.832598 -0.000004
1.103316 0.571978 0.694370 -0.000000 -0.493302 -0.000006
0.832322 0.562591 0.700551 0.000000 -0.607014 -0.000017
1.103316 0.536911 0.807573 0.000000 -0.905071 0.000003
1.579043 0.480555 0.591157 -0.048327 0.002756 -0.002287
1.238814 0.537982 0.809697 0.000000 -0.881160 0.000002
2.277628 0.573299 0.693631 0.000000 -0.471000 -0.000006
2.955115 0.538987 0.727780 -0.000000 -0.876949 -0.000002
2.367959 0.656836 0.845482 -0.000000 0.496128 0.000046
1.558342 0.509139 0.627122 -0.048330 0.007874 -0.006458
1.193648 0.572729 0.845411 -0.000001 -0.494542 0.000011
0.651658 0.573489 0.845823 0.000000 -0.472870 0.000024
0.493208 0.701491 0.770685 0.000000 0.999913 0.000000
2.883343 0.439531 0.552632 0.021525 0.008797 -0.005942
3.026290 0.426224 0.526891 -0.045992 -0.009587 0.007659
2.803787 0.791085 0.990894 0.021528 0.018411 -0.012152
3.022644 0.686757 0.669645 -0.045993 0.010335 0.008229
1.600140 0.696742 0.741368 0.000000 0.944809 -0.000001
0.200000 0.700004 0.785733 0.011953 0.001528 0.000265
0.696824 0.573934 0.693290 0.000000 -0.472599 -0.000024
1.805494 0.094545 1.429859 0.068488 0.008663 0.006847
1.728378 1.000792 0.297650 -0.068462 0.004916 0.003677
2.762414 0.696500 0.880607 0.021527 0.016112 -0.011202
2.548623 0.688459 0.815395 0.000000 0.854302 0.000004
2.503457 0.562992 0.700245 0.000001 -0.605286 -0.000017
1.869897 0.502127 0.911161 0.068488 0.005799 0.004604
1.517632 0.419090 0.527168 -0.068460 -0.001904 0.001427
2.829853 0.488930 0.618374 0.021531 0.005540 -0.003915
2.626647 0.527372 0.656504 0.021529 -0.036788 0.016151
2.626647 0.527372 0.882848 0.021529 -0.036788 -0.016151
1.624303 0.850585 0.465646 -0.048327 -0.002362 -0.001961
2.638954 0.653837 0.847059 -0.000000 0.449234 0.000052
1.869897 1.035843 0.241233 0.068490 -0.006008 -0.004769
1.791990 0.432910 0.532725 0.068490 0.005240 -0.004162
2.909693 0.803748 0.534973 0.021526 -0.014073 -0.008596
2.867178 0.418500 1.016130 0.021530 -0.016438 -0.011347
1.329146 0.649696 0.849010 -0.000001 0.399276 0.000015
2.051799 0.540183 0.725682 0.000000 -0.868249 -0.000015
1.547237 0.807568 1.016105 -0.048326 -0.005184 0.004283
0.159914 0.689949 0.808702 -0.112434 0.000283 0.000157
0.200000 0.536911 0.807573 0.011947 -0.001404 0.000655
2.581127 0.698494 0.667209 0.021527 -0.029535 -0.012702
0.922653 0.562247 0.700814 0.000000 -0.606916 -0.000034
0.561327 0.564567 0.699100 0.000000 -0.584388 -0.000009
1.678122 0.865174 1.066602 -0.068461 0.003277 -0.002455
1.837816 0.701443 0.771982 -0.000000 0.999650 0.000000
3.131952 0.614845 0.853490 0.068550 0.000079 0.001405
0.470995 0.539897 0.813169 0.000001 -0.868039 0.000015
1.755634 0.258543 0.340300 0.096926 -0.002715 0.002162
2.593788 0.688590 0.724172 0.000000 0.854709 -0.000004
3.045447 0.688172 0.815854 -0.000003 0.822768 0.000009
1.755634 0.956308 1.210873 0.068490 -0.003843 0.003057
1.776409 1.030824 0.237234 0.068488 -0.006567 -0.005208
1.103316 0.652742 0.847610 -0.000000 0.449362 0.000026
0.245166 0.691969 0.809183 -0.000000 0.893409 0.000013
1.833021 0.396558 0.501442 0.096926 -0.003505 0.002791
1.706490 0.347439 0.453221 -0.068460 -0.001639 0.001229
3.066919 0.528209 0.771406 0.000000 -0.999911 0.000000
1.680199 0.371431 1.087171 -0.048328 0.008924 0.007293
3.113010 0.720327 0.899827 -0.045993 -0.016030 0.011774
3.145306 0.551981 0.847448 0.870708 -0.000014 0.000018
1.546891 0.745004 0.617988 -0.068460 0.011566 0.008553
2.006633 0.691333 0.810396 0.000000 0.881160 0.000003
1.916301 0.680343 0.826413 0.000000 0.761226 0.000011
0.327353 0.528297 0.765496 0.000000 -0.999650 -0.000000
2.761526 0.777681 0.565282 0.021530 0.032197 0.015553
2.969403 0.544850 0.871234 -0.045995 -0.010334 -0.008228
1.238814 0.644884 0.850955 -0.000000 0.350050 0.000004
2.752980 0.611674 0.683101 0.000000 -0.026459 -0.000016
1.869897 0.149807 1.353398 0.068489 0.009781 0.007714
1.833541 0.117677 0.151307 0.096926 -0.006911 0.005492
1.869897 0.120447 1.390251 0.068489 0.008663 0.006847
1.833541 1.112013 1.388045 0.096927 0.006911 -0.005492
0.516161 0.582152 0.689428 -0.000001 -0.376383 -0.000064
1.739014 0.913692 1.124337 -0.068461 0.006073 -0.004536
1.826789 0.760207 0.945398 0.096927 0.004098 -0.003262
1.667858 0.461929 0.937874 -0.068460 -0.004048 -0.003031
1.554975 0.583287 0.688967 0.000000 -0.376588 -0.000016
1.464643 0.645458 0.850740 -0.000001 0.339848 0.000009
1.735638 0.692520 0.731264 0.000000 0.893371 -0.000013
1.587118 0.400853 0.494632 -0.048327 0.002461 -0.002042
1.618924 0.784400 0.965659 -0.068459 0.004000 -0.002995
2.322793 0.697282 0.742974 0.000001 0.923944 -0.000001
1.558342 0.720551 0.912230 -0.048327 -0.007874 0.006458
2.322793 0.681558 0.824986 -0.000000 0.778159 0.000005
2.884943 0.540296 0.662905 0.021529 -0.017753 0.011896
1.164031 0.616430 0.856293 0.000000 0.026459 0.000032
2.819618 0.654610 0.692681 -0.000001 0.422691 -0.000003
0.853053 0.701498 0.770180 -0.000000 0.999913 0.000000
2.979549 0.528297 0.765496 -0.000000 -0.999639 -0.000000
3.093159 0.763688 0.954095 -0.045992 -0.006512 0.005014
1.148482 0.673332 0.705736 -0.000001 0.643097 -0.000004
0.787156 0.537397 0.730813 -0.000001 -0.891290 -0.000007
0.922653 0.644243 0.851196 -0.000000 0.352210 0.000009
2.142130 0.656296 0.845772 0.000001 0.471208 0.000012
2.893660 0.528289 0.773567 0.000000 -0.999650 0.000000
1.828866 0.462301 0.954738 0.096927 -0.004098 -0.003262
1.645549 0.491408 0.638236 -0.068459 -0.005784 0.004322
1.651707 0.321407 1.145213 -0.048327 0.008399 0.006877
2.846911 0.479915 0.944736 0.021531 -0.010357 -0.008105
1.573948 0.295873 1.170054 -0.068461 -0.012144 -0.008967
0.741990 0.534136 0.801234 -0.000000 -0.936113 0.000010
1.657247 1.002629 1.252287 -0.068461 0.004916 -0.003677
0.989291 0.616142 0.683051 0.000000 0.026459 -0.000032
3.031190 0.715868 0.904758 -0.045992 0.015734 -0.012150
0.967819 0.576884 0.847577 -0.000000 -0.449251 0.000026
1.735638 0.652742 0.691742 0.000000 0.449858 -0.000006
1.374311 0.651176 0.848345 0.000000 0.425253 0.000014
1.671283 0.774838 0.946920 -0.068460 0.002000 -0.001499
1.674956 0.270653 0.347220 -0.068460 -0.011373 0.008414
2.984536 0.743674 0.942229 -0.045992 0.007989 -0.006423
0.425829 0.691742 0.729718 0.000000 0.881160 -0.000003
2.909949 0.575016 0.692714 0.000000 -0.449858 -0.000006
1.871135 0.530597 0.789961 0.000000 -0.974496 0.000002
3.173292 0.678741 0.819408 0.067505 0.000436 0.000330
1.954803 0.701493 0.769243 0.000000 0.999650 -0.000000
0.787156 0.605491 0.683525 0.000000 -0.119455 -0.000054
1.020389 0.701493 0.769243 0.000000 0.999650 -0.000000
0.200000 0.644243 0.851196 0.011945 0.000546 0.001451
3.022644 0.686757 0.869707 -0.045992 0.010335 -0.008229
1.509809 0.578253 0.848223 -0.000001 -0.425143 0.000055
1.695360 0.314453 1.131390 -0.068461 -0.006073 -0.004536
1.835099 0.877014 1.093315 0.096928 0.003308 -0.002634
2.593788 0.538715 0.811063 0.000000 -0.881160 0.000003
1.491836 0.474916 0.598662 -0.068459 -0.001374 0.001030
1.678418 0.191987 0.242715 -0.068459 -0.004530 0.003390
1.734339 0.509405 0.916960 0.068489 0.006078 0.004824
0.606492 0.536344 0.806365 0.000000 -0.905015 0.000024
2.667090 0.618016 0.856251 -0.000000 0.026459 0.000016
3.173292 0.533876 0.769676 0.045209 -0.000816 0.000011
3.173292 0.550949 0.719943 0.067505 -0.000436 -0.000330
2.872778 0.786809 0.556838 0.021530 -0.017586 -0.009941
2.833555 0.531699 0.862231 0.021529 0.005541 0.003916
1.588614 0.922585 0.385953 -0.068461 0.006073 0.004536
1.780804 0.583827 0.850588 0.000000 -0.351780 0.000035
1.780804 0.530443 0.789294 0.000001 -0.970712 0.000003
1.702335 0.867888 0.471900 -0.068459 0.003277 0.002455
1.722393 0.392607 1.064883 0.068490 0.009920 0.007822
1.633356 0.819995 1.011476 -0.068458 0.001832 -0.001373
3.045447 0.637610 0.686061 0.000002 0.177631 -0.000009
1.464643 0.632457 0.684832 -0.000000 0.198411 -0.000032
3.000281 0.569310 0.695950 0.000000 -0.519188 -0.000021
2.819618 0.545851 0.717250 -0.000001 -0.793965 -0.000010
0.998176 0.616430 0.856293 0.000000 0.026459 0.000016
1.012985 0.652742 0.691742 0.000000 0.449362 -0.000013
2.322793 0.593615 0.685664 -0.000000 -0.250098 -0.000050
1.944437 0.613548 0.856301 0.000000 -0.026872 0.000242
2.200624 0.701477 0.768667 0.000000 0.999639 -0.000000
1.600140 0.649597 0.690298 0.000000 0.401686 -0.000004
1.871135 0.642233 0.687460 -0.000001 0.322005 -0.000019
0.290332 0.539611 0.812668 0.000000 -0.868249 0.000015
2.458291 0.643221 0.687802 0.000001 0.326363 -0.000038
1.419477 0.683313 0.716563 -0.000000 0.793364 -0.000005
2.006633 0.691742 0.729718 0.000000 0.881160 -0.000003
3.173292 0.654091 0.759737 1.000000 0.000000 -0.000000
1.828866 0.789409 0.556974 0.096927 0.003900 0.003105
1.869897 0.443407 0.554484 0.068488 0.005240 -0.004163
1.505191 0.715191 0.886378 -0.068460 0.005494 -0.004107
3.090613 0.546683 0.823190 0.069319 -0.000437 0.000334
0.516161 0.694367 0.804097 0.000000 0.916024 0.000011
1.600140 0.580060 0.690313 0.000001 -0.376598 -0.000008
2.006633 0.531962 0.744383 0.000001 -0.952019 -0.000004
3.000281 0.643221 0.851550 -0.000001 0.326539 0.000075
2.729286 0.647739 0.849842 0.000001 0.373829 0.000016
2.774452 0.536145 0.805941 0.000001 -0.849622 0.000002
1.680843 0.517087 0.862836 0.096925 -0.004690 -0.003732
0.425829 0.531338 0.792823 0.000000 -0.961043 0.000004
1.761322 0.090614 1.431245 -0.048327 0.008399 0.006877
1.704289 0.305324 0.370804 -0.048328 0.015746 -0.012442
1.747324 0.926502 1.174376 0.068490 -0.004122 0.003278
1.747324 0.303188 0.364976 0.068490 0.004122 -0.003278
3.173292 0.625966 0.689474 0.065292 0.000085 -0.000559
1.524792 0.821059 0.514039 -0.068460 0.003808 0.002851
0.937462 0.701454 0.767802 0.000000 0.999639 -0.000000
3.096828 0.494631 0.917557 -0.045992 0.008140 0.006233
3.047372 0.527811 0.886437 -0.045992 -0.015734 -0.012150
1.662020 0.220088 1.261040 -0.068460 -0.009831 -0.007298
2.638954 0.575467 0.846865 -0.000001 -0.449083 0.000052
1.869897 0.786283 0.984867 0.068488 -0.005240 0.004162
1.869897 0.443407 0.984867 0.068490 0.010479 0.008253
1.095912 0.528220 0.768379 -0.000000 -0.999639 -0.000000
3.140220 0.659134 0.699190 0.068548 0.001303 -0.001836
0.054937 0.645624 0.734501 -0.521730 0.000022 -0.000024
2.413125 0.546311 0.822703 -0.000000 -0.788763 0.000003
2.458291 0.539182 0.811917 0.000000 -0.868205 0.000007
1.514251 0.701405 0.765928 0.000000 0.999639 -0.000000
0.290332 0.535991 0.733737 -0.000001 -0.891915 -0.000002
0.159914 0.682785 0.719200 -0.112436 0.000262 -0.000184
1.829386 1.068289 0.206839 0.096927 0.004246 0.003379
1.753037 0.405146 1.014629 0.096927 -0.003703 -0.002948
1.592696 0.553362 0.861614 -0.048328 0.010498 0.008526
1.674956 0.951079 1.198473 -0.048329 -0.007349 0.006038
1.690472 0.654255 0.846848 0.000000 0.449197 0.000052
1.753037 0.824544 0.524723 0.096926 0.003703 0.002948
2.367959 0.530806 0.790801 -0.000001 -0.916244 0.000001
2.638954 0.701074 0.778241 -0.000000 0.995656 0.000002
1.283980 0.533832 0.738928 0.000000 -0.936041 -0.000010
2.413125 0.649630 0.690313 0.000000 0.401041 -0.000060
1.634692 0.695985 0.845954 -0.068462 0.003856 -0.002887
0.136184 0.572177 0.837869 -0.204686 -0.000091 0.000137
0.580578 0.701490 0.768594 0.000000 0.999912 -0.000000
1.809649 1.150048 1.448108 0.068489 -0.008663 0.006847
1.809649 0.079642 0.091244 0.068489 0.008663 -0.006847
1.809649 1.150048 0.091244 0.068489 -0.008663 -0.006847
3.173292 0.614845 0.769676 1.000000 0.000000 0.000000
3.063554 0.535219 0.676480 -0.045993 0.016030 -0.011774
3.103484 0.689327 0.866969 -0.045992 0.010093 -0.008045
3.005413 0.781793 0.568557 -0.045993 -0.013022 -0.009745
2.232462 0.579664 0.848865 -0.000001 -0.394256 0.000008
1.771734 0.318490 1.126323 0.096926 -0.003110 -0.002477
1.509809 0.579036 0.690761 0.000000 -0.425339 -0.000028
0.075875 0.665392 0.799460 -0.439812 0.000045 0.000025
2.322793 0.638789 0.686398 -0.000000 0.275907 -0.000091
2.774452 0.539343 0.727153 -0.000001 -0.865411 -0.000007
2.994975 0.471068 0.959787 -0.045993 -0.012781 -0.010050
2.909949 0.645188 0.688510 0.000000 0.351641 -0.000035
1.645306 0.535005 0.803371 -0.000001 -0.926247 0.000021
1.645306 0.535005 0.735981 0.000000 -0.926584 -0.000001
2.824917 0.797786 0.540046 0.021527 0.005180 0.004373
2.458291 0.585042 0.688307 -0.000001 -0.345323 -0.000009
0.028924 0.609676 0.797088 -0.623738 -0.000003 0.000015
1.638772 0.967346 0.332001 -0.068460 0.005687 0.004250
1.593041 0.267981 0.334287 -0.068460 -0.011373 0.008414
2.963660 0.515912 0.907114 -0.045992 -0.010335 -0.008229
1.726301 0.993610 1.232363 -0.068458 0.005013 -0.003749
1.837696 0.103314 1.406723 0.096927 -0.006911 -0.005492
2.277628 0.697315 0.796275 0.000001 0.936650 0.000002
1.765502 0.347375 1.089092 0.096928 -0.003308 -0.002634
1.395043 0.614989 0.856331 -0.000000 0.026861 0.000008
1.148482 0.580291 0.849140 0.000000 -0.400992 0.000015
1.754855 0.508044 0.653598 0.096926 -0.008590 0.006817
0.696824 0.542552 0.817460 -0.000001 -0.838514 0.000008
1.645306 0.646403 0.688967 0.000000 0.376798 -0.000008
1.780804 0.694020 0.804890 -0.000001 0.915658 0.000011
1.726301 0.246669 1.240799 -0.048325 0.006825 0.005616
1.726301 0.246669 0.298553 -0.048328 0.013647 -0.010915
1.648690 0.532954 0.693997 -0.068461 -0.003856 0.002887
1.597321 0.531699 0.651319 -0.048327 0.007874 -0.006458
1.684998 0.702955 0.900644 0.068490 -0.003319 0.002641
2.677004 0.478816 0.598930 0.021529 -0.023009 0.013655
3.123684 0.562233 0.703702 0.068550 -0.001303 -0.001836
1.674956 0.270653 1.192132 -0.068460 -0.005687 -0.004250
1.722838 0.114658 1.394676 -0.068460 -0.003374 -0.002527
1.732384 1.128978 1.412181 -0.068463 0.006747 -0.005035
1.732384 0.100712 0.127171 -0.068461 -0.006747 0.005035
1.732384 1.128978 0.127171 -0.068459 0.003374 0.002527
1.504870 0.534666 0.859521 -0.068459 -0.005494 -0.004107
1.329146 0.571352 0.694728 0.000000 -0.496139 -0.000011
1.759269 0.390627 0.476046 0.068490 0.009920 -0.007822
2.693296 0.719422 0.896724 0.021531 -0.014773 0.008890
0.922653 0.594278 0.853859 0.000000 -0.224618 0.000007
1.835099 0.357195 1.096915 0.068487 0.004681 0.003721
2.006633 0.586810 0.687684 -0.000000 -0.326629 -0.000075
0.061791 0.592572 0.815481 -0.494892 -0.000019 0.000037
1.449839 0.752519 0.942486 -0.048327 -0.007481 0.006143
2.884943 0.689394 0.662905 0.021521 0.008882 0.007129
1.793029 0.129272 1.367160 0.096926 -0.007701 -0.006116
1.705773 0.430906 0.564444 0.096926 -0.003900 0.003105
2.129543 0.617007 0.683074 0.000000 0.026872 -0.000242
1.763424 0.853966 1.081554 0.068488 -0.004961 0.003942
1.804456 0.900209 1.135079 0.068490 -0.008803 0.006956
3.060431 0.765132 0.585854 -0.045993 -0.006512 -0.005014
0.741990 0.692901 0.807312 -0.000001 0.903065 0.000006
3.045447 0.559956 0.702623 0.000001 -0.627426 -0.000032
1.651337 0.428526 0.555044 -0.068460 -0.001904 0.001427
1.482289 0.488862 0.923185 -0.068461 -0.005494 -0.004107
1.744727 0.781137 0.580506 0.096926 0.004098 0.003262
1.813804 0.064738 1.466356 0.068489 0.007545 0.005975
2.997163 0.486677 0.920311 -0.045993 0.004070 0.003153
1.329146 0.541381 0.815642 0.000000 -0.840567 0.000008
2.751800 0.480727 0.935069 0.021528 0.017236 0.009820
1.651707 0.916782 1.138443 -0.068458 0.003036 -0.002275
3.173292 0.639016 0.846953 0.068164 0.000169 0.000514
1.702359 1.008777 0.269371 -0.048328 -0.012597 -0.010131
0.656841 0.528282 0.773279 0.000000 -0.999650 0.000000
0.741990 0.692520 0.731264 -0.000000 0.891290 -0.000003
1.714083 0.827511 0.527086 -0.068458 0.001807 0.001355
1.464643 0.588727 0.852298 -0.000000 -0.300703 0.000021
1.689128 0.880135 0.425179 -0.048330 -0.004199 -0.003477
3.090613 0.701474 0.767369 0.081574 0.000467 -0.000019
1.961467 0.648173 0.849665 0.000000 0.376409 0.000032
1.714083 0.422413 0.510966 0.068490 0.005240 -0.004162
3.075382 0.422516 1.008679 -0.045993 0.009767 0.007431
1.717979 0.741426 0.594052 0.068490 -0.006078 -0.004824
1.736243 0.058791 1.467642 -0.068461 -0.010410 -0.007718
2.939793 0.714936 0.631687 0.021525 0.004934 0.004176
2.051799 0.652999 0.847480 0.000001 0.448897 0.000026
0.200000 0.698451 0.746875 0.011948 0.001502 -0.000385
1.796145 0.835941 0.503680 0.096927 0.003505 0.002791
1.869897 0.830323 0.499205 0.068489 -0.009921 -0.007822
1.691205 0.342104 0.416054 -0.048327 0.008399 -0.006877
0.877487 0.534774 0.736548 -0.000001 -0.887499 -0.000001
1.717372 0.972274 0.334420 -0.068461 0.005301 0.003964
1.650396 0.241216 0.305156 -0.068460 -0.010602 0.007858
1.871135 0.549207 0.713104 0.000001 -0.758634 -0.000011
1.729763 0.157414 1.336867 -0.068461 -0.004145 -0.003103
1.746235 0.195465 0.235426 -0.048329 0.005774 -0.004765
1.746235 1.034225 1.303926 -0.048330 -0.005774 0.004764
2.413125 0.579333 0.690631 -0.000001 -0.400029 -0.000030
0.696824 0.653966 0.692357 0.000001 0.441976 -0.000013
2.138428 0.528289 0.765784 0.000000 -0.999650 -0.000000
2.651825 0.501449 0.910324 0.021531 0.012311 0.007799
2.546173 0.693088 0.869574 0.021526 0.009208 -0.007352
2.918394 0.545398 0.871670 0.021531 -0.019723 -0.012632
1.684998 0.526735 0.638708 0.068490 0.003319 -0.002641
2.926364 0.498647 0.925772 0.021531 -0.009864 -0.007787
2.684120 0.582719 0.850154 0.000000 -0.376516 0.000032
2.738025 0.525378 0.874384 0.021527 0.017237 0.009820
1.419477 0.648937 0.849343 -0.000001 0.375918 0.000008
0.741990 0.532310 0.743283 0.000001 -0.951606 -0.000004
0.967819 0.692471 0.808184 -0.000001 0.862213 0.000002
3.012205 0.557881 0.852149 0.000000 -0.623109 0.000187
2.738815 0.726535 0.634543 0.021529 -0.034447 -0.013333
1.795886 0.540529 0.687961 0.096926 -0.008590 0.006817
2.864784 0.559288 0.836179 -0.000001 -0.641604 0.000008
1.678418 1.037703 1.296637 -0.068460 0.004530 -0.003390
1.678418 1.037703 0.242715 -0.068461 0.009060 0.006736
2.918394 0.530949 0.679192 0.021531 0.021100 -0.011000
1.795886 0.689161 0.687961 0.096926 0.008590 0.006817
1.464643 0.535294 0.804031 -0.000001 -0.910345 0.000003
1.058151 0.546202 0.716792 -0.000002 -0.746455 -0.000005
1.689153 0.741330 0.900193 -0.068459 0.008097 -0.006030
1.689153 0.488360 0.900193 0.096925 -0.002345 -0.001868
0.167898 0.664013 0.839675 -0.081426 0.000267 0.000360
0.696824 0.654610 0.846670 -0.000000 0.448866 0.000006
2.142130 0.695269 0.737417 0.000000 0.926332 -0.000003
2.957807 0.764290 0.574257 0.021529 0.032854 0.015649
2.864784 0.582319 0.689360 -0.000000 -0.376525 -0.000128
2.967738 0.827389 0.504696 0.021529 -0.021102 -0.011000
2.479023 0.701462 0.771261 0.000000 0.999639 0.000000
0.200000 0.587627 0.851950 0.011945 -0.000507 0.001465
1.674400 0.785611 0.578422 -0.068459 0.001928 0.001445
1.554975 0.689469 0.725620 0.000000 0.854709 -0.000002
1.554975 0.600492 0.855132 0.000000 -0.172170 0.000075
0.268119 0.610521 0.856220 0.000000 -0.026459 0.000016
0.425829 0.582486 0.850059 -0.000000 -0.376513 0.000128
1.837176 0.323474 1.130294 0.096926 -0.003110 -0.002477
1.739384 0.209890 1.286049 -0.048327 0.006300 0.005191
3.031190 0.513822 0.634593 -0.045992 -0.015734 0.012150
2.413125 0.531094 0.747434 -0.000001 -0.967035 -0.000007
3.102047 0.490094 0.610676 -0.045992 -0.007989 0.006423
2.413125 0.624056 0.855844 -0.000000 0.119047 0.000027
2.602258 0.702729 0.882520 0.021529 0.036788 -0.016151
2.719265 0.764278 0.957246 0.021529 0.027605 -0.014749
2.718475 0.487635 0.612531 0.021528 0.029535 -0.012702
1.812766 0.270314 1.208429 0.068488 0.003843 0.003057
1.825970 0.694848 0.736381 -0.000000 0.926361 -0.000011
2.822176 0.533478 0.679142 0.021529 0.019696 -0.010607
2.322793 0.535120 0.735716 -0.000001 -0.912086 -0.000006
1.660265 0.807055 0.515307 -0.048327 -0.004987 -0.004122
2.955115 0.597269 0.684824 0.000000 -0.198420 -0.000129
2.402019 0.701501 0.769459 0.000000 0.999912 -0.000000
0.651658 0.695011 0.736782 -0.000001 0.926003 -0.000011
1.750700 0.677123 0.860980 0.068489 -0.012155 0.009536
1.693283 0.908055 1.122051 -0.068459 0.006169 -0.004608
1.837696 1.141056 1.425150 0.096924 0.006122 -0.004867
1.837696 0.088634 0.114202 0.096925 -0.006122 0.004867
1.837696 1.141056 0.114202 0.096923 0.006122 0.004868
1.419477 0.581150 0.849516 0.000000 -0.376588 0.000016
2.187296 0.694848 0.802970 -0.000000 0.926369 0.000005
1.629770 0.526899 0.855593 -0.068463 -0.001928 -0.001445
1.701358 0.555216 0.676260 0.068490 0.003319 -0.002641
1.661596 0.613404 0.683055 0.000000 -0.026872 -0.000242
1.808221 0.541469 0.852139 0.096925 -0.002345 -0.001868
3.045447 0.695106 0.737016 0.000001 0.926313 -0.000021
2.955115 0.533565 0.799715 -0.000000 -0.936085 0.000020
2.684120 0.551319 0.710737 0.000000 -0.725866 -0.000003
2.593788 0.695106 0.802336 0.000000 0.926318 0.000011
2.232462 0.530869 0.791045 0.000001 -0.960820 0.000002
1.961467 0.539736 0.812887 -0.000000 -0.868223 0.000015
0.075875 0.556259 0.766553 -0.446783 -0.000025 -0.000001
1.763424 0.867793 0.468813 0.096925 0.003505 0.002791
1.565056 0.348059 1.106580 -0.048327 0.004659 0.003854
1.519434 0.528189 0.769532 0.000000 -0.999650 -0.000000
1.600140 0.532971 0.798052 0.000002 -0.657446 0.000001
3.045447 0.534598 0.802369 -0.000001 -0.926247 0.000021
2.232462 0.543931 0.719865 0.000000 -0.825829 -0.000009
1.812766 0.944696 0.349349 0.068488 -0.007685 -0.006085
1.600140 0.533148 0.740789 0.000001 -0.944625 -0.000009
1.636176 0.488742 0.942668 -0.048328 0.005512 0.004551
1.791910 0.612395 0.683082 0.000000 -0.026459 -0.000246
2.277628 0.652024 0.691405 -0.000001 0.420134 -0.000014
1.509809 0.653772 0.692260 0.000000 0.447875 -0.000003
2.750219 0.525172 0.665132 0.021527 0.017237 -0.009820
1.835099 0.869674 0.455250 0.096927 0.006615 0.005258
1.464643 0.692901 0.732040 0.000001 0.901292 -0.000003
1.477515 0.499679 0.621857 -0.048327 0.007481 -0.006143
1.316558 0.615854 0.856308 -0.000000 0.026459 0.000032
1.662343 0.400008 1.021078 -0.068461 -0.003615 -0.002707
1.869897 1.153283 1.445530 0.068487 -0.007546 0.005975
1.869897 0.076407 0.093821 0.068488 0.007545 -0.005975
1.841851 0.074270 1.443828 0.096926 -0.006122 -0.004867
1.869897 1.153283 0.093821 0.068488 -0.007546 -0.005975
2.952587 0.472874 0.583036 0.021530 -0.016438 0.011347
1.683810 0.937242 0.377297 -0.068459 0.005784 0.004322
2.367959 0.579036 0.848591 0.000000 -0.400992 0.000007
2.548623 0.694848 0.736381 0.000000 0.924369 -0.000003
0.425829 0.642676 0.851738 -0.000001 0.325321 0.000038
0.245166 0.580093 0.849053 0.000001 -0.400952 0.000119
0.651658 0.641719 0.687293 0.000000 0.300703 -0.000021
0.516161 0.534367 0.801801 -0.000000 -0.925877 0.000005
1.591656 0.890226 0.429453 -0.068459 0.001615 0.001210
2.593788 0.572666 0.693977 0.000000 -0.496139 -0.000003
1.647552 0.327272 0.419587 -0.068460 -0.006458 0.004822
1.869897 1.094563 0.167527 0.068491 -0.009781 -0.007714
1.608054 0.914077 1.148881 -0.048325 -0.008399 0.006877
1.612827 0.308640 0.381718 -0.048328 0.008268 -0.006772
2.393134 0.613260 0.683059 0.000000 -0.026872 -0.000016
0.159914 0.603611 0.685787 -0.112439 -0.000051 -0.000319
0.335497 0.698133 0.745767 0.000000 0.961172 -0.000004
1.701618 0.762568 0.973639 0.068489 -0.011597 0.009110
1.701618 0.467122 0.973639 0.068489 0.011597 0.009110
1.624452 0.287242 1.184263 -0.048328 0.007874 0.006458
2.867178 0.811190 1.016130 0.021531 0.016438 -0.011347
1.726548 0.377704 0.456220 0.068490 0.009920 -0.007822
1.941476 0.615710 0.683039 0.000000 0.026459 -0.000032
0.741990 0.634568 0.685298 -0.000001 0.223321 -0.000028
2.680311 0.696994 0.866463 0.021531 -0.012311 0.007799
2.122139 0.701466 0.768234 0.000000 0.999650 -0.000000
1.012985 0.528563 0.777667 0.000001 -0.979416 0.000000
0.516161 0.645863 0.688764 0.000000 0.351486 -0.000009
0.606492 0.536267 0.733149 -0.000000 -0.904478 -0.000006
2.458291 0.650654 0.848591 -0.000000 0.425916 0.000007
2.999814 0.428802 1.008622 0.021527 -0.019727 -0.012632
1.554975 0.540520 0.814224 -0.000000 -0.854737 0.000008
1.697463 0.770057 0.601801 -0.068460 0.002000 0.001499
0.097836 0.634647 0.835346 -0.354071 0.000025 0.000077
1.709928 0.792374 1.010137 0.068489 -0.011038 0.008682
1.916301 0.552311 0.829661 -0.000000 -0.725549 0.000012
1.828866 0.467630 0.580369 0.068489 0.005519 -0.004383
0.516161 0.695960 0.739198 0.000000 0.936108 -0.000002
1.645306 0.694685 0.803371 -0.000000 0.926395 0.000021
1.621681 1.003547 0.281772 -0.048326 -0.006824 -0.005615
