0.808230 0.740854 0.740229 -0.000000 0.736975 0.000014
0.605486 0.747015 0.732800 0.000001 0.805942 0.000005
2.480861 0.747658 0.638516 0.000001 0.650526 -0.000002
1.695234 0.894319 0.486194 -0.054758 0.013862 0.012464
2.227432 0.627531 0.626078 -0.000001 -0.671267 -0.000008
3.342519 0.756408 0.654281 0.000001 0.923664 -0.000012
2.987719 0.605133 0.708680 -0.000001 -0.935455 0.000001
0.757544 0.762140 0.676707 -0.000000 0.994804 -0.000002
0.706858 0.756520 0.715875 -0.000000 0.923832 0.000012
3.038405 0.603239 0.669225 -0.000001 -0.787970 -0.000000
1.703873 0.612639 0.640783 -0.054760 -0.002374 0.002200
1.780993 0.970735 0.410717 -0.054759 0.006077 0.005602
0.808230 0.747272 0.637982 0.000000 0.810532 -0.000011
1.939991 0.122591 1.238981 -0.054757 -0.006077 -0.005602
3.429414 0.770856 0.588395 -0.062176 0.010882 0.011052
1.416459 0.750616 0.727466 -0.000000 0.858713 0.000004
1.513574 0.830905 0.837459 -0.031714 -0.013210 0.012604
2.029336 0.297521 0.295209 0.054789 0.006119 -0.006041
2.176746 0.641873 0.754914 0.000000 -0.512533 0.000050
2.328804 0.663554 0.606899 0.000000 -0.244835 -0.000059
0.909601 0.728753 0.619627 0.000000 0.585334 -0.000021
2.176746 0.721846 0.615227 0.000000 0.487337 -0.000013
3.147130 0.565072 0.798494 0.036454 0.018829 0.014924
3.360200 0.940845 0.424750 0.036453 0.016920 0.016981
1.163030 0.691748 0.765115 0.000000 0.130549 0.000113
1.951795 1.329085 1.332315 -0.054758 0.015949 -0.014204
1.615757 0.548511 0.805893 -0.054764 -0.003026 -0.002803
1.569290 0.956533 0.408957 -0.031715 -0.005595 -0.005695
1.748567 0.205549 1.164971 -0.054758 -0.017088 -0.015131
1.762357 0.189999 0.189802 -0.054758 -0.003893 0.003602
1.472757 0.516546 0.518535 -0.054757 -0.012106 0.010964
1.817520 1.236429 1.243241 -0.031711 -0.011191 0.010908
1.417594 0.578745 0.581151 -0.054759 -0.008071 0.007406
1.541709 0.438796 0.930161 -0.054758 -0.013862 -0.012464
1.527919 0.454346 0.455919 -0.054756 -0.010089 0.009202
1.707195 0.252199 0.252418 -0.054759 -0.002326 0.002156
1.679614 1.080931 1.086701 -0.031717 -0.004352 0.004456
2.065749 0.149753 0.149286 0.054790 0.014484 -0.013912
2.065749 0.976656 0.388699 0.054790 -0.014235 -0.013687
2.065749 0.812011 0.554447 0.054790 -0.009116 -0.008933
2.065749 0.168047 1.202725 0.054791 0.008242 0.008096
2.065749 0.369280 1.000144 0.054789 0.013236 0.012782
2.065749 1.104713 1.110642 0.054789 -0.005120 0.005064
0.706858 0.723739 0.616337 0.000000 0.512508 -0.000025
1.619202 0.757381 0.656729 -0.000000 0.933265 -0.000001
0.808230 0.617471 0.637270 -0.000000 -0.810230 -0.000011
1.721943 0.363559 0.373678 -0.054762 -0.002896 0.002682
1.884800 0.868995 0.887434 0.054790 -0.002279 0.002262
2.007043 0.802242 0.798242 0.094454 0.006828 -0.006765
1.315088 0.618581 0.734610 -0.000000 -0.791936 0.000006
0.157872 0.761204 0.685213 -0.106503 0.000181 0.000005
0.157872 0.603026 0.685213 -0.106517 -0.000181 0.000005
3.480528 0.653039 0.608548 -0.041099 -0.001811 -0.004021
1.010973 0.732034 0.748346 -0.000000 0.631328 0.000005
1.937933 0.246198 1.134002 0.054791 0.011239 0.010937
1.665788 0.969287 0.978070 -0.031713 -0.010102 0.009949
3.089090 0.760801 0.702096 0.000000 0.976210 0.000003
3.272213 0.686063 0.765582 0.000000 0.029327 0.000033
3.123994 0.788084 0.583081 0.036454 -0.028233 -0.019919
0.706858 0.636375 0.618997 -0.000000 -0.561699 -0.000011
2.075374 0.618158 0.636368 -0.000001 -0.791615 -0.000011
3.444734 0.425892 0.943153 -0.062176 -0.009731 -0.009913
3.444734 0.938338 0.427274 -0.062176 -0.010098 -0.009540
1.163030 0.607373 0.715064 0.000001 -0.914046 0.000003
2.227432 0.760071 0.665234 -0.000000 0.968849 -0.000002
1.829162 0.542296 0.527715 -0.031714 0.007771 -0.007801
1.974589 0.044413 0.049943 -0.054757 -0.009115 0.008340
2.699954 0.680214 0.604785 0.000000 -0.028920 -0.000008
1.010973 0.752957 0.647016 0.000000 0.887143 -0.000004
2.582232 0.760125 0.704980 -0.000001 0.969520 0.000015
3.089090 0.665482 0.763955 0.000000 -0.216460 0.000067
1.467145 0.752065 0.645419 -0.000000 0.873223 -0.000017
1.568516 0.636647 0.618812 -0.000000 -0.561142 -0.000005
0.880171 0.601709 0.682508 -0.000000 -0.999570 -0.000000
0.909601 0.735011 0.745863 0.000001 0.652794 0.000017
3.313928 0.918698 0.923381 0.036453 0.012692 -0.013260
3.241148 0.730176 0.749771 -0.000000 0.608057 0.000010
2.379489 0.744762 0.735728 -0.000000 0.775225 0.000012
2.937033 0.756856 0.655363 0.000000 0.923942 -0.000003
1.969144 0.435952 0.450408 0.094455 -0.002354 0.002338
1.416459 0.607109 0.656045 0.000002 -0.723692 -0.000001
0.960287 0.761983 0.695101 -0.000000 0.991256 0.000000
2.011502 0.536037 0.533933 0.054790 0.004558 -0.004513
2.937033 0.731163 0.749014 -0.000000 0.608746 0.000039
3.038405 0.727552 0.751635 -0.000000 0.561699 0.000011
3.199500 0.553240 0.561537 0.036454 0.011771 -0.009991
3.383337 0.412310 0.956825 0.036455 -0.016919 -0.016980
3.038405 0.758514 0.659898 0.000000 0.953767 -0.000001
0.605486 0.634528 0.620313 -0.000000 -0.585303 -0.000021
1.010973 0.655140 0.609391 -0.000000 -0.328327 -0.000085
2.886347 0.707914 0.608983 -0.000000 0.328356 -0.000043
2.691779 0.762535 0.683020 0.000000 0.999569 -0.000000
2.022648 0.110264 1.255092 0.094453 -0.008403 -0.008315
2.022648 1.253966 1.255092 0.094453 0.008403 -0.008315
2.022648 1.253966 0.115335 0.094454 0.008403 0.008315
0.504115 0.728575 0.750928 0.000000 0.585371 0.000010
2.485766 0.681822 0.765689 0.000000 -0.028932 0.000017
2.022648 0.133137 0.129202 0.054790 0.014484 -0.013912
2.065749 0.442455 0.926478 0.054791 0.007618 0.007495
1.163030 0.729732 0.620334 0.000001 0.578923 -0.000010
1.809565 0.560514 0.824220 -0.031716 0.003886 0.003986
1.923317 0.604673 0.707100 0.000000 -0.956353 0.000001
1.932731 0.962331 0.392764 0.054791 -0.007618 -0.007495
1.660397 1.016599 0.351540 -0.054758 0.005792 0.005342
0.858915 0.615837 0.639564 0.000001 -0.824333 -0.000005
2.024689 0.644566 0.614033 0.000000 -0.461595 -0.000014
1.865783 0.996039 1.012783 -0.031713 -0.004663 0.004768
1.669888 0.617980 0.733826 0.000001 -0.789800 0.000006
2.613298 0.601673 0.683751 -0.000000 -0.999570 -0.000000
1.930130 0.829599 0.844244 0.054790 -0.004558 0.004513
1.830649 0.919019 0.470483 -0.054758 0.006457 0.005947
1.591762 0.803525 0.794681 -0.054755 0.005045 -0.004659
2.023391 0.997801 0.373115 0.094455 0.004129 0.004098
2.023391 0.384722 0.978895 0.094455 -0.004129 -0.004098
1.929759 0.943921 0.959362 0.054791 -0.007618 0.007495
1.935704 0.392636 0.383670 0.054791 0.007618 -0.007495
0.504115 0.633589 0.749415 -0.000000 -0.608656 0.000039
2.075374 0.655866 0.761288 0.000001 -0.327922 0.000043
1.027323 0.601634 0.685433 0.000000 -0.999893 0.000000
1.544811 0.889678 0.474723 -0.031712 -0.016511 -0.015139
3.199500 0.559302 0.814910 0.036454 -0.010577 -0.011238
2.035281 0.230024 0.234197 0.094454 -0.002970 0.002949
2.804596 0.684308 0.765633 0.000000 0.028932 0.000017
1.994781 0.923585 0.436600 0.054790 -0.008117 -0.007977
2.835661 0.726341 0.617970 0.000000 0.561731 -0.000011
0.733018 0.685186 0.765608 0.000000 0.029339 0.000033
3.443891 0.603800 0.703774 -0.041568 -0.001000 0.000252
1.827455 1.156011 0.214696 -0.054757 0.008356 0.007661
2.734290 0.729702 0.750114 0.000000 0.585327 0.000005
2.734290 0.636496 0.618915 0.000000 -0.561699 -0.000011
2.582232 0.676085 0.765463 -0.000001 -0.072439 0.000204
2.065749 1.196183 1.202725 0.054789 -0.008242 0.008097
1.216986 0.683723 0.604776 0.000000 0.028932 -0.000008
1.061659 0.695729 0.764533 0.000001 0.159135 0.000092
3.139776 0.749153 0.729743 -0.000000 0.827274 0.000005
2.480861 0.642735 0.615031 -0.000000 -0.487362 -0.000027
3.342519 0.653425 0.610025 -0.000001 -0.355530 -0.000078
1.925672 0.557672 0.821396 0.054790 0.011769 0.011431
2.734290 0.724116 0.616562 0.000000 0.512457 -0.000025
2.937033 0.714193 0.611401 0.000000 0.409081 -0.000017
3.190462 0.606537 0.712877 0.000000 -0.934746 0.000001
1.112344 0.654864 0.760940 0.000000 -0.328363 0.000043
1.877369 0.498377 0.844820 0.094454 -0.002644 -0.002626
0.301372 0.639801 0.753675 0.000000 -0.537271 0.000093
0.706858 0.724984 0.753321 0.000000 0.537284 0.000047
3.342519 0.602481 0.673549 0.000000 -0.991468 -0.000000
1.955768 0.178937 0.193472 0.094456 -0.002680 0.002662
3.241148 0.731802 0.621902 -0.000000 0.607368 -0.000010
2.987719 0.754851 0.719655 -0.000000 0.899447 0.000004
3.443891 0.722357 0.615512 -0.034990 0.000628 -0.001052
0.831120 0.684893 0.765616 0.000000 0.029339 0.000033
3.094760 0.579934 0.791109 0.036455 -0.025368 -0.023045
1.974346 1.138307 0.238271 0.094454 0.003260 0.003236
1.821946 0.602175 0.675870 -0.000001 -0.994715 -0.000006
2.278118 0.607639 0.654721 -0.000000 -0.923861 -0.000012
1.639157 0.436792 0.434024 -0.031715 0.005595 -0.005695
3.424316 0.496853 0.867170 -0.062175 0.015145 0.014085
1.818284 0.475938 0.502617 -0.054757 -0.003419 0.003164
0.366773 0.686063 0.604844 0.000000 0.028920 -0.000017
0.301372 0.720440 0.755984 -0.000000 0.487420 0.000013
1.793911 0.302693 0.313855 -0.054757 -0.002516 0.002331
2.020419 0.961413 0.410147 0.094455 0.004419 0.004385
3.139776 0.700247 0.606804 -0.000000 0.214737 -0.000008
2.987719 0.642735 0.615031 -0.000000 -0.487331 -0.000106
1.745445 0.888426 0.467077 -0.031713 -0.005596 -0.005695
1.526673 0.597061 0.776370 -0.031711 0.013210 0.012605
2.024689 0.753430 0.647924 -0.000001 0.884869 -0.000004
3.489687 0.764486 0.685213 -0.041097 0.002779 0.000168
3.228733 0.811747 0.562290 0.036451 -0.011772 -0.009992
1.564804 0.833716 0.527986 -0.031713 -0.004129 -0.004232
0.706858 0.644826 0.756528 -0.000000 -0.461721 0.000028
0.040598 0.707492 0.709156 -0.555835 0.000019 0.000017
1.975460 0.776482 0.583184 0.054790 -0.011769 -0.011431
0.858915 0.611611 0.724018 0.000000 -0.873311 0.000002
1.838291 1.208095 1.211015 -0.054755 0.007027 -0.006464
1.771260 0.642639 0.615084 0.000000 -0.487406 -0.000027
1.866594 0.447343 0.894745 0.094455 -0.004999 -0.004958
1.125425 0.601669 0.686530 0.000000 -0.999581 0.000000
2.698319 0.684601 0.765625 0.000000 0.028932 0.000066
1.629410 0.816250 0.565061 -0.054764 0.003026 0.002803
1.866408 0.749369 0.601988 0.054790 -0.010615 -0.010352
1.756046 0.810052 0.827988 -0.031713 -0.021789 0.018567
0.324262 0.680067 0.765667 0.000000 -0.014656 0.000008
1.894089 0.558958 0.786085 0.094450 -0.001540 -0.001529
1.740095 0.605598 0.777532 -0.031716 0.003886 0.003986
2.026364 0.348335 1.015927 0.094456 -0.003839 -0.003811
2.065749 0.350986 0.351866 0.054791 0.013236 -0.012781
1.892589 0.135475 1.228911 -0.054758 -0.012533 -0.011332
0.100469 0.689740 0.619978 -0.321736 0.000014 -0.000094
3.493667 0.602072 0.768018 -0.062175 -0.007148 -0.007321
1.638742 0.879866 0.480070 -0.031712 -0.021790 -0.018567
1.619202 0.604573 0.706748 -0.000000 -0.960612 0.000002
1.163030 0.637404 0.618299 -0.000000 -0.561731 -0.000022
0.858915 0.757805 0.712568 -0.000000 0.942771 0.000003
1.898498 1.145975 1.159297 -0.031713 -0.013676 0.012981
2.024689 0.700959 0.763456 -0.000001 0.244115 0.000029
0.885076 0.684016 0.765642 -0.000000 0.029327 0.000008
1.709025 0.454361 0.899886 -0.054756 -0.003466 -0.003208
1.472203 0.787611 0.787164 -0.054758 0.008071 -0.007406
2.531547 0.615200 0.729924 0.000000 -0.827638 0.000003
1.771997 0.485468 0.861268 -0.054758 -0.006932 -0.006378
3.443891 0.713993 0.759115 -0.033858 0.000519 0.001155
1.760421 1.103506 0.265902 -0.054756 0.002327 0.002156
1.467145 0.652776 0.760154 0.000000 -0.355754 0.000039
1.472757 0.847684 0.518535 -0.031712 -0.019811 -0.017370
1.663332 0.569178 0.590654 -0.054761 -0.006053 0.005580
1.701713 0.769292 0.584275 -0.031713 -0.021789 -0.018567
2.040112 0.507482 0.507415 0.054789 0.002154 -0.002138
2.040112 0.856748 0.863012 0.054791 -0.002154 0.002138
2.284658 0.681384 0.765676 0.000000 -0.028932 0.000033
1.841528 0.436917 0.945217 -0.031717 0.004973 0.005078
3.336341 0.582304 0.569581 -0.062159 -0.000625 0.000644
0.504115 0.727734 0.618915 -0.000000 0.561486 -0.000022
1.700247 0.396417 0.963070 -0.054757 -0.006172 -0.005689
3.482099 0.635336 0.736757 0.186871 -0.000632 0.000636
1.590433 0.434913 0.930420 -0.054758 -0.013862 -0.012464
1.815312 0.859330 0.492143 -0.031714 -0.011190 -0.010907
1.778892 0.494983 0.484157 -0.031713 0.005596 -0.005695
1.213716 0.605540 0.660456 -0.000000 -0.953630 -0.000009
1.886287 0.471536 0.497385 0.094453 -0.001322 0.001313
1.568516 0.648035 0.758125 0.000001 -0.429240 0.000016
1.213716 0.748947 0.730045 0.000000 0.826733 0.000005
1.753886 0.847885 0.505929 -0.031713 -0.021789 -0.018567
1.920098 0.301774 0.290985 0.054791 0.006119 -0.006041
1.841528 0.945274 0.927375 -0.054758 0.012153 -0.011005
1.403804 0.594295 0.773622 -0.054758 -0.008071 -0.007406
1.871424 0.834238 0.558232 0.094454 0.003079 0.003057
1.792267 0.857032 0.534224 -0.054758 0.013316 0.012001
1.264402 0.627719 0.625905 0.000000 -0.670566 -0.000004
1.821946 0.644955 0.756596 -0.000000 -0.461735 0.000114
1.776316 0.556832 0.783973 -0.054759 -0.004748 -0.004387
1.703873 0.751591 0.729643 0.000000 -0.704742 -0.000780
2.014474 0.490186 0.882420 0.054791 0.004309 0.004267
1.669888 0.700888 0.606953 -0.000000 0.244717 -0.000059
2.937033 0.601974 0.677835 0.000000 -0.994260 -0.000002
2.041226 1.206981 0.160134 0.094457 0.004781 0.004743
1.998869 0.255014 0.264256 0.094453 -0.003260 0.003236
1.974346 1.138307 1.132155 0.094456 0.003260 -0.003236
0.544990 0.685771 0.765591 0.000000 0.028920 0.000017
1.785548 1.094769 1.093079 -0.054761 0.004938 -0.004561
1.800825 0.249437 1.113436 -0.054763 -0.002326 -0.002156
1.842814 0.821626 0.843017 0.054790 -0.005308 0.005248
1.875883 0.507424 0.534914 0.094454 -0.002644 0.002626
2.798056 0.684893 0.604810 0.000000 0.029327 -0.000016
3.370246 0.592028 0.762856 -0.062176 0.004661 0.004449
1.965585 0.019594 1.347969 -0.054759 -0.015949 -0.014204
1.965585 1.344635 0.022457 -0.054757 0.015950 0.014204
1.872631 0.614596 0.641419 0.000000 -0.843350 -0.000019
1.264402 0.714727 0.611641 0.000001 0.409304 -0.000066
2.065749 0.442455 0.443949 0.054790 0.003809 -0.003775
2.417095 0.762552 0.686822 -0.000000 0.999582 0.000000
1.670643 0.909002 0.450470 -0.031711 -0.005674 -0.005772
2.075374 0.752582 0.724082 0.000000 0.873311 0.000002
2.126060 0.761749 0.673549 0.000000 0.991415 -0.000001
1.991809 0.472775 0.468714 0.054790 0.008617 -0.008456
1.809565 0.537875 0.568695 -0.054756 -0.002374 0.002200
1.986979 1.010177 0.348820 0.054789 -0.013236 -0.012782
2.028593 0.092370 0.096521 0.094453 -0.008403 0.008315
1.778892 0.886537 0.869095 -0.054757 0.006932 -0.006378
1.992924 1.065290 0.293801 0.054790 -0.006119 -0.006041
1.788482 0.803456 0.778742 -0.054757 0.002374 -0.002200
2.227432 0.725601 0.752928 -0.000001 0.533895 0.000012
1.557978 0.839742 0.836455 -0.054758 0.005045 -0.004659
0.909601 0.642959 0.755521 -0.000000 -0.487362 0.000027
2.126060 0.725539 0.752968 0.000000 0.537284 0.000023
1.920098 1.062455 1.079442 0.054792 -0.006119 0.006041
3.291834 0.614498 0.641573 -0.000001 -0.843331 -0.000038
2.531547 0.760556 0.667224 0.000000 0.976300 -0.000007
2.835661 0.644826 0.756528 0.000000 -0.461733 0.000028
2.847107 0.601701 0.682800 -0.000000 -0.999593 -0.000000
2.835661 0.723613 0.754165 -0.000000 0.512214 0.000012
0.033741 0.682115 0.655243 -0.589380 0.000000 -0.000010
1.853118 0.208836 0.204020 -0.031712 0.013676 -0.012981
1.952795 0.803040 0.815743 0.054791 -0.011769 0.011431
0.605486 0.755657 0.652534 0.000000 0.911782 -0.000003
1.618721 0.767042 0.753170 -0.054761 0.005044 -0.004659
1.973603 1.238973 0.137031 -0.054758 0.012153 0.011005
1.888144 0.768509 0.786015 0.054790 -0.005308 0.005248
1.749903 0.461910 0.916990 -0.031714 0.005595 0.005695
1.619202 0.642512 0.755271 -0.000000 -0.487246 0.000013
3.228068 0.601741 0.689016 0.000000 -0.999582 0.000000
1.061659 0.611415 0.723667 0.000000 -0.873176 0.000008
1.814633 0.188406 1.178127 -0.054759 -0.007786 -0.007150
1.981034 0.372578 0.367007 0.054790 0.014235 -0.013687
2.065749 0.314398 0.315033 0.054790 0.012238 -0.011865
1.581696 0.550719 0.546790 -0.031713 0.016510 -0.015138
2.266672 0.762563 0.686456 0.000000 0.999593 0.000000
0.232700 0.686648 0.765565 0.000000 0.028920 0.000017
1.761732 0.932232 0.450678 -0.054758 0.006552 0.006034
0.638187 0.678824 0.765602 0.000009 -0.001667 0.000287
3.175747 0.683797 0.765673 0.000000 0.014668 0.000016
0.554801 0.710428 0.609882 -0.000000 0.355639 -0.000078
1.660301 0.897340 0.908216 -0.031709 -0.005674 0.005773
0.092572 0.722419 0.733246 -0.352545 0.000057 0.000064
0.092572 0.641810 0.733246 -0.352545 -0.000057 0.000064
0.092572 0.624540 0.660378 -0.352543 -0.000080 -0.000032
0.453429 0.680432 0.765673 0.000000 -0.014668 0.000016
1.789939 1.205330 0.158494 -0.031711 -0.012434 -0.011965
1.458412 0.592169 0.598917 -0.054759 -0.004036 0.003733
3.299757 0.505253 0.857198 0.036453 0.009417 0.008133
1.914897 0.904488 0.888767 0.094455 0.004999 -0.004958
0.858915 0.760402 0.666546 0.000000 0.969661 -0.000000
3.291834 0.609905 0.720742 0.000001 -0.899917 0.000014
3.255635 0.556150 0.567876 0.036454 0.019613 -0.015409
1.855379 0.963619 0.980957 -0.031713 -0.009326 0.009247
1.890374 0.375768 0.970001 0.094455 -0.008838 -0.008741
1.926786 0.429571 0.950268 0.054790 0.016232 0.015462
1.845101 0.096700 0.095878 -0.054758 -0.005507 0.005082
2.480861 0.713013 0.610906 -0.000000 0.382690 -0.000036
1.826330 0.388294 0.378836 -0.031713 0.004663 -0.004768
1.306912 0.683504 0.604770 0.000000 0.029327 -0.000016
2.328804 0.752493 0.646185 -0.000000 0.873051 -0.000004
1.908366 1.172408 0.203542 -0.054759 0.007596 0.006979
0.858915 0.699711 0.606685 -0.000000 0.216410 -0.000134
1.923317 0.724367 0.616712 0.000000 0.537666 -0.000012
1.431385 0.801035 0.804930 -0.031712 -0.013210 0.012605
0.157872 0.748193 0.641753 -0.098364 0.000338 -0.000208
1.992181 0.161764 0.155649 0.054791 0.008242 -0.008096
3.290430 0.530529 0.525035 0.036455 -0.016919 0.016980
1.931988 0.250512 0.268728 0.094455 -0.003260 0.003236
1.938676 0.374227 1.005058 0.054791 0.007118 0.007012
1.872631 0.717676 0.757407 0.000002 0.434910 0.000061
2.176746 0.611273 0.723411 0.000000 -0.887017 0.000015
1.416459 0.603019 0.700051 0.000000 -0.982296 0.000001
1.938676 1.003504 0.378780 0.094455 0.004129 0.004098
3.267655 0.467680 0.901085 0.036454 -0.016919 -0.016980
3.334642 0.455469 0.459323 0.036454 0.014124 -0.011748
1.615481 0.773099 0.584398 -0.031719 -0.004128 -0.004231
1.847473 0.963168 0.424238 -0.054757 0.012153 0.011005
3.188558 0.584947 0.596487 0.036454 0.009417 -0.008132
1.872631 0.648134 0.612255 0.000000 -0.409009 -0.000004
1.971530 1.362529 1.366783 -0.054761 0.015189 -0.013577
1.971530 0.001701 0.003644 -0.000001 -0.704735 -0.000166
1.336343 0.762560 0.683897 0.000000 0.999593 -0.000000
1.699554 0.557104 0.547765 -0.031713 0.021790 -0.018567
1.061659 0.760556 0.703203 0.000001 0.975215 0.000007
2.937033 0.641245 0.754539 0.000000 -0.512528 0.000050
1.568516 0.755058 0.719227 -0.000000 0.912344 0.000007
3.244519 0.478754 0.480490 0.036456 -0.008461 0.009118
3.232770 0.842977 0.850942 0.036454 0.017624 -0.017556
1.816541 1.027702 1.041244 -0.031704 -0.004353 0.004458
3.214743 0.775349 0.581505 0.036454 0.010577 0.011238
3.214743 0.785199 0.779138 0.036454 -0.011771 0.009991
1.681443 0.793539 0.808717 -0.031713 -0.021789 0.018567
1.517831 0.648835 0.758486 0.000000 -0.409081 0.000017
1.580090 0.446575 0.451748 -0.054758 -0.006932 0.006378
3.232770 0.842977 0.519485 0.036453 0.017624 0.017556
3.221383 0.489828 0.878788 0.036454 -0.021145 -0.020240
1.768231 0.363662 0.357569 -0.031712 0.004663 -0.004768
1.612605 0.954391 0.409117 -0.031711 -0.010725 -0.010501
2.898610 0.684528 0.765627 0.000002 0.017961 0.000107
1.048578 0.683138 0.604759 0.000000 0.029339 -0.000016
1.810378 0.513418 0.869823 -0.031711 0.005674 0.005772
1.991437 1.284759 0.072746 0.054790 -0.012487 -0.012095
1.991437 0.079470 1.297680 0.054789 0.012487 0.012095
2.176746 0.609968 0.649553 -0.000000 -0.900057 -0.000014
1.771260 0.716590 0.612493 0.000000 0.435771 -0.000061
1.632262 0.444567 0.928576 -0.031713 0.011346 0.011042
1.914153 1.060036 0.325170 -0.054759 0.009875 0.009013
1.061659 0.612414 0.644971 0.000000 -0.873209 -0.000033
3.535484 0.679709 0.600989 -0.054516 -0.000035 -0.000808
1.779506 0.953432 0.967750 -0.031713 -0.004974 0.005079
0.352057 0.611790 0.724337 0.000000 -0.873096 0.000008
1.827677 0.473224 0.460950 -0.031712 0.010569 -0.010364
0.402743 0.723362 0.616112 0.000000 0.512547 -0.000025
3.241148 0.648234 0.758216 0.000001 -0.408282 0.000017
0.402743 0.645215 0.613696 -0.000000 -0.461721 -0.000028
1.663124 0.772524 0.755500 -0.054758 0.003027 -0.002803
0.976637 0.680214 0.604785 -0.000000 -0.028932 -0.000033
2.002584 0.591265 0.588837 0.054793 0.005307 -0.005248
1.971002 0.600723 0.754395 0.094454 -0.006828 -0.006765
1.872631 0.612864 0.726209 0.000000 -0.858659 0.000009
3.327014 0.762711 0.783019 -0.062179 0.000625 -0.000644
1.846716 0.579040 0.564393 0.054790 0.005308 -0.005248
1.695234 0.469911 0.486194 -0.054757 -0.003466 0.003208
1.583538 0.921542 0.447834 -0.054758 0.006932 0.006378
0.352057 0.750184 0.728144 0.000000 0.843376 0.000038
1.709025 0.898342 0.911336 -0.031713 -0.005596 0.005695
1.720986 1.127581 1.133663 -0.031712 -0.015230 0.014191
1.797675 0.573663 0.606323 -0.054758 -0.004748 0.004387
1.905851 1.100328 0.254970 -0.031713 -0.007461 -0.007506
0.536815 0.762505 0.681996 0.000000 0.999582 -0.000000
0.757544 0.718917 0.756782 -0.000001 0.451607 0.000007
1.659013 0.508611 0.502635 -0.031713 0.021789 -0.018567
1.878712 1.262574 0.099188 -0.031711 -0.009948 -0.009810
1.763219 0.936706 0.924452 -0.054757 0.003229 -0.002989
3.291834 0.691240 0.605251 0.000001 0.082916 -0.000022
1.840771 0.597565 0.787847 0.054787 0.005308 0.005248
1.568516 0.726341 0.617970 0.000000 0.561591 -0.000022
1.640902 0.842032 0.516580 -0.031715 -0.021788 -0.018567
1.810517 0.408462 0.429236 -0.054757 -0.006077 0.005602
1.983263 1.183441 1.178793 0.094458 0.002680 -0.002661
2.032309 1.088670 1.089990 0.094454 0.003260 -0.003236
1.860928 0.307906 0.299529 -0.031714 0.008082 -0.008095
2.065749 0.976656 0.981727 0.054790 -0.014235 0.013687
1.902264 0.357350 0.345544 0.054791 0.014235 -0.013687
1.697394 0.844959 0.859172 -0.031713 -0.021790 0.018567
2.014474 0.861197 0.511835 0.094457 0.001322 0.001313
2.328804 0.752707 0.723858 0.000000 0.873252 0.000008
3.213490 0.526692 0.837889 0.036457 0.011770 0.009990
3.213490 0.530480 0.528775 0.036457 -0.010576 0.011237
2.582232 0.606280 0.712153 -0.000001 -0.944523 0.000021
2.784976 0.611273 0.723411 0.000000 -0.887017 0.000008
1.416459 0.719793 0.756326 -0.000000 0.461721 0.000057
1.791731 0.772673 0.745289 -0.054758 0.004748 -0.004387
3.306842 0.885806 0.477127 0.036452 0.006347 0.006917
1.517831 0.603705 0.703346 0.000000 -0.976231 0.000003
3.535484 0.660359 0.721291 1.000000 -0.000000 0.000000
3.535484 0.704892 0.720655 1.000000 0.000000 0.000000
3.535484 0.641080 0.675671 1.000000 0.000000 -0.000000
3.535484 0.673748 0.643923 1.000000 -0.000000 0.000000
3.535484 0.718799 0.664497 1.000000 0.000000 -0.000000
1.112344 0.759397 0.662764 0.000000 0.960612 -0.000002
0.187346 0.682115 0.604423 0.007808 0.000074 -0.002538
1.992924 0.317233 0.312217 0.054790 0.006119 -0.006041
1.774225 0.606366 0.592131 -0.031711 0.007772 -0.007802
1.791731 0.591556 0.745289 -0.054755 -0.004748 -0.004387
2.987719 0.716129 0.612270 0.000000 0.435771 -0.000061
3.443891 0.650237 0.759115 -0.039617 -0.000414 0.001000
0.402743 0.640239 0.753940 -0.000001 -0.511274 0.000012
1.848759 0.863205 0.532123 -0.054758 0.003466 0.003208
1.683603 0.608524 0.772207 -0.031713 0.021789 0.018567
3.267475 0.859588 0.867664 0.036457 0.008461 -0.009118
1.809565 0.826354 0.568695 -0.054761 0.004748 0.004387
1.986979 0.327389 1.031710 0.094456 -0.007679 -0.007603
0.271941 0.677728 0.604857 -0.000000 -0.029339 -0.000016
1.695788 0.954392 0.421467 -0.054761 0.003276 0.003033
3.520359 0.759692 0.763310 -0.062172 -0.007417 0.007049
1.638742 0.484364 0.890357 -0.031713 0.021789 0.018567
3.453431 0.858196 0.510226 -0.062176 -0.007573 -0.007195
1.112344 0.739484 0.741652 0.000000 0.717277 0.000029
1.832829 1.057890 1.071171 -0.031714 -0.004041 0.004143
1.974346 0.225923 1.132155 0.094455 -0.003260 -0.003236
1.568516 0.708951 0.761084 0.000000 0.326658 0.000011
3.297780 0.585607 0.767214 0.036455 0.015692 0.012857
2.632918 0.644436 0.756326 0.000000 -0.461733 0.000057
0.960287 0.717676 0.613019 -0.000000 0.434598 -0.000008
0.554801 0.610884 0.722665 -0.000001 -0.886137 0.000015
2.075374 0.703825 0.607721 -0.000001 0.271593 -0.000026
0.396203 0.762573 0.686969 -0.000000 0.999893 0.000000
1.774176 1.028093 1.022104 -0.054756 0.002706 -0.002507
0.108459 0.682115 0.753609 -0.298406 0.000002 0.000054
0.402743 0.720568 0.755913 0.000000 0.487164 0.000013
3.139776 0.754962 0.651002 -0.000001 0.863423 -0.000001
1.467145 0.722859 0.615812 0.000000 0.512458 -0.000006
1.898548 0.554154 0.543377 0.054790 0.011769 -0.011431
1.908366 0.201217 1.176218 -0.031712 0.024854 0.020227
3.373424 0.554190 0.802676 -0.062175 0.004306 0.004111
1.886644 1.210861 1.210098 -0.054759 0.014051 -0.012624
1.806593 0.794453 0.815127 -0.031715 -0.003886 0.003986
1.365773 0.643406 0.614656 -0.000000 -0.487337 -0.000013
0.200000 0.643917 0.756055 0.032357 -0.000297 0.000533
0.200000 0.720312 0.756055 0.032357 0.000297 0.000533
0.960287 0.608017 0.716618 0.000000 -0.923798 0.000001
1.365773 0.718690 0.613527 0.000000 0.461398 -0.000014
1.908366 0.191822 0.203542 -0.054758 -0.007596 0.006979
0.406013 0.601657 0.683385 -0.000000 -0.999893 -0.000000
3.089090 0.649469 0.611656 0.000000 -0.409366 -0.000066
1.734705 0.950943 0.407063 -0.031711 -0.005052 -0.005156
0.626742 0.685478 0.604827 -0.000000 0.025570 -0.000019
1.819435 0.381621 0.969411 -0.054758 -0.005792 -0.005342
3.306842 0.888837 0.890289 0.036455 -0.007063 0.006184
2.002584 0.761381 0.613920 0.094454 0.001539 0.001529
1.748496 0.397737 0.391409 -0.031715 0.004974 -0.005078
1.632262 0.925426 0.922851 -0.054759 0.006932 -0.006378
1.956511 1.066332 0.313130 0.094454 0.003840 0.003811
2.126060 0.607109 0.714381 -0.000001 -0.929812 0.000003
1.669888 0.700390 0.763591 0.000000 0.216521 0.000067
1.264402 0.604583 0.706783 0.000000 -0.961686 0.000004
3.190462 0.758580 0.660107 0.000000 0.953767 -0.000001
1.561703 0.869472 0.876899 -0.031715 -0.008256 0.008258
0.909601 0.755058 0.651199 0.000000 0.912394 -0.000002
1.937933 1.118031 0.236425 0.054792 -0.011238 -0.010937
1.388664 0.681384 0.765676 0.000000 -0.029327 0.000016
2.551167 0.684162 0.604789 0.000000 0.025569 -0.000019
1.811328 0.791098 0.606851 -0.054761 0.004748 0.004387
1.916754 0.587924 0.759976 0.094450 -0.003079 -0.003057
1.979919 0.555588 0.801032 0.094454 -0.006828 -0.006765
2.034167 0.568387 0.795451 0.094453 -0.006828 -0.006765
1.898548 0.810075 0.827049 0.054792 -0.011769 0.011431
1.640902 0.511766 0.843485 -0.054757 -0.013316 -0.012001
1.785786 0.729614 0.751474 -0.000001 -0.704744 -0.000455
0.458334 0.682261 0.604732 0.000002 0.012644 -0.000303
0.973367 0.681749 0.765692 0.000000 -0.014668 0.000016
3.038405 0.652129 0.610528 0.000001 -0.381956 -0.000036
1.850617 0.615475 0.601377 0.054787 0.005308 -0.005248
0.453429 0.752083 0.724976 0.000000 0.873198 0.000017
2.379489 0.607148 0.655943 -0.000001 -0.929622 -0.000003
1.920098 0.301774 1.079442 0.054791 0.006119 0.006041
3.089090 0.728545 0.619477 -0.000000 0.585327 -0.000005
1.540048 0.735147 0.745978 -0.000001 -0.704739 -0.000390
1.620631 0.497950 0.494015 -0.031714 0.021789 -0.018567
1.792267 0.837225 0.855878 -0.031713 -0.021790 0.018567
1.848759 0.524078 0.861204 0.054791 0.002279 0.002262
2.065749 0.076577 0.075620 0.054792 0.010489 -0.010234
2.034538 0.056182 1.311136 0.094456 -0.007244 -0.007175
2.034538 1.308047 1.311136 0.094456 0.007244 -0.007175
2.034538 1.308047 0.059290 0.094456 0.007244 0.007175
2.065749 0.039989 0.038787 0.054789 0.008492 -0.008336
1.679579 0.379392 0.993724 -0.031710 0.010103 0.009950
1.679579 0.379392 0.376702 -0.031714 0.010102 -0.009949
3.152856 0.601650 0.683897 0.000000 -0.999892 -0.000000
1.678550 0.429274 0.441034 -0.054758 -0.003276 0.003033
0.453429 0.610648 0.722211 0.000001 -0.884869 0.000004
1.640902 0.842032 0.853847 -0.031713 -0.021789 0.018567
3.392554 0.814121 0.827195 -0.062175 0.009731 -0.009913
0.909601 0.652264 0.610472 0.000000 -0.382532 -0.000018
1.649472 0.756473 0.598983 -0.031711 -0.004955 -0.005060
1.390013 0.754385 0.757968 -0.031714 -0.013209 0.012604
2.013243 0.762584 0.685725 -0.000000 0.999593 0.000000
1.771260 0.762463 0.689893 -0.000000 0.999582 0.000000
0.301372 0.602185 0.675797 0.000000 -0.991256 -0.000000
0.301372 0.648167 0.612240 0.000000 -0.409009 -0.000008
0.293196 0.762552 0.682726 0.000069 0.065679 -0.000003
0.921046 0.601638 0.685725 0.000000 -0.999904 0.000000
1.803729 0.143350 1.227587 -0.054758 -0.014052 -0.012624
1.838291 0.156134 0.159411 -0.054757 -0.007027 0.006464
1.923317 0.642831 0.614977 -0.000000 -0.486940 -0.000013
3.480528 0.609513 0.647109 -0.041099 -0.003742 -0.002253
1.974003 0.756758 0.715300 0.000000 0.923861 0.000012
1.163030 0.760936 0.701489 -0.000000 0.982172 0.000006
1.568516 0.610128 0.649224 -0.000000 -0.900056 -0.000002
3.283706 0.489497 0.488275 0.036454 -0.008462 0.009119
3.448544 0.572718 0.790086 -0.062176 0.011291 0.010634
1.895204 0.905988 0.923865 0.054790 -0.004309 0.004267
1.895204 0.905988 0.446562 0.054790 -0.008617 -0.008456
1.705859 0.681969 0.765693 0.000000 -0.029339 0.000065
1.737122 0.770547 0.623025 -0.054756 0.002374 0.002200
1.969144 0.909983 0.468825 0.094456 0.002499 0.002482
3.313089 0.686209 0.765578 0.000000 0.028932 0.000017
1.600361 0.890526 0.471450 -0.031713 -0.021789 -0.018567
0.352057 0.612770 0.644375 -0.000001 -0.858596 -0.000035
1.554808 0.865891 0.505521 -0.054761 0.005044 0.004659
2.446525 0.601673 0.683751 -0.000000 -0.999570 -0.000000
2.683604 0.610192 0.721334 0.000000 -0.900056 0.000004
2.035281 0.239171 1.127022 0.094453 -0.002970 -0.002949
0.141179 0.618111 0.727309 -0.163232 -0.000193 0.000119
0.141179 0.746118 0.727309 -0.163230 0.000197 0.000121
0.808230 0.716392 0.612398 0.000000 0.435530 -0.000015
1.315088 0.755837 0.717492 -0.000001 0.876314 0.000002
2.065749 1.141301 0.222951 0.054790 -0.009241 -0.009052
3.317687 0.761681 0.623298 -0.000000 0.704740 -0.000110
3.371950 0.686502 0.765570 0.000000 0.028932 0.000017
1.620631 0.874194 0.868550 -0.054759 0.013316 -0.012001
0.301372 0.723362 0.616112 0.000000 0.512577 -0.000050
3.429414 0.770856 0.782031 -0.062177 0.010882 -0.011052
3.466974 0.769074 0.602123 -0.062175 -0.011292 -0.010634
1.829163 0.468592 0.914023 -0.031712 0.010569 0.010364
1.766191 0.431722 0.946917 -0.031715 0.010568 0.010363
1.832136 0.904900 0.923117 -0.031713 -0.010568 0.010363
1.731177 0.633386 0.620174 -0.031715 0.015539 -0.014424
1.753983 1.038440 0.321555 -0.031714 -0.008859 -0.008819
1.856562 0.789504 0.765159 0.094457 0.003079 -0.003057
1.787809 0.913377 0.897316 -0.054757 0.003276 -0.003033
1.930123 1.217101 1.229511 -0.031715 -0.011189 0.010907
1.902264 1.006879 1.024882 0.054791 -0.014235 0.013687
1.551706 0.899550 0.901447 -0.054761 0.005044 -0.004659
1.569290 0.956533 0.961469 -0.031715 -0.005595 0.005695
1.859838 0.977513 0.375830 -0.031713 -0.018646 -0.016616
1.618472 0.454353 0.463230 -0.054757 -0.003466 0.003208
1.749903 0.461910 0.453437 -0.031713 0.005596 -0.005695
2.042674 0.601644 0.684775 0.000000 -0.999570 -0.000000
3.364321 0.850175 0.526635 -0.062175 -0.010098 -0.009540
1.740095 0.779494 0.756808 -0.054752 0.002374 -0.002200
2.227432 0.645734 0.757001 -0.000000 -0.461772 0.000057
3.383592 0.769856 0.761608 -0.062176 -0.004306 0.004111
3.142286 0.616186 0.760675 -0.000001 -0.704741 0.000377
1.718531 0.276484 1.090909 -0.054758 -0.010065 -0.009181
1.499507 0.788674 0.584319 -0.054758 0.006053 0.005580
1.866594 0.468502 0.454663 0.054789 0.008617 -0.008456
2.020419 0.425926 0.946647 0.054791 0.007618 0.007495
1.692912 0.308170 0.311615 -0.054756 -0.005413 0.004996
3.467674 0.801654 0.561842 -0.062176 0.009731 0.009912
2.075374 0.610648 0.722211 0.000001 -0.880012 0.000004
1.937562 0.880095 0.503165 0.094456 0.001322 0.001313
1.655921 0.406532 0.414688 -0.054758 -0.006552 0.006034
1.649025 0.414307 0.947912 -0.054758 -0.006552 -0.006034
2.734290 0.647640 0.757933 -0.000001 -0.434231 0.000015
1.902264 0.339981 1.007629 0.094453 -0.008258 -0.008172
3.123994 0.788084 0.787346 0.036454 -0.028233 0.019919
1.979548 0.116521 1.261307 0.054791 0.014484 0.013912
1.672683 0.982194 0.389627 -0.054758 0.006172 0.005688
2.020419 0.407632 0.405363 0.054791 0.007618 -0.007495
2.026364 1.006748 1.006719 0.094454 0.004129 -0.004098
1.886644 1.210861 0.160329 -0.054762 0.007026 0.006464
0.453429 0.612342 0.645099 0.000002 -0.853676 -0.000004
1.884800 0.888220 0.502089 0.094453 0.001322 0.001313
1.872631 0.651825 0.759773 0.000002 -0.381962 0.000072
2.379489 0.607667 0.715773 0.000002 -0.901698 0.000003
2.026364 1.020857 0.341135 0.054790 -0.006619 -0.006528
3.373424 0.554190 0.567750 -0.062175 0.008611 -0.008164
3.391855 0.787602 0.589533 -0.062175 -0.004306 -0.004111
0.200000 0.762055 0.694557 0.032358 0.000607 0.000062
0.200000 0.602175 0.694557 0.032358 -0.000607 0.000062
3.038405 0.635951 0.751142 0.000000 -0.562199 0.000005
3.443891 0.604373 0.664383 -0.038978 -0.001059 -0.000300
1.872631 0.762335 0.691644 -0.000001 0.996465 0.000002
2.480861 0.754691 0.719985 -0.000000 0.899447 0.000004
1.010973 0.644955 0.756596 0.000000 -0.461814 0.000007
2.990021 0.600567 0.767308 0.036454 -0.016919 -0.016980
1.992924 1.046997 1.058209 0.054792 -0.006119 0.006041
1.908952 0.503441 0.493134 0.054788 0.004559 -0.004513
0.108459 0.651419 0.624093 -0.290593 -0.000052 -0.000097
3.175737 0.823054 0.830127 0.036454 0.008462 -0.009119
1.736763 1.071234 1.071636 -0.054755 0.002517 -0.002331
1.513574 0.533325 0.837459 -0.031717 0.006605 0.006683
0.366773 0.678166 0.765582 0.000000 -0.029327 0.000016
2.035281 1.121821 1.130237 0.054789 -0.005120 0.005064
1.390299 0.762586 0.685652 -0.000000 0.999581 0.000000
1.787809 0.913377 0.473111 -0.054758 0.006552 0.006034
1.790975 0.224230 0.221658 -0.031714 0.013986 -0.013228
3.467674 0.804685 0.805574 -0.062176 -0.010097 0.009540
3.460112 0.544711 0.543858 -0.062176 -0.004866 0.005001
1.784837 0.459799 0.887909 -0.054759 -0.006837 -0.006292
1.937019 0.139354 0.133089 -0.031712 0.009947 -0.009810
1.813490 0.949635 0.404850 -0.031714 -0.009947 -0.009810
1.992924 0.298939 1.076626 0.054792 0.006119 0.006041
1.720574 0.602318 0.674782 -0.000000 -0.991439 -0.000004
1.828423 1.188137 0.173430 -0.031711 -0.012434 -0.011965
1.821946 0.710736 0.760427 -0.000000 0.354541 0.000010
0.069524 0.732166 0.700198 -0.442565 0.000050 0.000013
1.631330 0.981026 0.387552 -0.054759 0.003086 0.002858
2.020419 0.952266 0.951072 0.094455 0.004419 -0.004385
1.983263 1.174678 0.182929 0.054790 -0.004621 -0.004574
1.983263 0.189552 1.187498 0.054788 0.004621 0.004574
1.974003 0.607765 0.654417 0.000000 -0.923798 -0.000001
1.583538 0.921542 0.922593 -0.054758 0.003466 -0.003208
1.889027 1.068772 1.056702 -0.054761 0.004937 -0.004561
3.410285 0.599065 0.611316 -0.062177 0.008611 -0.008164
1.601828 0.590823 0.584703 -0.031715 0.008257 -0.008259
1.739182 0.344122 1.016316 -0.054757 -0.002896 -0.002682
1.987350 0.501207 0.856778 0.094456 -0.001322 -0.001313
2.734290 0.602452 0.696660 -0.000000 -0.991431 0.000002
1.869231 1.015677 0.369376 -0.054756 0.002706 0.002507
1.609158 0.411002 0.954691 -0.054758 -0.006552 -0.006034
1.697394 0.505593 0.845585 -0.054759 -0.013316 -0.012001
1.561980 0.460527 0.905097 -0.054758 -0.006053 -0.005580
1.758205 0.570783 0.600036 -0.054761 -0.002374 0.002200
2.973004 0.680944 0.604746 0.000000 -0.013854 -0.000138
1.649025 0.949923 0.947912 -0.054759 0.006552 -0.006034
1.661172 0.817785 0.539145 -0.031713 -0.021790 -0.018567
1.854704 0.881099 0.857117 -0.054758 0.013672 -0.012303
1.980291 0.207961 0.201230 0.054790 0.005120 -0.005064
1.703237 1.017425 1.026299 -0.031717 -0.009480 0.009388
3.071624 0.773221 0.779961 0.036455 0.016919 -0.016980
3.187305 0.831622 0.537736 0.036455 -0.009417 -0.008132
2.990021 0.600567 0.603119 0.036455 -0.016919 0.016980
3.094760 0.579934 0.579318 0.036455 -0.025368 0.023045
3.164169 0.543682 0.548884 0.036454 0.009417 -0.008132
1.974003 0.645053 0.756647 -0.000001 -0.460971 0.000029
1.768785 0.300233 1.074252 -0.031712 0.008238 0.008241
1.715505 0.505684 0.497309 -0.031712 0.021790 -0.018567
3.375220 0.677728 0.604857 -0.000000 -0.029339 -0.000016
1.899906 1.095027 1.084133 -0.054756 0.004558 -0.004213
0.808230 0.651453 0.759619 -0.000000 -0.382561 0.000036
1.810378 0.870983 0.849786 -0.054758 0.003466 -0.003208
3.508791 0.635576 0.640588 0.186871 -0.000316 -0.000318
2.683604 0.752814 0.646760 0.000000 0.873176 -0.000008
1.774156 0.540591 0.528494 -0.031713 0.021789 -0.018567
1.906379 1.244304 1.244565 -0.054757 0.012533 -0.011332
1.868845 0.118693 1.254318 -0.031714 0.020508 0.017804
1.810378 0.513418 0.500603 -0.031713 0.011346 -0.011042
1.698760 0.963339 0.958367 -0.054758 0.006457 -0.005947
3.229360 0.578652 0.778761 0.036451 0.011772 0.009992
3.261238 0.586554 0.602272 0.036451 0.009810 -0.008449
1.957254 0.538148 0.531835 0.054790 0.002279 -0.002262
1.821946 0.654588 0.609583 0.000000 -0.355611 -0.000156
1.821946 0.709642 0.609583 -0.000000 0.355611 -0.000156
3.498847 0.744053 0.630341 -0.041098 0.003121 -0.003112
1.878484 0.431452 0.418290 0.054790 0.016232 -0.015462
1.932060 1.291694 0.068658 -0.031714 -0.008703 -0.008675
0.605486 0.717709 0.757391 0.000001 0.435355 0.000031
2.987719 0.672336 0.765096 0.000000 -0.130750 0.000056
1.965428 0.261910 1.094726 0.094454 -0.003550 -0.003524
1.835247 0.347005 1.005459 -0.054759 -0.005412 -0.004995
1.619202 0.634765 0.620141 0.000001 -0.567264 -0.000005
1.829302 0.999330 0.986645 -0.054757 0.005697 -0.005256
3.443891 0.663554 0.606899 -0.040416 -0.000230 -0.001036
0.352057 0.754293 0.649619 -0.000001 0.900042 -0.000029
1.900263 1.329728 1.337165 -0.031712 -0.014919 0.013954
1.733616 0.872132 0.887063 -0.031713 -0.022682 0.019074
1.888144 0.576851 0.603156 0.094454 -0.003079 0.003057
1.732286 1.012333 0.361938 -0.054757 0.005792 0.005342
1.872539 0.934780 0.456868 -0.054757 0.012153 0.011005
1.942963 1.243401 0.114902 -0.031712 -0.009947 -0.009810
1.774156 0.843080 0.822621 -0.054757 0.013316 -0.012001
1.756046 0.554178 0.827988 -0.031713 0.021789 0.018567
1.748496 0.397737 0.979017 -0.031714 0.019887 0.017418
1.875883 0.836634 0.514876 0.054791 -0.002279 -0.002262
1.847473 0.401062 0.424238 -0.054758 -0.006077 0.005602
1.884429 0.970567 0.419240 -0.054760 0.002896 0.002682
2.430175 0.719664 0.756393 -0.000001 0.459198 0.000014
1.696342 0.349764 1.013688 -0.054756 -0.005793 -0.005343
2.784976 0.754883 0.719589 0.000001 0.880529 0.000002
0.605486 0.647047 0.757647 0.000000 -0.435934 0.000015
0.149505 0.682115 0.763197 -0.138960 0.000004 0.000136
1.626396 0.972665 0.974258 -0.054757 0.006552 -0.006034
1.810517 0.408462 0.941191 -0.054757 -0.006077 -0.005602
2.038254 0.184490 1.182470 0.094455 -0.002680 -0.002662
0.092572 0.742183 0.667230 -0.352550 0.000079 -0.000021
1.890374 0.394401 0.381917 0.054791 0.015233 -0.014581
1.652033 0.314398 0.315033 -0.054759 -0.002706 0.002507
2.126060 0.604892 0.662553 0.000000 -0.962045 -0.000004
1.998869 1.109215 0.264256 0.094453 0.006520 0.006461
3.327376 0.836634 0.849860 0.036454 0.008462 -0.009119
1.540602 0.558943 0.569721 -0.054764 -0.004035 0.003732
1.974003 0.719274 0.756596 -0.000000 0.460840 0.000004
1.907837 0.732688 0.748420 0.054791 -0.010614 0.010352
1.596871 0.376597 0.992777 -0.054758 -0.012343 -0.011168
1.583081 0.392147 0.393303 -0.054758 -0.013102 0.011819
1.813647 1.087243 0.271701 -0.031716 -0.004041 -0.004143
3.433643 0.882045 0.889513 -0.062176 0.014595 -0.014651
3.482546 0.515215 0.853231 -0.062177 -0.007299 -0.007474
3.456330 0.831482 0.832550 -0.062175 -0.005049 0.004817
3.433643 0.479154 0.483924 -0.062176 0.015144 -0.014084
1.943878 0.756958 0.770047 0.054790 -0.011769 0.011431
3.401628 0.916425 0.925639 -0.062175 0.009731 -0.009913
2.430175 0.645994 0.757136 0.000000 -0.461507 0.000004
3.241148 0.755178 0.651466 0.000000 0.912530 -0.000003
0.504115 0.602895 0.671022 -0.000000 -0.981152 -0.000001
1.213716 0.622980 0.739797 0.000000 -0.736956 0.000014
1.388664 0.682846 0.604751 0.000000 0.028920 -0.000017
2.683604 0.718236 0.757136 0.000000 0.461661 0.000014
1.835247 0.347005 0.364967 -0.054758 -0.002706 0.002507
1.637188 0.681676 0.765685 0.000005 -0.006054 0.000158
1.758180 0.681969 0.604734 -0.000000 -0.028932 -0.000066
1.737935 0.815176 0.795455 -0.054759 0.013316 -0.012001
1.737935 0.815176 0.574971 -0.054759 0.013316 0.012001
3.121791 0.762576 0.683677 0.000000 0.999904 -0.000000
1.540325 0.775250 0.768342 -0.054756 0.008071 -0.007406
2.024689 0.728634 0.619542 0.000000 0.585370 -0.000041
2.430175 0.648501 0.612090 0.000001 -0.355281 -0.000005
1.649265 0.614765 0.638672 -0.054762 -0.002522 0.002337
3.321945 0.620544 0.765004 0.000000 -0.704744 0.000108
0.679063 0.762509 0.688284 0.000000 0.999570 0.000000
1.757431 1.042327 1.052786 -0.031707 -0.004431 0.004535
1.838081 0.923425 0.429123 -0.031711 -0.005052 -0.005156
1.622376 0.583355 0.793856 -0.031715 0.009908 0.009775
0.605486 0.602853 0.699189 0.000000 -0.981995 0.000000
1.842143 1.024999 1.013286 -0.054761 0.005412 -0.004995
0.504115 0.647442 0.612589 -0.000000 -0.435837 -0.000031
1.824229 0.906185 0.886623 -0.054758 0.003276 -0.003033
1.943878 0.756958 0.600380 0.054790 -0.011769 -0.011431
3.388773 0.541177 0.836188 -0.062176 -0.004866 -0.005001
0.554801 0.756268 0.716483 0.000001 0.921473 0.000003
1.835247 1.003723 0.351556 -0.031716 -0.004663 -0.004768
1.581143 0.602404 0.750576 -0.054758 -0.008071 -0.007406
1.634777 0.379316 0.383638 -0.054758 -0.003086 0.002858
2.379489 0.664590 0.763757 -0.000001 -0.215044 0.000034
1.903007 0.531113 0.849898 0.054790 0.004558 0.004513
3.241148 0.754038 0.721334 0.000000 0.900057 0.000014
3.113052 0.753347 0.755407 0.000000 0.704741 0.000251
1.821946 0.746673 0.637152 -0.000001 0.810704 -0.000043
1.619202 0.713452 0.759339 0.000000 0.382706 0.000072
2.531547 0.737609 0.743500 0.000000 0.696594 0.000015
1.683499 0.620417 0.609731 -0.031711 0.009909 -0.009775
0.536815 0.678459 0.604836 -0.000000 -0.029327 -0.000033
3.159325 0.778525 0.595734 0.036454 -0.018829 -0.014924
3.176363 0.799915 0.797741 0.036454 -0.018829 0.014924
3.267655 0.896550 0.469342 0.036455 0.016919 0.016980
3.364683 0.913491 0.449257 0.036454 0.016919 0.016980
3.327376 0.518503 0.529598 0.036455 0.009417 -0.008132
3.291834 0.754245 0.649520 -0.000000 0.898767 -0.000004
0.808230 0.645734 0.613425 -0.000001 -0.461079 -0.000029
0.453429 0.754420 0.649882 -0.000000 0.900069 -0.000029
1.472203 0.576619 0.787164 -0.054762 -0.004035 -0.003733
0.069524 0.702809 0.637240 -0.442560 0.000024 -0.000050
1.467145 0.748845 0.730197 0.000001 0.825813 0.000010
1.719824 0.782878 0.800097 -0.031713 -0.021789 0.018567
1.184285 0.601644 0.684775 0.000000 -0.999570 -0.000000
2.430175 0.755777 0.652801 0.000000 0.912530 -0.000002
2.193096 0.601652 0.685944 0.000000 -0.999593 0.000000
2.499664 0.762546 0.687041 0.000000 0.999570 0.000000
0.893251 0.684747 0.604806 -0.000009 0.001367 -0.000350
2.090907 0.762597 0.685286 0.000000 0.999593 0.000000
1.213716 0.755358 0.651867 0.000001 0.902835 -0.000002
0.027048 0.672280 0.708012 -0.609014 -0.000007 0.000014
1.975460 0.786074 0.777714 0.094456 0.006828 -0.006765
2.835661 0.645085 0.613763 -0.000000 -0.461733 -0.000028
1.757942 0.229249 1.138661 -0.054755 -0.004653 -0.004300
1.757942 1.134980 1.138661 -0.054754 0.002327 -0.002156
1.696342 1.009650 0.351955 -0.031714 -0.004741 -0.004846
3.317687 0.761681 0.747128 0.000000 0.704744 0.000110
1.496267 0.807314 0.806467 -0.054758 0.006053 -0.005580
1.748567 1.158680 0.205456 -0.031712 -0.027957 -0.021687
3.393205 0.716590 0.612493 0.000000 0.435771 -0.000061
0.250686 0.754803 0.650673 0.000000 0.900057 -0.000014
3.393205 0.612714 0.644469 -0.000001 -0.858491 -0.000018
2.065749 1.049832 0.315033 0.054791 -0.012237 -0.011865
3.265275 0.803223 0.816604 0.036455 0.017623 -0.017555
1.888144 0.787378 0.603156 0.094454 0.003079 0.003057
1.830925 0.809524 0.781861 -0.054758 0.004748 -0.004387
3.373648 0.505447 0.498271 -0.062175 -0.014595 0.014651
1.896319 0.357875 0.381612 0.094454 -0.004129 0.004098
1.850617 0.748754 0.769050 0.054790 -0.005308 0.005248
1.943878 0.227673 0.218238 0.054790 0.005120 -0.005064
1.786938 0.988629 0.978524 -0.054759 0.005792 -0.005342
3.327014 0.762711 0.587408 -0.062159 0.000625 0.000644
3.051485 0.685625 0.604831 0.000000 0.028920 -0.000017
1.683603 0.773321 0.615719 -0.054758 0.012106 0.010964
1.660397 0.347631 1.018886 -0.054758 -0.005792 -0.005342
3.388773 0.823053 0.534239 -0.062176 0.004866 0.005001
3.241148 0.650642 0.611144 0.000000 -0.382879 -0.000018
1.492473 0.604221 0.602495 -0.031712 0.009908 -0.009775
1.892589 0.140686 0.136339 -0.031713 0.022371 -0.018900
1.467145 0.609022 0.718894 -0.000001 -0.910678 0.000007
1.921213 0.798873 0.587132 0.094454 0.006828 0.006765
2.176746 0.748516 0.639746 -0.000000 0.827274 -0.000005
1.923317 0.659032 0.762316 0.000000 -0.272824 0.000105
3.089090 0.611344 0.723539 0.000000 -0.871510 0.000004
2.683604 0.610344 0.648800 -0.000001 -0.885943 -0.000008
3.164169 0.546712 0.824553 0.036454 -0.008462 -0.009119
3.089090 0.608348 0.653035 0.000000 -0.912530 -0.000002
1.754628 0.601832 0.737202 -0.054761 -0.004748 -0.004387
1.848088 1.030024 0.325543 -0.031715 -0.008703 -0.008675
3.410285 0.599065 0.759111 -0.062175 0.008611 0.008164
3.355600 0.762568 0.687335 0.000000 0.999892 0.000000
1.979548 1.256867 1.252210 -0.054756 0.005508 -0.005083
1.754441 0.985018 0.997204 -0.031714 -0.019887 0.017418
1.850617 0.592619 0.746345 0.094456 -0.006158 -0.006104
1.861949 1.240367 0.126524 -0.054759 0.012532 0.011331
1.873768 0.270000 1.085382 -0.054756 -0.002327 -0.002156
2.243782 0.683138 0.604759 0.000000 0.029339 -0.000033
0.757544 0.654968 0.609451 -0.000000 -0.326869 -0.000011
1.911924 0.477836 0.870151 0.094453 -0.001322 -0.001313
2.032309 1.097817 0.271228 0.094454 0.006520 0.006461
2.032309 0.266412 1.099198 0.094455 -0.006520 -0.006461
2.032309 0.266412 0.271228 0.094453 -0.003260 0.003236
3.342519 0.735509 0.624994 -0.000000 0.653851 -0.000004
1.352693 0.681091 0.765667 0.000000 -0.028920 0.000033
1.486547 0.863234 0.867545 -0.031713 -0.013210 0.012605
1.861481 1.119753 0.238135 -0.031712 -0.013987 -0.013228
1.908208 0.338825 1.043069 0.054789 0.006619 0.006528
1.965428 1.111466 1.103935 0.094452 0.003260 -0.003237
1.553977 0.766554 0.593446 -0.031711 -0.013210 -0.012605
1.974003 0.689602 0.605084 0.000001 0.099672 -0.000074
1.937562 0.484135 0.503165 0.094455 -0.002644 0.002626
1.974003 0.749614 0.641388 0.000001 0.840915 -0.000005
1.753886 0.516344 0.864498 -0.031713 0.021789 0.018567
3.422552 0.538477 0.534553 -0.062176 -0.004866 0.005001
2.104805 0.682553 0.604742 0.000000 0.028920 -0.000066
1.961713 0.161044 1.195768 0.094453 -0.005361 -0.005317
1.961713 1.203186 0.174658 -0.054756 0.013672 0.012304
1.568252 0.520334 0.840105 -0.054757 -0.002522 -0.002337
1.908952 0.860788 0.493134 0.054791 -0.004558 -0.004512
1.479236 0.810404 0.559254 -0.054760 0.006053 0.005580
0.554801 0.611273 0.647016 0.000000 -0.886977 -0.000002
3.190462 0.760179 0.704767 -0.000001 0.966713 0.000004
1.554808 0.502533 0.501355 -0.031713 0.008257 -0.008259
1.779128 0.288571 0.284434 -0.031714 0.004119 -0.004222
1.720574 0.754771 0.650607 -0.000001 0.898955 -0.000007
1.686474 0.992612 1.001551 -0.031717 -0.004973 0.005078
0.757544 0.610614 0.722146 0.000001 -0.885085 0.000008
1.615861 0.826982 0.818030 -0.054758 0.006053 -0.005580
1.541363 0.476342 0.480720 -0.054761 -0.005044 0.004659
3.042390 0.588735 0.592723 0.036454 0.018830 -0.014924
0.141179 0.716495 0.616756 -0.163232 0.000108 -0.000200
2.379489 0.716392 0.612398 -0.000001 0.434748 -0.000031
3.327014 0.584850 0.603966 -0.062179 0.000648 -0.000620
2.017447 0.897585 0.895624 0.094455 0.004999 -0.004958
3.355356 0.465407 0.898827 0.036455 0.018829 0.014924
1.800253 0.354991 0.370755 -0.054758 -0.002849 0.002639
3.190462 0.715595 0.758396 -0.000000 0.409009 0.000008
3.321945 0.620544 0.605423 0.000000 -0.704742 -0.000108
