2.165061 0.417603 0.523376 0.000000 -0.989287 -0.000000
2.647948 0.503732 0.448327 0.000005 -0.001089 -0.000408
1.872335 0.775231 0.244631 0.075826 -0.003693 -0.003465
3.257297 0.318608 0.338298 -0.011553 -0.038312 0.010348
3.257297 0.690464 0.734097 -0.011552 -0.038118 0.010458
0.382796 0.429353 0.581687 -0.000000 -0.854502 0.000008
1.708070 0.517647 0.449307 0.000000 0.145928 -0.000091
1.599896 0.618663 0.642557 -0.075749 0.008802 -0.007499
0.931185 0.545058 0.614179 -0.000000 0.473419 0.000006
3.124742 0.590432 0.554774 0.042088 0.000878 0.000202
2.676891 0.592408 0.535466 0.000000 0.999910 -0.000000
1.296778 0.548135 0.459902 -0.000001 0.495591 -0.000023
2.905386 0.592313 0.532251 0.000000 0.999649 -0.000000
0.656991 0.571432 0.479217 0.000000 0.761094 -0.000003
1.903324 0.036864 1.033982 0.075828 0.005190 0.004865
1.741271 0.210193 0.236227 -0.075748 -0.004238 0.003630
2.302158 0.582311 0.495289 0.000000 0.881177 -0.000004
3.162371 0.435613 0.463740 0.697004 -0.000013 -0.000014
1.854747 0.850663 0.910005 0.075824 -0.002895 0.002717
1.865635 0.720037 0.760535 0.091163 0.003736 -0.003507
3.217195 0.576660 0.612965 -0.011554 -0.039926 0.010501
0.611292 0.488073 0.622521 -0.000001 -0.196074 0.000033
0.720970 0.501759 0.624005 0.000000 -0.026092 0.000017
1.473481 0.592402 0.535613 0.000000 0.999649 -0.000000
1.799470 0.161473 0.912884 0.075826 0.006587 0.006166
2.347857 0.471991 0.617824 -0.000000 -0.376517 0.000066
2.850547 0.444607 0.600469 -0.000000 -0.688031 0.000014
3.003499 0.316817 0.736003 0.004519 -0.075235 -0.004356
3.050573 0.705505 0.750106 0.004520 0.062795 -0.004346
2.744595 0.389690 0.658438 0.004519 -0.153325 -0.004440
3.050573 0.303568 0.322289 0.004519 -0.062800 0.004346
2.791668 0.632632 0.399854 0.004520 0.097158 0.004376
0.291398 0.540783 0.456140 0.000000 0.400990 -0.000008
1.692975 0.262968 0.780275 -0.075747 -0.005108 -0.004371
1.576576 0.385776 0.421715 -0.075748 -0.008802 0.007500
1.646480 0.242136 0.252716 -0.062996 0.005441 -0.005491
1.686744 0.592418 0.536197 0.000000 0.999660 0.000000
1.681824 0.196672 0.867698 -0.063001 0.004715 0.004763
1.623217 0.597305 0.422247 -0.062999 -0.009792 -0.009802
0.865683 0.507021 0.448382 0.000000 0.026703 -0.000033
3.003499 0.692255 0.336392 0.004520 0.075216 0.004357
0.191850 0.424451 0.499858 0.007637 -0.002287 -0.000959
0.573209 0.592399 0.534808 0.000000 0.999915 -0.000000
1.666573 0.844299 0.897837 -0.063000 -0.008946 0.008972
1.982265 0.490557 0.449435 0.000000 -0.172227 -0.000038
2.987645 0.439963 0.476586 -0.000000 -0.725610 -0.000003
2.119362 0.542107 0.456760 -0.000000 0.425291 -0.000014
2.119362 0.518153 0.623013 -0.000001 0.114820 0.000014
1.756154 0.947306 1.007476 -0.062998 -0.011122 0.011095
1.903324 0.393425 0.654463 0.075825 0.003244 0.003045
2.576353 0.481697 0.621056 -0.000000 -0.250268 0.000052
1.903324 0.989187 1.052055 0.075826 -0.005190 0.004865
1.903324 0.019885 0.020340 0.075825 0.005190 -0.004865
1.982265 0.466734 0.615526 0.000000 -0.423037 0.000007
1.807845 0.381737 0.677507 0.075825 0.005689 0.005330
0.428495 0.565368 0.599613 0.000000 0.688001 0.000028
1.616672 0.419175 0.557089 0.000000 -0.968195 0.000000
1.754369 0.811414 0.199235 -0.062998 -0.004232 -0.004277
2.663181 0.416719 0.533786 -0.000000 -0.999638 -0.000000
0.656991 0.451604 0.466053 0.000000 -0.607037 -0.000017
0.081634 0.512792 0.597848 -0.421226 0.000009 0.000057
1.753769 0.503805 0.624059 0.000000 -0.026500 0.000252
0.481811 0.500882 0.448413 -0.000000 -0.026500 -0.000034
1.903324 1.006167 0.002268 -0.000001 0.684709 -0.000338
1.855830 0.416666 0.536636 0.000000 -0.999649 0.000000
1.766806 0.658714 0.682051 0.091162 0.009463 -0.008844
2.256459 0.551611 0.610401 0.000001 0.539374 0.000010
1.251079 0.542703 0.615355 -0.000001 0.423501 0.000029
2.867299 0.588817 0.444981 0.004520 0.048913 0.004332
2.347857 0.458984 0.461052 0.000000 -0.519091 -0.000088
0.245699 0.437617 0.593150 -0.000000 -0.761263 0.000046
1.022584 0.431026 0.488047 0.000000 -0.840277 -0.000004
0.565593 0.416666 0.537075 0.000000 -0.999912 0.000000
2.922410 0.390276 0.413407 0.004520 -0.134853 0.004416
1.342477 0.466634 0.456916 0.000000 -0.425395 -0.000014
1.205380 0.530046 0.452102 -0.000001 0.300588 -0.000021
2.576353 0.577192 0.486771 0.000001 0.825176 -0.000009
1.068283 0.432622 0.586711 0.000000 -0.825869 0.000009
1.433875 0.445034 0.600868 0.000000 -0.667950 0.000004
2.954341 0.597157 0.632854 0.004518 -0.137716 0.004225
1.113982 0.591198 0.550752 -0.000000 0.985086 0.000001
1.799468 0.542967 0.457164 0.000000 0.449332 -0.000013
1.890866 0.462243 0.459166 0.000001 -0.472218 -0.000025
2.759149 0.580396 0.491837 0.000000 0.868444 -0.000002
2.987645 0.437403 0.592900 -0.000001 -0.761220 0.000046
1.780207 0.685230 0.330196 0.075825 -0.004891 -0.004585
0.885486 0.437190 0.592649 -0.000000 -0.760771 0.000006
2.439255 0.462984 0.458769 0.000000 -0.472787 -0.000006
3.103953 0.600373 0.432131 -0.011553 0.041011 0.010405
1.662628 0.794521 0.232132 -0.075747 0.004456 0.003815
1.022584 0.517719 0.623077 0.000001 0.145150 0.000046
1.770819 0.164275 0.164818 -0.063000 0.003748 -0.003790
1.159681 0.430115 0.582935 -0.000001 -0.837820 0.000004
1.479575 0.461572 0.459540 0.000000 -0.496148 -0.000047
1.514863 0.575805 0.453084 -0.062999 -0.003143 -0.003180
3.086177 0.423003 0.625254 -0.011554 -0.041008 -0.010406
1.960938 0.592394 0.535320 0.000000 0.999638 -0.000000
0.382796 0.427591 0.493743 0.000000 -0.881177 -0.000002
0.976885 0.580360 0.491773 0.000000 0.867986 -0.000008
2.603374 0.429439 0.456265 0.004518 -0.078010 0.004358
1.821246 0.330057 0.341369 0.075825 0.004891 -0.004585
3.165240 0.504536 0.622379 0.041859 0.000153 0.002522
1.599896 0.390409 0.642557 -0.075747 -0.008802 -0.007500
2.165061 0.469629 0.455554 0.000000 -0.401081 -0.000061
3.157140 0.418645 0.546626 0.041859 -0.003946 0.000720
1.568318 0.696956 0.328737 -0.062999 -0.003446 -0.003485
0.200000 0.509213 0.623954 -0.030334 0.000021 0.000314
3.205738 0.588730 0.529221 0.035359 0.001064 -0.000073
1.342477 0.437475 0.592983 0.000000 -0.761219 0.000023
1.801145 0.593006 0.641711 0.075825 -0.011377 0.010571
3.205738 0.506864 0.451748 0.025861 0.000060 -0.001457
1.692266 0.439080 0.629308 0.075824 0.006487 0.006073
0.245699 0.587959 0.508561 0.000000 0.944870 -0.000001
2.210760 0.559147 0.467350 0.000000 0.627803 -0.000017
2.657088 0.507313 0.624005 0.000000 0.026500 0.000034
2.073663 0.591453 0.549127 -0.000001 0.988308 0.000002
2.867299 0.588817 0.627414 0.004518 0.048930 -0.004331
3.228653 0.399897 0.424820 -0.011555 -0.023961 0.009729
1.819571 0.899650 0.106341 0.075824 -0.004990 -0.004678
0.839787 0.577192 0.585624 0.000000 0.821797 0.000002
1.068283 0.488397 0.449812 0.000000 -0.172227 -0.000038
1.800308 0.766843 0.801621 0.091162 0.003736 -0.003507
0.565593 0.555049 0.608111 -0.000000 0.585699 0.000005
1.670877 0.731084 0.786448 -0.063000 -0.002841 0.002875
1.665725 0.654633 0.676811 -0.075747 0.001549 -0.001328
1.296778 0.417152 0.526856 0.000000 -0.995677 -0.000000
1.688573 0.331191 0.735494 -0.062998 0.003083 0.003119
1.554494 0.558676 0.605915 -0.000000 -0.684718 -0.000204
1.839672 0.959476 1.011920 -0.075749 0.008259 -0.007042
1.839672 0.049596 0.060475 0.091163 -0.006973 0.006532
2.792025 0.422271 0.449725 0.004520 0.079609 -0.004172
1.529466 0.343945 0.367449 -0.075747 -0.004238 0.003630
1.756154 0.061766 1.007476 -0.075747 -0.009128 -0.007773
1.159681 0.465158 0.457641 -0.000001 -0.448728 -0.000027
0.388890 0.500517 0.623972 0.000010 -0.001336 0.000333
0.245699 0.464015 0.458216 0.000000 -0.472787 -0.000003
2.027964 0.418706 0.517336 -0.000000 -0.973918 -0.000003
0.474195 0.437309 0.592788 0.000000 -0.760797 0.000011
1.879036 0.137118 0.148369 0.091162 -0.002408 0.002261
0.291398 0.572833 0.591491 0.000000 0.778149 0.000022
2.484955 0.561572 0.469349 0.000001 0.647890 -0.000016
1.205380 0.417912 0.521426 -0.000000 -0.985033 -0.000002
1.800308 0.254812 0.258953 0.075825 0.004092 -0.003839
1.915239 0.505267 0.624059 0.000000 0.026500 0.000017
1.828365 0.397579 0.414029 0.075825 0.011377 -0.010571
1.564194 0.726578 0.772536 -0.062999 -0.006408 0.006457
1.903324 0.615648 0.417932 0.075827 -0.003244 -0.003045
1.513004 0.341355 0.709885 -0.075747 -0.004238 -0.003630
3.074110 0.712130 0.315237 0.004519 0.099890 0.004378
3.097646 0.290318 0.764209 0.004520 -0.099883 -0.004379
2.909352 0.343317 0.707798 0.004521 -0.068302 -0.004353
2.768131 0.626007 0.665489 0.004516 0.078039 -0.004356
3.215330 0.751878 0.799466 0.004518 0.099915 -0.004377
3.215330 0.257194 0.272929 0.004519 -0.099899 0.004378
1.554494 0.450396 0.605915 -0.062998 0.009430 0.009447
0.167444 0.579134 0.492241 -0.087057 0.000376 -0.000208
1.633137 0.576333 0.589327 -0.000001 -0.684720 -0.000815
2.817035 0.508190 0.623982 -0.000000 0.026500 0.000008
1.827946 0.730324 0.287500 0.075825 -0.004491 -0.004212
2.393556 0.589907 0.515341 0.000000 0.968195 -0.000001
3.079043 0.443652 0.472832 0.000000 -0.687895 -0.000028
2.239703 0.592375 0.537805 0.000000 0.999649 0.000000
1.704965 0.120627 0.127569 -0.075748 -0.003152 0.002701
1.525802 0.682432 0.725548 -0.062996 -0.006891 0.006939
1.449017 0.594141 0.631572 -0.062998 -0.006287 0.006337
2.898873 0.395730 0.650836 0.004518 0.059881 0.004154
1.841347 0.210090 0.856486 0.075824 0.003693 0.003465
3.002878 0.503659 0.624067 0.000000 -0.013248 0.000269
2.724113 0.501174 0.448405 0.000001 -0.010507 -0.000021
0.952512 0.416709 0.534151 -0.000000 -0.999649 -0.000000
0.060162 0.456571 0.552065 -0.505203 -0.000036 0.000011
1.296778 0.584191 0.573305 0.000000 0.904930 0.000001
0.111800 0.526047 0.464857 -0.303519 0.000033 -0.000100
3.179285 0.323141 0.730566 -0.011555 -0.057361 -0.010615
3.179285 0.685931 0.341829 -0.011554 0.057365 0.010614
3.037077 0.574514 0.464732 0.000001 0.684674 -0.000045
1.755568 0.882630 0.140253 -0.075747 0.006303 0.005388
1.819571 0.899650 0.966054 0.075824 -0.004990 0.004678
1.903324 0.104780 0.961693 0.075825 0.008383 0.007829
1.903324 0.325508 0.345642 0.075825 0.009780 -0.009114
1.903324 0.223634 0.237208 0.075825 0.007386 -0.006906
2.896246 0.470098 0.455348 0.000000 -0.401022 -0.000061
3.256707 0.283923 0.770800 -0.011553 0.038114 0.010459
3.256707 0.725149 0.301595 -0.011554 -0.038109 -0.010460
2.484955 0.438741 0.594449 -0.000000 -0.743702 0.000012
2.256459 0.429543 0.490396 0.000000 -0.854654 -0.000016
2.439255 0.563685 0.601186 0.000000 0.668604 0.000004
0.382796 0.570282 0.477891 0.000000 0.743801 -0.000006
1.687505 0.416657 0.536124 0.000000 -0.999649 -0.000000
1.205380 0.485675 0.622028 0.000000 -0.224391 0.000058
1.834646 0.253010 0.794737 0.091163 -0.003736 -0.003507
3.234382 0.625433 0.664879 -0.011554 -0.038110 0.010460
0.794088 0.564996 0.472429 0.000000 0.688106 -0.000004
0.794088 0.444156 0.600041 0.000000 -0.687908 0.000007
0.748389 0.565208 0.599764 0.000000 0.688106 0.000002
0.519894 0.559829 0.467900 0.000000 0.627601 -0.000017
1.740005 0.575607 0.482386 0.000001 -0.684717 0.000529
1.813708 0.816886 0.856678 0.091162 0.003072 -0.002884
1.388176 0.566621 0.598385 0.000000 0.707107 0.000013
2.165061 0.567600 0.597400 0.000000 0.725610 0.000006
1.580709 0.435645 0.480338 -0.075747 -0.004238 0.003630
1.726186 0.420221 0.426781 0.075825 0.003244 -0.003045
1.658080 0.282678 0.311028 -0.075748 -0.005325 0.004556
1.768952 0.047051 0.049256 -0.075748 -0.009128 0.007773
1.692975 0.734187 0.280923 -0.063001 -0.005682 -0.005732
3.135276 0.602163 0.638581 -0.011554 -0.032835 0.010307
1.662371 0.566672 0.474061 -0.000000 0.707080 -0.000053
2.713450 0.441573 0.597506 0.000000 -0.725684 0.000025
0.143277 0.548520 0.606494 -0.180964 0.000108 0.000163
3.008971 0.502489 0.448343 0.000000 -0.013049 -0.000009
1.807360 0.959840 0.056280 -0.075748 0.009128 0.007773
2.530654 0.439034 0.477619 0.000000 -0.743730 -0.000012
2.829221 0.416660 0.536636 -0.000002 -0.588874 0.000000
1.642405 0.349806 0.684934 -0.075748 -0.003097 -0.002654
1.708845 0.671651 0.731140 -0.062998 -0.003083 0.003119
1.159681 0.566259 0.598747 0.000000 0.707107 0.000013
0.794088 0.443098 0.473363 0.000000 -0.706900 -0.000007
1.619084 0.652238 0.368382 -0.063000 -0.001723 -0.001744
0.519894 0.446094 0.470574 0.000000 -0.668447 -0.000015
3.037077 0.571502 0.610493 -0.000002 0.684657 0.000138
3.140941 0.576302 0.486661 0.047676 0.000632 -0.000483
2.410313 0.504024 0.624072 0.000000 -0.013039 0.000034
2.256459 0.428422 0.580114 0.000001 -0.861254 0.000004
1.903324 0.887313 0.128774 0.075826 -0.004990 -0.004678
1.456725 0.416666 0.536636 0.000000 -0.999649 0.000000
2.941640 0.597115 0.439501 0.004519 -0.137691 -0.004225
0.695073 0.507606 0.448398 0.000000 0.026703 -0.000008
1.903324 0.819397 0.201063 0.075825 -0.006587 -0.006166
1.753769 0.571479 0.593122 0.000001 0.756613 0.000006
0.931185 0.457430 0.462014 -0.000000 -0.541330 -0.000005
0.405646 0.592313 0.540144 0.000000 0.999649 0.000000
1.725767 0.678431 0.374844 -0.075748 0.005760 0.004926
2.713450 0.430392 0.489030 0.000000 -0.840557 -0.000017
2.885815 0.349941 0.371649 0.004518 -0.134901 0.004415
2.783055 0.436734 0.609707 0.000002 -0.684168 0.000050
0.696597 0.592336 0.533128 0.000000 0.999649 -0.000000
1.461815 0.608856 0.425161 -0.063000 -0.006287 -0.006337
0.702690 0.421699 0.506868 0.000000 -0.945011 -0.000005
1.409503 0.504244 0.624071 0.000000 -0.026500 0.000017
3.120690 0.320173 0.340825 0.004519 0.101975 -0.004190
3.120690 0.688039 0.732378 0.004520 0.099868 -0.004379
2.960225 0.416680 0.534297 -0.000000 -0.999915 -0.000000
0.565593 0.443439 0.599362 0.000000 -0.688106 0.000004
2.667751 0.566414 0.473803 -0.000001 0.692618 -0.000003
1.890866 0.591066 0.520886 0.000001 0.984341 -0.000002
1.807008 0.791864 0.243245 0.091163 0.003404 0.003196
1.821246 0.679015 0.731026 0.075826 -0.004891 0.004585
0.131351 0.424300 0.536197 -0.235060 -0.000073 0.000002
2.393556 0.432965 0.587185 -0.000000 -0.810222 0.000002
2.952119 0.648859 0.381911 0.004518 0.078015 0.004357
2.667751 0.567751 0.597241 0.000000 0.725394 0.000006
2.915881 0.642276 0.683393 0.004521 0.068302 -0.004353
1.634457 0.287220 0.758829 -0.075748 -0.005542 -0.004741
1.159681 0.585805 0.502772 0.000000 0.926330 -0.000011
1.068283 0.585750 0.502637 -0.000001 0.924836 -0.000005
1.903324 0.444362 0.600246 0.075825 0.006487 0.006073
0.049865 0.504536 0.492265 -0.552244 0.000000 -0.000008
0.702690 0.443124 0.599057 -0.000001 -0.692526 0.000007
1.753406 0.418712 0.644197 0.075824 0.011377 0.010571
1.845167 0.539510 0.616812 -0.000000 0.401063 0.000015
0.839787 0.417603 0.549019 -0.000000 -0.989195 0.000001
3.038064 0.361599 0.687044 0.004518 0.151192 0.004241
1.686744 0.504536 0.624079 -0.000000 0.026896 0.000132
2.530654 0.592301 0.531812 0.000000 0.999649 -0.000000
3.213152 0.637470 0.394273 -0.011554 0.038311 0.010348
3.213152 0.371172 0.677718 -0.011553 0.019076 0.009339
2.530654 0.547183 0.613037 -0.000001 0.469528 0.000006
0.337097 0.460525 0.460138 -0.000000 -0.496161 -0.000094
0.519894 0.584828 0.571908 -0.000000 0.915316 0.000003
0.931185 0.587780 0.564352 0.000000 0.944985 0.000009
2.393556 0.426831 0.495161 -0.000000 -0.881141 -0.000014
0.931185 0.546604 0.459045 0.000000 0.472851 -0.000050
1.068283 0.560341 0.604081 0.000001 0.625599 0.000017
1.736070 0.157689 0.897987 -0.075748 -0.007172 -0.006125
1.753769 0.422937 0.503585 0.000000 -0.926340 -0.000005
2.101082 0.416686 0.535028 -0.000000 -0.999643 -0.000000
1.724821 0.766724 0.800598 -0.075748 0.004673 -0.004001
1.564194 0.282495 0.772536 -0.075747 -0.005760 -0.004926
2.165061 0.432458 0.586469 0.000001 -0.824622 0.000009
1.801145 0.605486 0.442409 0.091162 0.009463 0.008844
1.562849 0.650548 0.684052 -0.075749 0.008802 -0.007500
1.768365 0.111727 0.947805 -0.075749 -0.003151 -0.002701
3.093779 0.361159 0.381971 0.004517 -0.062829 0.004344
3.093779 0.649527 0.688908 0.004519 -0.064121 0.004158
1.637998 0.504536 0.448316 0.000000 0.026692 -0.000134
3.140941 0.494025 0.449632 0.048771 -0.000134 -0.000765
1.296778 0.588323 0.509711 -0.000000 0.953472 -0.000004
3.140941 0.446711 0.601469 0.041861 -0.002859 0.002852
1.838415 0.341840 0.716578 0.075825 0.005290 0.004958
1.585240 0.327022 0.341952 -0.062998 0.003446 -0.003485
0.151293 0.471720 0.458440 -0.149807 -0.000101 -0.000223
0.428495 0.457891 0.461717 0.000000 -0.536703 -0.000005
3.079043 0.588665 0.510792 -0.000000 0.928109 -0.000001
0.931185 0.481981 0.621129 -0.000001 -0.244785 0.000013
2.302158 0.534554 0.453604 0.000000 0.351012 -0.000018
1.022584 0.549526 0.460710 0.000000 0.519119 -0.000044
1.296778 0.473354 0.618353 0.000001 -0.348905 0.000018
2.501711 0.416713 0.534005 0.000000 -0.999649 -0.000000
2.854598 0.420213 0.445020 0.004518 -0.048931 0.004331
1.388176 0.572741 0.480790 0.000001 0.777154 -0.000011
2.293018 0.502636 0.624028 0.000000 -0.026500 0.000017
1.708845 0.337422 0.341254 -0.062998 0.003083 -0.003119
0.046503 0.543306 0.551357 -0.558712 0.000025 0.000009
1.903324 0.683564 0.726753 0.075826 -0.009780 0.009114
2.759149 0.558573 0.605498 -0.000000 0.602423 0.000004
3.197061 0.700235 0.745575 -0.011555 0.057362 -0.010615
3.197061 0.308837 0.326820 -0.011554 -0.057364 0.010615
3.205738 0.424632 0.508766 0.036982 -0.000969 -0.000318
1.846691 0.504098 0.448328 0.000000 -0.026907 -0.000008
2.850547 0.586461 0.504400 -0.000000 0.936096 -0.000003
1.570973 0.570768 0.478438 0.000001 0.756975 -0.000006
1.982265 0.436977 0.479996 0.000000 -0.759218 -0.000006
1.022584 0.417475 0.548151 0.000000 -0.989300 0.000002
2.041673 0.505559 0.448343 0.000000 0.026500 -0.000017
2.058430 0.503513 0.624052 0.000000 -0.026907 0.000033
2.614435 0.592344 0.533420 0.000000 0.999638 -0.000000
0.611292 0.425717 0.497342 0.000000 -0.893116 -0.000007
2.622052 0.426935 0.577428 0.000000 -0.881177 0.000002
1.521262 0.417931 0.452750 -0.075747 -0.002826 0.002422
2.302158 0.590284 0.555415 -0.000001 0.974186 0.000006
0.635665 0.592332 0.532982 0.000000 0.999638 -0.000000
1.540458 0.605235 0.650636 -0.062998 -0.004715 0.004763
0.143277 0.584537 0.558015 -0.180967 0.000190 0.000046
3.020782 0.669864 0.711524 0.004518 -0.076828 0.004168
3.020782 0.339854 0.360265 0.004519 -0.075241 0.004356
1.752568 0.264513 0.771520 0.091162 -0.007471 -0.006996
1.423423 0.444362 0.472149 -0.075748 -0.005651 0.004834
1.848885 0.406772 0.632978 0.091163 -0.009463 -0.008844
0.656991 0.526667 0.621239 -0.000000 0.250270 0.000103
2.824532 0.402522 0.643942 0.004517 0.099240 0.004185
0.191850 0.419691 0.559336 0.007640 -0.002416 0.000595
1.656132 0.377057 0.420834 -0.075748 -0.008802 0.007500
1.763456 0.633364 0.383540 0.075825 -0.005689 -0.005330
1.535937 0.504682 0.624075 0.000000 0.026907 0.000017
3.157140 0.561911 0.600960 0.041860 0.002494 0.003177
0.344714 0.416681 0.538171 0.000000 -0.999915 0.000000
1.865635 0.293639 0.764860 0.075825 0.008982 0.008381
2.910066 0.437152 0.610100 0.000001 -0.684526 0.000043
3.103953 0.408699 0.432131 -0.011553 -0.041011 0.010405
1.525274 0.588015 0.563660 0.000001 0.937438 0.000002
1.721471 0.250614 0.281043 -0.075749 -0.004890 0.004186
1.068283 0.480606 0.620751 -0.000000 -0.275656 0.000023
2.850547 0.533036 0.453073 -0.000000 0.326573 -0.000039
2.941946 0.582311 0.577105 -0.000000 0.880241 0.000004
1.562849 0.358525 0.684052 -0.075748 -0.008802 -0.007500
1.385891 0.505194 0.448333 0.000000 0.026248 -0.000034
0.337097 0.454415 0.608379 0.000000 -0.563335 0.000010
1.258696 0.505267 0.448335 0.000000 0.026478 -0.000017
0.419356 0.416678 0.537952 0.000000 -0.999910 0.000000
1.799468 0.443072 0.599006 -0.000001 -0.703451 0.000007
0.245699 0.543947 0.614738 0.000001 0.449192 0.000106
1.749637 0.327989 0.703565 0.091161 -0.004400 -0.004129
0.428495 0.541644 0.456543 0.000000 0.425280 -0.000114
0.635665 0.507752 0.448402 0.000000 0.026478 -0.000017
3.064234 0.630298 0.400506 0.004521 0.075213 0.004358
2.475815 0.506729 0.448374 0.000000 0.026500 -0.000008
2.808457 0.572255 0.462609 0.000001 0.684569 -0.000050
3.138299 0.383627 0.663275 -0.011554 0.023839 0.009828
3.147187 0.630983 0.400100 -0.011555 0.047848 0.010515
3.205738 0.464928 0.578356 0.697009 -0.000013 0.000014
1.556919 0.610625 0.434195 -0.075743 0.002119 0.001817
2.221423 0.416666 0.535759 0.000000 -0.999649 -0.000000
1.753769 0.482547 0.451119 0.000000 -0.250223 -0.000013
1.669026 0.801879 0.848095 -0.075746 0.004456 -0.003815
1.516134 0.504536 0.448316 0.000000 0.026692 -0.000134
2.978413 0.365771 0.389491 0.004518 0.074019 -0.004165
2.978413 0.643301 0.682904 0.004519 -0.074002 0.004166
1.874848 0.974108 0.040197 0.091164 0.005645 0.005293
3.064975 0.322765 0.730212 0.004519 -0.062800 -0.004346
1.845167 0.578561 0.488846 0.000000 0.836069 -0.000002
1.846372 0.033064 1.030413 0.091162 -0.005645 -0.005294
1.876104 0.597160 0.637808 0.075825 -0.003244 0.003045
2.119362 0.583011 0.496656 -0.000001 0.892468 -0.000007
1.982265 0.546990 0.459253 0.000001 0.470787 -0.000013
1.845167 0.590268 0.555487 0.000000 0.973808 0.000002
2.119362 0.461953 0.613073 0.000000 -0.496095 0.000023
1.799470 0.860284 0.900966 -0.075747 0.006738 -0.005756
1.982265 0.523184 0.622077 0.000000 0.224264 0.000015
2.987645 0.580487 0.491996 -0.000001 0.861338 -0.000004
1.927426 0.504975 0.448328 0.000000 0.026500 -0.000008
1.799470 0.847599 0.159511 0.075826 -0.006587 -0.006166
2.018824 0.592390 0.535174 0.000000 0.999649 -0.000000
1.672124 0.661991 0.387752 -0.075746 0.001549 0.001328
0.445252 0.508190 0.623982 0.000000 0.026500 0.000067
2.590062 0.507313 0.448390 0.000000 0.026703 -0.000067
2.667751 0.453490 0.464669 0.000000 -0.585597 -0.000037
3.205738 0.544145 0.494039 0.697008 0.000013 -0.000014
0.821508 0.592371 0.534443 0.000000 0.999638 -0.000000
1.799468 0.416662 0.536490 0.000000 -0.999643 0.000000
1.525274 0.587493 0.507214 -0.000000 0.945100 -0.000009
1.982265 0.577460 0.585231 0.000002 0.820114 0.000009
0.976885 0.570673 0.594068 -0.000000 0.761281 0.000046
1.251079 0.572925 0.481018 0.000000 0.778156 -0.000001
1.936566 0.577439 0.487133 0.000000 0.825981 -0.000005
1.639837 0.416207 0.607819 -0.075749 -0.001630 -0.001398
0.885486 0.513950 0.623572 0.000001 0.111726 0.000030
1.862285 0.677812 0.357251 0.091163 0.004400 0.004129
0.244176 0.416775 0.540729 0.000000 -0.999643 0.000000
1.936566 0.554023 0.608812 -0.000000 0.563805 0.000020
1.675425 0.199836 0.216469 -0.075747 -0.008911 0.007591
2.733253 0.592336 0.539267 0.000000 0.999649 0.000000
2.210760 0.522683 0.622180 0.000000 0.198938 0.000008
1.903324 0.172697 0.182991 0.075827 0.002894 -0.002717
1.342477 0.426762 0.495289 -0.000000 -0.881095 -0.000007
2.873397 0.502855 0.624057 0.000000 -0.013039 0.000034
1.728172 0.247074 0.822050 -0.062998 0.005199 0.005248
1.433875 0.584253 0.573173 0.000002 0.739164 0.000002
1.121598 0.503805 0.448335 -0.000000 -0.026489 -0.000067
3.124742 0.423570 0.502027 0.042945 -0.000818 -0.000332
0.557976 0.501467 0.623997 0.000000 -0.026907 0.000033
1.646538 0.589756 0.644764 -0.063001 -0.003627 0.003668
1.827109 0.159941 0.160950 0.075825 0.003294 -0.003092
2.119362 0.432622 0.485684 -0.000000 -0.810513 -0.000005
0.337097 0.549963 0.611419 -0.000001 0.518521 0.000022
3.029451 0.423183 0.625423 0.004519 -0.083495 -0.004363
1.848885 0.423751 0.457489 0.091162 -0.002698 0.002534
1.854747 0.135497 0.922503 0.091164 -0.004815 -0.004517
0.519894 0.422175 0.566832 0.000001 -0.933166 0.000005
1.614185 0.725577 0.306858 -0.075748 0.005759 0.004926
3.099724 0.572030 0.609997 -0.000000 0.684713 0.000090
1.903324 0.870334 0.925548 0.075827 -0.004990 0.004678
2.347857 0.526490 0.621285 0.000001 0.250216 0.000103
1.113982 0.453667 0.607854 -0.000000 -0.585675 0.000018
0.135312 0.493760 0.616674 -0.211958 -0.000026 0.000160
0.291398 0.422277 0.567105 0.000000 -0.936116 0.000010
1.502066 0.440003 0.596151 -0.075748 -0.005651 -0.004834
2.302158 0.446999 0.602619 -0.000000 -0.647917 0.000008
1.875686 0.821241 0.869599 0.091162 0.002740 -0.002573
2.204667 0.506144 0.448359 0.000000 0.026703 -0.000008
1.840509 0.116751 0.116467 0.075825 0.004990 -0.004678
1.708070 0.455986 0.462945 0.000001 -0.515039 -0.000003
1.858935 0.348015 0.375533 0.091163 -0.004400 0.004129
1.617535 0.733843 0.774783 -0.075749 0.005325 -0.004556
0.428495 0.458766 0.611210 -0.000000 -0.517763 0.000011
1.982265 0.427661 0.578780 0.000000 -0.881131 0.000014
2.347857 0.565474 0.472882 0.000001 0.681982 -0.000007
2.439255 0.460398 0.612184 0.000001 -0.495962 0.000047
2.844338 0.625756 0.406670 0.004519 0.116147 0.004394
2.393556 0.489405 0.449636 0.000000 -0.172064 -0.000019
0.096522 0.561896 0.574249 -0.363099 0.000065 0.000046
2.935468 0.434893 0.464417 -0.000001 -0.684703 -0.000087
0.774285 0.507313 0.624005 0.000000 0.026500 0.000067
2.759149 0.540582 0.456052 -0.000000 0.401046 -0.000031
2.439255 0.579359 0.490114 0.000000 0.848935 -0.000002
2.119362 0.583339 0.575086 -0.000001 0.890420 0.000007
2.622052 0.546056 0.613643 0.000000 0.472817 0.000050
1.890866 0.425569 0.497636 0.000000 -0.893364 -0.000002
0.096522 0.462029 0.590339 -0.363097 -0.000048 0.000064
1.810358 0.208942 0.233999 0.091163 -0.003404 0.003196
1.865635 0.297525 0.320896 0.091163 -0.004068 0.003818
1.479575 0.569305 0.595591 -0.000001 0.719508 0.000003
2.210760 0.446888 0.469871 0.000000 -0.648013 -0.000016
2.393556 0.586383 0.568200 -0.000000 0.936042 0.000010
2.987645 0.552472 0.609846 0.000000 0.541680 0.000041
0.245699 0.482511 0.621266 -0.000000 -0.250214 0.000207
2.759149 0.462984 0.458769 0.000000 -0.472872 -0.000012
1.616672 0.585033 0.500955 0.000000 0.915820 -0.000001
1.712367 0.363705 0.411829 0.091162 -0.002366 0.002222
2.364614 0.416705 0.538098 0.000000 -0.999649 0.000000
1.817058 0.814616 0.196572 0.075825 -0.007386 -0.006906
1.113982 0.419678 0.559036 0.000000 -0.968195 0.000000
1.672752 0.610850 0.447449 -0.075747 0.003260 0.002794
1.461815 0.400216 0.647234 -0.075747 -0.005651 -0.004834
0.245699 0.515910 0.449058 -0.000000 0.119511 -0.000111
1.704965 0.888445 0.944826 -0.062998 -0.003748 0.003790
0.291398 0.488325 0.449825 0.000000 -0.172459 -0.000019
2.165061 0.492438 0.623237 0.000000 -0.145928 0.000045
0.611292 0.552134 0.462331 0.000000 0.541746 -0.000010
0.656991 0.463886 0.614110 0.000003 -0.205362 0.000007
2.978811 0.410569 0.434168 0.004518 -0.153354 0.004439
2.530654 0.458266 0.610906 -0.000000 -0.515757 0.000006
0.200000 0.457922 0.610698 0.007643 -0.001351 0.002065
1.433875 0.585640 0.502366 0.000000 0.926445 -0.000005
1.205380 0.581412 0.578780 -0.000000 0.881131 0.000007
1.685566 0.579239 0.586597 0.000000 -0.684719 -0.001018
1.859772 0.005319 1.072395 0.000000 -0.684719 0.000338
3.033344 0.425766 0.497244 0.000000 -0.893385 -0.000007
3.209698 0.664457 0.705768 -0.011556 -0.038105 0.010461
3.209698 0.344616 0.366627 -0.011556 0.038105 -0.010461
2.896246 0.548294 0.612402 -0.000000 0.496086 0.000012
2.752056 0.592548 0.441848 0.004519 0.116146 0.004394
0.839787 0.462919 0.458803 0.000000 -0.472827 -0.000025
2.896246 0.420804 0.562858 -0.000000 -0.953446 0.000002
1.737920 0.790614 0.245473 -0.075748 0.004456 0.003815
0.611292 0.428441 0.580145 0.000000 -0.868130 0.000015
0.565593 0.576450 0.485684 0.000000 0.810916 -0.000001
0.748389 0.428314 0.579923 -0.000000 -0.868069 0.000008
2.622052 0.547119 0.459322 0.000000 0.496095 -0.000006
1.790257 0.719745 0.777821 0.075825 -0.004491 0.004212
1.786070 0.181853 0.863982 0.091163 -0.006143 -0.005759
1.745868 0.728027 0.319367 -0.075748 0.010214 0.008683
1.740005 0.453413 0.608750 0.075824 0.003244 0.003045
2.622052 0.422909 0.503653 0.000000 -0.926609 -0.000001
0.885486 0.565500 0.472907 0.000001 0.681982 -0.000007
1.433875 0.548040 0.612547 -0.000001 0.495712 0.000023
1.633137 0.454017 0.463078 -0.062999 0.007254 -0.007300
1.663578 0.694647 0.723712 -0.075751 0.002880 -0.002468
1.679452 0.403172 0.663621 -0.062997 0.007254 0.007300
2.210760 0.581412 0.578780 -0.000000 0.881086 0.000004
1.790257 0.275517 0.307549 0.091163 -0.004068 0.003818
0.976885 0.592247 0.541568 -0.000001 0.916953 0.000000
0.337097 0.518515 0.449435 0.000000 0.172160 -0.000153
0.286828 0.592305 0.540436 0.000000 0.999638 0.000000
1.652879 0.230175 0.823186 -0.075747 -0.004890 -0.004186
2.347857 0.512167 0.448654 0.000000 0.093059 -0.000572
2.119362 0.491498 0.449296 -0.000000 -0.145924 -0.000045
1.729370 0.174221 0.192900 -0.075747 -0.008041 0.006859
2.484955 0.578363 0.583856 0.000001 0.839872 0.000009
2.985476 0.349791 0.701553 0.004519 -0.142806 -0.004426
1.736070 0.844632 0.904330 -0.063000 -0.008463 0.008496
2.768131 0.383066 0.406906 0.004520 -0.077983 0.004359
2.697521 0.402940 0.644335 0.004519 -0.116147 -0.004394
3.238867 0.250569 0.806517 0.004518 -0.099915 -0.004377
3.238867 0.758503 0.265878 0.004519 0.099899 0.004378
3.121183 0.725379 0.301135 0.004519 0.148085 0.004432
2.896246 0.575829 0.484825 -0.000000 0.810569 -0.000039
1.616672 0.549119 0.460465 0.000000 0.495474 -0.000003
2.791668 0.376441 0.672541 0.004519 -0.097176 -0.004375
2.800995 0.599089 0.637677 0.004518 0.078010 -0.004358
1.753406 0.590360 0.428198 0.075825 -0.011377 -0.010571
0.702690 0.555168 0.464369 0.000001 0.584971 -0.000019
1.868985 0.246811 0.266469 0.091162 -0.003404 0.003196
1.868985 0.762261 0.805926 0.091162 0.003404 -0.003196
1.773507 0.325337 0.362816 0.091163 -0.004400 0.004129
1.388176 0.425569 0.574759 0.000000 -0.893365 0.000003
0.702690 0.547817 0.612674 -0.000001 0.495998 0.000047
0.885486 0.562897 0.601895 0.000001 0.668313 0.000030
0.428495 0.582518 0.495676 0.000000 0.893426 -0.000007
3.256707 0.724934 0.771002 -0.011554 0.038309 -0.010349
3.256707 0.284138 0.301393 -0.011554 -0.038310 0.010349
3.029451 0.423183 0.446971 0.004519 -0.083495 0.004363
1.853072 0.016532 0.023490 0.091162 -0.005645 0.005294
1.853072 0.992540 1.048905 -0.075747 0.006520 -0.005572
0.474195 0.548262 0.612420 0.000000 0.496077 0.000047
0.382796 0.578878 0.583057 0.000001 0.836862 0.000004
0.291398 0.578878 0.489337 0.000000 0.840602 -0.000004
1.022584 0.461001 0.612529 0.000000 -0.496128 0.000047
1.805561 0.504098 0.624067 0.000000 -0.026500 0.000034
1.640082 0.759579 0.260547 -0.063000 -0.005682 -0.005732
1.068283 0.417135 0.527038 0.000001 -0.980558 -0.000000
0.839787 0.578838 0.489276 0.000000 0.839836 -0.000004
1.433875 0.488253 0.449838 0.000000 -0.198311 -0.000033
2.667751 0.459672 0.611760 0.000000 -0.519119 0.000022
0.200000 0.592138 0.529186 -0.030289 0.000314 -0.000021
2.073663 0.570111 0.594694 -0.000000 0.743685 0.000012
1.685174 0.821075 0.195835 -0.063000 -0.004715 -0.004763
0.748389 0.578403 0.488600 -0.000001 0.839621 -0.000009
0.815414 0.506144 0.448359 0.000000 0.026703 -0.000008
1.737774 0.592412 0.536417 -0.000000 0.999638 0.000000
2.302158 0.442503 0.473958 -0.000000 -0.707002 -0.000027
2.576353 0.438888 0.594612 0.000001 -0.743222 0.000012
1.712367 0.645367 0.660566 -0.075745 0.001549 -0.001328
1.736070 0.851383 0.174408 -0.075747 0.007172 0.006125
0.039892 0.497706 0.572421 -0.584643 -0.000005 0.000022
1.848047 0.169009 0.885939 0.091161 -0.005479 -0.005138
1.814546 0.644686 0.695230 0.075824 -0.002645 0.002483
1.679370 0.150058 0.913500 -0.075748 -0.007172 -0.006125
1.717762 0.903160 0.111907 -0.062999 -0.007012 -0.007059
1.781749 0.976736 1.038802 -0.062999 -0.009188 0.009210
1.589789 0.253064 0.268534 -0.075748 -0.010649 0.009046
1.449017 0.414932 0.440823 -0.075748 -0.005651 0.004834
1.487410 0.370786 0.678560 -0.075747 -0.005651 -0.004834
1.538599 0.311925 0.741210 -0.075747 -0.006194 -0.005295
1.781749 0.032336 1.038802 -0.075749 -0.007389 -0.006308
1.730560 0.091197 0.976151 -0.075748 -0.010866 -0.009227
1.730560 0.917875 0.976151 -0.062999 -0.006529 0.006578
1.342477 0.417349 0.547172 0.000001 -0.974671 0.000000
2.347857 0.592394 0.535320 0.000000 0.999638 -0.000000
1.068283 0.443890 0.472605 0.000000 -0.687908 -0.000007
1.342477 0.529661 0.451987 -0.000000 0.272999 -0.000012
1.022584 0.469227 0.455730 -0.000000 -0.401040 -0.000061
1.799468 0.556857 0.606805 -0.000000 0.586620 0.000002
3.120690 0.320173 0.731570 0.004519 0.101974 0.004190
3.097646 0.290318 0.308186 0.004519 -0.099899 0.004378
3.097646 0.718754 0.764209 0.004521 0.099866 -0.004379
1.845167 0.430511 0.583549 0.000000 -0.840542 0.000002
2.073663 0.559004 0.467235 0.000001 0.625785 -0.000008
0.519894 0.459203 0.611476 -0.000000 -0.519070 0.000044
0.748389 0.430590 0.488723 -0.000000 -0.840609 -0.000009
2.530654 0.425099 0.573768 -0.000000 -0.905060 0.000013
2.027964 0.449812 0.604953 0.000000 -0.609643 0.000002
3.010494 0.416767 0.540436 0.000000 -0.999644 0.000000
1.388176 0.460747 0.612384 -0.000001 -0.495554 0.000023
1.753406 0.608671 0.626994 0.091162 0.009463 -0.008844
1.868148 0.072772 0.999669 0.075826 0.008383 0.007829
2.804848 0.591432 0.523123 0.000000 0.987021 -0.000001
1.848885 0.595651 0.433169 0.075827 -0.003244 -0.003045
1.903324 0.189676 0.871331 0.075825 0.006587 0.006166
1.903324 0.649606 0.381787 0.075825 -0.010579 -0.009844
1.903324 0.359467 0.690608 0.075825 0.010579 0.009844
1.903324 0.410404 0.436004 0.075825 0.006487 -0.006073
1.903324 0.734501 0.291425 0.075825 -0.008184 -0.007645
1.903324 0.955229 1.015910 0.075824 -0.006787 0.006351
1.903324 0.053843 0.056485 0.075825 0.006787 -0.006351
2.960225 0.592309 0.532105 0.000000 0.999649 -0.000000
2.713450 0.542206 0.615588 -0.000000 0.424813 0.000014
1.251079 0.417218 0.546083 0.000000 -0.992430 0.000002
2.850547 0.590591 0.553986 -0.000000 0.980090 0.000005
1.296778 0.426160 0.575935 0.000000 -0.893376 0.000013
0.245699 0.428259 0.492567 -0.000000 -0.868225 -0.000031
2.165061 0.572672 0.480705 0.000000 0.778248 -0.000022
3.124742 0.540850 0.456169 0.046659 0.000345 -0.000735
0.973838 0.506729 0.624021 0.000000 0.026500 0.000008
2.713450 0.579207 0.582530 -0.000000 0.854409 0.000008
0.976885 0.442839 0.473622 -0.000001 -0.692218 -0.000003
0.794088 0.550619 0.611020 -0.000001 0.513149 0.000011
2.850547 0.427697 0.493551 0.000000 -0.868268 -0.000002
1.538599 0.311925 0.331184 -0.075748 -0.006194 0.005295
2.256459 0.572190 0.480108 0.000000 0.761210 -0.000011
1.296778 0.436882 0.480108 -0.000000 -0.761310 -0.000006
1.814546 0.672508 0.369279 0.091162 0.008799 0.008229
1.156634 0.416694 0.534736 -0.000000 -0.999649 -0.000000
2.393556 0.549151 0.611912 -0.000001 0.519016 0.000044
0.839787 0.458484 0.611039 -0.000000 -0.518350 0.000011
1.855585 0.373261 0.669543 0.091161 -0.004732 -0.004440
0.931185 0.426831 0.577234 0.000000 -0.880994 0.000002
1.479575 0.427177 0.494516 -0.000000 -0.880604 -0.000004
3.205738 0.458329 0.465472 0.042073 -0.000501 -0.000744
1.479575 0.577357 0.487013 -0.000000 0.825247 -0.000005
3.167827 0.354366 0.694744 -0.011556 0.038105 0.010461
1.570973 0.416756 0.539998 0.000000 -0.999643 0.000000
3.205738 0.544145 0.578356 0.697009 0.000013 0.000014
0.611292 0.466303 0.457071 -0.000000 -0.425200 -0.000014
1.205380 0.481203 0.451473 -0.000000 -0.275656 -0.000023
1.861448 0.890107 0.940996 0.091162 0.004815 -0.004517
1.903324 0.853355 0.164919 0.075827 -0.005789 -0.005423
2.987645 0.545219 0.458302 0.000000 0.473094 -0.000006
1.723770 0.303380 0.766072 -0.062998 0.005682 0.005733
0.143277 0.435435 0.490358 -0.180969 -0.000169 -0.000106
2.576353 0.530325 0.620205 0.000000 0.301383 0.000085
0.245699 0.560512 0.468451 0.000000 0.627314 -0.000008
1.662371 0.546088 0.613626 -0.000000 0.470787 0.000006
0.565593 0.434880 0.482626 0.000000 -0.794482 -0.000005
1.936566 0.448617 0.468405 0.000000 -0.627673 -0.000002
2.711927 0.416667 0.537148 0.000005 -0.090735 0.000000
0.748389 0.463113 0.613695 -0.000000 -0.472780 0.000025
1.525802 0.682432 0.346847 -0.062998 -0.006891 -0.006939
1.628181 0.208919 0.221546 -0.075748 -0.004456 0.003815
1.698624 0.718945 0.747951 -0.075749 0.005325 -0.004556
1.022584 0.590461 0.517764 -0.000001 0.968943 -0.000001
0.915191 0.502271 0.448376 -0.000000 -0.026500 -0.000067
0.611292 0.541445 0.615946 0.000000 0.425277 0.000114
2.713450 0.554415 0.463851 0.000000 0.563857 -0.000039
2.484955 0.429732 0.490083 0.000000 -0.854729 -0.000008
2.850547 0.484819 0.450564 0.000000 -0.224387 -0.000058
0.611292 0.583849 0.574033 0.000001 0.904803 0.000025
1.205380 0.438790 0.477891 0.000000 -0.743902 -0.000006
1.342477 0.581339 0.493487 -0.000001 0.861975 -0.000004
1.342477 0.576450 0.586711 -0.000000 0.825854 0.000018
1.616672 0.421024 0.508840 -0.000000 -0.953469 -0.000004
1.205380 0.423184 0.569420 0.000000 -0.926194 0.000005
1.113982 0.547881 0.612638 -0.000002 0.339219 0.000004
0.245699 0.587565 0.564974 0.000000 0.945130 0.000018
1.068283 0.536265 0.454247 0.000000 0.351660 -0.000018
2.027964 0.421675 0.565457 -0.000002 -0.671069 0.000001
3.000400 0.605613 0.645771 0.004519 0.142825 -0.004425
3.079043 0.586177 0.568708 0.000000 0.926385 0.000011
1.801145 0.403587 0.629986 0.091163 -0.009463 -0.008844
1.760106 0.366890 0.663558 0.091162 -0.002366 -0.002222
0.794088 0.584362 0.572941 0.000000 0.904930 0.000003
1.159681 0.543425 0.457394 -0.000000 0.449010 -0.000027
1.159681 0.465974 0.615165 -0.000001 -0.439241 0.000014
1.708070 0.429410 0.581780 -0.000000 -0.851750 0.000002
2.530654 0.549994 0.460995 -0.000000 0.519117 -0.000044
1.623217 0.411767 0.422247 -0.063000 0.009792 -0.009801
2.302158 0.562897 0.601895 0.000001 0.667416 0.000015
3.124742 0.529907 0.620337 0.045311 0.000231 0.000804
1.776857 0.692002 0.718825 0.091163 0.008799 -0.008229
1.479575 0.475414 0.619106 -0.000000 -0.326306 0.000019
0.529033 0.508044 0.448409 0.000000 0.026500 -0.000067
0.931185 0.586383 0.504194 0.000000 0.936061 -0.000003
1.296778 0.529907 0.620337 -0.000000 0.301268 0.000021
1.799468 0.496032 0.448736 0.000000 -0.093128 -0.000143
2.759149 0.424039 0.500955 0.000000 -0.916017 -0.000003
1.755568 0.126442 0.140253 -0.075748 -0.003152 0.002701
1.753769 0.530395 0.452212 -0.000000 0.301423 -0.000085
3.090405 0.614413 0.655520 -0.011552 0.041014 -0.010404
1.113982 0.454023 0.464284 0.000000 -0.585654 -0.000018
1.205380 0.580175 0.491458 0.000000 0.854820 -0.000004
3.205738 0.422639 0.556937 0.042284 -0.000868 0.000207
0.702690 0.462082 0.459253 0.000000 -0.472369 -0.000012
0.291398 0.445849 0.470793 -0.000000 -0.668469 -0.000030
1.814546 0.364387 0.377164 0.075825 0.002645 -0.002483
1.159681 0.430115 0.489460 0.000000 -0.840277 -0.000004
0.337097 0.561517 0.469302 0.000000 0.648506 -0.000016
2.941946 0.426623 0.576848 0.000000 -0.881177 0.000004
2.622052 0.470366 0.617164 0.000000 -0.400931 0.000031
2.941946 0.481414 0.451412 0.000000 -0.275946 -0.000093
2.896246 0.517032 0.449216 -0.000000 0.145839 -0.000091
1.296778 0.477492 0.452587 0.000000 -0.301356 -0.000085
2.027964 0.444925 0.471624 -0.000000 -0.668604 -0.000004
2.165061 0.531406 0.452531 0.000000 0.301442 -0.000021
0.839787 0.428821 0.491583 -0.000000 -0.854729 -0.000008
1.487410 0.638286 0.393835 -0.062997 -0.006287 -0.006337
1.520332 0.375964 0.403714 -0.075747 -0.004238 0.003630
3.181964 0.604906 0.643795 -0.011555 0.033006 -0.010199
3.053206 0.682995 0.345709 0.004517 0.062829 0.004344
3.181964 0.403403 0.429317 -0.011554 0.065470 -0.010793
2.993336 0.590972 0.446531 0.004519 -0.145801 -0.004235
1.705022 0.282770 0.316612 -0.075748 -0.005325 0.004556
1.841347 0.782004 0.838414 0.075826 -0.003693 0.003465
1.812871 0.126772 0.948331 0.075826 0.005789 0.005423
1.251079 0.496469 0.623700 -0.000001 -0.092462 0.000144
0.200000 0.474723 0.453527 0.007638 -0.000878 -0.002322
2.119362 0.426762 0.577105 0.000001 -0.866325 0.000002
1.205380 0.532690 0.619441 0.000000 0.326971 0.000019
0.474195 0.551088 0.461659 0.000000 0.519106 -0.000005
0.702690 0.581585 0.578458 0.000000 0.881177 0.000002
2.650447 0.416190 0.442163 0.004518 -0.153351 0.004439
3.173339 0.544429 0.460188 0.041861 0.002059 -0.003402
0.519894 0.587103 0.506111 0.000000 0.936128 -0.000001
1.607787 0.290852 0.314690 -0.075747 -0.005760 0.004926
2.954341 0.411915 0.632854 0.004518 0.069778 0.004162
3.079043 0.468289 0.616255 0.000000 -0.396168 0.000004
2.941946 0.569793 0.477348 -0.000000 0.743685 -0.000012
0.474195 0.588367 0.562544 -0.000000 0.953512 0.000008
0.291398 0.462404 0.613315 -0.000000 -0.472944 0.000025
1.982265 0.582207 0.495096 0.000000 0.881177 -0.000002
1.616672 0.537758 0.617549 0.000001 0.375056 0.000033
2.804848 0.551150 0.610698 -0.000000 0.541458 0.000005
1.780626 0.400225 0.411543 0.075825 0.011377 -0.010571
2.347857 0.428314 0.579923 0.000000 -0.868030 0.000008
1.786070 0.196174 0.194958 0.075825 0.007386 -0.006906
0.839787 0.544535 0.457953 -0.000000 0.447774 -0.000007
2.439255 0.534862 0.453720 0.000000 0.351472 -0.000018
1.159681 0.589523 0.558541 0.000000 0.967880 0.000002
1.712576 0.397678 0.624434 0.091164 -0.002698 -0.002534
1.068283 0.589559 0.558399 0.000000 0.963612 0.000001
2.302158 0.483255 0.450936 0.000000 -0.250222 -0.000103
2.898873 0.613343 0.421559 0.004520 -0.059860 -0.004156
2.898873 0.613343 0.650836 0.004518 -0.118592 0.004204
0.337097 0.582617 0.576523 0.000000 0.892845 0.000007
0.519894 0.420826 0.509467 -0.000001 -0.950095 -0.000002
0.474195 0.451836 0.465876 -0.000000 -0.606434 -0.000009
2.256459 0.474723 0.618868 0.000000 -0.351771 0.000071
1.251079 0.577604 0.585020 -0.000001 0.823153 0.000009
2.850547 0.542107 0.615635 0.000000 0.425305 0.000028
1.936566 0.584036 0.573636 0.000001 0.903106 0.000006
1.479575 0.532414 0.452858 -0.000000 0.326441 -0.000019
2.527607 0.502490 0.624024 0.000000 -0.026896 0.000017
0.885486 0.452363 0.465483 0.000000 -0.585415 -0.000019
1.821246 0.706019 0.332715 0.091162 0.008135 0.007613
3.033344 0.427733 0.578907 0.000001 -0.838862 0.000002
1.799468 0.581267 0.493360 0.000001 0.866619 -0.000008
0.382796 0.545058 0.614179 -0.000000 0.473419 0.000006
0.656991 0.420215 0.511459 0.000000 -0.960844 -0.000004
0.702690 0.418227 0.552732 -0.000000 -0.978777 0.000001
0.748389 0.544274 0.457821 0.000000 0.449169 -0.000013
1.589789 0.756008 0.803861 -0.062997 -0.011847 0.011794
2.804848 0.425766 0.497244 0.000000 -0.893201 -0.000002
0.519894 0.551703 0.610341 0.000001 0.539932 0.000010
2.210760 0.430353 0.583303 0.000000 -0.840781 0.000002
2.530654 0.582551 0.576654 0.000000 0.893447 0.000002
2.896246 0.580777 0.579891 -0.000000 0.868227 0.000031
2.439255 0.428241 0.492599 0.000000 -0.868093 -0.000002
1.708070 0.548611 0.612220 0.000000 0.496171 0.000047
2.622052 0.582086 0.577524 -0.000000 0.881117 0.000007
1.113982 0.586692 0.505016 0.000001 0.934711 -0.000005
1.787863 0.928593 0.090435 -0.075747 0.010866 0.009227
2.941946 0.550275 0.611229 -0.000001 0.518279 0.000022
1.730560 0.091197 0.096244 -0.075748 -0.010866 0.009227
1.775065 0.913878 0.966297 -0.075747 0.010866 -0.009227
3.033344 0.470232 0.617105 -0.000000 -0.399748 0.000015
0.885486 0.417349 0.547172 0.000000 -0.992828 0.000002
2.667751 0.427733 0.578907 0.000000 -0.868180 0.000004
2.347857 0.426324 0.496133 -0.000000 -0.893392 -0.000013
1.022584 0.559602 0.604678 -0.000003 0.334507 0.000004
0.337097 0.428005 0.493011 0.000000 -0.868230 -0.000031
2.073663 0.424741 0.499387 0.000000 -0.905057 -0.000006
0.885486 0.587993 0.563729 0.000002 0.856532 0.000001
2.484955 0.462984 0.458769 -0.000000 -0.472746 -0.000012
2.713450 0.583989 0.498659 0.000001 0.904979 -0.000025
0.074355 0.543082 0.492146 -0.449676 0.000036 -0.000039
2.073663 0.586218 0.503788 0.000000 0.926524 -0.000003
3.079043 0.428713 0.580621 0.000001 -0.867490 0.000008
2.987645 0.583093 0.575576 0.000001 0.892599 0.000007
1.501446 0.597046 0.628842 -0.075751 0.002825 -0.002422
0.382796 0.459047 0.461014 0.000001 -0.518573 -0.000022
3.079043 0.557149 0.465809 0.000000 0.606643 -0.000018
2.576353 0.428096 0.492853 -0.000000 -0.867402 -0.000004
1.793607 0.272162 0.795719 0.075824 0.004491 0.004212
0.611292 0.582715 0.496068 -0.000001 0.892479 -0.000013
1.708070 0.425979 0.496819 0.000000 -0.893447 -0.000003
0.976885 0.548167 0.459920 0.000001 0.494063 -0.000012
1.903324 0.734501 0.780970 0.075826 -0.004092 0.003839
1.865635 0.720037 0.311860 0.091163 0.003736 0.003507
1.903324 0.274571 0.780970 0.075825 0.008184 0.007645
2.210760 0.586163 0.503653 0.000000 0.926324 -0.000001
1.632811 0.620997 0.674388 -0.062997 -0.009793 0.009802
0.428495 0.427056 0.494742 0.000000 -0.881142 -0.000029
2.622052 0.579663 0.490614 -0.000000 0.854715 -0.000016
0.931185 0.426831 0.495161 -0.000000 -0.881134 -0.000014
3.124742 0.483679 0.621568 0.041799 -0.000227 0.000878
2.650447 0.592883 0.630232 0.004518 0.153364 -0.004439
1.890866 0.542074 0.615650 -0.000001 0.424297 0.000029
2.256459 0.535547 0.453977 -0.000000 0.351492 -0.000036
1.638582 0.313926 0.345183 -0.075748 -0.002880 0.002468
2.576353 0.465582 0.457427 0.000000 -0.449144 -0.000027
1.619084 0.663899 0.693057 -0.075748 0.001549 -0.001328
1.566982 0.420362 0.636674 -0.062999 0.009792 0.009802
0.191850 0.551183 0.610750 0.007641 0.001352 0.002066
2.650447 0.592883 0.442163 0.004519 0.153337 0.004439
1.890866 0.421197 0.564075 0.000001 -0.942257 0.000005
3.240110 0.367381 0.390211 -0.011554 -0.038309 0.010349
1.525274 0.461953 0.459322 0.000000 -0.496095 -0.000012
1.613435 0.691060 0.347014 -0.075748 0.005977 0.005111
3.205738 0.523011 0.618635 0.042286 0.000207 0.000867
1.747971 0.205015 0.865329 -0.062998 0.004715 0.004763
1.936566 0.426423 0.576458 0.000000 -0.893365 0.000007
2.256459 0.581913 0.577846 -0.000001 0.879696 0.000007
1.835275 0.586230 0.614053 0.091162 0.005396 -0.005061
3.033344 0.466370 0.457040 0.000000 -0.425316 -0.000014
2.804848 0.424679 0.572875 0.000001 -0.895089 0.000003
3.214837 0.294534 0.760584 -0.011553 -0.038312 -0.010348
3.214837 0.714538 0.311811 -0.011555 0.038306 0.010349
1.821246 0.303053 0.739680 0.091162 -0.008135 -0.007613
2.267122 0.416705 0.534297 0.000002 -0.342258 -0.000000
3.173339 0.584800 0.566637 0.041856 0.003800 0.001179
0.200000 0.560626 0.468543 0.007638 0.001619 -0.001859
1.658080 0.716369 0.301609 -0.062998 -0.006166 -0.006216
1.609490 0.380527 0.392623 -0.062999 0.009792 -0.009802
1.606923 0.444831 0.600687 0.000001 0.684716 -0.000305
1.770156 0.675469 0.372062 0.091162 0.002200 0.002066
2.165061 0.434836 0.482684 -0.000000 -0.794362 -0.000005
0.151293 0.545431 0.462369 -0.149806 0.000123 -0.000208
0.428495 0.428078 0.579511 0.000000 -0.867846 0.000008
2.941946 0.467428 0.615852 -0.000001 -0.424866 0.000028
1.251079 0.423418 0.502400 -0.000000 -0.926159 -0.000003
1.792351 0.343573 0.692688 0.091163 -0.004400 -0.004129
0.033434 0.476240 0.521494 -0.609994 -0.000016 -0.000008
2.622052 0.469093 0.455788 0.000000 -0.400833 -0.000015
0.748389 0.462855 0.458838 0.000000 -0.472780 -0.000025
2.956426 0.679005 0.350494 0.004519 0.153314 0.004440
1.662371 0.468222 0.616225 -0.000001 -0.425215 0.000114
1.859772 1.009072 0.004998 -0.000001 0.684709 -0.000338
1.586170 0.645914 0.396465 -0.075748 0.008802 0.007500
1.936566 0.467958 0.616101 0.000000 -0.425316 0.000028
2.804848 0.463499 0.458492 0.000000 -0.472837 -0.000050
1.845167 0.546604 0.459045 0.000000 0.472869 -0.000050
1.858935 0.669546 0.705898 0.091163 0.004400 -0.004129
1.903324 0.002906 1.070127 0.000000 -0.684719 0.000338
1.342477 0.473046 0.618238 0.000000 -0.351642 0.000036
1.662371 0.424039 0.571440 0.000000 -0.912592 0.000001
3.157140 0.590427 0.525768 0.041859 0.003946 -0.000720
1.638582 0.324769 0.737399 -0.062999 0.006649 0.006698
2.856106 0.379502 0.403616 0.004518 0.059884 -0.004154
2.997245 0.663239 0.367922 0.004518 -0.076825 -0.004168
1.407979 0.592414 0.536344 0.000000 0.999649 0.000000
1.692266 0.569992 0.443087 0.075824 -0.006487 -0.006073
2.439255 0.429543 0.581999 -0.000001 -0.853819 0.000008
1.868148 0.923618 0.094834 0.091162 0.008301 0.007767
1.514243 0.611762 0.427891 -0.075754 0.002825 0.002422
0.839787 0.544796 0.614311 0.000000 0.449169 0.000027
2.027964 0.582781 0.576196 0.000001 0.892599 0.000007
1.698624 0.718945 0.324444 -0.075749 0.005325 0.004556
1.690374 0.772356 0.261210 -0.075748 0.004890 0.004186
1.759269 0.265576 0.265852 0.075825 0.008982 -0.008381
2.752056 0.593217 0.629918 0.004518 -0.118590 0.004204
0.382796 0.459797 0.611836 0.000001 -0.519003 0.000044
0.428495 0.498874 0.448506 0.000000 -0.066359 -0.000100
0.615862 0.416729 0.538975 0.000000 -0.999643 0.000000
1.827946 0.278749 0.287500 0.075825 0.008982 -0.008381
1.790257 0.733555 0.307549 0.091163 0.004068 0.003818
3.124742 0.455955 0.462965 0.041526 -0.000515 -0.000754
1.936566 0.545637 0.458527 0.000000 0.472661 -0.000025
1.640082 0.764182 0.807523 -0.075751 0.004890 -0.004186
