2.728624 0.601287 0.362484 -0.000000 -0.024883 -0.000041
3.133690 0.310355 0.694817 0.145001 -0.001825 -0.005032
1.268477 0.640481 0.566982 -0.000000 0.353785 0.000042
2.931861 0.743915 0.372787 -0.000000 -0.610973 -0.001146
2.676924 0.559020 0.563072 0.000000 -0.422965 0.000009
1.740502 0.414104 0.313564 0.066648 0.001697 -0.002198
2.064351 0.709857 0.467053 0.000000 0.999687 -0.000000
1.705581 0.515091 0.411801 0.000000 -0.846707 -0.000040
1.791656 0.209719 0.775607 0.066644 0.004273 0.005526
1.122775 0.708130 0.448793 -0.000000 0.982502 -0.000003
2.832785 0.495157 0.370977 -0.000002 -0.610971 0.000764
2.531222 0.635496 0.367091 0.000000 0.282952 -0.000014
0.831373 0.682660 0.538575 -0.000000 0.741436 0.000014
1.266910 0.709840 0.469353 0.000000 0.999696 0.000000
3.219528 0.889702 0.260273 0.000001 -0.610971 -0.000889
2.996017 0.677490 0.536855 0.000000 0.610973 -0.000573
1.638193 0.331574 0.272493 0.062987 -0.003258 0.004216
1.408733 0.694954 0.523177 0.000001 -0.791652 -0.000528
2.865240 0.455860 0.569941 -0.000001 0.610972 0.000478
0.539970 0.538460 0.550177 0.000000 -0.630791 0.000002
1.463898 0.721720 0.394604 -0.066569 0.003901 0.004571
3.371189 0.512574 0.470320 0.188063 -0.000204 0.000003
2.640379 0.498383 0.386046 0.145002 -0.000904 0.002491
1.996984 0.677545 0.543857 -0.000001 0.688969 0.000034
1.899850 0.589748 0.572311 -0.000001 -0.136610 0.000116
2.434088 0.703598 0.432035 -0.000000 0.942988 -0.000003
1.498554 0.749878 0.562095 -0.066570 0.003901 -0.004571
2.925596 0.449943 0.599666 0.000000 -0.610973 -0.000573
1.625495 0.513081 0.413587 0.062987 -0.002881 0.003730
1.074208 0.501701 0.443926 0.000001 -0.969992 -0.000002
3.291093 0.730236 0.383343 -0.000000 -0.610973 -0.000429
3.039726 0.862648 0.667176 0.145000 0.001826 -0.005032
1.948417 0.549414 0.377879 0.000000 -0.531823 -0.000006
2.824432 0.749832 0.592687 0.000002 0.610971 -0.000764
1.480147 0.829358 0.304331 -0.066568 0.005954 0.006961
0.839206 0.605313 0.573331 -0.000000 0.012336 0.000042
1.705581 0.602437 0.362455 0.000000 -0.025028 -0.000319
1.657014 0.643321 0.565897 -0.000000 0.376816 0.000020
1.870083 0.498949 0.468203 0.000000 -0.999687 0.000000
0.831373 0.503347 0.498016 -0.000001 -0.959066 0.000009
1.511313 0.696250 0.519713 -0.000000 0.872071 0.000004
3.308296 0.668091 0.551947 0.211056 0.000116 0.000158
1.308427 0.498959 0.467135 -0.000002 -0.405536 -0.000000
3.308296 0.561031 0.371739 0.211809 -0.000082 -0.000177
3.228335 0.519159 0.414660 0.000000 -0.791652 -0.000198
2.029101 0.605312 0.573320 0.000000 0.024666 0.000003
1.535636 0.476103 0.589120 -0.070425 0.002728 0.003933
1.678846 1.067041 0.102563 -0.070426 -0.004774 -0.006871
2.305620 0.498986 0.469681 0.000000 -0.999687 0.000000
1.741590 0.054553 0.885295 0.062987 -0.011169 -0.014251
0.989608 0.604080 0.362410 0.000002 -0.005113 -0.000201
1.899850 0.646167 0.371033 0.000000 0.399788 -0.000037
2.640890 0.499002 0.470338 0.000000 -0.999687 0.000000
1.638214 0.709873 0.468038 0.000000 0.999687 0.000000
1.804717 1.117163 0.070125 0.066647 -0.005530 -0.007141
2.579789 0.558022 0.562587 0.000001 -0.435452 0.000008
1.747032 0.840280 0.292343 0.062987 0.003325 0.004302
1.748484 0.733068 0.573935 0.066647 -0.004650 0.006011
1.576499 0.897920 0.254366 -0.066570 0.005133 0.006007
3.021831 0.683574 0.406777 -0.000000 0.791651 -0.000397
1.637286 0.420934 0.341531 0.062987 -0.002881 0.003730
0.142857 0.560062 0.381373 -0.237400 -0.000078 -0.000144
0.734238 0.678690 0.542736 0.000000 0.707107 0.000032
2.919760 0.501585 0.491343 0.000000 -0.977628 0.000003
1.652342 0.821746 0.650485 0.066646 -0.003394 0.004391
2.175586 0.498969 0.469024 0.000000 -0.999691 0.000000
0.366068 0.599973 0.362516 0.000000 -0.025028 -0.000021
0.333168 0.499059 0.472639 0.000000 -0.999687 0.000000
2.045551 0.518162 0.528566 0.000000 -0.819132 0.000011
2.676924 0.665067 0.554144 -0.000000 0.573604 0.000046
3.332240 0.907316 0.234099 -0.331291 -0.001465 -0.001724
3.173807 0.406990 0.632816 -0.000001 -0.610968 -0.000263
1.642260 1.003647 0.786096 -0.070426 -0.003069 0.004423
1.603909 0.400446 0.644250 0.066650 0.001021 0.001323
1.414178 0.544054 0.554356 -0.000001 -0.573227 0.000023
1.526929 0.735435 0.388444 -0.066570 0.003285 0.003851
1.626145 0.232148 0.766010 -0.070426 0.003410 0.004914
1.691524 0.936603 0.735822 0.066645 -0.005279 0.006819
1.754148 0.557471 0.562313 -0.000000 -0.445071 0.000128
0.134895 0.643476 0.381293 -0.268406 0.000061 -0.000127
0.200000 0.709353 0.457373 -0.047395 0.000456 -0.000040
1.748484 0.739432 0.370059 0.062987 0.004921 0.006356
3.167499 0.757479 0.362318 0.000000 -0.610973 -0.000239
1.754148 0.504029 0.500213 0.000000 -0.951809 0.000021
2.890008 0.757479 0.573430 0.000000 -0.610973 0.000478
2.094118 0.554404 0.560729 -0.000001 -0.466993 0.000030
2.315020 0.606052 0.362447 0.000000 0.024847 -0.000041
1.219910 0.530535 0.392605 0.000001 -0.704813 -0.000016
1.610983 0.327319 0.664370 0.062988 -0.006516 -0.008398
1.708939 0.984326 0.164564 0.066646 -0.004650 -0.006011
1.643635 0.787638 0.341214 0.062987 0.004920 0.006356
1.996984 0.512709 0.415785 -0.000001 -0.871157 -0.000009
3.279714 0.832519 0.304405 0.000001 -0.610973 -0.001495
1.407989 0.781840 0.338487 -0.066569 0.003901 0.004571
0.442836 0.499547 0.456638 0.000000 -0.993700 -0.000004
2.919760 0.521749 0.402375 -0.000000 -0.775723 -0.000002
1.414178 0.665471 0.381887 0.000001 0.573236 -0.000023
1.743767 0.122307 0.102570 0.062987 -0.003857 0.004988
3.211162 0.698224 0.419686 0.000000 0.883814 -0.000002
3.204163 0.283493 0.220201 0.145000 -0.001808 0.004982
1.414178 0.553681 0.375410 -0.000000 -0.489206 -0.000028
2.191252 0.557139 0.373600 -0.000000 -0.445071 -0.000032
1.719097 0.468401 0.582086 0.066646 0.009300 0.011935
0.588537 0.693705 0.411766 0.000000 0.846702 -0.000005
3.295687 0.358764 0.644876 0.000001 0.610974 0.000667
1.556029 0.346277 0.282712 -0.066570 -0.005543 0.006484
1.351144 0.682928 0.396990 0.000001 -0.791651 0.000352
2.434088 0.678051 0.543376 -0.000000 0.707107 0.000008
3.114028 0.517550 0.408058 -0.000000 -0.817951 -0.000006
1.528151 0.404790 0.637913 -0.070424 0.001279 0.001845
0.977074 0.573952 0.568843 0.000000 -0.282877 0.000108
3.150082 0.804954 0.325679 0.000002 -0.610948 -0.000263
3.371189 0.659196 0.394131 0.211836 0.000106 -0.000147
3.178262 0.609173 0.573224 0.000000 0.025028 0.000021
1.750298 1.166229 0.027666 0.066644 -0.009049 -0.011619
3.317451 0.914044 0.700552 -0.331289 -0.000753 0.000886
1.608447 0.500107 0.483512 -0.000001 -0.988129 0.000001
3.054494 0.602601 0.573320 0.000000 -0.012336 0.000021
0.782806 0.526433 0.396869 0.000000 -0.741435 -0.000014
2.336954 0.676979 0.544395 -0.000000 0.689243 0.000034
1.560688 0.993935 0.163392 -0.070424 -0.003410 -0.004914
0.127008 0.696463 0.477086 -0.299130 0.000121 0.000009
2.676924 0.634353 0.366754 0.000000 0.282837 -0.000027
2.822625 0.651715 0.562130 0.000000 0.445471 0.000008
2.457588 0.606545 0.573289 -0.000000 0.025028 0.000021
2.114485 0.498945 0.468038 0.000000 -0.999691 0.000000
0.248567 0.499695 0.455331 -0.000001 -0.993238 -0.000004
1.559880 0.641096 0.368999 0.000000 0.353785 -0.000021
0.685671 0.552821 0.559856 0.000000 -0.489332 0.000007
3.254148 0.519159 0.521088 0.069319 -0.010058 0.007682
1.317044 0.591621 0.363188 0.000000 -0.111974 -0.000142
1.511313 0.705957 0.439388 0.000001 0.962581 -0.000002
1.637105 0.272766 0.227193 0.062986 -0.005984 0.007720
2.142685 0.656856 0.559373 -0.000000 0.489158 0.000028
1.414178 0.705999 0.439547 0.000000 0.965853 -0.000004
1.789480 0.059249 0.050259 0.062987 -0.011169 0.014251
1.851282 0.655853 0.559936 -0.000001 0.462289 0.000008
1.789480 1.146459 0.889518 0.066644 -0.009049 0.011619
2.482655 0.515310 0.411453 -0.000000 -0.846508 -0.000010
1.757916 0.306546 0.232023 0.066646 0.002828 -0.003661
1.025641 0.682164 0.539123 -0.000001 0.741151 0.000029
2.385521 0.581703 0.364886 -0.000000 -0.210359 -0.000148
0.041085 0.580429 0.430746 -0.635311 -0.000012 -0.000018
1.526929 0.473382 0.388444 -0.066568 -0.003285 0.003851
1.519146 0.604080 0.573334 0.000000 -0.025028 0.000021
2.385521 0.585449 0.571618 0.000000 -0.185887 0.000084
3.016894 0.513616 0.414222 0.000000 -0.859314 -0.000009
3.114028 0.690891 0.528229 -0.000001 0.818707 0.000011
2.737886 0.519159 0.521088 -0.000001 -0.791651 0.000397
3.059214 0.795046 0.627582 0.000002 0.610962 -0.000430
1.614714 0.604820 0.362416 -0.000005 0.002529 -0.000204
3.195803 0.328159 0.267252 -0.000001 0.610967 -0.000222
2.712073 0.519159 0.414660 0.000000 -0.791652 -0.000198
0.862706 0.606545 0.362459 0.000000 0.025028 -0.000021
0.527436 0.499035 0.464096 0.000000 -0.999687 -0.000000
2.385521 0.515994 0.410379 0.000000 -0.833164 -0.000005
2.579789 0.530593 0.392547 -0.000001 -0.706353 -0.000016
0.685671 0.707752 0.446815 0.000000 0.977624 -0.000002
2.774058 0.701349 0.426342 -0.000000 0.916338 -0.000007
1.705581 0.676622 0.391014 0.000000 0.689252 -0.000034
0.539970 0.655423 0.375571 0.000000 0.489179 -0.000057
2.434088 0.510632 0.516135 0.000000 -0.884044 0.000004
0.734238 0.553610 0.375451 -0.000000 -0.489089 -0.000007
3.338990 0.422066 0.333437 -0.331289 0.000753 -0.000886
1.074208 0.547953 0.378797 0.000000 -0.531240 -0.000013
3.309565 0.750525 0.568063 0.000000 -0.610973 0.000429
1.357579 0.412463 0.317807 -0.070427 0.001790 -0.002582
1.171343 0.673075 0.547917 0.000001 0.619113 0.000005
1.219910 0.548509 0.557301 -0.000001 -0.530140 0.000013
3.083983 0.811736 0.320444 -0.000000 -0.610974 -0.000215
2.968327 0.707242 0.444445 0.000000 0.977632 -0.000001
1.025641 0.514720 0.412392 0.000001 -0.844965 -0.000005
3.150458 0.847042 0.667711 -0.000001 0.610972 -0.000525
0.879940 0.706616 0.493899 -0.000000 0.972084 0.000002
0.879940 0.656140 0.559775 -0.000000 0.485727 0.000007
1.535560 0.827162 0.624691 -0.066569 0.002977 -0.003491
1.996984 0.700790 0.425061 0.000000 0.916180 -0.000003
1.828662 0.787627 0.609277 0.066646 -0.006787 0.008749
1.798187 1.205224 0.001611 0.066648 -0.007038 -0.009069
1.798187 0.003594 0.934137 0.066647 0.007038 0.009069
1.851282 0.701596 0.508842 -0.000000 0.926411 0.000002
3.346170 0.470581 0.577448 -0.331291 -0.000666 -0.000953
0.601854 0.600548 0.573246 0.000000 -0.025391 0.000010
2.569906 0.683574 0.406777 0.000001 0.791648 -0.000249
2.932546 0.812503 0.622185 0.145002 -0.004405 0.003040
0.127008 0.512354 0.477086 -0.299137 -0.000121 0.000009
1.699143 0.882373 0.263675 0.062988 0.003258 0.004216
0.248567 0.647711 0.564042 0.000002 0.275364 0.000007
2.526522 0.498977 0.469353 0.000000 -0.999687 0.000000
0.637104 0.506572 0.428505 -0.000000 -0.926075 -0.000006
1.693701 0.730147 0.554156 0.062986 0.004921 -0.006356
0.485136 0.608680 0.573236 0.000000 0.024657 0.000042
2.579789 0.640132 0.567104 0.000000 0.330086 0.000046
0.191744 0.665747 0.382558 -0.051336 0.000509 -0.000672
1.485857 0.793375 0.600264 -0.066569 0.001591 -0.001867
3.099270 0.531328 0.536855 -0.000001 -0.791651 0.000397
1.033475 0.709872 0.468285 0.000000 0.999924 0.000000
1.025641 0.650685 0.373106 0.000000 0.445047 -0.000064
2.385521 0.688554 0.404291 0.000001 0.802332 -0.000006
2.319720 0.709840 0.466396 0.000000 0.999687 -0.000000
3.371189 0.664905 0.537011 0.211854 0.000121 0.000135
1.407912 0.603259 0.573314 0.000000 -0.025391 0.000020
0.491403 0.551818 0.376455 0.000000 -0.489211 -0.000014
1.767712 1.203980 0.935748 0.066647 -0.007038 0.009069
1.767712 0.004838 -0.000000 0.066648 0.007038 -0.009069
1.382459 0.782647 0.610575 -0.070423 -0.003240 0.004669
3.154762 0.606627 0.362433 0.000000 0.012689 -0.000020
2.288387 0.514225 0.522551 0.000001 -0.851449 0.000005
1.689348 1.034101 0.811252 0.066644 -0.008295 0.010666
0.248567 0.694698 0.522375 -0.000001 0.859199 0.000019
1.600099 0.696716 0.520893 0.000001 -0.791650 -0.000517
2.822625 0.546160 0.555789 -0.000001 -0.552886 0.000048
0.142857 0.665016 0.543873 -0.237398 0.000107 0.000128
2.094118 0.657602 0.376809 -0.000000 0.510668 -0.000027
1.701320 0.886919 0.675755 0.062987 0.001629 -0.002110
1.485303 0.902137 0.702243 -0.070424 -0.004433 0.006383
1.411828 0.498967 0.466806 -0.000005 -0.110077 -0.000000
3.280659 0.307262 0.684624 -0.000001 0.610972 0.000444
1.745944 0.952357 0.743390 0.066646 -0.002388 0.003092
0.297134 0.695076 0.414010 0.000000 0.859733 -0.000019
1.828662 0.341412 0.264901 0.066646 0.005781 -0.007463
3.308296 0.505301 0.503947 0.212414 -0.000184 0.000064
2.991827 0.608023 0.362496 0.000000 0.024838 -0.000021
1.796010 0.160392 0.122440 0.066646 0.003771 -0.004878
1.996984 0.658097 0.377102 0.000000 0.510653 -0.000027
0.831373 0.709783 0.464096 0.000000 0.999687 -0.000000
1.657014 0.546914 0.556289 0.000000 -0.552690 0.000012
1.171343 0.554549 0.374942 0.000000 -0.467121 -0.000008
1.599030 0.163597 0.811202 -0.070427 0.002899 0.004178
1.613848 1.061426 0.112039 -0.070427 -0.002728 -0.003933
1.772065 1.068818 0.104681 0.066646 -0.006535 -0.008428
0.394268 0.596855 0.573068 0.000000 -0.061656 0.000065
3.247771 0.718676 0.568641 -0.000002 0.610971 -0.000613
1.948417 0.700197 0.511997 -0.000000 0.905170 0.000004
2.094118 0.698390 0.420016 0.000000 0.895440 -0.000002
1.828662 0.461080 0.578491 0.066647 0.002933 0.003796
1.473541 0.324222 0.689074 -0.070425 0.009207 0.013170
3.202522 0.689658 0.521088 -0.000001 0.791651 0.000397
1.574704 0.531279 0.390007 0.066645 0.005446 -0.007034
1.419541 0.417592 0.604245 -0.066570 -0.003901 -0.004571
3.270696 0.606874 0.362437 0.000000 0.012513 -0.000082
3.284298 0.880051 0.668027 0.000002 -0.610962 0.000444
3.245629 0.709754 0.462946 0.000000 0.999687 -0.000000
1.268477 0.560063 0.372191 -0.000001 -0.421755 -0.000017
1.803266 0.746701 0.355915 0.066647 -0.005865 -0.007570
0.922240 0.499002 0.470338 0.000000 -0.999691 0.000000
3.080474 0.449943 0.336083 0.000000 -0.610973 0.000860
0.637104 0.656749 0.559434 -0.000001 0.462289 0.000008
1.527196 0.310681 0.249861 -0.066569 -0.005133 0.006007
0.734238 0.508044 0.425024 -0.000001 -0.915815 -0.000007
0.345701 0.651347 0.373436 0.000000 0.445109 -0.000032
1.171343 0.650170 0.372850 0.000000 0.422677 -0.000017
1.317044 0.667066 0.552703 -0.000000 0.593852 0.000022
3.016894 0.514288 0.522657 0.000000 -0.859549 0.000005
0.047467 0.558842 0.487082 -0.610236 -0.000025 0.000010
3.065461 0.502574 0.440460 0.000001 -0.965802 -0.000017
0.394268 0.506231 0.429342 0.000000 -0.935267 -0.000002
2.336954 0.666901 0.382924 -0.000000 0.593572 -0.000005
0.928507 0.518162 0.407183 -0.000001 -0.818031 -0.000011
1.560383 0.857984 0.678086 -0.070426 -0.004433 0.006383
1.626145 0.232148 0.169738 -0.070426 0.006820 -0.009793
1.899850 0.574819 0.366650 -0.000000 -0.278396 -0.000007
1.439552 0.366070 0.278605 -0.070424 0.004945 -0.007116
0.782806 0.678051 0.392373 -0.000000 0.707047 -0.000032
2.239820 0.656355 0.376094 -0.000000 0.488269 -0.000007
1.511313 0.550686 0.558625 -0.000001 -0.510103 0.000027
2.962227 0.767918 0.329104 0.000002 0.610971 0.000669
1.802715 0.575607 0.366417 0.000000 -0.282819 -0.000054
0.248567 0.625307 0.364497 0.000000 0.185778 -0.000011
1.948417 0.708540 0.451182 0.000001 0.944309 -0.000001
0.539970 0.656677 0.559474 0.000001 0.485299 0.000007
1.948417 0.512829 0.520178 -0.000000 -0.872160 0.000018
3.128592 0.718182 0.367488 0.000000 0.610973 0.000215
2.579789 0.504218 0.500800 -0.000001 -0.913602 0.000001
2.385521 0.694803 0.522198 0.000001 0.858640 0.000009
0.442836 0.522783 0.534650 0.000000 -0.773957 0.000007
0.539970 0.695948 0.520250 -0.000001 0.871692 0.000009
1.801452 0.364248 0.655519 0.066648 0.001571 0.002035
2.045551 0.656355 0.559655 -0.000000 0.488159 0.000014
0.539970 0.527040 0.396198 -0.000000 -0.737499 -0.000004
0.588537 0.509678 0.514224 0.000000 -0.895440 0.000002
2.288387 0.655817 0.559956 -0.000000 0.489197 0.000028
0.345701 0.692142 0.526397 -0.000000 0.832952 0.000011
1.462745 0.513071 0.415140 0.000000 -0.872166 -0.000009
2.434088 0.708138 0.486915 0.000000 0.982556 0.000006
2.482655 0.709344 0.457291 -0.000001 0.950356 -0.000000
3.144151 0.406125 0.327423 0.000000 0.610974 -0.000478
1.495117 0.510339 0.518609 -0.066569 -0.006570 -0.007675
0.200000 0.532672 0.390560 -0.047393 -0.000316 -0.000332
0.734238 0.656068 0.375933 0.000000 0.489069 -0.000014
1.754148 0.704385 0.501464 0.000000 0.951809 0.000021
2.288387 0.510959 0.418996 0.000000 -0.884131 -0.000017
1.171343 0.508760 0.423454 0.000000 -0.906280 -0.000007
1.317044 0.615645 0.572736 -0.000001 0.106828 0.000037
1.268477 0.585772 0.571679 0.000000 -0.186029 0.000084
1.591583 0.131991 0.103276 -0.066569 -0.003080 0.003611
1.606401 1.093032 0.844979 -0.070425 -0.005115 0.007360
1.851282 0.550050 0.377501 0.000000 -0.510615 -0.000027
0.782806 0.563594 0.565123 -0.000001 -0.375873 0.000020
3.207666 0.873012 0.687753 0.000000 0.610977 -0.000444
1.344576 0.500338 0.555907 -0.070425 0.007161 0.010278
1.511313 0.616666 0.363128 -0.000000 0.111738 -0.000035
1.754148 0.622723 0.571740 0.000000 0.185913 0.000337
3.338954 0.502519 0.401818 -0.000000 0.610973 -0.001542
2.882323 0.473946 0.379766 0.000000 0.610973 -0.000478
3.056749 0.762001 0.358829 -0.000000 -0.610973 -0.000191
3.007212 0.455860 0.365808 0.000000 0.610973 -0.001337
0.782806 0.705935 0.439309 0.000001 0.965750 -0.000009
2.686260 0.689658 0.414660 -0.000000 0.791651 -0.000397
2.482655 0.531690 0.544253 -0.000000 -0.689229 0.000034
1.851282 0.559691 0.563384 0.000000 -0.422236 0.000017
1.670845 0.253410 0.726183 0.062988 -0.005452 -0.007039
0.442836 0.696893 0.417183 -0.000001 0.834172 -0.000002
0.734238 0.709791 0.471324 0.000000 0.737128 0.000000
3.065461 0.537347 0.386482 0.000001 -0.632313 -0.000020
1.122775 0.689604 0.530036 -0.000000 0.782994 0.000002
1.802715 0.689628 0.530003 0.000000 0.804603 0.000024
1.754148 0.504432 0.434284 0.000000 -0.951809 -0.000021
0.879940 0.536491 0.387188 0.000000 -0.652269 -0.000009
3.065103 0.725829 0.549004 -0.000002 -0.610971 0.000764
2.712073 0.689658 0.521088 0.000000 0.791653 0.000198
0.442836 0.693399 0.524469 0.000001 0.844649 0.000010
1.074208 0.664360 0.554639 0.000000 0.573554 0.000046
1.268477 0.506231 0.429342 0.000000 -0.935327 -0.000006
2.974089 0.772439 0.610134 0.000000 0.610973 -0.000669
2.974089 0.436379 0.325614 0.000000 -0.610973 0.000669
3.114028 0.640016 0.567145 -0.000000 0.330242 0.000023
3.371189 0.564235 0.550492 0.205586 -0.000084 0.000167
2.968327 0.538173 0.385806 -0.000000 -0.633135 -0.000039
1.462745 0.645148 0.370595 0.000001 0.334363 -0.000006
0.345701 0.523147 0.400653 0.000000 -0.773990 -0.000026
1.899850 0.696009 0.415606 -0.000000 0.872105 -0.000009
1.851282 0.705192 0.436787 0.000000 0.959163 -0.000001
0.879940 0.512267 0.519175 0.000000 -0.872166 0.000004
1.454370 0.858953 0.266098 -0.070426 -0.004774 -0.006871
1.435943 0.457038 0.569203 -0.066569 -0.007801 -0.009095
3.020027 0.498949 0.468532 0.000000 -0.999924 0.000000
2.776982 0.464903 0.372787 0.000000 0.610973 -0.001146
1.607355 0.460496 0.597615 0.066647 0.004085 0.005283
0.281467 0.606710 0.573314 0.000000 0.012331 0.000084
2.979762 0.824415 0.291790 0.145001 0.001825 0.005032
2.743683 0.468301 0.566629 0.144999 0.004405 0.003040
3.328699 0.280576 0.717799 -0.331290 -0.001297 -0.001854
3.114028 0.654704 0.375173 -0.000000 0.466993 -0.000015
2.676924 0.509586 0.514040 -0.000002 -0.761896 0.000002
0.831373 0.694404 0.412879 0.000000 0.846702 -0.000005
1.085175 0.606216 0.573298 0.000000 0.024657 0.000021
3.293019 0.759862 0.335321 0.000001 0.610972 0.000613
0.809439 0.605313 0.362417 0.000000 0.012336 -0.000083
0.442836 0.524098 0.399520 -0.000001 -0.757697 -0.000027
3.324020 0.697653 0.509389 0.216323 0.000171 0.000085
0.782806 0.511784 0.518315 0.000000 -0.871924 0.000002
2.968327 0.704675 0.500565 -0.000000 0.951755 0.000010
1.596968 0.921378 0.725175 -0.070425 -0.003751 0.005404
1.948417 0.568957 0.567199 -0.000001 -0.330183 0.000091
0.685671 0.682605 0.397112 0.000000 0.741416 -0.000004
1.342762 0.428668 0.605434 -0.070425 0.003581 0.005159
3.346403 0.385203 0.637051 -0.331291 -0.001297 -0.001854
2.434088 0.661213 0.379016 0.000000 0.531542 -0.000013
3.294839 0.447540 0.359386 0.000000 0.610973 -0.000613
3.255897 0.432209 0.588194 0.000000 0.610973 0.001495
3.185293 0.456725 0.341317 -0.000000 -0.610973 0.001051
0.637104 0.565954 0.369667 -0.000001 -0.342752 -0.000011
0.977074 0.512427 0.519462 0.000000 -0.872234 0.000002
3.286118 0.339520 0.276020 -0.000000 0.610974 -0.000444
0.879940 0.559839 0.563454 -0.000000 -0.422236 0.000017
0.442836 0.658273 0.377207 0.000000 0.510731 -0.000013
2.875289 0.799972 0.316944 0.144999 0.000904 0.002491
2.094118 0.557139 0.373600 0.000000 -0.444120 -0.000008
0.831373 0.514120 0.413374 -0.000000 -0.859684 -0.000019
1.025641 0.501729 0.491942 -0.000001 -0.961471 0.000001
1.802715 0.628477 0.365195 0.000001 0.234600 -0.000132
2.822625 0.510226 0.420421 -0.000001 -0.895361 -0.000016
1.602276 0.845346 0.262825 0.066646 -0.006661 -0.008588
1.471440 0.408356 0.305179 -0.070426 0.001279 -0.001845
1.550721 0.932526 0.222626 -0.066570 0.009443 0.010975
1.558015 0.695378 0.374831 0.066645 -0.005446 -0.007034
0.041085 0.644230 0.487051 -0.635309 0.000020 0.000009
2.482655 0.651311 0.562331 -0.000001 0.444722 0.000064
3.211162 0.551604 0.376578 0.000000 -0.510735 -0.000107
2.288387 0.562424 0.564617 0.000000 -0.399816 0.000037
1.657014 0.698445 0.515622 -0.000000 0.895385 0.000004
1.074208 0.702761 0.429803 0.000000 0.935336 -0.000012
1.365611 0.571757 0.367595 -0.000000 -0.306446 -0.000025
2.191252 0.511343 0.517479 -0.000000 -0.883809 0.000008
3.262863 0.499067 0.472967 0.000000 -0.999691 0.000000
1.657014 0.511477 0.517734 0.000000 -0.884154 0.000008
1.621791 0.977771 0.190310 -0.066569 0.004106 0.004811
3.371189 0.604409 0.376007 0.188069 0.000003 -0.000204
3.211162 0.649053 0.563419 -0.000001 0.422611 0.000068
2.385521 0.520967 0.532368 -0.000001 -0.787597 0.000006
3.110198 0.889510 0.247842 0.144999 0.000904 0.002491
3.110198 0.889510 0.687907 0.144998 0.000904 -0.002491
2.922271 0.390938 0.303124 0.144999 -0.000904 0.002491
3.274635 0.952186 0.736278 0.145002 0.001825 -0.005032
3.086708 0.328262 0.254752 0.145000 -0.001825 0.005032
2.992744 0.364077 0.653355 0.145000 -0.001825 -0.005032
3.086708 0.328262 0.680996 0.145000 -0.001826 -0.005032
3.204163 0.925324 0.715547 0.145000 0.001808 -0.004982
3.274635 0.256632 0.199470 0.145000 -0.001826 0.005032
3.204163 0.925324 0.220201 0.145001 0.001808 0.004982
3.180671 0.292447 0.708637 0.144999 -0.001826 -0.005032
1.219910 0.657567 0.558961 0.000000 0.511025 0.000013
1.694790 0.335537 0.664709 0.062986 -0.001629 -0.002110
0.637104 0.694207 0.523182 0.000001 0.843046 0.000005
2.774058 0.562575 0.371065 0.000001 -0.399006 -0.000037
2.774058 0.651973 0.373747 -0.000000 0.445021 -0.000032
2.434088 0.506758 0.428048 -0.000000 -0.926232 -0.000013
0.297134 0.520538 0.531816 0.000000 -0.789567 0.000006
1.412612 0.605395 0.362430 0.000019 0.000206 -0.000621
1.815964 0.461599 0.356586 0.066647 0.002933 -0.003796
3.308296 0.681723 0.396137 0.213162 0.000141 -0.000134
0.200000 0.663821 0.555016 -0.047388 0.000263 0.000375
1.687553 0.115817 0.097909 -0.066569 -0.005748 0.006723
1.459048 0.438266 0.352578 -0.066570 -0.007801 0.009095
3.259729 0.574622 0.569040 -0.000000 -0.282822 0.000217
3.211162 0.652525 0.374021 0.000000 0.444892 -0.000008
1.657014 0.698847 0.420936 -0.000001 0.882704 -0.000002
0.394268 0.547466 0.556645 0.000000 -0.531563 0.000006
1.608447 0.625910 0.571122 0.000000 0.210321 0.000037
0.923807 0.709810 0.465163 0.000000 0.999696 -0.000000
1.851282 0.662110 0.379596 -0.000001 0.552928 -0.000048
3.016894 0.640712 0.566895 0.000000 0.353667 0.000084
1.538462 0.969627 0.753596 -0.070427 -0.003751 0.005404
1.553280 0.222985 0.766103 -0.070425 0.007161 0.010278
1.600825 0.734166 0.587240 0.066644 -0.002723 0.003526
1.705581 0.658839 0.558205 -0.000002 0.509998 0.000054
1.787303 0.259046 0.197844 0.066646 0.004776 -0.006173
3.162595 0.542842 0.553508 0.000000 -0.593248 0.000003
2.142685 0.689457 0.405514 -0.000001 0.666486 -0.000002
0.103881 0.668448 0.414139 -0.389364 0.000064 -0.000051
0.491403 0.552535 0.559695 0.000000 -0.489211 0.000028
1.219910 0.664696 0.381345 0.000000 0.573466 -0.000011
2.094118 0.509605 0.514077 0.000001 -0.892259 0.000008
3.238668 0.839044 0.274211 0.000001 0.610974 0.001495
3.185293 0.444556 0.578664 0.000001 0.610972 0.001051
3.250154 0.789308 0.312595 0.000001 0.610973 0.001495
3.214852 0.783134 0.618389 0.000000 0.610974 -0.001495
2.822625 0.510748 0.516353 -0.000002 -0.680336 0.000001
1.074208 0.553538 0.560258 -0.000000 -0.489197 0.000057
1.171343 0.689750 0.405911 -0.000001 0.768121 -0.000002
0.588537 0.552248 0.559534 0.000000 -0.489089 0.000007
0.442836 0.637295 0.568077 -0.000000 0.306615 0.000099
2.676924 0.609338 0.573220 -0.000000 0.024657 0.000324
1.219910 0.505111 0.503404 -0.000000 -0.943862 0.000006
2.288387 0.563027 0.370868 0.000001 -0.381463 -0.000005
2.045551 0.699433 0.513635 -0.000000 0.906350 0.000004
3.346403 0.823614 0.637051 -0.331292 -0.001465 0.001724
3.196779 0.494292 0.540280 0.000003 0.610955 0.000525
3.046119 0.428732 0.590878 0.000000 0.610973 0.000382
3.120802 0.360911 0.292528 0.000000 0.610973 -0.000239
1.157243 0.606216 0.573298 -0.000000 0.025028 0.000021
1.213643 0.709834 0.469599 -0.000000 0.974868 0.000000
2.191252 0.558946 0.563037 0.000001 -0.421506 0.000034
1.545623 0.408546 0.334848 -0.066568 -0.003080 0.003611
2.968327 0.542016 0.552898 -0.000001 -0.592095 0.000011
2.191252 0.634038 0.366662 -0.000000 0.282615 -0.000027
1.025641 0.561671 0.371460 0.000000 -0.399601 -0.000005
1.739414 0.138483 0.834993 0.066645 0.007290 0.009390
1.610983 0.864221 0.686756 0.066647 -0.001571 0.002035
1.626221 0.473616 0.349851 0.066647 0.004085 -0.005283
1.777870 0.503043 0.385357 0.066647 0.005865 -0.007571
1.657784 0.909582 0.217933 0.066646 -0.002828 -0.003661
3.203366 0.363779 0.641006 0.000000 0.610973 0.001495
0.977074 0.684774 0.399582 0.000001 0.757862 -0.000027
1.487002 0.486035 0.357691 -0.070425 0.003240 -0.004669
0.928507 0.556587 0.373875 -0.000001 -0.444776 -0.000032
2.832785 0.495157 0.564771 0.000001 -0.610973 -0.000764
1.996984 0.506231 0.506406 0.000000 -0.926253 0.000013
1.365611 0.575213 0.569215 -0.000000 -0.282787 0.000027
1.772065 1.088763 0.846460 0.066646 -0.006535 0.008428
3.371189 0.689968 0.434420 0.206050 0.000175 -0.000066
2.871192 0.664124 0.554804 -0.000000 0.573447 0.000023
1.454370 0.858953 0.669650 -0.070425 -0.004774 0.006871
1.280418 0.736519 0.569833 -0.070426 -0.004774 0.006871
1.680488 0.034761 0.028236 -0.066570 -0.007391 0.008623
1.636036 1.125442 0.869992 -0.070425 -0.008866 0.012690
1.636036 0.083376 0.869992 -0.066569 -0.010675 -0.012373
3.007212 0.455860 0.569941 -0.000001 0.610963 0.000334
0.637104 0.501585 0.491343 0.000000 -0.977628 0.000003
1.074208 0.662794 0.380051 0.000000 0.552820 -0.000006
2.628357 0.653324 0.561305 -0.000000 0.467235 0.000030
0.685671 0.668351 0.551745 0.000000 0.613777 0.000021
1.122775 0.514742 0.523391 0.000001 -0.844375 0.000005
0.685671 0.515813 0.525096 0.000000 -0.833109 0.000005
0.734238 0.501481 0.490861 -0.000000 -0.977620 0.000003
2.774058 0.638891 0.567538 0.000001 0.329958 0.000046
1.414178 0.654268 0.560806 -0.000000 0.467554 0.000015
1.828662 0.122019 0.840169 0.066647 0.005530 0.007141
1.828662 0.987075 0.763205 0.066646 -0.008546 0.010984
1.828662 0.082129 0.870954 0.066646 0.009049 0.011618
1.828662 0.381301 0.295686 0.066646 0.006284 -0.008107
2.239820 0.675719 0.545574 -0.000000 0.670866 0.000018
1.644819 0.143916 0.828779 -0.070426 0.002728 0.003933
2.142685 0.697801 0.516862 0.000000 0.883624 0.000004
1.559880 0.562086 0.564469 -0.000000 -0.399960 0.000018
3.065461 0.582989 0.364609 -0.000000 -0.210339 -0.000148
1.766623 0.242857 0.741964 0.062987 -0.005053 -0.006527
1.519146 0.498949 0.468203 0.000000 -0.999691 0.000000
2.579789 0.648420 0.372034 -0.000001 0.418646 -0.000009
1.437528 0.512689 0.521654 -0.066570 -0.005748 -0.006723
2.336954 0.505940 0.430111 -0.000001 -0.905090 -0.000002
1.668305 0.477691 0.552887 0.062988 -0.002881 -0.003730
3.259729 0.541751 0.383046 -0.000001 -0.593804 -0.000087
1.398957 0.866160 0.265863 -0.070426 -0.004945 -0.007116
2.822625 0.542710 0.382338 -0.000002 -0.449827 -0.000004
2.871192 0.707553 0.489857 -0.000000 0.977626 0.000014
1.264760 0.686659 0.401824 0.000001 -0.791586 0.000088
0.394268 0.703284 0.431187 0.000000 0.935387 -0.000003
0.879940 0.665437 0.381863 -0.000001 0.567113 -0.000006
0.297134 0.542977 0.382146 -0.000000 -0.572737 -0.000006
2.191252 0.704675 0.435183 0.000001 0.950701 -0.000005
1.526700 0.256731 0.195322 -0.070426 0.003922 -0.005649
2.094118 0.519141 0.405812 -0.000001 -0.803141 -0.000012
1.354505 0.817544 0.632366 -0.070423 -0.005286 0.007604
1.435943 0.751780 0.366545 -0.066570 0.007801 0.009095
2.336954 0.698921 0.421083 -0.000000 0.895439 -0.000016
2.191252 0.518970 0.406043 0.000000 -0.804892 -0.000003
1.780773 0.101179 0.075456 0.066647 0.005530 -0.007141
2.142685 0.548022 0.378753 0.000000 -0.531947 -0.000013
0.977074 0.698262 0.515990 -0.000000 0.895729 0.000002
2.288387 0.647071 0.371427 0.000001 0.386384 -0.000009
1.622956 0.373369 0.305964 0.062987 -0.003591 0.004645
2.725491 0.549838 0.558121 0.000001 -0.487022 0.000004
2.531222 0.510263 0.420347 -0.000001 -0.737664 -0.000001
1.511313 0.657143 0.559213 -0.000000 0.510677 0.000027
2.628357 0.546160 0.379960 0.000000 -0.552951 -0.000024
1.782949 0.924017 0.224854 0.062987 0.011169 0.014251
2.913357 0.508721 0.554302 0.000000 -0.610974 -0.000955
3.308296 0.601780 0.573310 0.224555 -0.000007 0.000184
0.297134 0.660517 0.378578 0.000000 0.532027 -0.000051
0.248567 0.516949 0.408941 -0.000001 -0.833081 -0.000021
0.637104 0.564431 0.565463 -0.000000 -0.376920 0.000039
2.919760 0.613928 0.572904 -0.000000 0.087032 0.000091
2.482655 0.550862 0.377019 0.000000 -0.510638 -0.000027
1.996984 0.557654 0.373344 -0.000001 -0.440761 -0.000008
1.384693 0.727803 0.572749 -0.070426 -0.003581 0.005159
1.724176 0.099215 0.866584 0.066646 0.006284 0.008107
3.101066 0.793650 0.601346 -0.000002 -0.610920 0.000239
2.239820 0.692551 0.409968 -0.000001 0.814861 -0.000003
2.531222 0.703734 0.503326 0.000000 0.943602 0.000003
1.669031 0.414884 0.627613 0.066646 0.004650 0.006011
1.685720 0.432723 0.323311 0.066647 0.009300 -0.011935
1.948417 0.637999 0.367898 0.000000 0.330334 -0.000023
1.317044 0.654632 0.375134 0.000000 0.466993 -0.000015
1.463898 0.721720 0.541144 -0.066568 0.003901 -0.004571
0.539970 0.697801 0.418887 -0.000000 0.883956 -0.000008
3.162595 0.558834 0.372764 -0.000001 -0.414225 -0.000009
1.323190 0.486154 0.381468 -0.066569 -0.002874 0.003371
1.802715 0.648904 0.563488 0.000003 0.221012 0.000008
1.414178 0.517267 0.408462 0.000000 -0.833206 -0.000021
1.948417 0.509246 0.422411 0.000000 -0.906211 -0.000004
1.899850 0.643930 0.565649 -0.000000 0.367163 0.000005
2.142685 0.651053 0.373289 -0.000000 0.444919 -0.000016
2.531222 0.551675 0.559213 0.000000 -0.489332 0.000007
1.705581 0.694761 0.522269 -0.000000 0.859710 0.000019
2.531222 0.702819 0.429957 -0.000001 0.922117 -0.000002
2.628357 0.552105 0.559454 0.000002 -0.450889 0.000008
0.928507 0.647787 0.564009 -0.000000 0.422528 0.000017
2.725491 0.548996 0.378141 0.000000 -0.532059 -0.000051
1.498554 0.458940 0.562095 -0.066569 -0.007801 -0.009095
2.045551 0.560063 0.563558 0.000000 -0.422390 0.000034
2.822625 0.657496 0.376746 0.000000 0.510648 -0.000027
1.802715 0.552248 0.559534 0.000001 -0.488867 0.000057
3.047643 0.689658 0.521088 -0.000001 0.791651 0.000397
0.734238 0.636670 0.568279 0.000000 0.306637 0.000050
2.239820 0.703081 0.505099 -0.000000 0.935325 0.000006
1.602276 0.363472 0.262825 0.066646 0.006661 -0.008588
0.297134 0.558648 0.562898 0.000000 -0.422091 0.000004
3.298925 0.930688 0.203482 0.000001 0.610973 0.000889
1.317044 0.509586 0.514040 0.000000 -0.895584 0.000004
2.142685 0.563441 0.565061 0.000000 -0.400039 0.000018
2.336954 0.506231 0.506406 0.000000 -0.926285 0.000003
3.016894 0.648755 0.372191 0.000000 0.422518 -0.000034
0.637104 0.698335 0.419906 0.000000 0.895513 -0.000008
2.579789 0.700643 0.511026 0.000001 0.915327 0.000007
1.754148 0.597839 0.362619 0.000000 -0.062378 -0.000064
1.657014 0.593418 0.572763 0.000001 -0.111982 0.000142
0.345701 0.656355 0.559655 -0.000001 0.489085 0.000114
1.510107 0.741037 0.343052 -0.070425 -0.006479 -0.009308
1.628398 0.306846 0.714422 0.066647 0.001445 0.001872
1.705581 0.553897 0.375290 0.000001 -0.483914 -0.000007
1.608447 0.651826 0.373673 -0.000000 0.444973 -0.000016
1.718115 0.498943 0.467956 0.000000 -0.999687 0.000000
1.518489 0.328866 0.671160 -0.066570 -0.005543 -0.006484
3.125083 0.689658 0.414660 0.000000 0.791652 -0.000198
3.148139 0.757479 0.573430 0.000000 -0.610973 0.000478
0.539970 0.508011 0.510649 0.000001 -0.916011 0.000014
3.065461 0.556477 0.561819 0.000000 -0.444893 0.000004
0.782806 0.682936 0.538270 0.000000 0.741173 0.000014
1.338007 0.738869 0.368961 -0.066567 0.002874 0.003371
1.638556 0.707925 0.371943 0.066647 -0.004085 -0.005283
1.737237 0.933482 0.206191 0.066646 -0.005279 -0.006819
1.711115 0.391797 0.641880 0.066646 0.001697 0.002198
3.014521 0.721308 0.545514 -0.000000 -0.610974 0.000669
2.191252 0.646167 0.564716 0.000001 0.395265 0.000009
1.802715 0.702215 0.428429 0.000000 0.926221 -0.000006
1.462745 0.546160 0.379960 -0.000000 -0.552958 -0.000024
2.871192 0.556771 0.561965 -0.000001 -0.444593 0.000032
1.171343 0.561031 0.564009 0.000000 -0.422091 0.000009
2.919760 0.646280 0.371082 -0.000000 0.399669 -0.000018
1.786577 0.444278 0.595010 0.066647 0.004650 0.006011
0.588537 0.704587 0.500839 0.000000 0.951756 0.000003
1.750298 0.042589 0.027666 0.066646 0.009049 -0.011618
1.597770 1.001305 0.767593 -0.066569 0.003901 -0.004571
1.782949 0.933989 0.718590 0.062987 0.005452 -0.007039
1.750298 1.172449 0.900024 -0.066567 0.007391 -0.008623
1.559880 0.699710 0.422709 0.000000 0.906211 -0.000004
1.665947 0.509035 0.380538 0.066642 0.002043 -0.002645
1.683161 1.116187 0.867625 -0.070423 -0.008184 0.011728
1.122775 0.560063 0.372191 -0.000001 -0.407871 -0.000009
1.588490 0.761442 0.326416 0.066645 -0.002723 -0.003526
3.054515 0.381257 0.308231 -0.000000 0.610974 -0.000430
3.039290 0.725829 0.386744 0.000000 -0.610974 -0.000764
1.528151 0.804028 0.297835 -0.070426 -0.001279 -0.001845
1.317044 0.701086 0.510009 -0.000000 0.916499 0.000007
1.365611 0.703517 0.503947 -0.000000 0.943864 0.000003
1.566722 0.473774 0.547812 0.062986 -0.005763 -0.007436
0.442836 0.562763 0.370983 0.000000 -0.399845 -0.000037
1.608447 0.532494 0.545018 0.000000 -0.689140 0.000017
0.782806 0.565877 0.369696 0.000000 -0.376824 -0.000020
1.365611 0.530767 0.392373 0.000000 -0.707016 -0.000008
1.754651 0.997052 0.170744 0.062986 0.004921 0.006356
3.227751 0.305258 0.711329 -0.000001 -0.610970 -0.000444
2.628357 0.648457 0.372052 0.000000 0.421978 -0.000017
3.226338 0.463250 0.371511 -0.000000 0.610973 -0.001495
3.255897 0.444377 0.331787 -0.000000 -0.610974 0.001495
3.285457 0.401167 0.612151 0.000001 0.610973 0.001495
1.754651 0.991178 0.772616 0.066643 -0.004274 0.005526
2.774058 0.705459 0.498055 -0.000001 0.956463 0.000005
1.769889 0.802324 0.310170 0.066647 -0.003394 -0.004391
2.968327 0.502659 0.495606 -0.000000 -0.965920 0.000004
1.526929 0.713839 0.575287 -0.070426 -0.002728 0.003933
3.298370 0.527676 0.408654 0.069319 -0.005029 -0.003871
2.871192 0.500703 0.487036 -0.000000 -0.982514 0.000006
2.045551 0.641942 0.369319 0.000000 0.353538 -0.000021
1.828662 1.126688 0.870954 0.066645 -0.009049 0.011619
1.828662 0.082129 0.064794 0.066646 0.009049 -0.011618
3.085403 0.861471 0.282060 -0.000001 -0.610973 -0.000955
1.714381 0.274677 0.713241 0.062986 -0.005585 -0.007209
0.588537 0.513406 0.414575 0.000000 -0.859794 -0.000009
2.919760 0.703400 0.431494 -0.000000 0.935125 -0.000006
0.491403 0.643550 0.369944 0.000000 0.376902 -0.000078
1.480949 0.316119 0.240422 -0.070426 0.004433 -0.006383
1.566722 0.494564 0.360998 0.066645 0.005446 -0.007034
2.753691 0.499018 0.464753 0.000000 -0.999687 -0.000000
1.511883 0.268962 0.722771 -0.066570 -0.004722 -0.005529
3.024859 0.392560 0.618794 0.000000 0.610973 0.000382
3.214852 0.413515 0.602622 -0.000001 0.610973 0.001495
1.828662 1.046909 0.809383 0.066649 -0.003268 0.004229
2.045551 0.509641 0.421598 0.000000 -0.895363 -0.000008
0.928507 0.563784 0.565200 -0.000000 -0.376974 0.000039
1.317044 0.700509 0.424422 -0.000001 0.873186 -0.000002
0.200000 0.501585 0.444405 -0.047400 -0.000448 -0.000096
1.608447 0.559244 0.372573 0.000000 -0.422603 -0.000034
0.491403 0.703788 0.503171 0.000000 0.943835 0.000006
1.410414 0.451394 0.359500 -0.066570 -0.003901 0.004571
1.917083 0.498949 0.468203 0.000000 -0.999687 0.000000
0.134895 0.565342 0.554456 -0.268413 -0.000061 0.000127
0.103881 0.549094 0.405194 -0.389364 -0.000055 -0.000060
1.171343 0.708214 0.449237 0.000000 0.982535 -0.000003
2.968327 0.647636 0.371673 0.000000 0.399886 -0.000018
0.297134 0.702029 0.507776 -0.000001 0.926024 0.000013
3.259729 0.698243 0.419722 -0.000001 0.728634 -0.000001
0.248567 0.702339 0.428733 0.000000 0.926253 -0.000013
2.808525 0.607859 0.573257 0.000005 0.005020 0.000205
1.737237 0.268080 0.215594 0.062987 -0.002726 0.003529
2.847692 0.600795 0.362496 0.000019 -0.000130 -0.000979
0.134895 0.525927 0.521383 -0.268403 -0.000121 0.000078
1.796010 1.041045 0.133494 0.062988 0.007979 0.010256
1.268477 0.542842 0.553508 0.000000 -0.593595 0.000005
2.919760 0.501585 0.444405 -0.000000 -0.977616 -0.000003
3.168063 0.838864 0.299507 0.000001 -0.610972 -0.000525
1.643635 0.772953 0.613563 0.066648 -0.004650 0.006011
1.778596 0.323810 0.680441 0.062987 -0.003059 -0.003959
0.977074 0.647787 0.371739 0.000000 0.399601 -0.000005
0.588537 0.661074 0.378928 0.000000 0.532149 -0.000006
1.559880 0.501308 0.490058 -0.000000 -0.977149 0.000002
1.982884 0.604245 0.573339 0.000000 -0.024666 0.000021
1.409574 0.494723 0.565383 -0.070426 0.002387 0.003442
3.162595 0.507304 0.426718 0.000000 -0.914695 -0.000002
2.919760 0.558354 0.372997 0.000000 -0.445019 -0.000032
1.759005 0.018184 0.914752 0.062986 -0.009042 -0.011598
0.977074 0.508829 0.423305 -0.000000 -0.906314 -0.000015
2.851798 0.417799 0.323854 0.145000 -0.001826 0.005032
2.579789 0.569927 0.368210 -0.000001 -0.330065 -0.000046
1.535560 0.396687 0.291582 -0.070426 0.004774 -0.006871
0.345701 0.559467 0.372468 -0.000000 -0.422602 -0.000137
1.828662 0.241688 0.187937 0.066646 0.004273 -0.005526
3.371189 0.567537 0.495268 1.000000 0.000000 0.000000
3.371189 0.616494 0.512190 1.000000 0.000000 0.000000
3.371189 0.571499 0.435829 1.000000 0.000000 -0.000000
3.371189 0.649305 0.477584 1.000000 0.000000 0.000000
3.371189 0.617670 0.423896 1.000000 0.000000 0.000000
1.576155 0.788719 0.631425 0.066646 -0.004085 0.005283
0.685671 0.645148 0.370595 0.000001 0.334363 -0.000006
1.511313 0.570819 0.367898 0.000000 -0.330310 -0.000046
1.637105 0.936052 0.708555 -0.066568 0.009033 -0.010507
1.802715 0.670167 0.385416 0.000000 0.613671 -0.000082
0.637104 0.624661 0.364375 0.000000 0.185996 -0.000021
2.611123 0.709806 0.464999 -0.000000 0.974603 -0.000000
3.014229 0.386643 0.287230 -0.000002 -0.610962 0.000382
3.253295 0.901850 0.225739 0.000000 0.610972 0.000444
0.539970 0.565192 0.369975 -0.000001 -0.375873 -0.000020
1.789480 0.062359 0.889518 0.066645 0.009049 0.011619
3.331676 0.749309 0.368624 0.000000 -0.610974 -0.000771
1.851282 0.507036 0.427363 0.000000 -0.925828 -0.000007
3.259729 0.668124 0.551921 -0.000000 0.613695 0.000164
2.804816 0.773111 0.337675 0.145000 0.001826 0.005032
2.809061 0.704618 0.557792 0.000000 0.610973 -0.001146
1.705581 0.702323 0.428695 -0.000000 0.926232 -0.000013
2.416855 0.498994 0.470010 0.000000 -0.999687 0.000000
0.394268 0.635496 0.367091 0.000000 0.282952 -0.000007
1.777870 0.522987 0.534998 0.066647 0.005865 0.007570
3.114028 0.504921 0.502861 0.000000 -0.943491 0.000006
2.109785 0.709865 0.468367 -0.000000 0.999696 0.000000
1.265600 0.488504 0.557326 -0.066569 -0.005749 -0.006723
3.065461 0.706876 0.442927 -0.000000 0.971991 -0.000002
1.471440 0.397645 0.616690 -0.066569 -0.001591 -0.001867
1.713292 0.215054 0.157647 0.066646 0.004650 -0.006011
1.515090 0.417035 0.596345 -0.066566 -0.001591 -0.001867
1.442206 0.804732 0.304730 -0.070425 -0.002643 -0.003810
2.890008 0.757479 0.362318 0.000000 -0.610973 -0.000478
1.317044 0.508586 0.423826 -0.000001 -0.904158 -0.000004
1.828662 0.947185 0.203329 0.066647 -0.009551 -0.012251
1.559880 0.684023 0.537038 -0.000000 0.757987 0.000027
2.423121 0.606545 0.362459 0.000000 0.025028 -0.000021
1.680640 1.026974 0.153552 -0.066568 0.003490 0.004091
0.088985 0.628753 0.540330 -0.447561 0.000022 0.000059
2.191252 0.706063 0.495963 0.000000 0.965897 0.000002
1.427790 0.383610 0.643974 -0.070426 0.002558 0.003687
0.345701 0.686451 0.401607 0.000000 0.774030 -0.000007
2.336954 0.702277 0.507167 -0.000000 0.925968 0.000006
3.371189 0.522890 0.425515 0.209124 -0.000162 -0.000087
3.152128 0.712265 0.538535 0.000000 -0.610974 0.000239
2.676924 0.503336 0.437772 -0.000000 -0.959153 -0.000009
2.239820 0.586581 0.571820 -0.000001 -0.154731 0.000025
0.685671 0.558354 0.372997 0.000000 -0.445109 -0.000032
3.001614 0.499678 0.374467 0.000000 -0.610973 0.001337
2.239820 0.514204 0.522516 -0.000001 -0.849521 0.000002
1.219910 0.699849 0.512742 0.000003 0.747126 0.000002
2.729533 0.725829 0.549004 -0.000000 -0.610974 0.001528
2.729533 0.713661 0.370977 0.000000 0.610974 0.001528
2.871192 0.707380 0.445088 -0.000000 0.977588 -0.000003
1.365611 0.704277 0.433974 0.000000 0.943835 -0.000006
2.482655 0.570159 0.567620 0.000001 -0.330223 0.000183
1.263777 0.603259 0.362434 0.000000 -0.024838 -0.000041
1.608447 0.666604 0.553044 0.000001 0.593379 0.000022
1.751386 0.863184 0.674109 0.066646 -0.003079 0.003986
2.628357 0.506758 0.428048 0.000000 -0.926185 -0.000006
3.103061 0.608845 0.362516 0.000000 0.025028 -0.000021
3.222129 0.602026 0.573313 0.000000 -0.013052 0.000020
3.110986 0.470289 0.583963 -0.000000 -0.610973 -0.000215
1.527196 0.898137 0.249861 -0.066569 0.010264 0.011909
1.567713 0.604902 0.573330 0.000000 0.024666 0.000010
1.651254 0.318378 0.232155 0.066648 0.001540 -0.001994
1.651617 0.750290 0.566347 0.062985 0.001441 -0.001866
2.660447 0.689658 0.521088 0.000000 0.791653 0.000198
0.200000 0.695747 0.415140 -0.047392 0.000400 -0.000224
0.588537 0.642326 0.566284 0.000000 0.353604 0.000042
2.239820 0.561332 0.371608 0.000000 -0.399906 -0.000009
1.660147 0.604655 0.362412 0.000000 0.025028 -0.000010
2.925596 0.758875 0.599666 0.000000 0.610973 -0.000573
3.162320 0.345086 0.655433 0.000002 0.610971 0.001051
2.094118 0.658874 0.558184 -0.000001 0.510337 0.000027
2.963939 0.716787 0.393723 0.000000 -0.610973 -0.000573
1.787303 0.972999 0.749044 0.062986 0.004921 -0.006356
3.294839 0.459708 0.592129 0.000000 -0.610973 -0.000613
1.609895 0.410618 0.599996 0.062985 -0.002161 -0.002799
1.580852 0.301805 0.688746 -0.066570 -0.004927 -0.005768
3.048584 0.813132 0.294209 0.000005 0.610708 0.000215
1.458227 0.930980 0.215836 -0.070426 -0.008525 -0.012209
3.162595 0.503475 0.498449 0.000000 -0.959021 0.000002
2.239820 0.503803 0.436239 -0.000001 -0.950701 -0.000005
2.938502 0.437774 0.351850 0.000000 0.610973 -0.000573
1.574245 0.966916 0.195391 -0.066570 0.008622 0.010038
1.099275 0.606216 0.362451 0.000000 0.025010 -0.000010
1.723088 0.496731 0.375864 0.066647 0.004650 -0.006011
0.200000 0.570819 0.567851 -0.047391 -0.000151 0.000432
0.028842 0.625043 0.442000 -0.683481 0.000011 -0.000013
1.728530 0.314156 0.700331 0.066646 0.001445 0.001872
0.419335 0.709865 0.466888 0.000009 0.108464 -0.000000
1.778596 0.865063 0.270700 0.062988 0.001629 0.002110
1.715469 1.090727 0.852751 0.066647 -0.003268 0.004229
0.085335 0.678906 0.467874 -0.468926 0.000030 0.000001
2.531222 0.673698 0.388367 -0.000000 0.652268 -0.000037
0.345701 0.708341 0.485783 -0.000001 0.984508 0.000001
2.482655 0.506959 0.508195 -0.000001 -0.926102 0.000026
0.831373 0.647297 0.564223 -0.000001 0.396170 0.000018
1.802715 0.504395 0.501347 0.000000 -0.951555 0.000005
3.090624 0.369953 0.636241 -0.000001 0.610972 0.000478
2.725491 0.702401 0.428886 0.000000 0.926158 -0.000001
0.831373 0.499781 0.454597 -0.000001 -0.987749 -0.000001
3.260573 0.337810 0.661048 0.000001 0.610949 0.000222
1.665403 0.863017 0.654445 0.062988 0.001762 -0.002282
1.777870 0.705775 0.385357 0.066645 -0.002933 -0.003796
3.313204 0.491966 0.368515 0.000000 -0.610973 0.000771
1.727804 0.779237 0.611311 0.066647 -0.004650 0.006011
0.289301 0.498970 0.470257 0.000000 -0.999924 0.000000
0.782806 0.641096 0.368999 0.000000 0.353648 -0.000042
1.458227 0.930980 0.719912 -0.070425 -0.008525 0.012209
1.381619 0.748993 0.348575 -0.070426 -0.002387 -0.003442
1.560688 0.214883 0.163392 -0.070425 0.003410 -0.004914
0.142857 0.601985 0.370698 -0.245233 -0.000000 -0.000040
2.822625 0.697609 0.418523 -0.000000 0.884094 -0.000017
1.948417 0.674440 0.546732 0.000000 0.669976 0.000009
1.658376 0.178192 0.129566 -0.070426 0.002728 -0.003933
1.612587 0.197873 0.788606 -0.070424 0.006138 0.008822
3.022583 0.798172 0.604836 0.000000 -0.610973 0.000382
2.962227 0.428732 0.590878 0.000003 0.610964 0.000669
0.088985 0.531369 0.490404 -0.447561 -0.000061 0.000017
1.414178 0.708829 0.482657 -0.000000 0.989790 0.000001
0.928507 0.700023 0.423379 -0.000001 0.904158 -0.000004
1.462745 0.626030 0.571096 0.000000 0.209485 0.000019
1.601322 0.278002 0.203657 -0.070425 0.003751 -0.005404
1.601188 0.446857 0.327087 0.066649 0.004085 -0.005283
2.725491 0.665302 0.553979 0.000000 0.573545 0.000023
1.622956 0.840435 0.302116 0.062987 0.001762 0.002282
3.062827 0.513242 0.550813 0.000000 -0.610973 -0.000764
0.879940 0.499436 0.478048 -0.000000 -0.995981 0.000001
3.001614 0.499678 0.561281 0.000000 -0.610973 -0.000669
3.102778 0.490635 0.367488 0.000000 -0.610973 0.000430
1.558741 0.772392 0.576000 -0.066568 0.001591 -0.001867
1.365611 0.678516 0.542911 0.000000 0.707107 0.000002
2.027534 0.603670 0.362424 0.000000 -0.024822 -0.000042
0.491403 0.704304 0.434051 0.000000 0.943446 -0.000001
1.511313 0.507222 0.426907 0.000000 -0.926285 -0.000006
1.025641 0.647410 0.564174 0.000000 0.399692 0.000037
1.645268 0.750535 0.369719 0.062992 0.002161 0.002798
1.492311 0.873558 0.252714 -0.070425 -0.004604 -0.006627
2.434088 0.641634 0.566546 0.000000 0.353704 0.000084
1.365611 0.537378 0.549292 -0.000000 -0.633201 0.000010
1.683161 1.120679 0.073944 -0.066568 0.010675 0.012373
2.968327 0.580940 0.570698 0.000000 -0.234676 0.000033
3.196779 0.702357 0.379701 -0.000008 0.610506 0.000263
3.065461 0.671026 0.386118 0.000000 0.632489 -0.000010
1.462745 0.704195 0.433741 0.000000 0.943857 -0.000006
1.802715 0.537696 0.386196 0.000001 -0.590310 -0.000003
2.682083 0.513242 0.384935 -0.000000 -0.610973 0.000764
0.485136 0.498959 0.469353 0.000000 -0.999922 0.000000
0.637104 0.530244 0.392896 0.000000 -0.707107 -0.000064
2.822625 0.704087 0.502318 0.000001 0.916581 0.000001
0.950441 0.606873 0.573281 0.000010 0.001505 0.000342
2.648724 0.602273 0.362459 0.000000 -0.024847 -0.000010
3.162595 0.702776 0.429842 -0.000000 0.935153 -0.000003
1.698055 0.155842 0.825085 0.066647 0.003771 0.004878
3.182121 0.874721 0.246676 0.000000 0.610975 0.000444
1.122775 0.707233 0.491343 -0.000000 0.977628 0.000007
1.691868 0.069954 0.059216 -0.066570 -0.009033 0.010507
1.791656 0.219691 0.167838 0.066647 0.004273 -0.005526
0.060720 0.623304 0.411636 -0.558224 0.000012 -0.000034
2.774058 0.505260 0.503830 0.000000 -0.942033 0.000003
1.654519 0.958599 0.755921 0.066646 -0.010305 0.013196
2.891559 0.603259 0.362420 0.000000 -0.012513 -0.000082
0.879940 0.688128 0.532011 0.000000 0.789512 0.000012
2.562556 0.601945 0.573281 0.000000 -0.024666 0.000021
0.183505 0.566260 0.370672 -0.079367 -0.000210 -0.000498
2.011084 0.498959 0.467135 -0.000000 -0.999696 -0.000000
1.899850 0.506129 0.506137 -0.000000 -0.935153 0.000003
2.900450 0.712265 0.538535 0.000000 -0.610974 0.000478
1.685720 0.776095 0.323311 0.066646 -0.009300 -0.011935
1.412972 0.814359 0.624528 -0.066570 0.003182 -0.003731
2.913357 0.700097 0.381446 -0.000000 0.610974 0.000955
2.579789 0.676115 0.545216 0.000001 0.611016 0.000002
1.354505 0.817544 0.303383 -0.070425 -0.005286 -0.007604
3.007493 0.600302 0.573240 0.000000 -0.025028 0.000041
