0.638359 -0.090272 -0.019191 -0.000330 -0.983335 -0.175272
0.017137 0.190759 0.183505 -0.071617 0.754216 -0.652709
1.238308 0.075957 0.052420 -0.000039 0.789279 0.612487
0.253107 -0.436688 0.472453 0.078400 -0.732095 -0.676675
-0.123392 -0.292070 0.315991 -0.065456 0.712221 0.698897
0.204832 -0.120868 -0.125174 0.078400 -0.732095 0.676675
-0.116020 -0.086629 -0.107323 -0.065456 0.712221 -0.698897
-0.450349 -0.030096 0.087244 -0.000511 -0.327102 0.944048
-1.345426 0.037181 0.084468 0.000784 0.412919 0.909819
-0.486642 0.061427 0.068877 0.000169 0.622015 0.781829
0.069592 0.033053 0.086167 0.001368 0.345690 0.937205
1.610144 0.102311 0.095028 0.000000 0.734356 -0.678765
-1.753935 0.062268 0.062167 -0.152997 0.712877 0.681743
0.253107 0.076244 0.082488 0.071655 -0.732468 0.677020
-0.013644 -0.203993 -0.236513 -0.065456 0.712221 -0.698897
-0.039790 0.054633 -0.074381 0.000995 0.591047 -0.805501
0.127482 0.574472 -0.627273 -0.065456 -0.712221 -0.698897
1.207036 -0.027469 0.088106 -0.000056 -0.246626 0.968059
-1.768941 -0.076853 0.035712 -0.232701 -0.902485 0.359653
-1.586673 -0.062613 -0.067800 -0.000038 -0.636277 -0.770327
-0.449543 0.031479 -0.086754 0.000027 0.340064 -0.939556
1.692820 0.155570 -0.152649 -0.000000 0.734356 0.678765
1.651204 -0.234823 0.269718 -0.103593 0.600274 0.790391
0.056915 -0.320762 -0.329360 -0.071617 -0.754216 0.652709
-1.696006 0.058050 0.071745 -0.005133 0.627427 0.777514
0.845145 0.049712 -0.077756 -0.000233 0.539793 -0.840709
0.090873 -0.383023 -0.397579 -0.071617 -0.754216 0.652709
0.080768 0.171987 0.166106 0.078400 0.732095 -0.676675
-0.554891 0.092289 -0.000000 -0.001214 0.998141 0.047328
-0.182378 0.144421 -0.160002 -0.065456 -0.712221 -0.698897
-1.049137 -0.028099 0.087907 0.000148 -0.354022 0.934212
0.253107 -0.497895 0.538673 0.078400 -0.732095 -0.676675
0.015342 0.045199 0.080463 0.000230 0.533605 0.844562
-0.111909 0.104396 -0.097870 -0.071617 0.754216 0.652709
-0.063785 -0.269713 0.283617 -0.071617 -0.754216 -0.652709
0.243244 0.659513 0.712385 0.078400 0.732095 -0.676675
0.998160 -0.033990 0.085801 -0.001878 -0.420021 0.906410
-0.100915 0.240916 -0.265967 -0.065456 -0.712221 -0.698897
0.222718 -0.125910 0.139438 0.071655 0.732468 0.677020
1.500508 0.055250 -0.073923 0.000021 0.596362 -0.801580
1.526515 -0.033555 0.085972 -0.000135 -0.367195 0.929117
1.625444 0.165779 0.195019 -0.000000 -0.734356 0.678765
0.145191 0.330740 0.369249 0.071655 -0.732468 0.677020
-0.053551 0.126705 0.117246 -0.071617 0.754216 -0.652709
1.762829 -0.155990 -0.184428 0.000000 0.734356 -0.678765
-1.194766 0.092289 -0.000000 -0.001634 0.998743 0.029265
-0.553158 0.034981 -0.085403 0.000118 0.380515 -0.923757
-0.952327 0.069151 0.061118 0.000089 0.717235 0.695504
-0.554891 0.000000 0.092289 0.001150 0.065170 0.996959
-0.132165 0.211053 -0.223337 -0.071617 0.754216 0.652709
1.495700 -0.157739 -0.186320 0.000000 0.734356 -0.678765
1.426861 -0.146189 0.142500 0.000000 -0.734356 -0.678765
0.202132 0.099817 0.113387 0.071655 -0.732468 0.677020
0.117978 0.206830 0.238072 0.071655 -0.732468 0.677020
-0.710118 -0.060209 0.069944 0.000328 -0.692985 0.719672
1.379105 0.115101 0.140191 0.000000 -0.734356 0.678765
1.622020 -0.035908 -0.085017 -0.000099 -0.438838 -0.897577
0.443206 0.092046 -0.006693 0.000707 0.991913 -0.120636
0.253107 0.178256 -0.192856 0.078400 0.732095 0.676675
1.770448 -0.227566 -0.261866 0.000000 0.734356 -0.678765
0.388304 -0.048497 0.078519 -0.000252 -0.514126 0.856595
0.097099 0.620710 0.671546 -0.065456 -0.712221 0.698897
-0.064777 -0.089140 -0.023902 0.000645 -0.960797 -0.273598
1.122512 0.086585 -0.031940 0.000021 0.916481 -0.397680
-1.306771 -0.049014 -0.078198 0.000679 -0.528471 -0.847979
1.638566 0.211505 -0.244489 -0.000000 -0.734356 -0.678765
-1.148444 -0.091842 -0.009072 0.000236 -0.984916 -0.165719
0.076159 -0.281580 0.284140 0.078400 -0.732095 -0.676675
0.928246 -0.090433 -0.018413 -0.000230 -0.967584 -0.249821
0.176526 -0.451111 0.479185 0.078400 -0.732095 -0.676675
-0.009439 0.111354 -0.094668 -0.071617 0.754216 0.652709
1.708146 0.216591 -0.218667 0.000000 0.734356 0.678765
1.762807 0.135956 -0.162753 0.000000 -0.734356 -0.678765
1.687215 0.063257 0.052775 -0.097326 -0.675542 -0.730869
-0.186716 -0.089088 0.103208 -0.065456 0.712221 0.698897
0.178773 -0.385946 -0.408943 0.078400 -0.732095 0.676675
-0.444913 -0.092289 0.000000 0.000161 -0.998643 -0.030140
0.648437 -0.082568 0.041228 -0.000048 -0.892024 0.449974
-0.185294 -0.131878 0.137678 -0.071617 -0.754216 -0.652709
0.253107 0.593107 0.641682 0.071655 -0.732468 0.677020
1.839785 -0.323320 0.360242 -0.149196 0.533609 0.832467
0.114170 -0.123425 0.148238 0.071655 0.732468 0.677020
0.083165 -0.109655 -0.136622 0.071655 0.732468 -0.677020
0.690559 0.008109 -0.091932 -0.000197 0.129174 -0.990693
-0.750040 0.088681 0.025553 -0.000073 0.941329 0.334603
0.113656 0.405908 0.422995 0.078400 0.732095 -0.676675
-0.715042 -0.042561 -0.081889 0.000243 -0.426269 -0.903531
1.397877 0.028775 -0.087688 -0.000113 0.310420 -0.949501
-0.882209 -0.078992 -0.047723 0.001130 -0.865176 -0.499552
0.395541 0.055660 0.073615 0.000009 0.646087 0.761996
-1.324560 0.051268 -0.076739 0.000046 0.566065 -0.823191
0.047886 0.138749 -0.126336 0.078400 0.732095 0.676675
-0.267326 0.081719 -0.042886 0.000246 0.860355 -0.507854
1.655579 -0.096166 -0.088380 0.000000 -0.734356 0.678765
1.317238 -0.029108 -0.087578 0.000152 -0.322872 -0.945478
0.253107 -0.654314 -0.707903 0.071655 0.732468 -0.677020
0.536809 -0.088352 0.026669 -0.000195 -0.971245 0.234130
1.181912 0.090914 -0.015871 0.000652 0.983912 -0.171351
0.057405 0.089574 -0.022218 -0.000017 0.956378 -0.288620
1.729922 0.267321 -0.273552 0.000000 0.734356 0.678765
1.491348 -0.088856 0.111796 -0.000000 0.734356 0.678765
1.413030 0.095690 0.087864 -0.000000 0.734356 -0.678765
-0.234799 -0.075948 -0.052433 -0.000771 -0.799572 -0.598896
-0.859984 0.051754 -0.076412 0.000373 0.562563 -0.825665
0.209383 0.394996 0.431974 0.071655 -0.732468 0.677020
-0.664971 -0.089015 -0.024361 0.000083 -0.952355 -0.301794
0.946879 -0.065653 0.064861 0.000034 -0.708650 0.704233
1.106931 0.057603 -0.072105 0.000348 0.665451 -0.745177
1.652728 0.057739 -0.062468 -0.097326 -0.675542 0.730869
-1.007698 0.059868 0.070235 -0.000955 0.665415 0.744978
0.114693 0.562601 0.613977 -0.065456 -0.712221 0.698897
0.007190 0.412349 0.440647 -0.071617 0.754216 -0.652709
0.219944 0.087272 0.030015 -0.000536 0.945521 0.322200
0.582176 -0.068113 0.062272 0.000121 -0.775204 0.630282
0.026601 -0.232293 0.230459 -0.071617 -0.754216 -0.652709
-0.446544 0.029993 0.087279 -0.000158 0.317511 0.947401
1.310508 0.088101 0.110979 0.000000 -0.734356 0.678765
-1.474655 -0.040727 -0.082816 0.000219 -0.488075 -0.871702
0.614007 0.051157 -0.076813 0.000012 0.555381 -0.830426
0.849914 -0.065529 -0.064986 0.000009 -0.676758 -0.735057
0.287744 -0.070137 -0.059983 -0.000040 -0.748505 -0.661658
1.579482 -0.134730 0.130102 -0.000000 -0.734356 -0.678765
-1.229362 0.044410 0.080901 0.000065 0.493131 0.868879
-0.181730 -0.194091 -0.209175 -0.071617 -0.754216 0.652709
1.367462 0.119486 -0.144934 -0.050277 -0.672068 -0.735515
-1.637240 -0.091865 -0.008837 0.000222 -0.987612 -0.150351
0.764850 0.092289 -0.000000 0.000738 0.996845 0.064457
1.224473 0.078669 -0.048254 -0.000363 0.878180 -0.476619
-0.617109 -0.020814 0.089911 -0.000071 -0.280557 0.958811
0.121054 -0.249647 -0.284070 0.071655 0.732468 -0.677020
0.854741 -0.088797 0.025147 -0.000305 -0.961027 0.273488
0.108187 0.150425 -0.145955 0.078400 0.732095 0.676675
1.593979 0.082469 -0.041427 0.000259 0.894441 -0.444428
1.359121 0.083433 0.039449 -0.000018 0.901762 0.429982
0.400774 0.079624 -0.046661 -0.001182 0.867011 -0.496502
-0.071479 -0.067479 -0.091980 -0.065456 0.712221 -0.698897
-0.117958 -0.219381 -0.231401 -0.071617 -0.754216 0.652709
1.722869 0.018101 -0.094003 -0.187649 0.119273 -0.973788
0.154610 0.107661 -0.126904 0.071655 -0.732468 -0.677020
0.044216 0.230879 0.226893 -0.071617 0.754216 -0.652709
-1.296269 0.091593 0.011314 0.000781 0.982296 0.182031
0.165502 -0.696094 0.751148 -0.000000 -0.678765 0.734356
0.070966 0.503798 -0.539320 -0.071617 0.754216 0.652709
0.194088 -0.548542 -0.599714 0.071655 0.732468 -0.677020
-1.670880 -0.045657 -0.080204 -0.000038 -0.542135 -0.839183
1.586821 0.054560 0.074434 -0.000159 0.630601 0.774976
1.738687 0.086409 0.047740 -0.184384 0.841695 0.506373
-0.032662 0.378375 0.405763 -0.071617 0.754216 -0.652709
0.238652 0.448357 0.486607 0.071655 -0.732468 0.677020
0.218597 0.606449 -0.652119 0.078400 0.732095 0.676675
0.123897 0.507017 0.558196 -0.065456 -0.712221 0.698897
-1.374358 0.071310 0.058584 0.000110 0.778189 0.626473
1.796972 0.258076 -0.263550 -0.000000 0.734356 0.678765
-1.219753 -0.080188 -0.045684 0.000592 -0.862667 -0.503975
0.583309 -0.016675 0.090770 -0.001120 -0.234200 0.971233
-0.562263 -0.087084 -0.030555 0.000538 -0.951377 -0.304991
-0.014789 -0.280455 -0.314326 -0.065456 0.712221 -0.698897
-1.756353 -0.033298 0.080948 -0.170087 -0.339683 0.923688
-1.808325 -0.062435 -0.034947 -0.405629 -0.773106 -0.483859
-0.227819 0.065254 0.065359 -0.071617 0.754216 -0.652709
0.561781 -0.088719 -0.025419 -0.000162 -0.968324 -0.245850
1.495814 -0.101186 -0.093810 0.000000 -0.734356 0.678765
-1.115060 0.084324 -0.037505 0.000454 0.920668 -0.388012
0.867037 0.091436 -0.012517 -0.000068 0.975684 -0.211408
0.432858 0.012058 0.091498 0.000254 0.184228 0.981824
0.018055 -0.502896 -0.544083 -0.071617 -0.754216 0.652709
-0.098430 0.329275 0.356242 -0.065456 -0.712221 0.698897
0.013895 -0.496695 0.537375 -0.065456 0.712221 0.698897
1.582418 -0.206863 0.239467 -0.100009 0.605153 0.786749
-0.398067 -0.083815 0.038629 -0.000584 -0.906681 0.419537
1.325391 -0.124220 -0.123626 -0.149196 -0.871813 0.466564
0.094123 -0.561489 -0.610917 -0.065456 0.712221 -0.698897
1.708619 -0.178514 -0.208796 -0.000000 0.734356 -0.678765
0.152351 -0.095460 0.091604 0.078400 -0.732095 -0.676675
0.223925 0.544723 -0.592424 0.071655 -0.732468 -0.677020
-1.173115 0.080116 0.045810 -0.000468 0.847353 0.529359
1.284748 0.092289 -0.000000 0.000689 0.995878 0.075421
0.649230 -0.039772 -0.083279 -0.000070 -0.464600 -0.884429
-1.282950 -0.038793 0.083740 0.000122 -0.423310 0.904926
1.230240 -0.099230 0.107357 -0.149196 0.533609 0.832467
1.830165 0.343092 -0.371192 -0.149196 -0.533609 -0.832467
1.658758 0.273417 -0.295810 -0.149196 -0.533609 -0.832467
1.573054 0.238580 -0.258120 -0.149196 -0.533609 -0.832467
1.735891 -0.304771 -0.329732 -0.149196 -0.871813 0.466564
1.744462 0.308255 -0.333501 -0.149196 -0.533609 -0.832467
0.036133 0.188353 -0.178640 0.028401 0.740935 0.669998
0.182137 -0.078886 0.047898 -0.000031 -0.854243 0.518005
0.166433 0.629361 0.673935 -0.071617 0.754216 -0.652709
-0.644873 0.092289 -0.000000 -0.000782 0.996969 0.060756
-1.207887 0.032787 -0.086269 -0.000224 0.363853 -0.930557
1.733248 0.091571 -0.034035 -0.185542 0.931722 -0.309421
0.285024 -0.082803 0.040754 -0.000096 -0.860439 0.506727
-0.099363 -0.029998 0.087277 0.000033 -0.321013 0.946206
1.017896 -0.091889 0.008580 0.001016 -0.990802 0.129942
-0.050089 -0.325965 -0.357397 -0.065456 0.712221 -0.698897
1.772547 0.200465 0.232545 -0.000000 -0.734356 0.678765
0.225147 -0.609845 0.656552 0.078400 -0.732095 -0.676675
1.426824 -0.007769 0.091961 0.001000 -0.140678 0.989159
1.297672 -0.065780 0.064732 -0.000209 -0.748541 0.661627
-0.098430 -0.329275 0.356242 -0.065456 0.712221 0.698897
0.208728 -0.047463 0.079149 0.000051 -0.515091 0.855995
-1.401250 -0.088863 -0.024912 0.000037 -0.945768 -0.321918
-1.445994 0.013628 0.091277 0.001619 0.148199 0.987959
-0.577845 -0.087949 0.027967 -0.001495 -0.947609 0.316739
-0.603313 0.061624 -0.068700 -0.000017 0.626568 -0.778116
1.065277 0.029118 0.087575 0.000910 0.259052 0.964694
1.742676 0.117180 0.111115 0.000000 0.734356 -0.678765
0.148585 0.137014 0.159298 0.071655 -0.732468 0.677020
1.573901 -0.062971 -0.068129 -0.097326 0.675542 0.730869
-0.650785 0.014929 0.091073 -0.000731 0.219507 0.974637
-0.309825 0.053668 -0.075080 0.000551 0.590363 -0.805982
1.452749 0.162105 0.159719 0.000000 0.734356 -0.678765
0.135865 -0.397012 0.415944 0.078400 -0.732095 -0.676675
1.598678 -0.149914 0.177855 -0.000000 0.734356 0.678765
-0.929704 -0.080474 0.045179 -0.000057 -0.842567 0.536962
0.217034 -0.278848 -0.297506 0.078400 -0.732095 0.676675
1.045145 0.088878 0.024857 -0.000257 0.957477 0.285076
-0.944113 -0.083965 -0.038302 -0.000064 -0.883819 -0.465788
-0.362256 0.023752 0.089180 0.001017 0.248678 0.967694
-1.734374 0.029857 -0.085794 -0.082593 0.344252 -0.933891
0.627813 0.058167 0.071650 0.000123 0.626379 0.778348
0.878392 -0.089183 -0.023742 -0.000150 -0.971714 -0.232566
0.136986 -0.427460 -0.474759 0.071655 0.732468 -0.677020
1.691163 -0.117175 -0.142435 0.000000 0.734356 -0.678765
-1.869958 0.000000 -0.034263 -0.644047 -0.060146 -0.755493
0.117553 -0.503004 -0.533291 -0.071617 -0.754216 0.652709
0.206992 -0.165889 0.184356 0.071655 0.732468 0.677020
1.662043 0.023422 0.089267 -0.000011 0.305178 0.951302
-0.601958 0.088136 -0.027373 -0.000341 0.956182 -0.289330
1.390822 -0.123418 -0.149188 0.000000 0.734356 -0.678765
1.679483 0.086063 -0.033322 0.000081 0.912227 -0.407330
1.324471 -0.102010 0.126027 -0.100009 0.605153 0.786749
0.253107 -0.545501 0.590178 0.078400 -0.732095 -0.676675
1.281611 0.113475 -0.117548 -0.149196 0.871813 0.466564
-0.304891 -0.058834 -0.071104 -0.001270 -0.678508 -0.732764
-1.433405 0.076466 -0.051673 0.000240 0.795316 -0.604728
-0.303623 -0.045616 0.080227 0.000113 -0.537875 0.841897
1.645707 0.239830 0.243810 -0.000000 0.734356 -0.678765
0.169218 -0.536211 0.570407 0.078400 -0.732095 -0.676675
-0.646802 0.043459 -0.081416 0.000241 0.472559 -0.880294
-1.808177 0.044630 -0.056005 -0.411863 0.587079 -0.694335
1.700002 0.167945 0.197362 -0.000000 -0.734356 0.678765
-0.238945 0.016973 0.090715 -0.000125 0.201219 0.978616
-0.126242 0.216504 0.228986 -0.071617 0.754216 -0.652709
-0.542639 -0.016419 -0.090817 -0.002673 -0.183296 -0.981854
0.302271 0.047391 0.079192 0.000433 0.513712 0.856927
1.528007 -0.195072 0.195386 0.000000 -0.734356 -0.678765
0.067139 0.384567 0.428095 -0.065456 -0.712221 0.698897
0.920350 0.044558 -0.080819 0.000233 0.530164 -0.846792
1.450231 -0.060069 0.080652 -0.000000 0.678765 -0.734356
0.020167 -0.430251 0.459909 -0.071617 -0.754216 -0.652709
0.007611 -0.267324 0.273022 -0.071617 -0.754216 -0.652709
-0.017054 -0.092022 -0.007018 0.000877 -0.994541 -0.096849
-0.063353 0.208376 0.236324 -0.065456 -0.712221 0.698897
0.004477 -0.121018 0.104307 -0.071617 -0.754216 -0.652709
1.781703 -0.282457 -0.321252 0.000000 0.734356 -0.678765
-0.022751 0.314864 0.331287 -0.071617 0.754216 -0.652709
-0.971113 0.052479 -0.075916 0.000009 0.524965 -0.849987
-0.048260 0.190110 0.189930 -0.071617 0.754216 -0.652709
0.175448 0.208442 -0.233733 0.071655 -0.732468 -0.677020
1.214003 -0.078282 0.048879 -0.000341 -0.874804 0.482589
1.057896 -0.023146 -0.089339 0.000149 -0.256854 -0.965481
0.115247 0.276904 0.283610 0.078400 0.732095 -0.676675
-1.724377 -0.073669 -0.054626 -0.082547 -0.833019 -0.544615
0.253107 0.484294 -0.523957 0.078400 0.732095 0.676675
0.026376 0.515297 0.557500 -0.065456 -0.712221 0.698897
1.590195 0.245547 0.265658 -0.149196 0.871813 -0.466564
0.067953 -0.202825 -0.239033 0.071655 0.732468 -0.677020
1.797281 -0.286960 0.326124 -0.000000 0.734356 0.678765
-1.513851 0.005478 0.092126 0.001700 0.106451 0.993505
0.969981 -0.091724 0.010194 -0.000284 -0.990577 0.128790
-0.184443 0.115420 -0.118568 -0.071617 0.754216 0.652709
1.573236 -0.205126 -0.206264 -0.000000 -0.734356 0.678765
0.055325 0.247164 -0.244491 0.024819 0.741448 0.669412
1.763855 -0.046459 0.058095 0.284761 0.741332 0.607732
0.266559 0.090811 -0.016447 0.000057 0.982420 -0.179952
-1.433524 -0.073336 0.056027 0.000330 -0.792441 0.608430
-1.392512 0.022446 -0.089518 0.000010 0.287710 -0.956709
1.438393 0.085261 -0.076582 0.000000 0.734356 0.678765
0.626055 0.092020 -0.007038 -0.000418 0.991959 -0.119726
-1.154773 0.000000 0.092289 0.002581 0.046283 0.998256
-0.007425 0.263597 0.297836 -0.065456 -0.712221 0.698897
1.719990 -0.262784 0.299968 -0.103593 0.600274 0.790391
-0.788335 -0.044471 -0.080867 -0.000063 -0.499292 -0.865451
-0.803033 -0.078004 -0.049321 -0.000639 -0.876576 -0.479252
0.040398 -0.201422 -0.193274 -0.021605 -0.748308 0.662009
1.781375 -0.106332 0.009857 -0.184551 -0.981559 0.028753
0.068429 -0.201110 0.196184 0.078400 -0.732095 -0.676675
0.206125 -0.675565 -0.735866 0.071655 0.732468 -0.677020
1.822322 -0.188296 0.203718 0.284761 -0.664091 -0.691299
-0.058587 0.133580 -0.125743 -0.071617 0.754216 0.652709
0.205470 0.240912 0.255123 0.078400 0.732095 -0.676675
1.720288 0.270029 0.276482 -0.000000 0.734356 -0.678765
1.815288 0.293569 -0.301950 0.095960 0.716038 0.687944
0.157714 -0.642037 0.698957 -0.065456 0.712221 0.698897
0.195465 0.369650 -0.406026 0.071655 -0.732468 -0.677020
1.817258 0.300261 0.309190 0.095960 0.716038 -0.687944
0.125854 -0.598667 0.642920 -0.071617 -0.754216 -0.652709
-1.539487 -0.091911 -0.008339 -0.001391 -0.997272 -0.060108
-0.314156 -0.090800 0.016508 -0.000114 -0.981889 0.183909
-1.679667 0.092083 0.006154 -0.000069 0.993881 0.104264
1.772845 -0.096208 -0.042497 -0.182736 -0.898690 -0.396969
-1.855517 0.039912 0.021256 -0.559581 0.699428 0.437721
-0.150921 0.084641 0.036785 -0.000030 0.893298 0.447480
1.197714 0.086785 0.031395 -0.000361 0.922328 0.384264
1.272731 -0.090418 -0.082161 0.000000 -0.734356 0.678765
0.006851 -0.037229 -0.084447 -0.000693 -0.365062 -0.929977
1.453444 -0.170051 -0.168315 -0.100009 -0.831857 0.541478
0.054997 -0.102807 -0.088274 0.078400 -0.732095 0.676675
-1.043505 0.068365 -0.061995 -0.000406 0.747331 -0.662986
1.421817 0.112939 -0.137851 0.000000 -0.734356 -0.678765
-1.596816 0.026113 0.088517 0.000028 0.328537 0.943636
1.660318 -0.230427 -0.264961 0.000000 0.734356 -0.678765
0.021567 -0.149314 0.184089 -0.065456 0.712221 0.698897
0.099226 0.183099 -0.180267 0.078400 0.732095 0.676675
0.404531 -0.090772 0.016666 0.000085 -0.973990 0.222202
-0.381627 0.083691 -0.038899 0.000008 0.907681 -0.417387
0.207054 0.187172 0.207376 0.071655 -0.732468 0.677020
1.771888 0.154996 0.183353 -0.000000 -0.734356 0.678765
1.537147 -0.078947 0.047797 -0.000368 -0.857893 0.511984
0.063304 0.122836 0.110906 0.078400 0.732095 -0.676675
1.691163 -0.117175 0.142435 0.000000 0.734356 0.678765
-0.052796 -0.092611 0.077767 -0.071617 -0.754216 -0.652709
-0.620520 0.064926 0.065588 -0.000723 0.745800 0.664482
1.468705 0.101171 0.125119 0.000000 -0.734356 0.678765
1.487758 0.160430 -0.189232 -0.000000 -0.734356 -0.678765
0.013057 0.057518 -0.087635 0.071655 -0.732468 -0.677020
-0.163727 -0.155564 -0.162682 -0.071617 -0.754216 0.652709
1.708146 0.216591 0.218667 0.000000 0.734356 -0.678765
-1.608907 -0.041045 0.082659 -0.000106 -0.442785 0.895502
-0.031096 -0.180254 -0.176658 -0.071617 -0.754216 0.652709
-1.024799 0.092289 -0.000000 0.000885 0.997596 0.050600
-0.383416 -0.014480 -0.091146 0.000975 -0.209857 -0.976902
1.793617 -0.219952 -0.222303 0.190880 -0.692617 0.692122
0.021155 0.491473 -0.530544 -0.071617 0.754216 0.652709
0.116366 -0.078115 0.068670 0.078400 -0.732095 -0.676675
-0.356694 -0.022763 0.089438 0.000068 -0.299051 0.953197
1.619023 -0.154861 -0.151881 -0.000000 -0.734356 0.678765
0.343206 -0.014109 -0.091204 -0.000282 -0.197706 -0.979356
0.253107 -0.327875 0.354728 0.078400 -0.732095 -0.676675
-0.244952 0.000000 -0.092289 0.000843 -0.026703 -0.998731
0.010544 0.109939 0.090840 -0.023038 0.748475 -0.661741
-0.160834 -0.236263 0.255614 -0.065456 0.712221 0.698897
-0.075365 0.162354 0.160833 -0.071617 0.754216 -0.652709
-0.021799 0.110176 -0.140144 -0.065456 -0.712221 -0.698897
-1.088162 0.090311 0.019005 0.001364 0.977555 0.206086
-0.200844 -0.130011 -0.143588 -0.065456 0.712221 -0.698897
1.603425 0.155536 0.152612 -0.000000 0.734356 -0.678765
-0.090246 0.267461 0.294016 -0.065456 -0.712221 0.698897
-1.636096 -0.068888 -0.061413 0.000038 -0.743440 -0.667360
1.769976 -0.139642 0.135416 0.197722 -0.690873 -0.692372
0.098701 -0.456319 -0.481414 -0.071617 -0.754216 0.652709
0.437188 0.039031 -0.083629 -0.000559 0.472691 -0.880019
0.106059 -0.327898 -0.370317 0.071655 0.732468 -0.677020
0.001486 -0.364457 0.385933 -0.071617 -0.754216 -0.652709
0.253107 -0.219061 -0.237003 0.071655 0.732468 -0.677020
-0.035040 -0.138318 0.128633 -0.071617 -0.754216 -0.652709
0.040398 0.074927 0.056419 0.000000 -0.678765 -0.734356
-0.369266 -0.076838 -0.051119 -0.000043 -0.798532 -0.600502
0.056067 -0.420972 -0.445248 -0.071617 -0.754216 0.652709
0.860776 0.072002 0.057731 0.000002 0.776957 0.628008
-0.150229 0.075552 -0.053002 0.001358 0.822250 -0.567507
-0.155585 -0.076162 -0.070038 -0.071617 -0.754216 0.652709
-0.079777 -0.091858 0.116047 -0.065456 0.712221 0.698897
0.368321 -0.078897 0.047880 -0.000179 -0.883533 0.466319
-0.714652 0.076553 0.051545 -0.000044 0.861315 0.506158
0.087311 -0.326859 0.371177 -0.019747 0.720159 0.692738
-1.422297 -0.042540 -0.081900 -0.000153 -0.509758 -0.859203
0.706235 -0.090606 -0.017546 -0.001016 -0.974959 -0.217862
0.124485 0.486370 -0.513310 -0.071617 0.754216 0.652709
1.670414 -0.046290 0.079840 0.000108 -0.451946 0.891008
1.803468 0.253414 0.258506 0.095960 0.716038 -0.687944
1.781375 0.000000 0.067956 1.000000 -0.000000 0.000000
0.025471 0.130525 -0.165308 -0.019747 -0.720159 -0.692738
0.155316 0.294097 0.306854 0.078400 0.732095 -0.676675
0.163252 0.073243 0.088751 0.071655 -0.732468 0.677020
-0.109018 0.054531 0.075270 -0.065456 -0.712221 0.698897
1.843770 -0.261156 -0.282545 0.284761 -0.664091 0.691299
-0.824617 0.078039 -0.049266 -0.000147 0.816194 -0.576157
-0.031241 -0.108989 -0.138049 -0.065456 0.712221 -0.698897
0.735935 -0.076723 0.051292 0.000016 -0.832432 0.552383
-1.262363 -0.041731 -0.082315 0.000461 -0.491330 -0.869994
-0.182880 0.073823 0.070330 -0.071617 0.754216 -0.652709
0.203012 0.431458 0.460990 0.078400 0.732095 -0.676675
0.126148 -0.381290 -0.425955 0.071655 0.732468 -0.677020
-0.996973 -0.042213 -0.082069 -0.000034 -0.500771 -0.864474
-1.165936 0.084816 -0.036379 0.000124 0.924893 -0.377725
-0.113313 -0.042704 -0.081814 -0.000094 -0.500040 -0.864879
-0.024619 -0.289717 0.302434 -0.071617 -0.754216 -0.652709
1.494191 -0.087957 -0.027942 -0.000613 -0.949583 -0.310605
1.736482 0.044373 0.063669 0.031948 -0.737517 0.672994
-0.093393 -0.091229 0.013947 0.000209 -0.978157 0.203433
0.207103 0.572786 -0.624566 0.071655 -0.732468 -0.677020
-0.402340 0.047663 0.079028 -0.000043 0.511857 0.857948
-0.319291 0.043530 0.081378 0.000078 0.519259 0.853526
0.253107 -0.593107 -0.641682 0.071655 0.732468 -0.677020
0.080364 0.392897 -0.437823 -0.065456 -0.712221 -0.698897
1.196972 0.081631 -0.085110 -0.149196 0.871813 0.466564
1.608407 0.086555 0.032022 0.000469 0.923056 0.382954
-0.696537 0.079505 -0.046863 0.000207 0.832082 -0.552949
0.948851 0.084649 0.036767 -0.000004 0.892707 0.448472
1.487351 0.203743 0.220429 -0.149196 0.871813 -0.466564
0.048750 -0.315693 0.324399 -0.071617 -0.754216 -0.652709
0.129786 0.091779 0.009690 0.001823 0.985099 0.165440
1.757470 0.101905 0.008630 -0.186092 0.981400 0.027214
0.189372 0.434562 -0.476899 0.071655 -0.732468 -0.677020
-1.805898 -0.072047 0.008719 -0.365217 -0.916941 0.150272
1.427465 0.167558 -0.186502 -0.149196 -0.533609 -0.832467
0.527423 0.044613 -0.080789 0.000007 0.528927 -0.847530
0.194088 0.548542 0.599714 0.071655 -0.732468 0.677020
0.172208 -0.336689 0.372827 0.071655 0.732468 0.677020
0.040759 0.153038 0.188047 0.071655 -0.732468 0.677020
-0.097419 0.083500 -0.039306 0.000037 0.906904 -0.419050
1.679065 -0.082148 0.042058 -0.000037 -0.913247 0.405102
1.418730 -0.088481 0.026236 -0.000088 -0.939626 0.339279
0.714860 0.000000 0.092289 0.000111 0.065907 0.996865
1.234758 0.000000 -0.092289 -0.002926 -0.071709 -0.996211
-1.595607 0.065363 0.065153 0.000219 0.709599 0.703306
-0.092701 -0.180748 -0.205421 -0.065456 0.712221 -0.698897
-0.488422 -0.087399 0.029643 -0.000177 -0.946779 0.319128
1.593335 0.140323 -0.136153 -0.000000 0.734356 0.678765
-1.669992 0.019111 0.090288 0.000121 0.257120 0.965364
-0.159185 0.028212 -0.087871 0.000280 0.316864 -0.947499
1.153081 0.058074 0.071727 0.000009 0.625790 0.778964
1.031855 0.066995 0.063474 0.000626 0.709266 0.703282
-1.152933 -0.041735 -0.082313 -0.000864 -0.398097 -0.916352
0.159873 0.328184 -0.344260 0.078400 0.732095 0.676675
0.080601 0.274094 -0.314800 0.071655 -0.732468 -0.677020
0.202462 0.272213 -0.288640 0.078400 0.732095 0.676675
-0.399153 0.040784 -0.082788 -0.000331 0.490766 -0.869931
0.744411 0.083844 -0.038567 -0.000085 0.883919 -0.465616
-0.236772 -0.078396 0.081527 -0.071617 -0.754216 -0.652709
-0.009662 0.148822 0.137986 -0.071617 0.754216 -0.652709
1.733234 -0.033890 0.091622 -0.185275 -0.309266 0.931845
-0.126385 0.267967 -0.291148 -0.065456 -0.712221 -0.698897
1.067020 -0.088373 0.026597 -0.000159 -0.954747 0.294188
1.750989 -0.081338 -0.103662 0.000000 0.734356 -0.678765
-1.704666 -0.028531 0.087768 -0.004083 -0.358694 0.932456
1.648807 0.084169 0.106725 0.000000 -0.734356 0.678765
-0.960236 -0.019375 0.090232 0.000409 -0.210619 0.976559
0.153150 0.374722 0.415992 0.071655 -0.732468 0.677020
0.140539 -0.669922 -0.725765 -0.065456 0.712221 -0.698897
1.366755 -0.082064 0.042222 -0.000251 -0.911731 0.408574
-0.882934 0.069433 0.060797 0.000567 0.726080 0.686386
0.979193 0.020975 -0.089874 -0.000054 0.225132 -0.973364
0.906363 -0.033251 -0.086091 -0.000286 -0.356840 -0.933178
0.762014 -0.054419 -0.074537 0.000694 -0.610853 -0.790429
1.243824 -0.086277 -0.032765 0.000579 -0.911686 -0.408577
1.356181 0.078348 -0.048773 -0.000189 0.875928 -0.480473
0.100785 -0.229164 0.264055 0.071655 0.732468 0.677020
0.172208 -0.345629 -0.364563 0.078400 -0.732095 0.676675
1.752441 0.296689 0.309338 -0.149196 0.871813 -0.466564
-1.370355 -0.006784 0.092039 0.000053 -0.113486 0.992769
0.094453 -0.049972 -0.077589 0.000282 -0.533032 -0.845018
1.453444 -0.170051 0.168315 -0.050277 -0.786038 -0.612212
1.354887 0.006080 -0.092088 -0.000320 0.117098 -0.992303
-0.141575 -0.089844 0.084310 -0.071617 -0.754216 -0.652709
0.131809 0.552165 -0.588533 -0.071617 0.754216 0.652709
1.462419 0.035457 0.085206 -0.000480 0.428857 0.902446
1.704666 -0.087768 -0.028531 -0.061791 -0.962350 -0.257453
0.521048 -0.027873 -0.087979 0.000450 -0.332516 -0.942121
1.762669 -0.074139 0.092416 0.284761 0.741332 0.607732
1.569494 -0.086778 -0.031414 0.000085 -0.919208 -0.391355
0.481389 0.079351 0.047124 -0.001117 0.827690 0.559232
-1.687346 0.068608 -0.061727 0.000103 0.742465 -0.668511
0.026661 -0.365725 -0.384635 -0.071617 -0.754216 0.652709
0.002572 -0.115482 0.147833 -0.065456 0.712221 0.698897
0.205470 -0.240912 -0.255123 0.078400 -0.732095 0.676675
0.026987 0.449667 0.481596 -0.071617 0.754216 -0.652709
-0.217919 0.059780 -0.070419 -0.000000 -0.678765 0.734356
1.514568 -0.127195 0.121949 -0.000000 -0.734356 -0.678765
-0.042491 0.177212 -0.174394 -0.071617 0.754216 0.652709
-0.051230 0.086294 0.032718 0.000810 0.917772 0.395017
-0.235717 0.124650 0.134859 -0.065456 -0.712221 0.698897
-0.025435 0.216848 -0.218322 -0.071617 0.754216 0.652709
0.784021 -0.038790 0.083741 -0.000027 -0.470811 0.881130
0.775109 -0.015101 -0.091045 -0.000071 -0.223324 -0.973828
1.281356 -0.029175 0.087556 0.001352 -0.292571 0.955280
0.116027 -0.614804 -0.667301 -0.065456 0.712221 -0.698897
-0.194258 -0.013063 0.091360 0.001229 -0.144224 0.988537
0.184754 -0.025157 -0.088794 0.000194 -0.325505 -0.944664
0.058757 0.102377 -0.088244 0.078400 0.732095 0.676675
1.566529 0.178439 -0.208715 0.000000 -0.734356 -0.678765
-1.431741 0.044170 -0.081032 -0.000229 0.427011 -0.903213
1.755095 0.056799 -0.049704 -0.097326 -0.675542 0.730869
-0.882699 -0.045285 0.080415 -0.000433 -0.443549 0.895070
0.692787 0.074636 -0.054283 -0.000055 0.809778 -0.585068
0.153416 -0.547750 -0.581061 -0.021605 -0.748308 0.662009
0.168098 0.026379 0.088439 -0.000070 0.339681 0.939524
0.720476 -0.067439 -0.063001 -0.000115 -0.755371 -0.653824
0.016521 -0.136464 -0.170522 -0.065456 0.712221 -0.698897
0.598029 0.083526 -0.039251 -0.000038 0.879662 -0.473565
0.138143 0.243653 -0.250288 0.078400 0.732095 0.676675
-1.350349 0.081638 -0.043039 0.000069 0.854206 -0.518110
-0.211690 -0.048183 -0.078712 0.000020 -0.555915 -0.830080
0.657098 0.046078 -0.079963 0.000029 0.500015 -0.864903
0.602383 0.081917 0.042508 -0.001659 0.887432 0.458978
1.385038 -0.096148 0.088360 -0.000000 -0.734356 -0.678765
0.124376 0.082802 -0.074669 0.078400 0.732095 0.676675
0.204863 -0.493366 0.538879 0.071655 0.732468 0.677020
0.105987 0.347572 0.358993 0.078400 0.732095 -0.676675
1.469589 0.085990 0.033510 -0.000055 0.909629 0.413140
-1.662780 0.077367 0.050314 -0.000239 0.866556 0.497249
0.152104 0.643502 -0.691848 -0.071617 0.754216 0.652709
-0.073469 0.366479 0.396494 -0.065456 -0.712221 0.698897
-0.630606 -0.076374 -0.051809 -0.000314 -0.839564 -0.541517
-0.169545 -0.076626 0.051436 0.000479 -0.835526 0.547625
0.017913 0.214201 -0.210507 -0.071617 0.754216 0.652709
0.052619 -0.360184 0.401888 -0.065456 0.712221 0.698897
0.798506 -0.078796 -0.048046 0.000684 -0.872559 -0.486385
0.685306 -0.067623 0.062804 -0.000021 -0.735352 0.676239
1.663096 0.089315 0.023239 0.000255 0.952513 0.301393
0.182690 -0.089520 -0.022437 -0.000358 -0.965907 -0.254819
0.071347 -0.124602 0.154045 0.071655 0.732468 0.677020
-0.184427 -0.091410 0.012709 -0.000097 -0.981353 0.186748
1.549267 0.072413 0.062682 -0.097326 -0.675542 -0.730869
-0.458078 -0.053927 -0.074894 0.000243 -0.552368 -0.832461
-1.125904 -0.080140 -0.045769 0.000056 -0.842154 -0.537430
0.188377 -0.453458 -0.483097 0.078400 -0.732095 0.676675
0.234248 0.396113 -0.426370 0.078400 0.732095 0.676675
0.136544 -0.280632 -0.315953 0.071655 0.732468 -0.677020
0.063967 0.348807 0.391357 -0.065456 -0.712221 0.698897
0.481699 0.048631 -0.078436 -0.000276 0.532000 -0.845610
1.271158 0.054158 0.074727 0.000025 0.628792 0.776360
-1.771801 0.079564 0.026999 -0.270488 0.904120 0.326763
1.624149 -0.195463 -0.227133 -0.000000 0.734356 -0.678765
-0.033572 0.081101 0.109412 -0.065456 -0.712221 0.698897
1.384627 -0.148713 0.150451 -0.149196 -0.871813 -0.466564
-1.678686 -0.065281 0.065235 0.000033 -0.706761 0.706149
-0.783574 -0.063208 0.067246 0.000232 -0.686107 0.726291
0.750571 0.020520 -0.089979 0.000034 0.272961 -0.960987
-0.283206 -0.084195 -0.037794 -0.000005 -0.893827 -0.446252
1.544678 0.127195 -0.121950 -0.000000 0.734356 0.678765
-1.281812 0.073227 0.056170 -0.000089 0.764247 0.643437
0.086069 0.493369 0.525612 -0.071617 0.754216 -0.652709
-1.100212 -0.055012 0.074101 0.000013 -0.638001 0.768792
0.430002 -0.048647 -0.078426 -0.000048 -0.506434 -0.861221
-1.014221 -0.074903 0.053915 -0.000202 -0.841649 0.538266
0.115270 0.301640 -0.310374 0.078400 0.732095 0.676675
0.151750 0.418594 -0.463604 0.071655 -0.732468 -0.677020
-0.300933 0.078676 0.048243 0.000057 0.850621 0.523937
0.076649 0.312508 0.317658 -0.021605 0.748308 -0.662009
1.333648 -0.090526 -0.017952 0.000153 -0.966902 -0.251316
0.067953 -0.202825 0.239033 0.071655 0.732468 0.677020
-1.484640 -0.071792 0.057992 0.000243 -0.744070 0.666795
1.611725 0.023024 0.089371 0.000352 0.304172 0.951672
0.768948 0.063341 -0.067120 -0.000130 0.725055 -0.687307
0.123671 -0.296759 0.306067 0.078400 -0.732095 -0.676675
1.702031 0.104761 -0.097679 -0.000000 0.734356 0.678765
1.603124 0.054033 -0.074818 -0.000288 0.584819 -0.809982
-0.705455 -0.075359 -0.053276 0.000059 -0.794952 -0.605126
0.121775 -0.179918 0.208553 0.071655 0.732468 0.677020
-1.520709 0.069169 0.061097 -0.000045 0.751112 0.658765
-1.202571 0.009706 0.091777 0.001373 0.119432 0.991937
-0.523479 0.087745 -0.028601 -0.000149 0.950750 -0.307222
-0.531911 -0.072442 0.057179 -0.000298 -0.787049 0.615426
1.304452 0.043777 -0.081245 0.000203 0.520132 -0.853000
-0.055115 -0.211115 0.239887 -0.065456 0.712221 0.698897
0.007393 0.428480 -0.459265 -0.071617 0.754216 0.652709
0.026375 -0.286010 -0.323842 -0.065456 0.712221 -0.698897
-0.005270 -0.205184 0.238512 -0.065456 0.712221 0.698897
0.094997 0.203935 0.202318 0.078400 0.732095 -0.676675
1.546983 0.149199 0.177081 0.000000 -0.734356 0.678765
0.544072 0.086679 0.031685 0.000647 0.921277 0.386525
1.813386 -0.310909 -0.320710 0.095960 -0.716038 0.687944
-0.009467 0.008288 0.091916 0.000587 0.152955 0.987219
1.101324 -0.078021 -0.049295 -0.000124 -0.841040 -0.539195
-0.634322 -0.089062 0.024191 0.000321 -0.948465 0.313956
0.328857 -0.089021 -0.024341 -0.000215 -0.957092 -0.286272
1.673620 -0.196729 0.197178 0.000000 -0.734356 -0.678765
1.534387 0.019339 -0.090240 -0.000169 0.259707 -0.964714
1.454017 -0.080448 -0.045225 0.001011 -0.844607 -0.533993
1.565310 0.208358 0.209761 0.000000 0.734356 -0.678765
1.670755 0.027978 -0.087946 0.000068 0.355523 -0.933686
-1.603023 -0.088296 0.026854 -0.000315 -0.970537 0.236923
1.161954 -0.039380 0.083465 0.000120 -0.420275 0.906434
-0.011066 -0.459491 0.497123 -0.065456 0.712221 0.698897
0.000963 -0.084786 0.036451 -0.000012 -0.918642 0.392640
0.194571 0.124061 -0.140418 0.071655 -0.732468 -0.677020
0.838097 0.080069 -0.045894 0.000027 0.837987 -0.543954
0.013911 -0.236641 -0.272364 -0.065456 0.712221 -0.698897
0.203114 -0.634243 0.691479 0.071655 0.732468 0.677020
1.384728 0.092289 -0.000000 0.000895 0.996854 0.063850
-0.018353 0.091455 -0.012377 -0.000123 0.981688 -0.185073
0.668239 0.091666 -0.010706 -0.000094 0.982880 -0.176922
1.679143 -0.229322 0.232441 -0.000000 -0.734356 -0.678765
0.107639 0.540725 0.577966 -0.071617 0.754216 -0.652709
1.272882 -0.096654 0.088907 -0.053861 -0.789285 -0.607062
0.082104 0.067561 0.063227 -0.000000 -0.678765 -0.734356
0.547043 0.090179 -0.019623 -0.000241 0.977316 -0.207313
1.261962 0.048361 -0.078603 0.000019 0.569588 -0.820733
-1.120776 0.025906 0.088578 0.000131 0.291431 0.955645
-0.127716 0.116683 0.113802 -0.071617 0.754216 -0.652709
-0.070903 0.087519 -0.073870 -0.071617 0.754216 0.652709
1.781375 -0.000000 -0.106788 -0.186054 -0.027800 -0.981353
0.216597 0.056049 -0.073320 0.000123 0.611275 -0.790219
0.135202 -0.443768 0.492592 0.071655 0.732468 0.677020
0.605878 -0.027559 -0.088078 0.000096 -0.271471 -0.961367
0.836576 -0.043120 0.081596 -0.000071 -0.473500 0.879702
-1.081782 -0.088340 0.026707 -0.000025 -0.957333 0.285515
0.471751 -0.081148 -0.043957 -0.000947 -0.859966 -0.508464
-0.355617 -0.091832 0.009169 -0.000912 -0.987406 0.152193
1.177177 0.024621 -0.088944 -0.000340 0.249333 -0.967412
0.113244 0.454021 -0.477163 -0.071617 0.754216 0.652709
0.902262 -0.008540 0.091893 0.000099 -0.135355 0.989819
-1.414525 0.091237 0.013897 -0.001502 0.986935 0.154140
1.713152 -0.042585 -0.083680 -0.123949 -0.449106 -0.882731
0.180477 -0.190338 -0.197512 0.078400 -0.732095 0.676675
0.224298 0.676074 -0.728107 0.078400 0.732095 0.676675
1.411994 -0.073986 -0.095708 0.000000 0.734356 -0.678765
0.146516 0.271314 -0.281184 0.078400 0.732095 0.676675
-0.079677 0.014450 0.091151 -0.001212 0.150663 0.987587
1.682373 0.259334 0.291016 -0.149196 -0.533609 0.832467
1.380554 0.060069 0.080652 0.000000 -0.734356 0.678765
0.026661 0.365725 -0.384635 -0.071617 0.754216 0.652709
0.370819 -0.085570 -0.034570 0.000174 -0.919202 -0.391324
1.487351 -0.203743 0.220429 -0.149196 0.533609 0.832467
-1.635917 0.018255 -0.090465 0.000529 0.249583 -0.967350
1.613077 -0.181289 0.211800 0.000000 0.734356 0.678765
-1.120319 0.032592 -0.086342 -0.002430 0.409749 -0.910691
-0.520822 -0.085067 -0.035789 0.001127 -0.920295 -0.388357
0.196099 0.152954 -0.171514 0.071655 -0.732468 -0.677020
1.518438 -0.042096 -0.082129 0.000160 -0.503932 -0.862675
-0.901570 0.071140 -0.058790 0.000118 0.771616 -0.634673
1.651204 0.250437 -0.255286 -0.050277 0.786038 0.612212
1.730258 -0.189102 0.188927 -0.000000 -0.734356 -0.678765
-1.686841 -0.008523 -0.091894 -0.002001 -0.146212 -0.988230
0.193680 -0.592724 0.634383 0.078400 -0.732095 -0.676675
-0.063006 0.312010 0.341966 -0.065456 -0.712221 0.698897
0.130908 -0.014295 0.091175 -0.001588 -0.154263 0.986982
-0.177870 -0.178244 0.194892 -0.065456 0.712221 0.698897
0.494903 0.000000 0.092289 -0.001662 0.030153 0.998648
0.857242 -0.007658 0.091971 0.000241 -0.123285 0.991445
0.215390 -0.389542 0.417076 0.078400 -0.732095 -0.676675
1.565257 0.091384 -0.083205 0.000000 0.734356 0.678765
0.164876 0.189584 0.194888 0.078400 0.732095 -0.676675
0.068542 -0.450004 0.494912 -0.065456 0.712221 0.698897
1.431516 0.091943 -0.007981 0.000010 0.991021 -0.126990
0.124493 -0.163106 0.161563 0.078400 -0.732095 -0.676675
1.791746 -0.252570 0.257593 -0.000000 -0.734356 -0.678765
-0.132014 -0.246289 -0.268529 -0.065456 0.712221 -0.698897
0.089444 0.351716 -0.361559 0.028401 0.740935 0.669998
-1.553882 -0.080155 -0.045742 0.000224 -0.869498 -0.492348
1.694195 -0.252298 -0.288624 -0.100009 0.605153 -0.786749
0.184167 0.124444 0.141933 0.071655 -0.732468 0.677020
-1.748984 0.088618 -0.006496 -0.172325 0.977894 -0.112039
1.116692 0.078857 0.047946 -0.000303 0.845282 0.532632
1.210353 -0.091872 0.008756 -0.001552 -0.987742 0.150383
1.487837 0.184031 0.183440 -0.100009 0.831857 -0.541478
0.076045 -0.520389 -0.567341 -0.065456 0.712221 -0.698897
0.216485 0.682501 0.734154 0.078400 0.732095 -0.676675
0.107822 -0.498880 0.529593 -0.071617 -0.754216 -0.652709
-0.531429 0.035352 0.085250 0.000289 0.373067 0.926765
0.224286 -0.384251 -0.412382 0.078400 -0.732095 0.676675
1.550115 -0.159654 0.188392 -0.000000 0.734356 0.678765
0.242978 -0.063227 -0.067232 0.000000 0.678765 0.734356
0.156458 0.519185 -0.571935 0.071655 -0.732468 -0.677020
0.384026 0.083050 0.040249 0.000030 0.898137 0.437647
1.742863 -0.218959 0.221230 -0.000000 -0.734356 -0.678765
0.158523 -0.499715 -0.529683 0.078400 -0.732095 0.676675
1.341667 0.124615 0.119158 -0.100009 0.831857 -0.541478
0.046862 -0.178034 0.168719 0.078400 -0.732095 -0.676675
0.245121 -0.407436 0.439880 0.078400 -0.732095 -0.676675
1.789174 0.075694 -0.081894 0.284761 -0.741332 -0.607732
-0.983201 -0.091332 -0.013255 -0.000825 -0.978198 -0.202008
0.036091 0.275819 0.279713 -0.071617 0.754216 -0.652709
0.092477 0.593695 0.640838 -0.071617 0.754216 -0.652709
-0.661939 0.084689 0.036674 0.000313 0.890578 0.452686
0.014847 -0.315045 0.352350 -0.065456 0.712221 0.698897
-0.059687 -0.162459 0.159233 -0.071617 -0.754216 -0.652709
1.538373 -0.119125 -0.144544 -0.000000 0.734356 -0.678765
1.510120 0.074741 0.096525 0.000000 -0.734356 0.678765
-0.121588 -0.140165 0.140264 -0.071617 -0.754216 -0.652709
0.163340 -0.286301 0.299348 0.078400 -0.732095 -0.676675
0.154712 0.577820 0.615665 -0.071617 0.754216 -0.652709
1.410453 0.136961 0.163841 -0.053861 -0.667189 0.739157
-0.758172 0.033518 -0.085987 0.000219 0.411388 -0.910464
0.215623 -0.225339 0.247761 0.071655 0.732468 0.677020
-0.026080 -0.013020 -0.091366 0.000243 -0.182975 -0.982239
-0.122588 -0.090987 -0.015447 -0.000723 -0.988676 -0.144079
-0.132989 -0.187055 0.195697 -0.071617 -0.754216 -0.652709
1.514703 0.092289 -0.000000 -0.000755 0.996025 0.074348
1.785737 0.193182 0.193341 0.095960 0.716038 -0.687944
-1.060659 0.032836 -0.086250 -0.001212 0.409914 -0.910954
-0.150755 0.042105 0.082124 0.000137 0.507997 0.860278
-1.411861 -0.016283 0.090841 -0.000148 -0.191554 0.980837
-1.358894 -0.090358 -0.018780 0.000985 -0.966761 -0.251423
0.819770 -0.008546 -0.091892 0.000571 -0.060377 -0.997087
0.235991 0.032704 0.086300 -0.000642 0.359105 0.932365
-0.254776 -0.082085 -0.087766 -0.071617 -0.754216 0.652709
0.215448 0.215197 -0.228459 0.078400 0.732095 0.676675
0.006439 -0.188198 0.181720 -0.071617 -0.754216 -0.652709
1.492923 -0.091142 0.014507 0.000593 -0.976666 0.210552
1.728935 -0.131009 0.157401 0.000000 0.734356 0.678765
0.140623 -0.071157 -0.088890 0.071655 0.732468 -0.677020
0.036947 0.105106 0.136592 0.071655 -0.732468 0.677020
1.094785 0.000000 0.092289 0.001818 0.044190 0.998285
1.781375 0.051873 0.068257 1.000000 0.000000 0.000000
-0.876817 -0.046677 -0.079614 0.000293 -0.499207 -0.865457
0.166211 0.586958 -0.624962 0.028401 0.740935 0.669998
1.374832 -0.039741 0.083294 -0.000761 -0.492427 0.868961
0.073341 0.098972 -0.126104 0.071655 -0.732468 -0.677020
-0.260678 0.087445 0.094607 -0.065456 -0.712221 0.698897
0.014175 -0.065066 0.095683 0.071655 0.732468 0.677020
-1.554695 0.092289 -0.000000 -0.002869 0.998045 0.048172
0.212591 -0.697459 0.749887 0.000000 -0.678765 0.734356
1.728798 -0.106787 -0.131195 -0.000000 0.734356 -0.678765
-0.025216 -0.075181 -0.104161 -0.065456 0.712221 -0.698897
1.386465 0.067679 -0.088885 0.000000 -0.734356 -0.678765
0.049528 0.451338 -0.481054 -0.071617 0.754216 0.652709
0.243407 -0.020384 0.090010 -0.000015 -0.273684 0.960814
0.216706 0.243887 -0.259644 0.078400 0.732095 0.676675
-0.919589 -0.007834 0.091956 0.000501 -0.107513 0.993382
0.425360 -0.032702 0.086301 0.000234 -0.405578 0.913154
0.081271 -0.139373 -0.168975 0.071655 0.732468 -0.677020
-1.319092 -0.078011 -0.049310 0.000005 -0.814197 -0.579109
0.192209 -0.199948 0.209268 0.078400 -0.732095 -0.676675
0.155749 -0.144029 -0.144545 0.078400 -0.732095 0.676675
1.101106 -0.009357 -0.091813 -0.000402 -0.139857 -0.988872
1.617337 0.108056 -0.132568 0.000000 -0.734356 -0.678765
1.756665 0.128652 -0.123527 -0.000000 0.734356 0.678765
-0.095691 0.119590 -0.142816 -0.065456 -0.712221 -0.698897
0.157078 0.178676 -0.182183 0.078400 0.732095 0.676675
-0.271460 -0.006844 0.092035 0.000788 -0.112857 0.992854
0.016567 -0.071844 -0.102763 0.071655 0.732468 -0.677020
0.076045 -0.520389 0.567341 -0.065456 0.712221 0.698897
1.660382 -0.154166 0.151130 -0.000000 -0.734356 -0.678765
-1.339923 -0.088659 0.025630 -0.000423 -0.960081 0.275655
0.101570 -0.198610 -0.197319 0.078400 -0.732095 0.676675
0.103045 -0.414859 0.433029 -0.071617 -0.754216 -0.652709
0.241490 -0.328146 -0.353675 0.078400 -0.732095 0.676675
-0.146411 0.099933 -0.118035 -0.065456 -0.712221 -0.698897
0.047177 0.546301 0.591043 -0.065456 -0.712221 0.698897
1.583060 0.106287 0.130654 -0.000000 -0.734356 0.678765
-0.065149 -0.378881 -0.409911 -0.071617 -0.754216 0.652709
-0.135872 0.273468 0.295865 -0.065456 -0.712221 0.698897
-0.177474 0.211460 -0.228779 -0.065456 -0.712221 -0.698897
-0.227397 -0.137051 0.148276 -0.065456 0.712221 0.698897
0.138701 0.682718 0.738632 -0.065456 -0.712221 0.698897
0.222860 0.133510 0.147646 0.071655 -0.732468 0.677020
-1.567865 0.028340 -0.087830 0.000300 0.358340 -0.932603
-0.065461 -0.270160 -0.284316 -0.071617 -0.754216 0.652709
-0.192129 0.174509 0.187690 -0.071617 0.754216 -0.652709
-0.066118 0.066456 0.064248 -0.000000 -0.678765 -0.734356
0.303980 -0.034964 0.085409 -0.000171 -0.380325 0.923837
0.253107 -0.667916 0.722618 0.078400 -0.732095 -0.676675
1.786534 0.215441 -0.248748 0.000000 -0.734356 -0.678765
0.193439 0.632299 -0.677171 0.078400 0.732095 0.676675
1.802227 0.141561 -0.150544 0.284761 0.664091 0.691299
-1.284748 0.000000 -0.092289 -0.001153 -0.021057 -0.999041
-0.714860 0.000000 -0.092289 0.001024 -0.072177 -0.996589
-1.334738 0.092289 -0.000000 0.000043 0.997589 0.050147
-0.079508 -0.234420 0.261352 -0.065456 0.712221 0.698897
1.453069 -0.189808 0.205353 -0.149196 0.533609 0.832467
1.273092 0.116649 0.126202 -0.149196 0.871813 -0.466564
1.838736 0.346576 0.374961 -0.149196 0.871813 -0.466564
1.804454 0.332641 0.359884 -0.149196 0.871813 -0.466564
1.341655 0.144519 0.156355 -0.149196 0.871813 -0.466564
1.410218 0.172389 0.186508 -0.149196 0.871813 -0.466564
1.495921 0.207226 -0.224198 -0.149196 -0.533609 -0.832467
1.625486 0.204340 0.205413 0.000000 0.734356 -0.678765
0.189615 -0.146805 0.151472 0.078400 -0.732095 -0.676675
0.225185 -0.158366 -0.168101 0.078400 -0.732095 0.676675
0.688802 -0.044028 -0.081110 0.000249 -0.497483 -0.866337
0.578940 0.034404 -0.085636 0.000031 0.373597 -0.926554
0.145082 0.431070 0.477808 0.071655 -0.732468 0.677020
0.477769 0.088496 -0.026186 0.000190 0.958044 -0.283096
0.214602 0.339289 0.371153 0.071655 -0.732468 0.677020
1.475501 0.132314 -0.127488 -0.000000 0.734356 0.678765
1.796974 -0.102189 -0.110558 0.284761 -0.664091 0.691299
0.134054 -0.235945 0.241475 0.078400 -0.732095 -0.676675
-1.447083 0.050785 0.077059 -0.000290 0.500289 0.864794
-0.053054 -0.145271 -0.138644 -0.071617 -0.754216 0.652709
-0.132989 0.187055 0.195697 -0.071617 0.754216 -0.652709
0.115248 0.371464 -0.385914 0.078400 0.732095 0.676675
1.148916 -0.070256 0.059844 0.000145 -0.722717 0.689864
0.315447 -0.090805 0.016484 0.000823 -0.991836 0.120443
-1.820005 -0.000000 0.066210 -0.454847 0.050585 0.886153
1.653826 0.169560 -0.167785 -0.000000 0.734356 0.678765
1.209626 -0.057361 -0.072298 -0.000124 -0.611763 -0.789827
0.113051 -0.328884 0.339593 0.078400 -0.732095 -0.676675
0.088622 -0.301983 -0.344124 0.071655 0.732468 -0.677020
0.078407 0.212866 0.248790 0.071655 -0.732468 0.677020
0.671325 0.065978 0.064530 -0.000066 0.713553 0.699231
-0.179101 0.091923 -0.008205 -0.001641 0.991020 -0.126225
0.253107 -0.110248 0.119278 0.078400 -0.732095 -0.676675
-1.873985 -0.023088 0.020549 -0.636450 -0.529980 0.553199
0.438900 0.053714 0.075047 -0.000017 0.585086 0.809773
-0.067181 -0.054987 0.074120 -0.000042 -0.633146 0.772992
0.356003 -0.027567 0.088076 0.000206 -0.348041 0.936442
1.416724 -0.090622 -0.017459 0.000401 -0.980371 -0.191318
-1.511477 0.039880 -0.083227 0.002617 0.455265 -0.889350
0.149628 -0.207783 0.212812 0.078400 -0.732095 -0.676675
0.169836 0.081901 0.042538 0.000256 0.863806 0.502109
1.152777 -0.029933 -0.087300 -0.000564 -0.314580 -0.948102
-0.387204 0.079298 0.047213 -0.000779 0.859773 0.508798
0.014974 -0.081103 -0.044039 0.000112 -0.865930 -0.498231
1.282969 0.075852 -0.097726 0.000000 -0.734356 -0.678765
0.047177 0.546301 -0.591043 -0.065456 -0.712221 -0.698897
1.663241 0.090379 -0.082119 -0.000000 0.734356 0.678765
1.021681 0.015777 -0.090930 -0.000035 0.219291 -0.974757
1.026543 -0.085599 -0.034497 0.000277 -0.903216 -0.427054
1.698959 -0.205591 -0.238092 -0.000000 0.734356 -0.678765
0.073317 -0.067989 0.062831 -0.000000 0.678765 -0.734356
-1.191003 -0.089986 -0.020486 -0.000733 -0.975118 -0.217464
-0.083989 0.314090 -0.342120 -0.065456 -0.712221 -0.698897
-0.033416 0.395829 -0.426014 -0.071617 0.754216 0.652709
0.289782 0.014853 -0.091086 -0.000179 0.116881 -0.992599
0.157156 0.079633 -0.096310 0.071655 -0.732468 -0.677020
1.477472 0.088627 -0.080223 -0.000000 0.734356 0.678765
0.170162 -0.412111 0.436253 0.078400 -0.732095 -0.676675
1.708619 0.178514 -0.208796 -0.000000 -0.734356 -0.678765
-1.264746 0.077964 -0.049384 0.000230 0.818234 -0.573244
1.668870 0.217564 -0.219720 -0.000000 0.734356 0.678765
0.961257 0.026081 0.088527 -0.000026 0.285230 0.957391
0.072834 -0.077544 0.102975 0.071655 0.732468 0.677020
0.720980 0.048502 0.078516 -0.000076 0.521742 0.851983
-0.038705 -0.234016 -0.239616 -0.071617 -0.754216 0.652709
0.877022 -0.072334 0.057315 -0.000627 -0.781501 0.622352
0.044978 0.490270 0.533738 -0.065456 -0.712221 0.698897
-1.475026 0.083354 -0.039614 -0.000148 0.875559 -0.480936
1.682471 0.089660 0.081341 0.000000 0.734356 -0.678765
0.155118 0.008752 -0.091873 0.000932 0.109050 -0.993305
1.596187 -0.081173 0.043910 0.000109 -0.856386 0.514685
-0.809898 0.052705 0.075759 0.000186 0.592402 0.804461
0.086302 -0.368304 0.381071 -0.071617 -0.754216 -0.652709
0.110679 0.118685 0.111904 0.078400 0.732095 -0.676675
-1.284748 0.000000 0.092289 0.000442 0.071600 0.996054
1.249215 -0.007361 0.091995 0.000422 -0.120274 0.991898
-0.667992 -0.064140 0.066357 0.000091 -0.694966 0.717707
1.475139 -0.108168 -0.132690 0.000000 0.734356 -0.678765
0.013466 0.129700 0.163343 -0.065456 -0.712221 0.698897
0.046098 0.397942 -0.419731 -0.071617 0.754216 0.652709
0.107609 -0.573995 0.616413 -0.071617 -0.754216 -0.652709
-0.058022 -0.332090 0.362896 -0.065456 0.712221 0.698897
-0.074150 0.038692 -0.083786 -0.000298 0.467607 -0.882876
-0.719178 -0.088861 0.024919 0.000128 -0.946150 0.320773
0.193666 0.482083 0.514679 0.078400 0.732095 -0.676675
-0.013075 0.166526 0.198385 -0.065456 -0.712221 0.698897
1.020074 0.007617 0.091974 -0.000439 0.129031 0.990688
-1.470957 0.025157 -0.088794 -0.000795 0.283149 -0.958129
-0.296633 0.090367 -0.018735 0.000059 0.970653 -0.236073
0.345588 0.036175 0.084904 -0.000006 0.341466 0.938850
-0.526332 0.062269 -0.068116 0.000127 0.714765 -0.697999
