1.214459 0.571447 0.613848 -0.000000 -0.024953 -0.000035
1.283824 0.669383 0.709369 0.000000 0.999689 -0.000000
1.619153 0.087853 1.307785 0.036859 -0.013486 -0.010227
2.350307 0.518380 0.630601 -0.000001 -0.573137 -0.000039
1.518739 0.688747 0.546832 0.080366 -0.006719 -0.005407
2.772080 0.646633 0.824617 0.000000 0.778044 -0.000681
1.525065 0.867966 0.325680 0.080366 -0.002880 -0.002324
1.632067 0.933868 1.163052 0.080365 -0.004906 0.003954
1.543942 0.526401 0.625689 0.000001 -0.484037 -0.000012
1.857529 0.620547 0.794400 0.000000 0.489118 0.000048
1.767932 0.540044 0.801304 0.000000 -0.330209 0.000039
2.772080 0.476727 0.614187 0.000000 0.778043 -0.000340
1.462534 0.206623 0.262323 -0.080307 -0.009008 0.006677
2.646681 0.668765 0.852028 0.000001 0.778042 -0.000243
2.548286 0.669338 0.707563 0.000000 0.999689 -0.000000
1.006365 0.661222 0.749328 0.000000 0.916566 0.000003
0.434106 0.573855 0.613827 0.000000 0.012271 -0.000071
0.322833 0.568437 0.613923 -0.000000 -0.024943 -0.000017
1.499144 0.539689 0.801178 0.000000 -0.353986 0.000018
1.388281 0.461381 0.831614 0.036858 -0.011295 -0.008720
0.480349 0.476287 0.714184 0.000000 -0.999689 0.000000
1.400659 0.270807 0.329534 -0.172991 0.002193 -0.002097
1.519530 0.963907 1.214699 0.080367 -0.004480 0.003611
1.620998 0.311329 1.031117 0.036861 -0.003372 -0.002711
1.812730 0.654435 0.762072 0.000001 0.837346 0.000004
1.155210 0.573554 0.613833 0.000000 0.024943 -0.000017
2.439903 0.489063 0.758595 0.000000 -0.872104 0.000004
0.619079 0.669327 0.713733 0.000000 0.999689 0.000000
3.137823 0.503543 0.642869 -0.003249 -0.009514 -0.002925
1.620998 0.296323 0.371143 0.036858 -0.003314 0.002665
0.244798 0.482019 0.743464 0.000000 -0.935612 0.000001
2.663894 0.666837 0.732542 -0.000001 0.968193 0.000003
1.496190 0.109317 1.284451 -0.080308 -0.006125 -0.004555
2.760111 0.498970 0.824617 0.000000 -0.778043 -0.000340
2.966173 0.381195 0.970482 0.000000 -0.778043 -0.000340
0.114073 0.574832 0.791837 -0.313183 0.000002 0.000049
2.036721 0.667837 0.727753 0.000001 0.981559 0.000003
2.439903 0.491207 0.658709 -0.000000 -0.846550 -0.000008
2.036721 0.651781 0.654799 0.000000 0.819042 -0.000005
1.635757 0.196914 1.180934 0.080366 0.004480 0.003611
0.500581 0.573554 0.613824 0.000000 0.012271 -0.000071
0.354626 0.669308 0.706359 0.000000 0.999689 -0.000000
1.641291 0.003989 1.419163 0.080366 0.007679 0.006172
1.357123 0.762176 0.458359 -0.172990 -0.002684 -0.002567
2.574298 0.606899 0.620040 0.000001 0.353327 -0.000036
1.505694 0.243411 1.108464 0.036857 -0.012324 -0.009438
1.947125 0.623686 0.792537 0.000000 0.532204 0.000005
0.603183 0.550060 0.616537 0.000001 -0.234439 -0.000112
2.854558 0.378713 0.492796 0.000001 0.778043 -0.000486
2.828423 0.416654 0.539786 0.000001 0.778043 -0.000438
2.484701 0.628795 0.789143 -0.000001 0.572726 0.000019
0.916769 0.605843 0.801204 -0.000000 0.353986 0.000009
2.395105 0.522685 0.793011 0.000000 -0.510735 0.000023
1.577643 0.755592 0.471604 0.080366 -0.001867 -0.001507
2.679790 0.576263 0.613900 0.000000 0.024943 -0.000017
1.552613 0.572576 0.807025 0.000010 -0.001169 0.000372
0.871971 0.550645 0.616395 -0.000001 -0.234602 -0.000112
2.753490 0.476409 0.704067 -0.000000 -0.997950 -0.000002
1.723134 0.613149 0.622650 0.000000 0.422633 -0.000058
3.137823 0.548614 0.734609 1.000000 0.000000 0.000000
2.215913 0.494189 0.766570 -0.000001 -0.818527 0.000009
1.712296 0.669408 0.710498 0.000000 0.999679 0.000000
3.022278 0.593158 0.804854 0.000001 0.210277 0.000251
2.036721 0.518850 0.630289 -0.000002 -0.547564 -0.000021
1.499144 0.663658 0.677594 0.000000 0.943908 -0.000005
0.289596 0.616740 0.796458 -0.000000 0.443290 0.000007
2.887884 0.655313 0.760668 -0.000000 0.828758 0.000001
3.054386 0.441947 0.571113 0.000001 0.778042 -0.000373
3.084763 0.530869 0.623350 0.006518 -0.014218 -0.010725
2.529500 0.487466 0.665151 0.000000 -0.884085 -0.000007
1.603340 0.629028 0.631653 0.080366 -0.002743 -0.002213
1.620998 0.836885 0.376486 0.080366 -0.003093 -0.002496
1.633538 0.522426 0.627987 0.000001 -0.531984 -0.000086
0.782375 0.645186 0.646442 -0.000000 0.741192 -0.000003
1.559195 0.897201 1.126992 0.080358 -0.001333 0.001076
0.647981 0.601994 0.802508 -0.000000 0.306629 0.000084
1.373522 0.516819 0.818385 0.080367 0.005180 0.004174
2.977480 0.625592 0.629519 0.000001 0.552679 -0.000020
1.633538 0.667942 0.727198 0.000000 0.986893 0.000009
1.823569 0.476206 0.709896 0.000000 -0.999689 -0.000000
1.543942 0.631134 0.787432 -0.000000 0.613721 0.000009
1.857529 0.667536 0.729343 0.000000 0.982539 0.000001
1.309357 0.667232 0.606034 -0.080308 0.005195 0.003866
1.006365 0.523591 0.793549 0.000000 -0.510725 0.000045
2.841898 0.746339 0.518249 0.000000 -0.778044 -0.000219
0.160320 0.490821 0.665778 -0.143266 -0.000228 -0.000117
1.357618 0.813167 0.404914 -0.172991 -0.001267 -0.001211
1.531522 0.816058 0.390797 0.080366 -0.003306 -0.002667
2.887884 0.655076 0.659792 0.000000 0.846804 -0.000004
1.371941 0.474402 0.549722 0.080367 0.005180 -0.004174
1.364502 0.776811 0.979664 -0.172991 -0.002684 0.002567
1.902327 0.490647 0.659601 0.000000 -0.846265 -0.000008
0.968793 0.476242 0.708466 0.000000 -0.999689 -0.000000
1.373522 0.628783 0.818385 0.080363 -0.005181 0.004174
1.503849 0.743014 0.911213 0.036857 0.004244 -0.003404
2.977480 0.479473 0.685493 0.000000 -0.965916 -0.000007
3.077664 0.807882 0.396520 0.149160 0.001673 0.002725
2.126317 0.654115 0.658263 -0.000002 0.839092 -0.000009
2.743006 0.713030 0.513995 0.149160 0.001673 0.002725
1.437434 0.754299 0.499555 0.036857 0.008488 0.006679
2.434123 0.669353 0.708165 0.000000 0.999689 -0.000000
2.914815 0.380293 0.494754 -0.000002 0.778026 -0.000268
1.713019 0.476197 0.710573 0.000000 -0.999694 0.000000
1.364750 0.668209 0.725564 0.000001 0.919665 0.000001
1.554319 0.432115 0.520757 0.080367 0.006719 -0.005406
3.100801 0.489484 0.836365 0.000000 -0.778044 -0.000486
0.244798 0.584851 0.614569 -0.000001 0.136693 -0.000782
0.379192 0.601420 0.618152 0.000000 0.307188 -0.000005
3.010732 0.788911 1.000830 0.149161 0.001673 -0.002725
2.574298 0.536635 0.799998 0.000000 -0.376877 0.000033
0.334394 0.657534 0.756823 0.000000 0.872209 0.000001
2.350307 0.477997 0.691871 0.000000 -0.981686 -0.000001
1.466820 0.468450 0.554528 0.080367 0.006719 -0.005406
2.843086 0.624993 0.791716 0.000000 0.529294 0.000005
1.140759 0.490059 0.660565 -0.000000 -0.859738 -0.000008
1.567497 0.290619 1.053625 0.036858 -0.013254 -0.010071
0.192031 0.655099 0.760714 -0.020147 0.000819 0.000486
1.474331 0.328547 0.382222 0.080366 0.001653 -0.001335
0.916769 0.520387 0.629269 0.000000 -0.553421 -0.000005
3.009599 0.422977 0.873227 0.000001 0.778042 0.000373
2.925244 0.678361 0.818405 0.000000 -0.778043 0.000243
0.513587 0.656390 0.758856 0.000001 0.855461 0.000004
1.319952 0.478489 0.731331 0.000000 -0.977663 0.000001
2.760677 0.432462 0.861480 0.000000 0.778043 0.000340
2.887884 0.489136 0.662118 0.000000 -0.872187 -0.000004
2.542211 0.489484 0.584480 0.000000 -0.778044 0.000584
0.737577 0.491167 0.658773 0.000000 -0.846577 -0.000008
3.083572 0.377132 0.930007 0.000001 0.778041 0.000340
1.643136 0.137260 1.253868 0.080365 0.007253 0.005832
2.921490 0.785861 0.951544 0.149158 -0.003016 0.001061
1.594247 0.837126 1.033078 0.036857 0.003372 -0.002711
3.010918 0.370018 0.482027 0.000001 0.778023 -0.000170
2.312735 0.669357 0.708316 0.000000 0.999689 -0.000000
1.448371 0.640565 0.823370 0.080367 -0.003885 0.003133
1.275154 0.622400 0.793319 0.000001 0.423181 0.000003
2.847421 0.568738 0.613916 0.000000 -0.025348 -0.000004
0.594512 0.476272 0.707262 -0.000000 -0.999689 -0.000000
1.570659 0.445262 0.881708 0.080367 0.006719 0.005406
1.319952 0.526532 0.795229 -0.000002 -0.431171 0.000007
2.215913 0.652623 0.656001 0.000000 0.833267 -0.000002
0.694224 0.573554 0.807021 0.000000 0.012667 0.000069
3.008136 0.697332 0.841900 0.000001 -0.778043 0.000746
2.631453 0.464191 0.553153 -0.000000 -0.778044 0.000486
2.832248 0.760567 0.920217 0.149157 -0.003016 0.001061
1.633538 0.621105 0.794088 0.000000 0.510767 0.000091
3.033043 0.328125 0.990702 0.000001 0.778042 0.000454
0.038125 0.609573 0.699080 -0.620354 0.000021 -0.000006
0.152471 0.494331 0.758375 -0.173780 -0.000182 0.000105
1.535080 0.457257 0.575504 0.036857 -0.014649 0.010993
1.902327 0.586902 0.614852 0.000000 0.136597 -0.000098
0.871971 0.655813 0.759827 -0.000001 0.859125 0.000008
2.887884 0.528595 0.796321 0.000000 -0.465082 0.000006
1.902327 0.488363 0.757348 0.000000 -0.872196 0.000004
1.543942 0.487958 0.756626 0.000000 -0.883206 0.000004
1.418998 0.817927 0.384339 -0.172989 -0.001191 -0.001139
2.663894 0.539830 0.801229 0.000000 -0.330209 0.000010
1.095961 0.644226 0.775463 0.000001 0.670713 0.000002
1.417799 0.405538 0.902508 0.036857 -0.005648 -0.004508
2.943883 0.776375 0.481048 -0.000001 -0.778044 -0.000373
3.011063 0.747920 0.516291 0.000000 -0.778043 -0.000373
0.558384 0.522944 0.627680 0.000001 -0.509779 -0.000023
3.084763 0.648360 0.650166 0.006518 0.021917 -0.005586
3.022278 0.598967 0.617425 0.000000 0.282767 -0.000011
1.140759 0.487712 0.756160 -0.000001 -0.882188 0.000007
2.765316 0.426250 0.506163 0.000001 -0.778044 0.000778
0.423990 0.502865 0.643785 0.000000 -0.724478 -0.000051
1.364750 0.496762 0.650842 -0.000000 -0.789404 -0.000005
1.603340 0.510069 0.783939 0.036855 -0.005980 -0.004767
3.033126 0.779426 0.431762 0.000000 0.778044 0.000227
0.782375 0.530480 0.797262 0.000000 -0.445028 0.000054
1.446658 0.771749 0.943444 0.036857 0.008488 -0.006679
2.852077 0.773282 0.473502 0.149159 -0.006032 -0.002121
1.490012 0.922233 0.288480 -0.080306 0.009008 0.006677
3.012162 0.669297 0.705908 0.000000 0.999689 -0.000000
1.674499 0.287021 1.064364 0.080365 0.005759 0.004639
2.484701 0.665799 0.736588 -0.000000 0.965906 0.000002
1.639446 0.171385 0.215323 0.036857 -0.009535 0.007453
2.653764 0.709979 0.563281 0.149160 -0.003016 -0.001061
1.230356 0.488529 0.663202 0.000001 -0.871275 -0.000008
0.647981 0.657645 0.756626 -0.000000 0.884062 0.000007
3.078243 0.697221 0.533574 0.000002 0.778042 0.000746
2.798288 0.526798 0.795371 -0.000001 -0.444712 0.000003
1.311797 0.452977 0.542603 -0.172990 0.003138 -0.003001
1.654205 0.053428 0.068366 0.036857 -0.005814 0.004637
2.646114 0.624501 0.623638 0.000000 0.628210 -0.000424
2.305509 0.644327 0.645493 -0.000001 0.737675 -0.000012
0.244798 0.667978 0.726975 0.000000 0.986502 0.000002
1.547203 0.207087 1.155889 0.036853 -0.005698 -0.004547
2.305509 0.548090 0.803809 0.000000 -0.258944 0.000050
2.939409 0.429300 0.865395 0.000000 0.778044 0.000535
1.448371 0.505038 0.597475 0.080365 0.003885 -0.003134
1.812730 0.489598 0.759503 0.000001 -0.842610 0.000002
1.095961 0.526073 0.625874 0.000000 -0.489158 -0.000048
1.491857 0.803799 0.985792 0.036856 0.003779 -0.003036
2.484701 0.534516 0.799113 -0.000000 -0.399573 0.000015
1.857529 0.559558 0.614734 -0.000000 -0.136512 -0.000049
2.698385 0.445220 0.529658 0.000000 -0.778043 0.000292
0.558384 0.634900 0.636416 0.000000 0.652274 -0.000016
1.633538 0.477661 0.693646 0.000000 -0.986874 -0.000009
1.812730 0.668693 0.698709 -0.000001 0.938451 -0.000000
1.902327 0.647808 0.649547 0.000000 0.773492 -0.000006
1.006365 0.596201 0.804149 -0.000000 0.234177 0.000028
2.081519 0.618273 0.795653 0.000000 0.467369 0.000026
2.439903 0.648285 0.770715 0.000000 0.773710 0.000003
2.542211 0.656118 0.584480 0.149162 0.001673 0.002725
1.231275 0.687197 0.852103 -0.172991 -0.003252 0.003109
2.260711 0.665838 0.736442 0.000000 0.964649 0.000002
0.423990 0.653913 0.762899 0.000000 0.828211 0.000002
3.137823 0.608147 0.620362 -0.008345 0.001927 -0.004614
1.754926 0.572952 0.613818 0.000000 0.025348 -0.000017
1.947125 0.510907 0.636249 0.000000 -0.633152 -0.000004
3.084763 0.604721 0.801642 0.004396 0.003653 0.006904
3.137170 0.409613 0.508313 -0.362693 -0.001981 0.001603
1.363127 0.408575 0.901145 -0.080307 -0.003513 -0.002618
1.140759 0.536147 0.799799 -0.000000 -0.376397 0.000017
2.350307 0.610327 0.621400 0.000000 0.400029 -0.000008
1.402834 0.339306 0.432177 -0.080307 -0.003018 0.002249
0.379192 0.486832 0.666349 0.000000 -0.895376 -0.000002
2.887884 0.488694 0.757939 0.000000 -0.872112 0.000008
1.519530 0.978075 0.217586 -0.080307 0.007567 0.005619
1.185557 0.646513 0.772863 0.000000 0.757801 0.000003
3.033353 0.409651 0.935240 0.000000 -0.778043 -0.000340
2.943801 0.353419 0.461469 0.000001 0.778042 -0.000340
1.006365 0.483439 0.673733 0.000001 -0.923728 -0.000003
1.991923 0.656005 0.759503 -0.000001 0.856715 0.000004
1.499144 0.618040 0.625069 -0.000000 0.467183 -0.000026
2.663894 0.619694 0.794879 -0.000000 0.489151 0.000048
1.506379 1.049712 0.119765 -0.172991 -0.002571 -0.002458
0.737577 0.662050 0.673454 -0.000000 0.926089 -0.000005
2.708692 0.489598 0.661342 -0.000000 -0.859414 -0.000004
0.558384 0.620580 0.794382 0.000000 0.489148 0.000024
0.782375 0.615460 0.797095 0.000000 0.444724 0.000014
1.051163 0.602316 0.618441 0.000001 0.306123 -0.000042
1.416218 0.362976 0.955129 0.036857 -0.016044 -0.011879
2.142213 0.669368 0.708767 0.000000 0.999679 -0.000000
2.171115 0.643101 0.776678 -0.000000 0.724366 0.000013
1.454346 0.574607 0.806985 0.000000 0.024943 0.000270
0.603183 0.613797 0.622952 -0.000000 0.422629 -0.000116
1.513073 0.919904 1.130834 0.036854 0.005698 -0.004547
1.622579 0.428922 0.535275 0.036857 -0.014649 0.010993
2.439903 0.654796 0.659346 -0.000001 0.846073 -0.000008
1.490276 0.649407 0.794484 0.036855 0.008472 -0.006667
2.977480 0.659775 0.668371 0.000000 0.892102 -0.000002
2.574298 0.658032 0.664951 -0.000000 0.883976 -0.000014
1.533630 0.650082 0.596631 0.080366 -0.006719 -0.005407
1.947125 0.660797 0.670552 0.000001 0.892071 -0.000003
1.185557 0.658383 0.665617 0.000000 0.884085 -0.000007
1.991923 0.481721 0.742612 -0.000000 -0.943590 0.000002
1.627059 0.480738 0.599186 0.036856 -0.005980 0.004766
1.767932 0.483637 0.673245 -0.000000 -0.925580 -0.000003
2.126317 0.602244 0.618418 0.000000 0.306460 -0.000042
1.499500 0.494744 0.829557 0.080366 0.006719 0.005407
2.880942 0.388198 0.916301 0.000000 0.778043 0.000122
0.244798 0.520897 0.791896 0.000001 -0.531861 0.000043
2.081519 0.575510 0.613882 0.000000 0.024943 -0.000270
3.120136 0.551281 0.804710 -0.001970 -0.016224 0.011566
1.857529 0.512627 0.634845 0.000000 -0.613721 -0.000004
2.126317 0.502190 0.776351 0.000000 -0.724703 0.000006
2.126317 0.506464 0.640200 0.000001 -0.661738 -0.000004
2.585686 0.458945 0.862811 0.149159 -0.003346 -0.005448
0.384973 0.576714 0.806933 0.000000 0.024943 0.000035
2.843086 0.627066 0.630497 -0.000000 0.552679 -0.000010
1.512151 0.181488 1.185536 0.036857 -0.020923 -0.014696
1.512151 0.181488 0.235309 0.036857 -0.010464 0.008128
1.230356 0.488105 0.756888 0.000000 -0.872188 0.000002
1.649593 0.876179 1.084695 0.036859 0.003081 -0.002479
1.304417 0.453107 0.849351 -0.080309 -0.003873 -0.002886
2.771832 0.694059 0.883355 0.000001 0.778040 -0.000389
3.100471 0.741596 0.524123 -0.362694 -0.001985 -0.001598
2.831115 0.495808 0.828533 -0.000003 -0.778032 -0.000389
2.831115 0.672038 0.810574 -0.000002 -0.778039 0.000389
0.834398 0.476259 0.707789 0.000000 -0.988885 -0.000000
1.499144 0.506355 0.640304 -0.000001 -0.685975 -0.000014
2.798288 0.668598 0.722882 0.000000 0.990573 0.000001
1.541669 0.125645 0.164415 0.036857 -0.017206 0.012590
3.083572 0.746228 0.947966 0.000001 0.778043 -0.000340
1.551815 0.266789 1.105167 0.080365 0.002826 0.002281
3.033456 0.716191 0.910766 -0.000001 0.778040 -0.000373
3.118408 0.328132 0.418775 -0.362693 0.001985 -0.001598
2.949874 0.698913 0.576986 0.000000 -0.778044 -0.000134
0.827173 0.658172 0.665217 -0.000000 0.884062 -0.000007
1.051163 0.497270 0.770657 0.000000 -0.789523 0.000010
2.260711 0.503856 0.642754 0.000000 -0.707107 -0.000013
2.260711 0.483297 0.746763 -0.000000 -0.926229 0.000011
1.411210 0.440780 0.562371 0.036855 -0.004236 0.003398
1.350653 0.716354 0.875107 -0.080306 0.003558 -0.002651
1.454346 0.657996 0.755960 0.000001 0.883830 0.000014
0.513587 0.484965 0.750634 0.000000 -0.906285 0.000003
1.588713 0.819152 0.410352 0.036856 0.003605 0.002897
0.038125 0.556975 0.745498 -0.620355 -0.000009 0.000020
0.916769 0.619530 0.625874 0.000000 0.489134 -0.000003
0.692779 0.524497 0.794088 0.000000 -0.510822 0.000011
0.739022 0.476257 0.712981 0.000000 -0.999689 0.000000
1.542497 0.669406 0.710272 -0.000021 0.010544 -0.000000
2.817268 0.419815 0.877143 -0.000001 0.778042 0.000438
3.137823 0.484615 0.750213 -0.005371 -0.007280 0.001886
2.880942 0.735162 0.934261 0.000000 0.778044 -0.000122
2.215913 0.657645 0.756626 -0.000000 0.884062 0.000007
2.800659 0.675089 0.560985 -0.000000 0.778044 0.000389
2.260711 0.640523 0.779315 0.000000 0.707107 0.000013
0.192031 0.649683 0.652187 -0.020150 0.000766 -0.000565
2.798288 0.481016 0.740546 0.000000 -0.951757 0.000004
3.137170 0.735989 0.912532 -0.362694 -0.001985 0.001598
3.136925 0.782867 0.450255 -0.362689 -0.000981 -0.000790
3.136679 0.315858 1.028648 -0.362690 -0.000979 -0.000792
0.647981 0.502501 0.776678 -0.000000 -0.724488 0.000013
1.404621 0.669581 0.606405 0.036857 0.011295 0.008720
1.533367 0.312983 0.396921 0.036860 -0.003546 0.002850
1.541669 1.019957 0.164415 -0.080309 0.006306 0.004689
0.961567 0.496369 0.769498 -0.000000 -0.789493 0.000010
1.550893 0.952999 0.246802 0.036857 0.010465 0.008128
1.674499 0.768546 0.467991 0.080366 -0.007039 -0.005662
0.558384 0.663683 0.677665 -0.000000 0.943271 -0.000005
0.334394 0.489540 0.759406 0.000000 -0.859734 0.000016
1.404490 0.701588 0.904579 0.080368 -0.003885 0.003133
0.647981 0.634725 0.636273 0.000001 0.566447 -0.000002
1.452345 0.220049 1.141893 -0.080307 -0.009008 -0.006677
0.647981 0.530480 0.623582 0.000001 -0.420206 -0.000007
1.270316 0.468388 0.587388 -0.080306 -0.005195 0.003866
1.674499 0.272014 0.337896 0.080365 0.001333 -0.001076
1.095961 0.667146 0.731184 -0.000000 0.977460 0.000003
0.423990 0.659256 0.667326 -0.000000 0.895486 -0.000027
1.723134 0.642946 0.776842 -0.000001 0.720639 0.000006
2.619096 0.518380 0.790244 0.000000 -0.574630 0.000002
1.577643 0.189305 0.223028 0.080366 0.002240 -0.001808
0.782375 0.652664 0.764781 -0.000001 0.814110 0.000002
1.382071 0.816005 1.004483 -0.080306 0.002973 -0.002216
2.126317 0.543896 0.802600 0.000000 -0.306471 0.000021
1.454346 0.654676 0.659155 0.000000 0.845452 -0.000004
0.468788 0.535694 0.799615 0.000000 -0.376844 0.000017
0.782375 0.480081 0.737526 -0.000000 -0.958875 0.000004
2.977480 0.526665 0.625544 0.000000 -0.467378 -0.000006
2.862544 0.456175 0.588734 0.000000 0.778044 -0.000438
2.263601 0.574908 0.806978 -0.000000 0.024537 0.000009
1.678336 0.492834 0.764624 -0.000000 -0.833231 0.000009
1.499144 0.499360 0.773177 -0.000000 -0.757869 0.000012
0.084808 0.634824 0.740291 -0.437501 0.000051 0.000023
0.782375 0.534792 0.621611 0.000001 -0.399657 -0.000062
0.423990 0.617607 0.796004 0.000000 0.467051 0.000013
1.346934 0.384372 0.485066 -0.080307 -0.003333 0.002484
0.334394 0.634055 0.635725 -0.000001 0.631088 -0.000017
1.364750 0.646071 0.773377 0.000001 0.755654 0.000012
3.100471 0.426250 0.914682 0.000002 -0.778024 -0.000170
2.586832 0.668765 0.568816 0.149158 0.001673 0.002725
2.765316 0.426250 0.914682 0.000000 -0.778044 -0.000778
0.196015 0.572801 0.613864 -0.057495 0.000010 -0.000167
2.934930 0.434154 0.515953 0.000000 -0.778043 0.000268
1.543942 0.485601 0.668847 0.000001 -0.895675 -0.000003
2.171115 0.484562 0.749742 0.000000 -0.916165 0.000006
1.353543 0.848315 1.051648 -0.172989 -0.001191 0.001139
0.152471 0.543513 0.797596 -0.173786 -0.000071 0.000195
2.496889 0.472991 0.822661 0.149161 0.006032 0.002121
3.029671 0.321985 0.411162 0.149159 0.003016 -0.001061
2.852077 0.383442 0.956322 0.149160 -0.003346 -0.005448
1.230356 0.527064 0.625333 0.000000 -0.466719 -0.000013
1.006365 0.667620 0.691945 0.000001 0.974999 -0.000001
1.230356 0.657221 0.757381 -0.000000 0.872173 0.000015
2.672670 0.416075 0.904530 0.149160 -0.003312 -0.005394
2.451791 0.478678 0.593850 0.149158 -0.003313 0.005394
3.092340 0.848475 0.368998 0.149158 0.003313 0.005394
3.092340 0.848475 1.051846 0.149158 0.003313 -0.005394
2.407615 0.654404 0.811487 0.149160 0.003312 -0.005394
2.628494 0.717007 0.889022 0.149159 0.003313 -0.005394
2.495966 0.679445 0.842501 0.149160 0.003312 -0.005394
2.937725 0.340950 0.997572 0.149158 -0.003312 -0.005394
1.613618 0.782798 0.453914 0.036857 0.007674 0.006067
0.871971 0.498056 0.771618 0.000001 -0.773621 0.000022
1.481710 0.296286 1.041570 0.036858 -0.007093 -0.005624
0.694224 0.575661 0.613885 0.000000 0.024537 -0.000018
3.137823 0.596988 0.734609 1.000000 0.000000 0.000000
3.137823 0.548614 0.686235 1.000000 0.000000 -0.000000
2.081519 0.484080 0.748638 0.000000 -0.913660 0.000001
2.484701 0.526040 0.625892 0.000001 -0.488672 -0.000024
1.583178 0.371531 0.449427 0.080366 0.003520 -0.002839
1.902327 0.534240 0.798993 -0.000001 -0.399238 0.000031
0.961567 0.536356 0.620960 -0.000000 -0.376917 -0.000017
2.726397 0.706817 0.853648 0.000000 -0.778043 0.000681
3.077829 0.347095 0.453638 0.000000 0.778043 -0.000454
1.532808 1.042793 1.300561 -0.172989 -0.002344 0.002242
1.567760 0.486539 0.609852 0.036858 -0.014649 0.010993
1.812730 0.524109 0.793857 0.000001 -0.510584 0.000045
1.991923 0.612535 0.622363 0.000000 0.422495 -0.000014
1.454346 0.476416 0.703954 0.000000 -0.998026 -0.000002
0.871971 0.621688 0.793741 -0.000001 0.510566 0.000045
0.289596 0.514590 0.633323 0.000000 -0.593901 -0.000005
1.611773 1.013777 0.167953 0.036858 0.008604 0.006765
1.334955 0.367210 0.973809 -0.172991 0.001342 0.001284
1.051163 0.657497 0.663957 0.000000 0.872019 -0.000004
0.423990 0.508654 0.782655 -0.000001 -0.670584 0.000030
2.574298 0.662107 0.747251 0.000000 0.926209 0.000011
1.651438 0.887172 0.322426 0.036857 0.005814 0.004637
1.095961 0.604138 0.801801 -0.000001 0.330165 0.000077
1.639446 0.986019 1.226694 0.080366 -0.008106 0.006512
0.468788 0.485697 0.668642 0.000000 -0.906289 -0.000003
1.812730 0.630286 0.632787 0.000000 0.593744 -0.000018
3.100967 0.646744 0.779247 -0.000001 0.628212 0.001153
1.605316 0.910588 1.124711 0.036857 0.005698 -0.004547
2.957329 0.521102 0.797207 0.000000 -0.628211 0.000848
3.052922 0.678361 0.818405 0.000000 -0.778043 0.000243
2.622175 0.521102 0.623638 0.000000 -0.628210 -0.000848
2.168225 0.574306 0.613852 0.000000 0.024557 -0.000018
1.461417 0.803422 0.437307 0.036857 0.003837 0.003082
0.106614 0.621827 0.648946 -0.352368 0.000053 -0.000064
1.593325 0.027921 0.040350 0.036856 -0.019530 0.013937
2.126317 0.480027 0.683499 0.000000 -0.959135 -0.000008
2.619096 0.484652 0.749949 -0.000000 -0.916387 0.000003
1.674499 0.061930 1.343140 0.080368 0.004693 0.003783
1.674499 0.362051 0.971439 0.080365 0.006613 0.005321
1.674499 0.497105 0.616672 0.080367 0.005485 -0.004419
1.674499 0.242002 0.300725 0.080365 0.002453 -0.001980
1.674499 0.392063 0.486576 0.080367 0.001760 -0.001421
1.674499 0.422075 0.897098 0.080367 0.007466 0.006002
1.674499 0.948618 0.244970 0.080367 -0.008959 -0.007189
1.674499 0.257008 1.101534 0.080366 0.005333 0.004296
1.400659 0.874795 0.329534 -0.172992 -0.002193 -0.002097
1.140759 0.636497 0.637791 0.000000 0.652258 -0.000008
1.674499 0.828570 0.393651 0.080366 -0.006186 -0.004980
0.916769 0.654275 0.658518 0.000000 0.846840 -0.000001
2.753490 0.638260 0.781468 -0.000000 0.663904 0.000004
2.305509 0.506191 0.780385 0.000001 -0.689024 0.000028
1.628377 0.244847 1.113888 0.036858 -0.005814 -0.004637
2.474586 0.574908 0.613867 0.000000 0.024953 -0.000017
2.907042 0.703544 0.525742 0.000000 0.778043 0.000243
0.200000 0.503643 0.642967 -0.020149 -0.000690 -0.000656
1.230356 0.528528 0.796286 -0.000000 -0.467090 0.000026
0.692779 0.483779 0.672896 0.000000 -0.926249 -0.000005
1.438356 0.802919 1.025732 0.080364 -0.006933 0.005577
1.357182 0.503672 0.584080 0.080365 0.005180 -0.004174
0.782375 0.602603 0.618533 0.000000 0.306602 -0.000084
1.453115 0.852430 0.377098 -0.080308 0.005315 0.003955
2.169670 0.573855 0.807004 -0.000000 0.025328 0.000017
2.753490 0.516684 0.631788 0.000000 -0.573058 -0.000005
2.753490 0.654636 0.659091 -0.000000 0.846658 -0.000017
2.171115 0.661402 0.671930 -0.000000 0.915994 -0.000006
1.411618 0.342311 1.019327 -0.172995 0.001191 0.001139
1.334489 0.688699 0.840207 -0.080308 0.003738 -0.002785
1.991923 0.532249 0.622745 -0.000001 -0.422436 -0.000058
1.557325 1.116844 1.384223 -0.172989 -0.003327 0.003181
1.404489 0.915447 1.134792 -0.172990 -0.004083 0.003904
1.302598 0.781183 0.968504 -0.172990 -0.002798 0.002675
1.261842 0.418126 0.901989 -0.080307 -0.007387 -0.005486
1.455434 0.982579 0.202909 -0.172990 -0.003252 -0.003109
1.465623 0.996006 1.234564 -0.172990 -0.003176 0.003037
1.526757 1.076565 0.086508 -0.172990 -0.002269 -0.002169
2.569408 0.479888 0.802742 0.000000 0.778044 0.000584
2.878180 0.675200 0.606355 0.000007 -0.777792 -0.000219
2.708159 0.662442 0.576648 -0.000000 0.778043 0.000292
2.846909 0.703655 0.849732 0.000000 -0.778043 0.000438
3.006672 0.473565 0.810574 -0.000001 0.778043 0.000746
3.009599 0.422977 0.547618 0.000000 0.778043 -0.000373
2.260711 0.479996 0.683607 0.000000 -0.959160 -0.000008
2.364036 0.669351 0.712755 -0.000000 0.999679 0.000000
2.732098 0.460918 0.826237 0.000000 0.778043 0.000292
1.487245 0.846419 1.073332 0.080369 -0.001546 0.001248
2.753490 0.540541 0.801478 0.000000 -0.330247 0.000077
1.991923 0.531430 0.797718 0.000001 -0.422460 0.000058
2.081519 0.663907 0.742541 -0.000001 0.939842 0.000002
1.319952 0.609038 0.799969 -0.000000 0.376877 0.000033
1.319952 0.653434 0.657224 0.000000 0.833267 -0.000004
1.468269 0.442932 0.897735 0.080367 0.006719 0.005407
1.397110 0.712313 0.553921 0.036860 0.004236 0.003398
2.084409 0.571597 0.807001 0.000000 -0.024557 0.000035
1.607161 0.231525 0.291702 0.036858 -0.002849 0.002293
2.753490 0.613013 0.622586 -0.000000 0.422657 -0.000029
1.674499 0.723528 0.523746 0.080366 -0.007466 -0.006002
1.642214 0.727964 0.906735 0.080365 -0.003733 0.003011
1.633538 0.663583 0.677380 0.000000 0.943873 -0.000019
1.767932 0.511781 0.635534 0.000000 -0.628647 -0.000004
1.140759 0.631013 0.787521 0.000001 0.586558 0.000009
2.484701 0.497155 0.770508 -0.000000 -0.788080 0.000005
1.947125 0.662377 0.746589 0.000000 0.926060 0.000003
1.424867 0.942300 0.252795 -0.172990 -0.003781 -0.003615
2.439903 0.547945 0.803770 0.000000 -0.258939 0.000050
2.927157 0.473676 0.855944 -0.000000 -0.778043 -0.000243
1.394079 0.404858 0.518886 0.036856 -0.011295 0.008720
1.674499 1.008643 0.170630 0.080366 -0.007253 -0.005832
1.409548 0.498700 0.772404 0.000001 -0.771721 0.000006
2.911362 0.483050 0.622019 0.000000 0.778043 -0.000122
0.334394 0.534620 0.799159 -0.000000 -0.399881 0.000124
2.262156 0.574457 0.613855 0.000000 0.024943 -0.000009
1.051163 0.654776 0.761530 -0.000001 0.843446 0.000004
1.408838 0.744378 0.463828 0.080366 -0.007786 -0.006257
0.603183 0.532113 0.798036 0.000000 -0.422602 0.000116
1.230356 0.634463 0.636059 -0.000001 0.631670 -0.000017
0.558384 0.487114 0.665816 0.000000 -0.883994 -0.000007
0.647981 0.662334 0.674151 0.000000 0.926060 -0.000005
1.185557 0.480739 0.739686 -0.000000 -0.951757 0.000004
1.767932 0.496970 0.770270 0.000000 -0.789161 0.000010
1.185557 0.608654 0.800125 0.000000 0.376844 0.000017
1.678336 0.624451 0.628788 0.000000 0.532115 -0.000021
1.261531 0.653401 0.596393 -0.172991 -0.002180 -0.002085
2.081519 0.530008 0.623817 0.000000 -0.445046 -0.000014
0.827173 0.519446 0.790951 -0.000000 -0.552914 0.000020
0.961567 0.608096 0.620492 0.000000 0.376982 -0.000017
3.022278 0.492668 0.764373 -0.000002 -0.831544 0.000018
2.999701 0.784280 0.949586 0.000003 -0.777937 0.000170
1.409548 0.512334 0.635082 -0.000000 -0.633346 -0.000008
2.619096 0.651414 0.654275 0.000000 0.819195 -0.000009
1.366195 0.572651 0.613818 0.000000 -0.024953 -0.000009
0.916769 0.488547 0.663169 0.000001 -0.871985 -0.000015
1.857529 0.547363 0.803615 0.000000 -0.258894 0.000013
3.067076 0.512567 0.785954 -0.001971 -0.013262 0.002509
1.723134 0.650884 0.653543 0.000000 0.804573 -0.000020
1.504771 0.934636 1.180341 0.080366 -0.004906 0.003954
2.932682 0.483737 0.673001 0.000000 -0.926126 -0.000011
0.961567 0.668929 0.720041 -0.000000 0.996195 0.000005
3.030529 0.665603 0.572732 0.000001 0.778042 0.000373
1.442968 0.402002 0.951674 0.080366 0.007786 0.006257
1.484609 0.689524 0.879355 0.080366 -0.006719 0.005407
0.032030 0.548358 0.687742 -0.644300 -0.000014 -0.000012
2.395105 0.608305 0.800267 0.000000 0.376897 0.000033
2.395105 0.664093 0.678837 -0.000001 0.942886 -0.000005
0.916769 0.645629 0.773890 0.000000 0.758138 0.000003
1.484478 0.380640 0.448041 0.080366 0.003680 -0.002968
1.051163 0.543609 0.618337 -0.000000 -0.306829 -0.000021
2.529500 0.482392 0.744450 0.000000 -0.935373 0.000005
1.412001 0.659542 0.851541 0.080365 -0.003885 0.003134
0.334394 0.626031 0.791035 0.000000 0.552904 0.000020
0.289596 0.651846 0.765954 0.000001 0.818589 0.000019
2.846909 0.441947 0.849732 0.000000 0.778043 0.000438
0.737577 0.624833 0.791816 0.000000 0.531847 0.000003
1.006365 0.512101 0.635272 0.000000 -0.633168 -0.000033
3.083572 0.768471 0.490838 -0.000001 -0.778039 -0.000340
1.991923 0.614718 0.797463 -0.000000 0.444995 0.000007
1.498314 0.261123 0.334750 0.036857 -0.006628 0.005267
0.423990 0.629589 0.632273 -0.000000 0.593790 -0.000037
1.095961 0.485315 0.669461 -0.000000 -0.902191 -0.000002
0.871971 0.596931 0.616879 0.000001 0.257776 -0.000051
1.409548 0.601564 0.802646 0.000000 0.306829 0.000021
2.395105 0.533516 0.622168 -0.000000 -0.398889 -0.000015
0.871971 0.509533 0.637423 -0.000001 -0.651474 -0.000016
2.887884 0.616471 0.796592 0.000001 0.443596 0.000014
1.319952 0.572651 0.613818 -0.000000 -0.024943 -0.000140
1.723134 0.490727 0.659474 -0.000000 -0.846655 -0.000008
1.588740 0.612535 0.798481 -0.000000 0.422495 0.000014
2.395105 0.484697 0.750053 -0.000000 -0.916387 0.000003
2.778349 0.476838 0.568816 0.000000 -0.778044 0.000340
2.574298 0.492335 0.656973 -0.000000 -0.833158 -0.000018
2.529500 0.518010 0.630860 -0.000000 -0.573556 -0.000039
1.857529 0.484592 0.671034 0.000000 -0.916521 -0.000012
0.379192 0.662838 0.745436 0.000001 0.931424 0.000003
2.798288 0.634609 0.636178 0.000000 0.633093 -0.000008
2.708692 0.498414 0.772055 -0.000000 -0.773738 0.000006
2.646681 0.476838 0.852028 0.000000 -0.778044 -0.000243
2.817268 0.725788 0.877143 -0.000001 -0.778044 0.000876
2.946899 0.711449 0.904892 0.000000 0.778044 -0.000134
2.661909 0.489484 0.584480 0.000000 -0.778043 0.000486
2.732098 0.460918 0.594608 0.000000 0.778043 -0.000584
2.754409 0.668765 0.568816 -0.000000 0.778044 0.000340
2.708692 0.549255 0.804114 -0.000000 -0.234590 0.000056
2.171115 0.529402 0.624118 0.000000 -0.445226 -0.000027
2.395105 0.486732 0.666551 -0.000001 -0.892081 -0.000007
2.708692 0.662944 0.675691 0.000000 0.935251 -0.000003
1.991923 0.656761 0.662643 -0.000001 0.813745 -0.000001
2.305509 0.602280 0.618429 0.000001 0.306313 -0.000042
0.827173 0.662731 0.745717 -0.000000 0.935382 0.000003
1.678336 0.613558 0.798004 -0.000002 0.241368 0.000006
2.932682 0.665490 0.737635 0.000001 0.957201 0.000004
0.916769 0.559596 0.806116 0.000000 -0.136986 0.000024
0.513587 0.513280 0.786508 -0.000001 -0.612505 0.000017
1.095961 0.484080 0.748638 0.000000 -0.914966 0.000003
2.932682 0.617208 0.624629 -0.000000 0.466719 -0.000013
2.796020 0.476727 0.806658 0.000000 0.778043 0.000340
1.588740 0.533620 0.622123 0.000000 -0.399884 -0.000062
0.200000 0.486832 0.754496 -0.020147 -0.000853 0.000424
1.617308 0.807059 1.007892 0.080367 -0.003306 0.002667
0.289596 0.651975 0.655076 0.000000 0.819114 -0.000019
2.350307 0.564382 0.614189 0.000000 -0.087108 -0.000039
2.215913 0.489655 0.661245 0.000000 -0.859721 -0.000008
2.350307 0.530885 0.797463 0.000000 -0.422669 0.000007
2.843086 0.658700 0.666216 0.000000 0.884058 -0.000002
0.513587 0.614241 0.797686 0.000002 0.374563 0.000008
2.529500 0.621494 0.793857 -0.000001 0.510646 0.000045
1.275154 0.606688 0.619960 -0.000001 0.343061 -0.000009
1.469719 0.417414 0.491692 0.080367 0.003893 -0.003140
2.677951 0.662553 0.798826 0.000000 -0.778043 0.000243
2.350307 0.658489 0.755028 0.000000 0.884058 0.000002
2.872354 0.424558 0.549576 -0.000001 0.778034 -0.000243
1.379321 0.432779 0.866511 0.036857 -0.008471 -0.006667
1.261842 0.727477 0.518856 -0.172991 -0.003100 -0.002964
1.454346 0.612397 0.622303 0.000000 0.399573 -0.000015
1.409548 0.657821 0.664552 -0.000000 0.884085 -0.000014
1.140759 0.531601 0.623047 -0.000000 -0.421591 -0.000014
2.843086 0.483198 0.674326 0.000000 -0.926159 -0.000005
0.513587 0.531260 0.623206 -0.000001 -0.417122 -0.000015
0.468788 0.656428 0.662054 0.000000 0.859790 -0.000002
2.036721 0.617840 0.624963 -0.000000 0.466102 -0.000013
0.423990 0.482765 0.745436 -0.000000 -0.935295 0.000010
0.513587 0.616032 0.624035 0.000001 0.434551 -0.000014
1.767932 0.585038 0.806250 0.000000 0.136751 0.000098
2.843086 0.657873 0.756193 0.000001 0.883068 0.000014
2.932682 0.522331 0.628048 0.000000 -0.532030 -0.000043
1.812730 0.616201 0.796726 0.000000 0.444567 0.000014
0.558384 0.487114 0.755028 0.000000 -0.884058 0.000002
1.275154 0.654756 0.761562 0.000001 0.844118 0.000004
2.932682 0.484306 0.749156 0.000000 -0.916521 0.000006
2.650888 0.476278 0.713808 0.000000 -0.999689 0.000000
2.619096 0.660351 0.751248 -0.000000 0.906587 0.000002
3.100223 0.378824 0.973419 -0.000001 -0.778041 -0.000454
3.010815 0.372500 0.981251 -0.000001 -0.778042 -0.000454
3.077747 0.331287 0.986786 -0.000001 0.778044 0.000454
2.484701 0.489271 0.661892 -0.000000 -0.859618 -0.000008
3.022278 0.661357 0.749018 -0.000000 0.916550 0.000024
0.692779 0.660921 0.750018 0.000000 0.916566 0.000003
2.987206 0.709868 0.517911 -0.000001 0.778044 0.000746
0.647981 0.480102 0.737599 -0.000000 -0.959166 0.000004
1.588740 0.484622 0.749880 0.000000 -0.916566 0.000006
1.513996 0.853184 0.372590 0.036857 0.003547 0.002851
1.947125 0.487043 0.754895 -0.000000 -0.883893 0.000007
1.095961 0.554398 0.805255 0.000000 -0.185604 0.000036
2.619096 0.613149 0.798195 0.000000 0.422630 0.000058
2.081519 0.476402 0.704179 -0.000000 -0.997750 -0.000000
1.417208 0.274824 1.073188 -0.080307 -0.005225 -0.003889
0.289596 0.485827 0.668371 -0.000000 -0.892102 -0.000002
0.827173 0.487606 0.664885 0.000000 -0.884038 -0.000007
0.827173 0.628641 0.631594 0.000001 0.571330 -0.000010
3.078098 0.420717 0.499310 -0.000002 -0.778017 0.000170
0.782375 0.498795 0.648324 0.000000 -0.773935 -0.000011
2.484701 0.643516 0.644603 0.000000 0.724505 -0.000006
1.678336 0.533068 0.798481 0.000000 -0.422972 0.000007
0.077752 0.555161 0.773120 -0.465088 -0.000015 0.000047
3.053005 0.640310 0.604059 0.000000 0.778043 0.000243
0.871971 0.478552 0.731625 -0.000000 -0.977415 0.000003
1.518608 0.767937 0.448738 0.080366 -0.003680 -0.002968
1.812730 0.530076 0.623783 -0.000000 -0.444567 -0.000014
1.270316 0.677215 0.833457 -0.080309 0.005195 -0.003866
1.520189 0.431338 0.905430 0.080366 0.006719 0.005407
2.680961 0.697332 0.841900 0.000000 -0.778043 0.000584
2.569408 0.665714 0.802742 0.000000 -0.778044 0.000584
1.633912 1.115683 1.380403 0.036856 0.019530 -0.013937
1.434777 0.898166 0.313304 -0.080308 0.009728 0.007203
1.434777 0.247436 0.313304 -0.080307 -0.009728 0.007204
1.543942 0.659340 0.753350 -0.000000 0.895445 0.000013
1.514918 0.222209 0.285580 0.036858 -0.002849 0.002293
2.977480 0.604778 0.801577 -0.000001 0.330229 0.000077
1.645903 0.342794 0.421887 0.080366 0.006613 -0.005321
1.178332 0.669374 0.711852 0.000010 0.042145 0.000000
1.557350 0.900501 0.311442 0.036857 0.003082 0.002479
1.349803 0.656981 0.625228 -0.080308 0.005705 0.004244
0.289596 0.538633 0.800778 0.000000 -0.353747 0.000071
1.466951 0.327959 1.001477 0.036858 -0.015114 -0.011292
1.767932 0.665118 0.681947 0.000000 0.959151 -0.000004
1.549970 0.867652 1.091580 0.080368 -0.001440 0.001162
1.646826 1.030666 1.281043 0.080366 -0.003200 0.002582
1.646826 0.114937 0.139802 0.080367 0.003200 -0.002581
1.674499 1.053661 0.114875 0.080364 -0.005546 -0.004468
1.434139 0.703448 0.517767 0.080366 -0.006719 -0.005407
1.293008 0.503519 0.600227 -0.172990 0.002180 -0.002085
0.269365 0.476306 0.705908 -0.000000 -0.999689 -0.000000
0.200000 0.625216 0.791576 -0.020146 0.000527 0.000794
1.635757 0.963695 0.221325 0.080367 -0.004480 -0.003611
1.006365 0.635071 0.784281 0.000000 0.652021 0.000008
1.430186 0.495549 0.837456 0.080365 0.001943 0.001568
1.535080 0.688346 0.845340 0.036856 0.014650 -0.010993
1.293008 0.503519 0.820617 -0.172990 0.004361 0.004169
0.244798 0.626251 0.629956 0.000001 0.552936 -0.000081
1.305793 0.408094 0.923648 -0.172990 0.001475 0.001410
1.552738 0.782044 0.962422 0.036858 0.003837 -0.003082
0.244798 0.609142 0.799927 -0.000000 0.376923 0.000133
2.909560 0.576864 0.806929 0.000000 0.024953 0.000017
2.624370 0.684685 0.594608 0.000002 -0.778039 -0.000389
1.571186 1.066354 1.334951 0.080363 -0.006186 0.004980
1.991923 0.477272 0.696024 0.000000 -0.990627 -0.000000
1.409548 0.485522 0.669017 0.000000 -0.906107 -0.000003
1.723134 0.606899 0.800805 -0.000000 0.352796 0.000018
1.275154 0.482019 0.677380 0.000000 -0.943846 -0.000002
1.604394 0.167202 1.221758 0.080366 0.008106 0.006512
1.370507 0.750988 0.501976 -0.080308 0.006756 0.005021
1.545358 0.377519 0.476146 0.036856 -0.004012 0.003220
1.551420 0.471898 0.828166 0.036857 -0.014649 -0.010993
2.843086 0.540967 0.801627 0.000000 -0.330250 0.000154
2.798288 0.615999 0.796827 0.000000 0.445067 0.000027
1.095961 0.666811 0.688193 -0.000000 0.971993 -0.000003
0.334394 0.660351 0.669597 0.000000 0.906365 -0.000006
1.857529 0.482672 0.745189 0.000000 -0.933748 0.000003
1.552738 0.374691 0.971411 0.080367 0.007039 0.005662
1.589635 0.934124 1.168815 0.080366 -0.004906 0.003954
1.674499 0.933612 1.157290 0.080367 -0.002240 0.001808
0.468788 0.661161 0.749466 0.000000 0.916388 0.000006
1.364562 0.489037 0.853944 0.080365 0.005180 0.004174
1.632067 0.915239 0.288802 0.036855 0.005698 0.004547
2.179786 0.476234 0.708767 0.000000 -0.999689 -0.000000
2.036721 0.489578 0.661374 0.000000 -0.859618 -0.000008
1.230356 0.660494 0.669904 0.000000 0.906236 -0.000013
1.633538 0.537506 0.800352 0.000000 -0.353031 0.000004
1.533630 0.650082 0.824214 0.080366 -0.006719 0.005407
1.434777 0.889058 1.114895 -0.172992 -0.002079 0.001989
2.909560 0.568738 0.613916 0.000000 -0.024943 -0.000017
0.468788 0.597585 0.803790 0.000000 0.258757 0.000050
1.537056 0.318568 1.042932 0.080364 0.003253 0.002625
3.137333 0.440865 0.547018 -0.362695 -0.001981 0.001603
1.322976 0.337567 1.001762 -0.080308 -0.006306 -0.004689
3.077664 0.807882 1.024325 0.149160 0.001673 -0.002725
1.947125 0.485108 0.669904 -0.000001 -0.893774 -0.000002
2.753490 0.488418 0.663398 0.000001 -0.868380 -0.000004
2.559847 0.575886 0.806954 0.000000 0.024557 0.000009
2.856560 0.667184 0.570774 -0.000004 0.777964 0.000219
1.626532 1.071710 1.325509 0.036854 0.013488 -0.010228
1.380902 0.670261 0.813890 0.036859 0.011294 -0.008720
1.483160 0.664006 0.572908 0.080366 -0.006719 -0.005407
1.473409 0.735506 0.483102 0.080367 -0.001946 -0.001571
0.692779 0.616639 0.624336 0.000000 0.444567 -0.000014
2.937214 0.489484 0.584480 0.000000 -0.778043 0.000122
3.100718 0.451433 0.582860 0.000000 0.778043 -0.000486
2.451791 0.666924 0.593850 0.149158 0.003313 0.005394
0.647981 0.497461 0.649955 0.000000 -0.773904 -0.000003
1.430977 0.788284 0.412291 0.080365 -0.001760 -0.001421
3.137578 0.657860 0.815768 -0.362693 -0.000981 0.000790
3.100553 0.703544 0.895103 -0.362696 0.000990 -0.000802
2.988422 0.340772 0.445806 -0.000000 0.778043 -0.000454
2.988422 0.804831 0.445806 0.149160 -0.003016 -0.001061
2.495966 0.466158 0.578343 0.149159 -0.003312 0.005394
2.497590 0.643471 0.600143 0.149157 0.001673 0.002725
1.477098 0.742824 0.946332 0.080366 -0.003893 0.003140
0.961567 0.528728 0.796391 0.000000 -0.445114 0.000054
2.843086 0.528295 0.624682 0.000001 -0.467210 -0.000051
2.708692 0.539478 0.619747 -0.000001 -0.353396 -0.000036
2.215913 0.621947 0.627257 0.000001 0.500592 -0.000006
2.689921 0.662553 0.622019 0.000000 -0.778043 -0.000243
2.960339 0.464080 0.822321 -0.000000 0.778043 0.000268
2.841898 0.421507 0.500289 0.000002 -0.778031 0.000219
3.137823 0.643722 0.644617 -0.008346 0.003790 -0.003123
1.424867 0.942300 1.168049 -0.172991 -0.003781 0.003615
2.540142 0.691966 0.562836 0.149160 0.003312 0.005394
2.540142 0.691966 0.858008 0.149161 0.003312 -0.005394
1.356079 0.476201 0.710121 0.000000 -0.999689 -0.000000
1.319952 0.505673 0.640952 0.000000 -0.689269 -0.000014
2.036721 0.523235 0.793338 -0.000000 -0.509917 0.000011
1.633538 0.651932 0.765830 0.000001 0.747016 0.000001
0.558384 0.651587 0.766324 0.000000 0.818862 0.000005
2.036721 0.604458 0.801689 -0.000001 0.328787 0.000019
2.796020 0.646633 0.596227 0.000000 0.778044 0.000340
2.586832 0.668765 0.852028 0.149161 0.001673 -0.002725
2.794143 0.445220 0.529658 0.000000 -0.778044 0.000389
2.807175 0.495808 0.592312 0.000000 -0.778043 0.000389
1.534289 1.005997 1.238706 -0.080306 0.006846 -0.005088
1.334489 0.688699 0.580637 -0.080308 0.003738 0.002785
0.091974 0.503687 0.731741 -0.409514 -0.000062 0.000017
3.033291 0.770052 0.488880 -0.000001 -0.778042 -0.000340
2.827285 0.372252 0.462041 0.149160 -0.003346 0.005448
2.725016 0.665714 0.802742 0.000000 -0.778044 0.000292
1.185557 0.540541 0.801478 -0.000001 -0.329852 0.000039
1.610851 0.213290 1.151943 0.036858 -0.010697 -0.008295
1.325732 0.669385 0.711401 -0.000010 0.042139 0.000000
1.435056 0.189876 0.236167 -0.080307 -0.008287 0.006149
2.809937 0.391360 0.912385 -0.000001 0.778043 0.000876
2.809937 0.732000 0.490500 0.149160 0.001673 0.002725
2.809937 0.391360 0.508459 -0.000001 0.778043 -0.000876
2.574298 0.565845 0.614068 0.000001 -0.062231 -0.000108
2.126317 0.630801 0.787678 0.000000 0.593901 0.000005
2.676074 0.451544 0.883355 0.000001 -0.778043 -0.000584
2.676074 0.694059 0.883355 0.149159 0.001673 -0.002725
2.452909 0.476249 0.712680 0.000000 -0.999689 0.000000
1.436511 0.639821 0.596874 0.080368 -0.001943 -0.001568
2.497590 0.665714 0.802742 0.149162 -0.003016 0.001061
2.898000 0.669308 0.714485 0.000000 0.999689 0.000000
0.871971 0.661688 0.672586 -0.000000 0.915994 -0.000006
2.305509 0.518288 0.630666 -0.000000 -0.573606 -0.000010
1.452345 0.917120 0.272143 -0.172991 -0.003856 -0.003687
1.611773 0.116819 1.271477 0.036857 -0.015346 -0.011441
1.522298 0.359093 0.994635 0.080367 0.003520 0.002839
1.606239 0.731322 0.518101 0.036857 0.008488 0.006679
2.738933 0.397294 0.927790 0.149158 -0.003346 -0.005448
1.511228 0.756975 0.491908 0.036857 0.004244 0.003404
1.448503 0.758329 0.451640 0.080366 -0.001867 -0.001507
2.716846 0.742049 0.920037 0.149160 0.003312 -0.005394
2.716846 0.742049 0.500808 0.149158 0.003312 0.005394
1.723134 0.541394 0.801776 -0.000001 -0.330184 0.000077
2.977480 0.639875 0.779944 -0.000000 0.688949 0.000014
1.531522 0.829130 1.019493 0.036856 0.003547 -0.002851
2.973814 0.468933 0.559027 0.000000 -0.778044 0.000134
2.994744 0.664134 0.620061 -0.000000 -0.778043 -0.000268
3.042457 0.472095 0.857902 0.000002 -0.778035 -0.000373
2.997671 0.692478 0.881397 0.000001 0.778043 -0.000373
2.972309 0.681523 0.822321 0.000000 -0.778043 0.000268
2.976741 0.396102 0.514333 0.000001 0.778042 -0.000373
3.066314 0.434043 0.859522 0.000001 0.778042 0.000373
1.409829 0.288784 0.365380 -0.080307 -0.005585 0.004156
3.067076 0.476313 0.715238 0.004394 -0.009676 0.000250
3.067076 0.567986 0.613934 0.012878 -0.000124 -0.003306
3.084763 0.664021 0.742342 0.004395 0.009296 0.001172
3.067076 0.500366 0.646498 0.001419 -0.022739 -0.001220
2.569408 0.479888 0.618103 0.000000 0.778043 -0.000584
1.386700 0.445131 0.515364 0.080368 0.003885 -0.003133
2.698385 0.700383 0.529658 0.149159 0.001673 0.002725
1.593325 1.117682 0.040350 -0.080307 0.007927 0.005884
1.633912 0.033630 0.037446 0.080367 0.004693 -0.003783
2.787627 0.725677 0.922513 0.149160 0.001673 -0.002725
1.857529 0.651129 0.766968 -0.000000 0.804538 0.000001
2.663894 0.482752 0.675444 -0.000001 -0.934052 -0.000005
0.099245 0.613814 0.773922 -0.381126 0.000041 0.000060
1.641291 0.003989 0.001682 0.080367 0.007679 -0.006172
2.753490 0.661824 0.747948 0.000000 0.926249 0.000005
2.827285 0.773351 0.958804 0.149160 0.003346 -0.005448
2.875860 0.484631 0.796868 0.000000 0.778043 0.000438
1.454346 0.539055 0.619907 -0.000000 -0.353660 -0.000071
0.289596 0.481224 0.741191 0.000000 -0.951822 0.000017
2.663894 0.580508 0.806718 0.000000 0.087108 0.000154
1.611773 1.013777 1.252892 0.036857 0.017206 -0.012590
2.474586 0.573554 0.807021 -0.000000 0.011885 0.000018
1.364562 0.460700 0.589780 0.036856 -0.011295 0.008720
2.606406 0.434856 0.539576 0.149160 -0.003346 0.005448
1.678336 0.537542 0.620479 -0.000001 -0.284046 -0.000006
1.319952 0.495658 0.768573 0.000000 -0.804546 0.000010
2.586832 0.476838 0.568816 0.000000 -0.778043 0.000778
2.899179 0.779537 0.477133 0.149162 -0.003016 -0.001061
2.215913 0.524336 0.793991 -0.000001 -0.493265 0.000006
0.064002 0.539487 0.664084 -0.518887 -0.000023 -0.000033
1.674499 1.113685 0.040534 0.080367 -0.007679 -0.006172
1.633912 0.033630 1.383399 0.080368 0.004693 0.003783
2.915637 0.798392 0.989818 0.149158 0.003346 -0.005448
3.100884 0.640310 0.604059 -0.362697 0.000990 0.000802
1.633538 0.492980 0.656001 0.000000 -0.833181 -0.000036
1.275154 0.535275 0.799444 0.000000 -0.377121 0.000008
2.753490 0.603247 0.802104 -0.000001 0.301205 0.000011
1.902327 0.620646 0.794345 -0.000001 0.488727 0.000024
2.715241 0.464191 0.867692 0.000000 -0.778043 -0.000292
3.137496 0.472117 0.835121 -0.362694 -0.001981 -0.001603
1.604394 0.984811 0.204262 0.036857 0.009535 0.007453
0.720236 0.669408 0.710573 0.000000 0.999925 0.000000
1.460495 0.298778 1.077269 0.080370 0.001546 0.001248
2.907042 0.703544 0.895103 0.000000 0.778043 -0.000243
2.893159 0.709979 0.563281 -0.000000 -0.778043 -0.000486
2.917099 0.435624 0.563281 0.000000 0.778043 -0.000486
2.966111 0.798508 0.967207 0.149160 -0.003016 0.001061
2.939409 0.716302 0.865395 0.000000 -0.778044 0.000134
2.885014 0.741596 0.524123 -0.000000 -0.778044 -0.000243
3.100636 0.457867 0.875523 0.000000 -0.778043 -0.000486
0.282371 0.569265 0.613892 0.000067 -0.016450 -0.002009
3.003988 0.823434 1.020832 0.149159 0.003312 -0.005394
0.356071 0.476295 0.706359 -0.000000 -0.999694 -0.000000
2.824300 0.576413 0.806940 0.000000 0.024953 0.000017
1.656660 0.572801 0.807031 -0.000000 0.025328 0.000069
1.409548 0.555434 0.805451 0.000000 -0.185292 0.000018
3.026076 0.315909 1.028586 0.149158 -0.003312 -0.005394
2.529500 0.661703 0.672620 0.000000 0.916566 -0.000006
1.095961 0.616471 0.624252 0.000001 0.419630 -0.000004
1.558272 0.974463 1.201059 0.036857 0.009535 -0.007453
0.152471 0.572801 0.618460 -0.181418 0.000001 -0.000050
2.663894 0.539654 0.619680 0.000000 -0.351681 -0.000009
3.055850 0.416654 0.539786 -0.000001 0.778040 -0.000373
2.988670 0.757405 0.916301 0.000001 -0.778043 0.000746
3.008136 0.448271 0.841900 -0.000002 0.778035 0.000373
2.985742 0.684574 0.549237 -0.000000 0.778043 0.000373
3.008136 0.448271 0.578944 -0.000001 0.778043 -0.000746
1.499144 0.540719 0.619305 -0.000001 -0.324628 -0.000010
1.619153 1.057750 0.113059 0.036856 0.013487 0.010228
1.456541 0.491684 0.798090 0.036858 -0.008472 -0.006667
1.565652 0.157179 0.202062 0.036857 -0.019065 0.013675
1.509383 0.407214 0.936695 0.080367 0.003893 0.003140
1.275154 0.481323 0.741475 0.000000 -0.943813 0.000005
1.401459 0.415860 0.481007 0.080366 0.007786 -0.006257
0.152471 0.588770 0.800988 -0.173783 0.000041 0.000203
2.543951 0.476264 0.707563 0.000000 -0.999689 -0.000000
0.129233 0.541250 0.630032 -0.264211 -0.000049 -0.000115
2.350307 0.478615 0.731920 0.000000 -0.977561 0.000006
2.925970 0.746228 0.947966 0.000000 0.778043 -0.000134
1.332958 0.571823 0.807006 0.000000 -0.025328 0.000009
2.925970 0.377132 0.930007 0.000000 0.778043 0.000134
2.942420 0.728838 0.494416 -0.000000 0.778044 0.000268
1.468074 0.669400 0.710046 0.000000 0.999679 -0.000000
1.767932 0.610048 0.621287 -0.000001 0.375349 -0.000033
1.409548 0.662561 0.746136 -0.000000 0.926220 0.000003
3.118286 0.315815 0.380766 -0.362694 -0.000979 0.000792
0.423990 0.535903 0.621145 0.000001 -0.376723 -0.000066
0.782375 0.498967 0.772721 -0.000000 -0.757869 0.000012
1.633538 0.605843 0.619640 0.000000 0.353704 -0.000143
