2.726291 0.646777 0.781732 0.000000 0.024839 0.000018
1.740030 0.742646 0.693005 -0.000000 0.992894 0.000000
1.726254 0.416626 0.434735 -0.016335 0.011016 -0.008776
2.916355 0.842640 0.469642 0.025779 0.010284 0.009964
3.138402 0.777830 0.538556 -0.055525 -0.005000 -0.004536
1.629984 0.248040 0.261549 -0.043002 -0.003210 0.002845
1.853998 0.643814 0.781806 0.000000 0.024839 0.000037
1.849308 0.211463 1.128842 -0.043001 -0.005469 -0.004822
0.284745 0.640929 0.581648 -0.000000 -0.012222 -0.000019
0.290590 0.638669 0.781709 0.000000 -0.024839 0.000018
1.938488 0.093177 1.256176 0.112757 -0.004141 -0.003892
1.966505 0.619892 0.584376 0.000001 -0.233660 -0.000029
3.053584 0.628271 0.582738 -0.000000 -0.161346 -0.000691
2.283570 0.627578 0.780590 -0.000001 -0.161295 0.000173
2.238275 0.709249 0.606514 0.000000 0.652426 -0.000004
1.938488 0.100327 0.100542 0.043020 0.013022 -0.011722
2.147685 0.602020 0.772963 0.000000 -0.399997 0.000032
1.735646 0.543093 0.681877 0.000000 -0.999691 0.000000
1.558850 0.656024 0.780992 0.000001 0.135880 0.000052
3.177151 0.598037 0.681721 1.000000 0.000000 0.000000
1.790406 1.006614 0.290786 -0.016339 -0.008600 -0.007312
1.626651 0.871604 0.914471 -0.043003 0.009154 -0.007957
1.896256 1.179780 1.243806 -0.043002 0.007847 -0.006860
1.389359 0.743272 0.680941 0.000000 0.999682 -0.000000
1.649202 0.911907 0.405076 -0.043002 0.008323 0.007261
0.106329 0.578684 0.730583 -0.364221 -0.000067 0.000048
1.579533 0.749935 0.562897 -0.016335 -0.008149 -0.007007
2.001185 0.762195 0.555181 0.043023 -0.009766 -0.008957
2.464750 0.562887 0.621969 -0.000001 -0.803794 -0.000010
2.736519 0.631054 0.582362 0.000000 -0.111606 -0.000031
1.677911 0.376197 0.969643 -0.016336 0.021119 0.012420
1.297308 0.642723 0.781810 0.000000 -0.025221 0.000009
1.850713 0.419298 0.468576 0.112758 -0.005714 0.005367
0.353419 0.543194 0.677511 -0.000000 -0.999691 -0.000000
1.015310 0.606403 0.774814 0.000001 -0.371301 0.000009
1.530911 0.515224 0.821484 -0.016336 0.016294 0.011087
2.039561 0.743258 0.680395 0.000000 0.999682 -0.000000
3.118447 0.653398 0.778838 0.144427 0.000004 0.000338
1.422965 0.543849 0.669429 -0.000000 -0.993494 -0.000001
2.001185 0.288861 0.304955 0.043021 0.011720 -0.010635
2.356626 0.543144 0.683904 0.000020 -0.011171 0.000000
1.041610 0.641241 0.581668 0.000000 -0.024458 -0.000019
3.022843 0.879012 0.932475 0.025780 0.020562 -0.016772
1.884615 1.090874 1.144510 -0.043006 0.005350 -0.004718
0.426475 0.717355 0.748939 0.000000 0.741471 0.000051
1.904005 0.934239 0.366134 0.043020 -0.006729 -0.006252
2.001185 0.272052 1.076359 0.043021 0.010852 0.009896
1.823292 0.832187 0.891896 -0.016334 -0.023231 0.012844
0.857508 0.743225 0.679070 0.000000 0.999691 -0.000000
2.001185 1.081564 0.215589 0.043020 -0.009116 -0.008387
2.703377 0.516486 0.546993 0.025778 -0.027408 0.019598
0.471770 0.544384 0.665724 -0.000001 -0.986464 -0.000005
1.542042 0.394334 0.942960 -0.043003 -0.002289 -0.002031
1.447639 0.847840 0.899329 -0.016336 -0.027144 0.013457
1.851424 0.149253 0.164729 -0.043003 -0.004518 0.003993
1.501098 0.420365 0.447123 -0.043001 -0.006421 0.005643
2.917699 0.733840 0.639278 0.000000 0.906258 -0.000007
2.872404 0.544528 0.664839 -0.000000 -0.986897 -0.000005
1.954163 0.567683 0.764964 0.043020 0.004884 0.004564
0.426475 0.727444 0.627675 -0.000000 0.846701 -0.000018
2.147685 0.576290 0.607269 0.000001 -0.651036 -0.000004
1.542356 0.536004 0.563313 -0.016336 0.016294 -0.011087
1.631411 0.744716 0.771370 -0.043006 0.007490 -0.006557
1.867432 0.929201 0.963686 -0.043003 0.015454 -0.012925
3.015963 0.785761 0.842827 -0.055526 0.009703 -0.009282
1.735025 0.843273 0.462089 -0.016336 -0.011619 -0.009098
3.053584 0.738163 0.650100 -0.000000 0.951502 -0.000005
1.851402 1.269664 0.015579 -0.016338 -0.021719 -0.012550
1.887654 1.165212 0.135472 -0.043004 0.008085 0.007061
0.200000 0.741307 0.661886 -0.030979 0.000634 -0.000120
2.600634 0.673624 0.586366 0.000000 0.306624 -0.000044
1.687251 0.516816 0.795716 -0.043002 -0.019345 -0.015680
1.888331 0.292401 1.061815 0.043020 0.005861 0.005461
0.970015 0.564545 0.619801 -0.000001 -0.788974 -0.000022
2.555339 0.543814 0.693703 -0.000000 -0.992648 0.000001
1.369492 0.520184 0.812516 -0.043001 -0.008560 -0.007461
0.084534 0.713897 0.678192 -0.449405 0.000058 -0.000002
3.008289 0.606692 0.774930 0.000000 -0.353802 0.000009
3.177151 0.664272 0.593909 0.120977 0.000094 -0.000371
0.708473 0.543093 0.681409 0.000000 -0.999920 -0.000000
0.788835 0.696509 0.766431 0.000000 0.532034 0.000022
0.788835 0.696641 0.597094 0.000000 0.531966 -0.000022
2.906463 0.735374 0.790607 0.025780 0.013711 -0.012628
2.871539 0.766732 0.544018 0.025780 0.013711 0.012628
1.788367 1.112148 0.180999 -0.016338 -0.012673 -0.009622
1.821455 0.758376 0.774428 -0.043003 0.004994 -0.004408
0.970015 0.742814 0.671987 0.000000 0.996189 -0.000001
2.797249 0.716670 0.613549 0.000001 0.685073 -0.000158
2.510045 0.668531 0.778555 -0.000001 0.258098 0.000053
1.928039 0.430296 0.912693 0.043020 0.015191 0.013473
2.001185 0.423333 0.447941 0.043020 0.015191 -0.013473
1.891466 0.873519 0.454982 0.112759 0.002857 0.002686
2.001185 0.947093 1.004866 0.043018 -0.006295 0.005858
1.706404 0.993993 1.047034 -0.043003 0.007252 -0.006355
1.622764 0.384652 0.414817 -0.043003 -0.004399 0.003889
0.879425 0.600076 0.772057 0.000000 -0.422591 0.000030
1.842332 0.330273 0.342126 -0.016335 0.036775 -0.014362
1.679456 1.009096 0.297665 -0.043004 0.006896 0.006051
1.670854 0.291853 1.049939 -0.043002 -0.007253 -0.006355
3.085890 0.464551 0.874388 -0.055524 -0.007278 -0.007008
3.085890 0.464551 0.489053 -0.055526 -0.007278 0.007008
2.980248 0.421918 0.446437 0.025780 -0.020562 0.016772
1.467368 0.742870 0.779923 -0.043005 0.017116 -0.014134
1.368228 0.547693 0.579586 -0.016334 0.043387 -0.014713
1.649440 0.734433 0.640550 0.000000 0.906027 -0.000001
1.744190 0.243665 0.254302 -0.016333 0.007999 -0.006903
1.810962 0.974257 1.039465 -0.016334 -0.017503 0.011477
1.732935 0.438391 0.881011 -0.043004 -0.004577 -0.004045
0.136675 0.570499 0.626659 -0.245944 -0.000117 -0.000084
2.801085 0.549017 0.589281 0.025782 0.022666 -0.014430
2.374160 0.731101 0.633847 0.000000 0.872350 -0.000002
1.467368 0.742870 0.583519 -0.042999 0.008561 0.007461
0.633955 0.743210 0.684995 0.000000 0.999691 0.000000
3.019403 0.832387 0.475791 0.025781 0.015424 0.013808
2.283570 0.583125 0.601649 -0.000001 -0.579739 -0.000005
1.629690 0.945941 0.997930 -0.043002 0.003924 -0.003472
2.283570 0.742733 0.692230 -0.000000 0.992894 0.000000
0.200000 0.593140 0.768411 -0.030978 -0.000330 0.000555
2.962994 0.586195 0.599438 -0.000000 -0.573587 -0.000081
1.809063 0.757987 0.588647 -0.043003 0.004994 0.004408
2.001185 0.812622 0.861880 0.043022 -0.008031 0.007425
3.151319 0.747078 0.792186 -0.055526 -0.005834 0.005284
1.060605 0.695387 0.767136 -0.000000 0.531990 0.000045
0.879425 0.596903 0.592972 0.000001 -0.467161 -0.000053
3.098879 0.551948 0.640550 0.123913 -0.000361 -0.000158
2.596251 0.743214 0.678602 0.000000 0.999701 -0.000000
1.177495 0.543117 0.680629 0.000000 -0.999691 -0.000000
2.397537 0.640696 0.781760 0.000000 -0.024839 0.000009
0.509759 0.646621 0.781736 -0.000000 0.024839 0.000018
2.464750 0.652847 0.582090 0.000000 0.087314 -0.000161
2.001185 1.047946 1.112106 0.043019 -0.004992 0.004664
1.665528 0.529046 0.580081 -0.043003 -0.019344 0.015680
1.868477 0.547025 0.571125 0.043020 0.017252 -0.015061
1.740030 0.590862 0.596388 -0.000001 -0.530549 -0.000011
0.517065 0.693241 0.595031 0.000000 0.510839 -0.000024
1.854680 0.151511 1.207653 -0.016336 0.022927 0.012789
2.102390 0.701177 0.763310 -0.000000 0.573413 0.000020
1.740030 0.690030 0.593263 -0.000001 0.454442 -0.000007
2.628396 0.642021 0.781807 0.000000 -0.012996 0.000009
1.452888 0.827134 0.485538 -0.016336 -0.021721 -0.012549
2.147685 0.739076 0.653001 0.000000 0.959150 -0.000008
1.241785 0.583439 0.601417 -0.000000 -0.586393 -0.000002
1.558850 0.658110 0.582738 0.000000 0.161220 -0.000043
1.897213 0.489210 0.828228 0.112760 -0.003188 -0.002997
2.651043 0.543173 0.685073 0.000010 -0.044647 0.000000
0.970015 0.548405 0.713896 0.000000 -0.943858 0.000005
0.517065 0.591430 0.596046 -0.000000 -0.508263 -0.000006
2.464750 0.738888 0.711076 0.000000 0.958881 0.000002
2.691225 0.724936 0.739483 0.000001 0.818702 0.000020
0.652950 0.573076 0.753159 0.000000 -0.707107 0.000028
2.852461 0.465565 0.870594 0.025778 -0.023986 -0.018324
2.895057 0.451016 0.477377 0.025780 -0.020561 0.016772
3.001545 0.414643 0.924740 0.025779 -0.020562 -0.016772
0.652950 0.573522 0.609847 0.000000 -0.689312 -0.000004
1.785325 0.581394 0.760461 0.000000 -0.613544 0.000009
1.656033 1.065556 1.130830 -0.016334 -0.007999 0.006903
1.708131 1.119985 1.188706 -0.016333 -0.006792 0.006026
1.525787 0.929484 0.377299 -0.016336 -0.011015 -0.008776
1.241785 0.698345 0.598194 0.000000 0.552750 -0.000021
1.749536 0.227791 1.116932 -0.042997 -0.002973 -0.002635
1.151195 0.724779 0.623734 -0.000001 0.815785 -0.000010
1.151195 0.725808 0.738237 0.000000 0.819196 0.000005
1.946848 1.218066 0.067028 0.043020 -0.010852 -0.009897
1.871612 0.341650 0.980891 0.112758 -0.004720 -0.004436
2.682079 0.762620 0.554728 0.025779 0.020562 0.016772
2.895562 0.520101 0.543593 0.025776 -0.006858 0.006913
2.057095 0.596661 0.593099 -0.000001 -0.465786 -0.000013
2.742389 0.553558 0.771142 0.025782 0.018891 0.012915
3.098879 0.557775 0.733917 0.124155 -0.000338 0.000201
1.892511 1.009986 0.284869 0.043019 -0.010636 -0.009710
3.112569 0.839333 0.473159 -0.055525 -0.010000 -0.008964
2.057095 0.583125 0.761792 0.000000 -0.593929 0.000010
1.921210 0.700154 0.599416 0.000000 0.573409 -0.000020
0.698245 0.678157 0.587932 0.000001 0.353551 -0.000075
0.698245 0.680123 0.774755 0.000000 0.376787 0.000009
1.649440 0.550009 0.718292 0.000000 -0.926567 0.000001
1.962522 0.822355 0.497616 0.112758 0.003023 0.002842
1.625509 0.828520 0.480025 -0.016335 -0.049011 -0.014923
0.517065 0.563971 0.742901 0.000001 -0.788303 0.000011
1.921210 0.702816 0.762117 -0.000000 0.593755 0.000019
0.245295 0.724779 0.739707 -0.000001 0.818959 0.000020
1.712305 0.843543 0.901098 -0.016335 -0.011619 0.009098
2.001185 0.053537 0.054730 0.043020 0.009550 -0.008768
1.105900 0.580778 0.759983 0.000000 -0.633279 0.000009
1.105900 0.579450 0.604545 -0.000001 -0.572201 -0.000002
2.962994 0.675550 0.587000 -0.000000 0.330024 -0.000020
1.649227 0.323961 0.340110 -0.016337 0.009808 -0.008080
3.026413 0.522540 0.800277 -0.055525 0.010460 0.009362
1.851402 0.016717 0.015579 -0.043003 -0.008560 0.007461
1.938782 1.285604 1.360138 -0.043003 0.009987 -0.008645
1.241785 0.577132 0.756927 0.000000 -0.650587 0.000008
1.377670 0.687251 0.771596 -0.000002 0.397925 0.000008
0.290590 0.560662 0.738365 0.000000 -0.819196 0.000005
1.646090 0.814469 0.848916 -0.043002 0.019345 -0.015680
1.332375 0.567246 0.746922 -0.000001 -0.755243 0.000006
1.710118 0.469903 0.516414 -0.043002 -0.019345 0.015680
2.827109 0.673512 0.777111 0.000001 0.306572 0.000088
1.786279 0.084753 1.275519 -0.043003 -0.014265 -0.012033
0.070569 0.629187 0.620366 -0.503958 -0.000011 -0.000044
1.827975 1.139142 1.202499 -0.043000 0.002259 -0.002005
1.540900 0.853611 0.907534 -0.016335 -0.049012 0.014923
2.840702 0.786499 0.837273 0.025780 0.011998 -0.011347
1.926000 0.030875 1.327096 -0.043004 -0.011175 -0.009612
1.241785 0.706599 0.759168 -0.000000 0.633092 0.000017
0.335885 0.707534 0.605039 0.000000 0.632863 -0.000004
0.070569 0.657194 0.743075 -0.503958 0.000011 0.000044
1.785399 0.361953 0.399811 -0.043002 -0.003924 0.003472
0.788835 0.548508 0.714190 0.000000 -0.943834 0.000001
2.147685 0.546157 0.706308 0.000000 -0.971914 0.000000
0.290590 0.563492 0.621156 -0.000001 -0.763856 -0.000003
1.377670 0.705723 0.603557 -0.000000 0.633042 -0.000017
1.513555 0.584853 0.763064 0.000000 -0.573257 0.000003
3.098879 0.733378 0.725153 0.128156 0.000341 0.000170
2.895562 0.512871 0.813048 0.025783 0.007558 0.006146
1.913410 0.196364 0.201084 0.043020 0.009116 -0.008387
3.059551 0.523124 0.561070 -0.055525 0.010460 -0.009362
1.740030 0.698410 0.765204 0.000001 0.528436 0.000006
0.335885 0.706387 0.759341 0.000001 0.632371 0.000017
1.604145 0.556819 0.631134 -0.000000 -0.859605 -0.000017
2.190057 0.644594 0.581655 0.000000 0.025221 -0.000009
2.691225 0.568241 0.615369 0.000001 -0.735843 -0.000006
1.823314 0.743280 0.681253 -0.000010 0.044653 -0.000000
1.590978 0.557226 0.779188 -0.016329 0.008152 0.007008
1.836526 1.035883 1.104205 -0.016331 -0.008000 0.006903
1.878927 0.476259 0.524471 0.112758 -0.003188 0.002997
2.555339 0.598920 0.771492 0.000001 -0.444547 0.000028
1.926994 0.238894 1.116280 0.043020 0.009767 0.008958
1.519467 0.797299 0.525643 -0.043002 0.002675 0.002373
1.542892 0.456877 0.882491 -0.016336 0.019008 0.011907
1.724749 0.956934 0.344039 -0.016335 -0.009809 -0.008080
2.011800 0.688858 0.592643 0.000000 0.444919 -0.000014
1.966505 0.554387 0.635536 -0.000001 -0.881831 -0.000007
1.914455 0.293831 0.324606 0.112759 -0.004389 0.004125
0.200000 0.606619 0.588539 -0.030976 -0.000243 -0.000598
3.098879 0.695387 0.596305 0.124159 0.000201 -0.000338
1.015310 0.713416 0.610393 0.000000 0.707107 -0.000028
2.766412 0.733274 0.770717 0.025781 -0.009448 0.007517
1.864298 0.563031 0.775559 0.043018 0.004613 0.004313
1.919730 1.227564 1.305658 -0.016334 -0.015090 0.010652
1.756048 1.065393 0.239275 -0.043004 0.005945 0.005233
2.938155 0.647400 0.781717 0.000000 0.024839 0.000037
1.550544 0.735580 0.766329 -0.042993 0.002676 -0.002373
1.454975 0.543900 0.583153 -0.043005 -0.006420 0.005642
1.450675 0.507388 0.827748 -0.016334 0.021724 0.012549
1.822247 0.828186 0.475734 -0.016334 -0.023230 -0.012844
0.245295 0.707293 0.604841 0.000000 0.633186 -0.000017
1.752984 0.349771 0.979440 -0.043002 -0.003924 -0.003472
1.513555 0.553974 0.636333 -0.000002 -0.800519 -0.000002
3.177151 0.602192 0.762184 0.120978 -0.000178 0.000338
1.504766 0.477067 0.502861 -0.016337 0.006790 -0.006025
1.948938 0.249412 0.259724 0.043019 0.010852 -0.009897
2.951498 0.551916 0.764739 0.025778 0.016375 0.011715
1.445111 0.794966 0.839991 -0.043005 0.004280 -0.003785
1.837356 1.211342 1.286833 -0.016337 -0.018102 0.011656
2.283570 0.560573 0.738237 0.000000 -0.819196 0.000005
0.562360 0.718651 0.747483 -0.000000 0.756160 0.000006
2.283570 0.704186 0.761084 -0.000001 0.605913 0.000009
2.981989 0.743268 0.683592 0.000000 0.999920 0.000000
1.845467 0.980207 0.340933 -0.043002 0.003448 0.003054
2.001185 0.745386 0.790387 0.043020 -0.009767 0.008958
1.939533 1.119345 0.185628 0.112758 0.003064 0.002881
1.923859 0.446302 0.467505 0.043019 0.016059 -0.014151
2.374160 0.570241 0.613183 0.000000 -0.724465 -0.000003
2.374160 0.572855 0.752939 0.000000 -0.700671 0.000004
1.813096 0.559064 0.623424 0.112759 -0.003520 0.003308
3.157583 0.588670 0.606680 0.120979 -0.000237 -0.000300
0.788835 0.553523 0.637241 -0.000001 -0.893095 -0.000007
1.776285 0.459655 0.478337 -0.016336 0.002905 -0.002748
3.177151 0.666783 0.720220 1.000000 0.000000 0.000000
1.806591 0.197386 0.204667 -0.016337 0.006790 -0.006025
1.862384 0.088965 1.265847 -0.043003 -0.014265 -0.012033
2.756975 0.743206 0.685151 0.000000 0.999691 0.000000
2.827109 0.553662 0.726480 -0.000001 -0.894553 0.000007
1.842354 0.468469 0.877488 0.043020 0.015842 0.013983
2.192980 0.663025 0.779837 -0.000000 0.210129 0.000033
2.001185 0.406524 0.933373 0.043021 0.014323 0.012782
1.891466 0.861007 0.920226 0.043020 -0.007597 0.007036
1.332375 0.731101 0.729594 -0.000000 0.884132 0.000015
1.917590 0.170825 1.170149 0.112757 -0.003064 -0.002881
1.604145 0.741430 0.700904 0.000000 0.982544 0.000005
0.366569 0.641163 0.781796 0.000000 -0.012232 0.000019
1.969837 1.184236 1.258996 0.043020 -0.013022 0.011722
2.001185 0.070345 1.290839 0.043021 0.009550 0.008768
2.283570 0.655172 0.582344 -0.000001 0.111352 -0.000063
1.863253 0.388438 0.402168 0.043020 0.007163 -0.006645
2.430413 0.543154 0.684293 0.000000 -0.999682 0.000000
0.381180 0.569183 0.614329 -0.000001 -0.740664 -0.000013
1.468260 0.668644 0.778524 -0.000000 0.258774 0.000105
2.001185 0.137581 1.219346 0.043018 0.014758 0.013130
2.001185 0.947093 0.358575 0.043020 -0.012588 -0.011363
2.001185 0.137581 0.144096 0.043019 0.014758 -0.013130
2.001185 0.997520 1.058486 0.043021 -0.011720 0.010635
1.734181 1.147199 0.145798 -0.016334 -0.006188 -0.005560
0.607655 0.721740 0.619678 0.000000 0.789533 -0.000022
2.917699 0.736427 0.718146 -0.000001 0.935182 0.000011
1.602642 0.505756 0.833030 -0.016336 0.049008 0.014924
2.001185 0.339288 0.358575 0.043019 0.006295 -0.005858
0.970015 0.627617 0.582845 0.000001 -0.161340 -0.000346
0.053844 0.591281 0.681721 -0.575854 -0.000015 0.000000
2.645929 0.616757 0.585179 -0.000000 -0.258649 -0.000053
2.001185 0.540995 0.573054 0.043020 0.009767 -0.008958
1.642715 0.955616 0.347344 -0.016336 -0.019913 -0.012139
1.105900 0.680050 0.588657 -0.000000 0.376820 -0.000069
0.136675 0.631851 0.772205 -0.245931 -0.000015 0.000146
1.473688 0.875055 0.435175 -0.016336 -0.008149 -0.007007
1.351369 0.543105 0.681097 0.000000 -0.999682 -0.000000
2.691225 0.686937 0.591689 -0.000001 0.444966 -0.000057
0.357802 0.641631 0.581639 0.000003 -0.010373 -0.000352
2.555339 0.617435 0.584998 -0.000000 -0.258858 -0.000053
1.879588 0.059828 0.065920 -0.043003 -0.006183 0.005438
1.936399 0.921715 0.981954 0.043020 -0.006729 0.006252
1.925949 0.139766 0.158882 0.112759 -0.005466 0.005134
1.015310 0.732754 0.726410 -0.000001 0.745718 0.000001
2.660782 0.755346 0.800978 0.025780 0.020561 -0.016772
2.831164 0.813542 0.500583 0.025780 0.011998 0.011347
3.086736 0.900836 0.955680 -0.055524 -0.005000 0.004536
2.958950 0.857189 0.909270 0.025780 0.015424 -0.013808
2.682079 0.523761 0.808713 0.025780 -0.020562 -0.016772
1.540459 0.718765 0.615381 0.000000 -0.685083 0.000194
1.551836 0.956698 1.015080 -0.016335 -0.010412 0.008437
1.643008 1.051948 0.247080 -0.016337 -0.032561 -0.014044
1.473688 0.411326 0.928267 -0.043001 -0.002675 -0.002373
1.669057 0.207218 0.218142 -0.043003 -0.011888 0.010183
1.695107 0.180004 1.174237 -0.043003 -0.010938 -0.009420
1.616959 0.261647 1.087424 -0.043003 -0.013790 -0.011670
1.760230 0.111967 0.116860 -0.043002 -0.004043 0.003577
1.590910 0.288861 0.304955 -0.043002 -0.014741 0.012393
1.875408 1.207448 0.079764 -0.016336 -0.034970 -0.014237
1.818056 0.881278 0.942864 -0.016335 -0.010412 0.008437
2.872404 0.697987 0.597957 0.000001 0.552700 -0.000043
2.677134 0.577393 0.757117 0.000001 -0.685076 0.000190
1.966505 0.734948 0.641730 0.000001 0.915157 -0.000006
2.826218 0.526472 0.811263 0.025779 -0.011998 -0.011347
1.833994 0.804965 0.826044 -0.043003 0.004994 -0.004408
1.921769 1.122029 1.195871 0.043019 -0.016493 0.014485
1.707544 0.359061 0.375265 -0.016335 0.041585 -0.014631
2.929695 0.789046 0.830020 0.025782 -0.007086 0.005790
3.049100 0.794666 0.527444 -0.055525 -0.010000 -0.008964
1.399587 0.642411 0.581639 -0.000000 -0.024839 -0.000073
1.966505 0.735887 0.719484 -0.000000 0.925749 0.000006
1.781976 0.189639 1.166257 -0.016337 0.013578 0.010035
1.608063 0.368615 0.967624 -0.043006 -0.004161 -0.003680
2.102390 0.547404 0.652664 0.000000 -0.938695 -0.000001
2.618186 0.740797 0.577934 0.025778 0.027408 0.019598
1.806591 1.088995 1.158774 -0.016339 -0.006789 0.006024
1.790406 0.271605 0.298463 -0.043001 -0.003389 0.003002
3.157777 0.731702 0.587604 -0.055525 -0.005003 -0.004538
1.468260 0.551449 0.721747 0.000001 -0.911742 0.000003
2.805192 0.646777 0.581709 0.000000 0.024839 -0.000037
3.080112 0.741055 0.791669 -0.055526 0.010149 -0.009696
1.921210 0.626809 0.780465 0.000001 -0.160824 0.000043
0.460081 0.743190 0.685775 -0.000000 0.999682 0.000000
0.426475 0.549678 0.717416 -0.000001 -0.935268 0.000021
1.785325 0.649192 0.781634 0.000000 0.062664 0.000028
0.828285 0.642411 0.581629 -0.000000 -0.012232 -0.000037
1.184801 0.743268 0.680785 0.000000 0.999691 -0.000000
1.860118 0.723430 0.619768 -0.000002 -0.685072 0.000368
1.626062 0.643112 0.781820 -0.000041 -0.000036 0.002086
2.102390 0.740055 0.706949 -0.000001 0.964537 0.000004
1.832347 0.257091 1.078594 -0.043002 -0.003151 -0.002792
1.948938 1.042927 0.265327 0.112759 0.003727 0.003503
0.825363 0.641163 0.781771 0.000000 -0.024839 0.000073
1.332375 0.736034 0.644319 -0.000001 0.900312 -0.000001
0.562360 0.604308 0.773961 0.000000 -0.399906 0.000032
1.679456 0.277285 0.297665 -0.043003 -0.006896 0.006051
1.715793 0.898837 0.404714 -0.016335 -0.021119 -0.012420
0.136675 0.721004 0.634170 -0.245937 0.000127 -0.000073
1.858204 0.108546 0.110989 -0.016334 0.019914 -0.012139
0.168060 0.553238 0.719639 -0.123876 -0.000291 0.000114
3.026754 0.569033 0.614187 0.000002 -0.685077 -0.000506
2.781814 0.608626 0.775661 -0.000001 -0.348554 0.000009
1.713955 0.562174 0.742942 -0.043007 -0.004993 -0.004407
1.966505 0.545279 0.702508 -0.000000 -0.977328 0.000003
3.053584 0.671536 0.777716 -0.000000 0.282817 0.000192
0.652950 0.720366 0.745461 -0.000000 0.773938 0.000023
0.392869 0.743187 0.685931 0.000000 0.999691 0.000000
0.144443 0.734506 0.700181 -0.215712 0.000169 0.000030
0.958326 0.641163 0.781771 0.000000 -0.024839 0.000009
1.926994 1.047487 1.116280 0.043022 -0.004884 0.004564
2.916355 0.443741 0.893799 0.025782 -0.010283 -0.009963
2.961104 0.805981 0.503189 0.025778 0.010285 0.009965
1.934831 0.766746 0.561332 0.112759 0.006584 0.006181
1.558850 0.592536 0.595389 -0.000000 -0.510763 -0.000048
1.644947 0.768079 0.542471 -0.016335 -0.049012 -0.014923
1.100055 0.643658 0.781810 0.000000 0.025221 0.000072
1.729388 0.393957 0.931245 -0.043004 -0.004340 -0.003837
1.923859 0.832088 0.869770 0.112758 0.006045 -0.005677
1.576159 0.904666 0.954950 -0.043002 0.004399 -0.003889
1.455840 0.743286 0.681487 0.000000 0.999701 -0.000000
1.879972 0.975790 1.015302 -0.043005 0.003448 -0.003054
0.698245 0.729163 0.630463 -0.000001 0.859072 -0.000008
2.076089 0.643346 0.781818 0.000000 0.024839 0.000037
1.569646 0.897863 0.415726 -0.043002 0.004399 0.003889
2.419455 0.698572 0.598345 -0.000001 0.552750 -0.000043
1.546343 0.387049 0.412563 -0.043003 -0.002200 0.001952
1.754341 0.526260 0.780740 -0.042999 -0.003746 -0.003316
1.679539 0.911884 0.971451 -0.016336 -0.021119 0.012420
1.894909 0.642411 0.581639 0.000000 -0.025221 -0.000009
1.821852 1.162048 0.134769 -0.043003 0.008798 0.007660
1.015310 0.544828 0.663189 0.000000 -0.980493 -0.000001
1.604145 0.702565 0.601139 -0.000002 0.411709 -0.000003
1.694735 0.556233 0.632146 -0.000001 -0.871682 -0.000016
2.905908 0.553919 0.599248 0.025782 0.015114 -0.011050
0.879425 0.722769 0.621002 0.000000 0.789490 -0.000011
1.794727 0.778339 0.528262 -0.016336 -0.049008 -0.014924
2.328865 0.699514 0.598970 -0.000000 0.549951 -0.000005
2.219280 0.743253 0.680161 0.000000 0.999691 -0.000000
3.026074 0.476046 0.851299 -0.055525 0.007500 0.006770
2.804920 0.752634 0.559914 0.025780 0.020561 0.016772
1.232287 0.642021 0.781793 0.000005 -0.004617 0.000197
2.555339 0.732049 0.727802 0.000000 0.882568 0.000004
1.940578 0.978250 0.335484 0.112758 0.004389 0.004125
3.118447 0.736063 0.651544 0.124000 0.001519 -0.000407
1.422965 0.727797 0.735205 -0.000000 0.845965 0.000004
3.022843 0.879012 0.430966 0.025780 0.020562 0.016772
3.019403 0.837132 0.883188 0.025779 -0.017004 0.012030
1.863253 0.897943 0.402168 0.043020 -0.007163 -0.006645
1.668956 0.424999 0.463215 -0.043004 -0.004577 0.004045
1.317393 0.574613 0.608801 -0.043001 -0.008561 0.007461
0.562360 0.558771 0.627940 0.000001 -0.839618 -0.000004
1.812710 0.884589 0.446413 -0.043002 0.008679 0.007560
1.940578 0.308131 1.027957 0.112761 -0.004389 -0.004125
1.836526 1.044820 0.267642 -0.043002 0.005945 0.005233
2.917699 0.547228 0.710179 -0.000000 -0.959129 0.000004
1.729556 0.527038 0.581970 -0.043003 -0.019344 0.015680
2.057095 0.723517 0.622001 -0.000000 0.804472 -0.000010
1.752422 0.480125 0.832783 -0.043003 -0.019344 -0.015680
3.008289 0.713912 0.610889 0.000000 0.707107 -0.000028
0.924720 0.737034 0.716541 0.000000 0.935328 0.000011
1.724774 0.267614 1.073722 -0.043003 -0.006777 -0.005949
0.533137 0.543109 0.683280 0.000000 -0.999925 0.000000
2.192980 0.566509 0.746064 0.000000 -0.758042 0.000006
1.897736 0.392960 0.954298 0.043020 0.007163 0.006645
0.426475 0.661722 0.780083 0.000000 0.185946 0.000299
2.419455 0.606948 0.588415 -0.000000 -0.353782 -0.000037
0.261367 0.743175 0.677043 0.000000 0.999691 -0.000000
3.118447 0.632983 0.584603 0.126336 -0.000053 -0.000383
2.493972 0.543155 0.679070 0.000000 -0.999682 -0.000000
0.788835 0.736565 0.717781 -0.000001 0.935009 0.000011
0.788835 0.736593 0.645733 0.000000 0.935447 -0.000003
0.200000 0.655637 0.781045 -0.030978 0.000088 0.000639
3.056507 0.543210 0.686554 0.000000 -0.999691 0.000000
1.694735 0.728585 0.733950 0.000001 0.716182 0.000001
1.628741 0.413745 0.929405 -0.016335 0.011619 0.009098
2.835757 0.741453 0.777603 0.025780 -0.013226 0.009973
1.701083 1.034055 1.099108 -0.016335 -0.016295 0.011087
1.907140 0.566838 0.616112 0.112757 -0.003520 0.003309
2.001185 0.322479 1.022740 0.043019 0.012588 0.011363
2.001185 1.283271 1.362332 -0.000002 0.685072 0.000236
2.001185 0.003110 0.001110 -0.000001 -0.685080 -0.000236
1.799205 0.543099 0.682110 -0.000010 -0.044653 0.000000
1.450675 0.778993 0.535694 -0.016336 -0.021721 -0.012549
1.785325 0.728964 0.733313 -0.000000 0.859735 0.000017
2.409227 0.743241 0.683748 0.000000 0.999691 0.000000
2.001185 1.249653 0.036856 0.043020 -0.007814 -0.007231
2.293797 0.543140 0.679694 -0.000000 -0.999691 -0.000000
2.742389 0.726948 0.586774 0.025780 0.008570 0.008483
1.467368 0.548873 0.784965 -0.016333 0.010867 0.008694
1.754341 0.760121 0.780740 -0.042999 0.003746 -0.003316
0.287668 0.543123 0.679303 0.000065 -0.069623 -0.000002
2.923530 0.753987 0.574548 0.025780 -0.025183 -0.015272
2.974175 0.752009 0.808975 0.025778 0.012855 -0.012001
0.044238 0.675946 0.651328 -0.607165 0.000019 -0.000017
0.483459 0.642099 0.581633 -0.000000 -0.012609 -0.000036
1.830620 0.698280 0.765291 0.000000 0.552607 0.000011
1.686109 0.719422 0.592141 -0.016334 -0.049014 -0.014922
2.419455 0.696014 0.766742 0.000001 0.531413 0.000023
2.963114 0.530503 0.573896 0.025779 0.025185 -0.015272
1.259318 0.642099 0.581647 -0.000000 -0.024839 -0.000037
1.649440 0.588881 0.765808 0.000000 -0.531921 0.000003
0.335885 0.590466 0.766804 -0.000001 -0.531977 0.000090
1.875915 0.730071 0.731431 -0.000000 0.872199 0.000016
3.177151 0.678281 0.653305 1.000000 0.000000 -0.000000
0.426475 0.680050 0.588657 0.000001 0.376781 -0.000069
2.464750 0.627732 0.780616 -0.000001 -0.160667 0.000043
0.547749 0.642411 0.581629 -0.000000 -0.012227 -0.000075
1.754341 0.742693 0.566312 -0.016343 -0.009502 -0.007894
1.766347 0.871036 0.904780 -0.043002 0.004399 -0.003889
2.328865 0.667891 0.778726 -0.000000 0.258685 0.000026
2.555339 0.555134 0.634123 -0.000001 -0.880961 -0.000004
1.759158 1.016160 1.081854 -0.016334 -0.034372 0.014190
1.957297 1.090795 1.150398 0.112757 0.003395 -0.003192
0.834130 0.568503 0.748361 0.000000 -0.741391 0.000003
2.763435 0.515356 0.548056 0.025780 0.018892 -0.012915
1.586462 0.944035 0.364855 -0.043005 0.004161 0.003681
0.924720 0.568555 0.748419 -0.000000 -0.741471 0.000026
1.610831 0.529937 0.555385 -0.016336 0.019008 -0.011907
1.812956 0.238749 0.247565 -0.016335 0.015088 -0.010651
2.343476 0.743241 0.683748 0.000000 0.999691 0.000000
1.845467 0.306174 1.022509 -0.043005 -0.003448 -0.003054
2.872404 0.743179 0.677199 0.000000 0.999691 -0.000000
1.468260 0.683360 0.590041 -0.000000 0.399881 -0.000016
2.001185 0.540995 0.790387 0.043020 0.009767 0.008958
1.422965 0.730777 0.633269 -0.000000 0.872124 -0.000016
1.673136 0.868093 0.437717 -0.016335 -0.011619 -0.009098
1.847244 1.121598 0.181934 -0.043003 0.004875 0.004304
1.774146 0.818486 0.845138 -0.043002 0.019345 -0.015680
2.645929 0.696906 0.766182 0.000000 0.531921 0.000022
3.082238 0.794082 0.838092 -0.055527 -0.005000 0.004536
1.525787 0.356897 0.986142 -0.043003 -0.008322 -0.007261
1.785325 0.732632 0.636787 0.000001 0.893987 -0.000007
2.742389 0.559433 0.586774 0.025780 -0.017137 0.014889
0.200000 0.559103 0.627411 -0.030977 -0.000546 -0.000343
2.600634 0.555432 0.729867 0.000000 -0.872258 0.000004
2.192980 0.553350 0.637590 0.000000 -0.895153 -0.000007
0.652950 0.545140 0.661581 0.000000 -0.977657 -0.000001
1.687251 0.769565 0.795716 -0.043002 0.019345 -0.015680
1.447639 0.438541 0.464112 -0.043003 -0.008560 0.007460
3.080112 0.545325 0.791669 -0.055525 -0.010150 -0.009696
1.705693 0.643268 0.581622 0.000000 0.025221 -0.000072
1.636203 0.337568 1.008862 -0.016335 0.009960 0.008171
1.151195 0.556386 0.731567 0.000000 -0.872156 0.000008
2.517350 0.743237 0.683904 0.000000 0.999691 0.000000
0.106329 0.705182 0.733737 -0.364217 0.000067 0.000053
1.730120 1.025108 0.272960 -0.016335 -0.016295 -0.011087
1.586046 0.756738 0.807778 -0.016336 -0.019008 0.011907
3.019403 0.453994 0.475791 0.025781 -0.015423 0.013808
1.854993 0.290858 0.300806 -0.016335 0.017200 -0.011383
0.652950 0.625502 0.780243 -0.000001 -0.185860 0.000149
1.932219 0.888900 0.416118 0.043019 -0.014324 -0.012783
1.796091 0.946761 0.988070 -0.043002 0.007728 -0.006759
3.138015 0.548508 0.691672 0.123998 -0.001490 0.000078
0.879425 0.663025 0.779837 -0.000000 0.210129 0.000033
3.080112 0.746930 0.577298 -0.055527 -0.010459 -0.009362
2.283570 0.731721 0.635019 0.000001 0.883910 -0.000015
1.889212 0.003405 1.362609 0.000002 -0.684806 0.000078
1.196490 0.558688 0.628072 0.000000 -0.846794 -0.000002
1.422965 0.590301 0.596741 0.000000 -0.532076 -0.000022
1.015310 0.591598 0.595947 -0.000001 -0.476962 -0.000003
1.765963 1.121799 1.187000 -0.043002 0.004994 -0.004408
1.772174 0.643346 0.581623 0.000000 0.024458 -0.000019
1.824693 1.074443 0.219384 -0.016335 -0.013882 -0.010165
1.830620 0.555061 0.729181 -0.000001 -0.883843 0.000015
3.008289 0.561244 0.739196 0.000000 -0.819113 0.000020
0.091693 0.683554 0.619226 -0.421365 0.000038 -0.000055
2.238275 0.593922 0.768849 0.000000 -0.487909 0.000013
2.011800 0.558937 0.735766 0.000000 -0.846663 0.000018
1.856038 1.010785 1.056235 -0.043002 0.003210 -0.002845
1.684898 0.951674 1.012988 -0.016336 -0.019611 0.012064
2.645929 0.739974 0.707250 -0.000000 0.962525 0.000001
1.604145 0.694347 0.767753 -0.000000 0.508263 0.000006
3.157583 0.718231 0.736241 0.120982 0.000318 0.000212
0.125148 0.555406 0.681721 -0.298261 -0.000057 0.000001
1.829815 0.496946 0.554603 0.112757 -0.001760 0.001655
1.594019 0.331659 0.353319 -0.043003 -0.003924 0.003472
1.411286 0.551870 0.774150 -0.043004 -0.008560 -0.007460
1.962522 0.455622 0.874762 0.112760 -0.003064 -0.002881
2.238275 0.614246 0.585901 -0.000001 -0.277026 -0.000024
2.057095 0.725562 0.738589 0.000001 0.817053 0.000010
2.555339 0.704248 0.602405 -0.000000 0.613708 -0.000018
1.783138 0.437946 0.907859 -0.016335 0.011167 0.008858
1.015310 0.663025 0.779837 -0.000000 0.210351 0.000131
0.652950 0.623892 0.583503 -0.000000 -0.185983 -0.000037
2.957664 0.527026 0.815428 0.025778 -0.012856 -0.012001
1.562477 0.817229 0.493263 -0.016338 -0.019006 -0.011908
1.060605 0.558086 0.734412 0.000001 -0.844355 0.000004
1.934831 0.527201 0.809225 0.043019 0.017252 0.015062
1.060605 0.557237 0.630430 -0.000001 -0.683823 -0.000001
3.098879 0.599758 0.771909 0.128152 -0.000170 0.000341
2.102390 0.559836 0.737135 -0.000001 -0.828818 0.000009
0.200000 0.663025 0.583604 -0.030979 0.000136 -0.000631
0.769840 0.645841 0.581686 0.000003 0.014813 -0.000123
0.290590 0.729243 0.630597 0.000000 0.859694 -0.000017
2.510045 0.587029 0.598862 -0.000001 -0.552201 -0.000021
2.845295 0.580557 0.603349 0.000001 -0.685083 -0.000380
1.830620 0.601172 0.590873 -0.000001 -0.420467 -0.000015
0.924720 0.548714 0.648662 -0.000000 -0.943818 -0.000010
2.011800 0.612200 0.776896 -0.000001 -0.250526 0.000007
0.769840 0.646153 0.781748 0.000000 0.024839 0.000073
1.710118 0.803430 0.504143 -0.016335 -0.049010 -0.014923
0.879425 0.721082 0.744585 0.000000 0.773971 0.000023
1.934831 0.519635 0.561332 0.112758 -0.006584 0.006181
2.802270 0.543187 0.677823 -0.000000 -0.999691 -0.000000
0.471770 0.692289 0.768945 -0.000001 0.489093 0.000050
1.817011 0.409105 0.424767 -0.016336 0.020817 -0.012352
0.381180 0.565718 0.745099 0.000000 -0.774000 0.000012
2.057095 0.651021 0.581930 -0.000000 0.087392 -0.000081
1.377670 0.555279 0.633847 0.000000 -0.884150 -0.000007
1.649440 0.544842 0.663112 0.000000 -0.982472 -0.000001
0.743540 0.720465 0.745340 -0.000000 0.773824 0.000012
1.688394 0.494735 0.846522 -0.016336 0.049008 0.014924
2.147685 0.709130 0.606412 0.000000 0.652426 -0.000004
1.498254 0.483870 0.853346 -0.016340 0.013576 0.010035
1.833851 0.932698 0.366690 -0.016335 -0.009809 -0.008080
2.872404 0.701781 0.762881 -0.000000 0.593718 0.000019
1.666670 0.506518 0.529695 -0.016335 0.049010 -0.014923
2.941388 0.704016 0.761792 0.000001 0.685082 0.000507
0.834130 0.571752 0.611606 0.000000 -0.707202 -0.000014
0.144443 0.613519 0.593409 -0.215707 -0.000058 -0.000158
2.328865 0.598012 0.771041 0.000001 -0.441794 0.000014
2.464750 0.739974 0.656191 -0.000000 0.965853 -0.000004
2.714278 0.738989 0.787208 0.025782 0.027404 -0.019598
0.471770 0.567628 0.616076 -0.000000 -0.757807 -0.000012
0.335885 0.593208 0.594992 -0.000001 -0.480979 -0.000006
1.705652 1.082511 1.146695 -0.043003 0.005945 -0.005233
0.191990 0.716388 0.613804 -0.030975 0.000479 -0.000433
1.855821 0.204659 0.227365 -0.043003 -0.005469 0.004821
2.600634 0.544849 0.663074 -0.000000 -0.982523 -0.000005
0.698245 0.736093 0.718978 0.000001 0.922872 0.000003
2.962994 0.551402 0.641801 0.000000 -0.916407 -0.000006
1.508750 0.761099 0.810494 -0.016336 -0.013579 0.010035
1.649440 0.576030 0.607504 0.000000 -0.671073 -0.000004
2.328865 0.553141 0.638009 -0.000001 -0.892358 -0.000007
3.034030 0.415178 0.440628 0.025780 0.022667 -0.014430
1.287080 0.720662 0.618343 0.000001 0.773205 -0.000012
2.510045 0.555243 0.729525 0.000000 -0.884271 0.000002
2.901727 0.808568 0.509267 0.025780 -0.014171 -0.010524
1.513555 0.696014 0.766742 0.000000 0.532032 0.000022
0.191990 0.730883 0.729476 -0.030977 0.000571 0.000301
1.905395 1.270258 0.018409 -0.043003 0.011175 0.009612
1.382516 0.506577 0.536456 -0.043003 -0.008560 0.007461
2.001185 0.238435 0.251335 0.043020 0.004992 -0.004664
2.600634 0.727105 0.627151 0.000000 0.833166 -0.000005
1.849146 0.514419 0.793461 0.112758 -0.003520 -0.003308
1.523451 0.743721 0.570687 -0.016340 -0.013577 -0.010035
1.683046 0.743290 0.681799 0.000000 0.999682 0.000000
1.714531 0.317570 1.031522 -0.016335 0.018708 0.011826
1.828627 0.373691 0.975805 -0.016339 0.019607 0.012064
2.781814 0.599199 0.591810 0.000000 -0.445072 -0.000057
2.510045 0.715011 0.751445 -0.000000 0.724463 0.000013
1.868477 0.739356 0.792316 0.043020 -0.017252 0.015061
1.571661 0.497344 0.538323 -0.043006 -0.006420 0.005642
1.483553 0.822569 0.868563 -0.043002 0.005350 -0.004718
1.923910 0.042811 0.041026 -0.016335 0.030157 -0.013812
0.879425 0.658418 0.582788 0.000002 0.160539 -0.000087
0.607655 0.596903 0.592972 -0.000001 -0.467250 -0.000107
1.966702 0.389666 0.417854 0.112759 -0.002733 0.002569
0.245295 0.683145 0.773494 0.000000 0.399888 0.000130
1.774368 0.981276 0.335122 -0.043004 0.007252 0.006355
3.177151 0.563827 0.724811 0.120978 -0.000338 0.000178
3.056405 0.430796 0.903489 -0.055526 0.010000 0.008964
1.549088 0.456951 0.480881 -0.016334 0.019010 -0.011907
1.878927 0.804584 0.861018 0.043020 -0.015842 0.013983
1.798181 0.342937 1.007095 -0.016334 0.009809 0.008081
1.131469 0.743251 0.683358 0.000010 0.044653 0.000000
2.901727 0.477813 0.854174 0.025780 0.014171 0.010524
1.849146 0.754624 0.553675 0.043020 -0.017252 -0.015062
1.343443 0.738983 0.579863 -0.016336 -0.043383 -0.014715
2.102390 0.623051 0.583670 0.000000 -0.210351 -0.000066
3.089542 0.855001 0.905585 -0.055525 -0.010000 0.008964
2.510045 0.679942 0.588613 -0.000001 0.375393 -0.000017
1.604928 0.433532 0.455190 -0.016335 0.049010 -0.014923
1.729490 1.110206 0.187124 -0.043008 0.002734 0.002425
0.607655 0.555966 0.730819 -0.000000 -0.872163 0.000032
2.192980 0.727361 0.627543 0.000000 0.846794 -0.000002
1.196490 0.600253 0.772139 -0.000001 -0.422372 0.000030
0.038025 0.675928 0.704041 -0.631563 0.000018 0.000012
1.060605 0.730376 0.632554 -0.000000 0.872085 -0.000016
0.924720 0.736372 0.645150 0.000000 0.926033 -0.000001
0.426475 0.552508 0.639349 -0.000000 -0.906286 -0.000026
2.925005 0.638980 0.581725 0.000000 -0.024839 -0.000018
1.351369 0.642411 0.781802 0.000005 -0.004608 0.000198
0.245295 0.582812 0.601880 0.000002 -0.411708 -0.000003
0.698245 0.556700 0.631335 0.000000 -0.831980 -0.000001
1.649440 0.678594 0.588098 -0.000001 0.353678 -0.000149
0.698245 0.556424 0.731635 0.000000 -0.871987 0.000008
1.968792 0.921289 0.391379 0.112759 0.002526 0.002375
1.842354 0.468469 0.485953 0.043019 0.015842 -0.013983
2.555339 0.693643 0.768172 -0.000000 0.510798 0.000048
0.652950 0.702189 0.600862 -0.000001 0.593691 -0.000038
2.884094 0.647400 0.781717 0.000000 0.024839 0.000009
1.105900 0.627501 0.582863 -0.000001 -0.161054 -0.000087
0.970015 0.717538 0.748737 0.000001 0.739947 0.000013
1.885196 0.436156 0.882652 0.112759 -0.002857 -0.002686
3.119708 0.555411 0.591552 -0.055523 0.005834 -0.005285
3.002445 0.641163 0.581645 -0.000000 -0.012232 -0.000149
1.921210 0.545074 0.661886 0.000000 -0.982598 -0.000001
1.977151 0.224775 1.122649 0.112760 -0.001905 -0.001791
2.827109 0.738390 0.650805 0.000000 0.951668 -0.000005
2.419455 0.594738 0.769307 0.000001 -0.480979 0.000006
3.177151 0.654978 0.771255 0.120982 0.000055 0.000378
1.781078 0.143210 0.153370 -0.043001 -0.004518 0.003993
2.328865 0.606005 0.588789 -0.000001 -0.375393 -0.000017
2.057095 0.558252 0.628765 0.000000 -0.846667 -0.000009
2.575795 0.645997 0.781752 0.000000 0.024458 0.000037
1.775991 0.555987 0.578602 -0.016336 0.012674 -0.009623
1.377670 0.553002 0.725153 0.000000 -0.895419 0.000004
1.692721 0.430562 0.913411 -0.016334 0.023231 0.012844
1.795870 0.455665 0.857494 -0.043002 -0.009155 -0.007957
1.836430 0.185126 1.172238 -0.016337 0.006790 0.006025
3.177151 0.628118 0.639157 1.000000 -0.000000 0.000000
1.921210 0.553940 0.727039 -0.000000 -0.894717 0.000004
3.053584 0.578403 0.758021 0.000000 -0.652278 0.000033
1.740030 0.603807 0.773743 -0.000000 -0.399851 0.000065
1.977674 0.727840 0.590234 0.043020 -0.009767 -0.008958
3.098879 0.699579 0.764428 0.128151 0.000211 0.000318
1.196490 0.685280 0.772535 0.000001 0.420467 0.000015
2.419455 0.557437 0.733347 0.000000 -0.855982 0.000002
3.053584 0.741282 0.701670 -0.000001 0.975168 0.000002
0.581355 0.743202 0.685307 0.000000 0.999691 0.000000
0.826824 0.543140 0.679694 -0.000000 -0.999691 -0.000000
0.517065 0.732441 0.727039 -0.000000 0.895097 0.000007
3.177151 0.559758 0.647162 0.120978 -0.000355 -0.000142
1.891466 0.416969 0.434279 0.043020 0.007597 -0.007036
2.847768 0.741679 0.586051 0.025780 -0.013226 -0.009973
0.038025 0.625114 0.716979 -0.631565 -0.000010 0.000019
1.627065 0.903621 0.961613 -0.016334 -0.011016 0.008776
2.691225 0.549305 0.716431 0.000000 -0.934842 0.000005
2.645929 0.554514 0.635295 0.000000 -0.880624 -0.000002
1.894166 0.120443 1.240919 -0.016336 0.019912 0.012139
1.871612 0.341650 0.382550 0.112759 -0.002360 0.002219
2.645929 0.706991 0.604594 0.000001 0.633038 -0.000035
2.859780 0.544476 0.777178 0.025780 0.013226 0.009973
1.813096 0.705868 0.603252 0.043020 -0.009225 -0.008483
0.471770 0.712181 0.609201 0.000000 0.689312 -0.000015
0.245295 0.614882 0.777727 0.000002 -0.282744 0.000192
1.621114 0.302410 1.045098 -0.016332 0.018711 0.011826
2.639484 0.538310 0.570199 0.025780 -0.013711 0.012628
1.513555 0.632526 0.781246 -0.000001 -0.111921 0.000251
1.883107 0.834056 0.498329 0.112758 0.003023 0.002842
1.631411 0.744716 0.592071 -0.043003 0.007490 0.006557
2.238275 0.566138 0.617830 -0.000001 -0.767992 -0.000006
1.558850 0.605391 0.774402 -0.000000 -0.376765 0.000017
0.743540 0.714849 0.611826 0.000000 0.724465 -0.000027
1.377670 0.589343 0.766099 0.000000 -0.531921 0.000022
1.627626 0.992622 0.312846 -0.043003 0.007371 0.006456
0.517065 0.729402 0.630865 -0.000000 0.859224 -0.000008
2.555339 0.737718 0.648809 -0.000000 0.943713 -0.000005
0.970015 0.586067 0.763914 -0.000001 -0.572872 0.000020
0.084534 0.584698 0.641841 -0.449338 -0.000047 -0.000031
2.238275 0.684679 0.772815 -0.000001 0.416698 0.000008
1.481657 0.503467 0.539381 -0.043004 -0.008560 0.007460
2.862000 0.489444 0.521408 0.025780 0.013226 -0.009973
2.011800 0.578137 0.605649 -0.000001 -0.652113 -0.000033
1.694735 0.678521 0.775371 -0.000000 0.348625 0.000005
1.513555 0.730796 0.730139 -0.000000 0.872213 0.000008
0.607655 0.732476 0.726969 0.000000 0.895494 0.000004
2.918239 0.483803 0.516995 0.025784 0.007085 -0.005789
0.879425 0.555737 0.730411 0.000001 -0.869348 0.000008
1.728344 0.877758 0.937085 -0.016336 -0.022023 0.012611
0.290590 0.735490 0.720459 -0.000001 0.922741 0.000003
1.830620 0.600324 0.772172 -0.000000 -0.422609 0.000061
1.934309 1.170048 0.117299 0.043019 -0.012588 -0.011363
3.106111 0.431672 0.456809 -0.055525 -0.004852 0.004694
0.879425 0.558252 0.628765 0.000001 -0.844173 -0.000009
2.192980 0.594364 0.594344 -0.000000 -0.489181 -0.000050
2.826218 0.526472 0.552178 0.025782 -0.023983 0.018324
2.801085 0.549017 0.774160 0.025780 0.011337 0.008795
1.287080 0.594773 0.769326 0.000000 -0.489208 0.000013
0.152268 0.584026 0.755911 -0.185266 -0.000131 0.000156
1.800615 0.125064 1.233904 -0.016335 0.022325 0.012672
2.971214 0.463961 0.487067 0.025780 -0.010284 0.009964
0.381180 0.688578 0.770937 0.000000 0.444766 0.000014
1.196490 0.601737 0.590610 0.000000 -0.422666 -0.000030
3.011078 0.532877 0.553443 -0.055525 -0.004559 0.004412
1.969427 0.642099 0.781794 0.000000 -0.025221 0.000018
1.614601 0.979015 1.036127 -0.043003 0.007371 -0.006456
1.752422 0.806256 0.530659 -0.043003 0.019344 0.015680
0.924720 0.579330 0.604644 0.000001 -0.632990 -0.000035
1.287080 0.555279 0.729594 0.000000 -0.871841 0.000002
1.105900 0.712068 0.754347 0.000000 0.689312 0.000004
1.241785 0.549347 0.646900 0.000000 -0.935320 -0.000003
0.290590 0.689961 0.593227 0.000000 0.467313 -0.000053
2.147685 0.682895 0.773603 0.000001 0.392987 0.000008
0.471770 0.614583 0.777639 0.000000 -0.282787 0.000048
2.464750 0.714629 0.611606 0.000000 0.707202 -0.000014
3.106111 0.431672 0.906632 -0.055524 -0.004852 -0.004694
1.966505 0.669699 0.585199 0.000000 0.259042 -0.000026
2.736519 0.693509 0.768251 -0.000001 0.510503 0.000024
2.011800 0.711955 0.754455 -0.000000 0.689248 0.000030
1.127817 0.543132 0.683436 0.000000 -0.999691 0.000000
1.028460 0.743241 0.679694 0.000000 0.999691 -0.000000
1.496021 0.543093 0.681565 0.000000 -0.999691 -0.000000
3.107091 0.492737 0.839663 -0.055527 0.003750 0.003408
3.107091 0.492737 0.523778 -0.055525 0.003750 -0.003408
1.596446 0.789814 0.539054 -0.043000 0.003746 0.003316
3.053584 0.677536 0.587698 -0.000001 0.348682 -0.000019
0.381180 0.729721 0.732039 -0.000000 0.859652 0.000004
1.908185 0.336135 0.349377 0.043019 0.006186 -0.005759
2.971214 0.826487 0.872549 0.025781 -0.022667 0.014430
1.287080 0.689685 0.770360 0.000000 0.467300 0.000053
0.652950 0.547448 0.710927 0.000000 -0.959183 0.000008
1.196490 0.680917 0.589010 0.000000 0.377443 -0.000004
2.781814 0.555006 0.634364 -0.000000 -0.884095 -0.000015
0.970015 0.726027 0.625527 0.000001 0.832114 -0.000009
1.905050 0.217414 0.244908 0.112758 -0.003395 0.003192
1.644947 0.768079 0.820970 -0.016335 -0.049010 0.014923
1.241785 0.731575 0.634743 -0.000000 0.884005 -0.000007
1.604145 0.543105 0.682344 0.000000 -0.999682 0.000000
1.940578 0.978250 1.027957 0.112760 0.002195 -0.002064
1.809217 1.178150 1.247611 -0.043004 0.008084 -0.007061
1.809217 0.108231 0.115830 -0.043005 -0.008084 0.007060
1.900871 1.053438 0.262113 -0.043003 0.011651 0.009993
1.872782 1.120319 1.192936 -0.016334 -0.012374 0.009478
2.001185 1.199227 0.090476 0.043019 -0.013022 -0.011722
2.001185 0.795813 0.519434 0.043021 -0.016926 -0.014815
2.001185 1.148800 1.219346 0.043018 -0.014758 0.013130
2.001185 0.846239 0.465815 0.043019 -0.015192 -0.013473
2.001185 0.103963 0.108349 0.043020 0.013022 -0.011722
2.001185 1.115182 0.179842 0.043020 -0.016493 -0.014485
2.001185 0.456950 0.483688 0.043020 0.016059 -0.014151
2.001185 0.846239 0.897627 0.043021 -0.007597 0.007036
2.001185 0.103963 1.255092 0.043020 0.013022 0.011722
2.001185 0.913475 0.969120 0.043020 -0.006729 0.006252
2.001185 1.047946 0.251335 0.043022 -0.009984 -0.009147
2.001185 0.779004 0.826134 0.043018 -0.008465 0.007812
2.001185 0.036728 1.326585 0.043020 0.007814 0.007231
1.955207 1.255322 1.324996 -0.043003 0.009987 -0.008645
0.562360 0.708480 0.605853 0.000000 0.652395 -0.000008
3.026413 0.763841 0.800277 -0.055525 -0.010460 0.009362
1.779199 0.766481 0.822473 -0.016336 -0.019008 0.011907
1.735734 0.207326 0.222585 -0.043003 -0.002972 0.002635
1.332375 0.690064 0.593281 0.000000 0.467272 -0.000013
1.060605 0.696608 0.597073 0.000000 0.531782 -0.000011
1.651464 1.020317 1.080217 -0.043005 0.013789 -0.011669
1.781219 0.389756 0.957968 -0.016336 0.020817 0.012352
2.419455 0.553298 0.637695 -0.000001 -0.883156 -0.000002
0.245295 0.572414 0.752497 0.000000 -0.707107 0.000057
0.335885 0.551698 0.722319 -0.000000 -0.916554 0.000025
1.778375 0.849415 0.483771 -0.043001 0.004578 0.004045
1.667813 0.470406 0.492084 -0.016336 0.049007 -0.014924
1.944758 0.282227 1.069087 0.043020 0.005861 0.005461
1.925949 0.148345 1.212628 0.043020 0.014324 0.012782
0.788835 0.581702 0.760701 0.000000 -0.613729 0.000009
2.192980 0.691608 0.594115 -0.000001 0.489099 -0.000050
2.678074 0.640072 0.781744 0.000000 -0.025221 0.000036
1.604145 0.608626 0.587781 0.000001 -0.353467 -0.000037
0.834130 0.710814 0.607923 0.000000 0.671073 -0.000004
1.944758 1.004154 0.294354 0.043021 -0.005861 -0.005461
2.328865 0.551932 0.722855 -0.000001 -0.899970 0.000002
3.150379 0.557332 0.773696 -0.055526 -0.010233 -0.009773
1.558850 0.547426 0.652589 -0.000000 -0.958850 -0.000002
3.067536 0.562649 0.588608 -0.055526 -0.010149 0.009696
1.953118 1.069784 0.225093 0.043018 -0.004993 -0.004664
1.649440 0.736372 0.718292 0.000000 0.935356 0.000021
2.102390 0.732649 0.636822 0.000001 0.893987 -0.000007
2.962994 0.725115 0.624214 0.000000 0.818862 -0.000010
1.953118 0.211115 0.230248 0.112759 -0.003395 0.003192
3.053584 0.623127 0.779788 0.000001 -0.209790 0.000066
1.513555 0.641007 0.581674 0.000000 -0.025221 -0.000280
2.827109 0.625118 0.780171 0.000001 -0.185199 0.000075
1.428514 0.515033 0.548953 -0.043004 -0.006420 0.005643
0.607655 0.589178 0.765995 0.000000 -0.531782 0.000011
1.507170 0.559669 0.588773 -0.016332 0.010867 -0.008694
1.833994 0.804965 0.537397 -0.043004 0.009986 0.008644
3.008289 0.655095 0.781106 0.000000 0.111936 0.000125
2.781814 0.657144 0.780837 -0.000001 0.134986 0.000052
2.147685 0.734496 0.722748 0.000001 0.912376 0.000003
2.691225 0.545846 0.658423 0.000001 -0.971980 -0.000014
2.057095 0.686623 0.771909 -0.000000 0.445072 0.000057
1.303152 0.743264 0.682812 0.000000 0.999691 0.000000
1.875915 0.685739 0.591121 0.000001 0.416698 -0.000008
1.643804 0.541276 0.771005 -0.043002 -0.019345 -0.015680
0.176012 0.545682 0.667024 -0.092985 -0.000422 -0.000053
1.923859 0.840079 0.467505 0.043020 -0.008031 -0.007425
1.241785 0.548624 0.714522 0.000001 -0.918172 0.000001
0.562360 0.679178 0.775123 -0.000000 0.353681 0.000037
0.924720 0.544409 0.697872 0.000000 -0.986804 0.000001
2.688302 0.639916 0.581701 0.000000 -0.024839 -0.000018
1.966505 0.688927 0.770761 0.000001 0.444128 0.000007
0.756690 0.543163 0.678758 0.000000 -0.999701 -0.000000
0.834130 0.709542 0.756670 0.000000 0.671073 0.000008
3.049100 0.498493 0.521070 -0.055526 -0.009703 0.009282
1.604145 0.557138 0.732844 0.000000 -0.860043 0.000001
1.741247 0.375986 0.412742 -0.043003 -0.008322 0.007261
1.798181 0.342937 0.356347 -0.016336 0.009808 -0.008080
2.238275 0.734186 0.723421 0.000000 0.905960 0.000003
1.946848 0.068315 1.296413 0.043020 0.010852 0.009897
0.381180 0.694314 0.595668 0.000000 0.510698 -0.000024
1.673136 0.868093 0.925725 -0.016335 -0.023230 0.012844
1.626651 0.871604 0.448970 -0.043004 0.004577 0.004045
1.151195 0.568137 0.615485 0.000000 -0.757960 -0.000024
0.335885 0.554952 0.634467 0.000000 -0.884071 -0.000015
2.008877 0.642099 0.581647 0.000000 -0.025221 -0.000018
