3.502938 0.542225 0.511252 -0.051554 -0.013012 0.013384
1.989992 0.504559 0.766866 0.117418 -0.007394 -0.007734
1.390063 0.734715 0.700839 -0.000001 0.714719 0.000017
2.004914 0.751566 0.559114 0.117420 0.002069 0.002168
1.559711 0.541595 0.738748 -0.052797 -0.003332 -0.003249
2.476643 0.582729 0.691033 0.000000 -0.796520 0.000003
1.930305 0.943546 0.388107 -0.052805 0.003258 0.003176
1.991380 1.153802 1.084419 -0.052803 0.016107 -0.015051
3.527115 0.935024 0.891683 -0.051554 0.010410 -0.010825
1.562813 0.764648 0.718462 -0.052805 0.006663 -0.006458
1.286580 0.588558 0.698123 -0.000001 -0.730747 0.000008
0.717419 0.715549 0.545687 -0.000000 0.533577 -0.000054
3.461217 0.884889 0.425520 0.028165 -0.010352 -0.009331
3.461217 0.440940 0.425520 -0.051553 0.015814 -0.015654
0.141238 0.576589 0.597814 -0.227597 -0.000166 -0.000059
2.580127 0.585879 0.566881 0.000000 -0.768817 -0.000004
1.802462 0.236036 0.221411 -0.023667 0.010780 -0.010610
3.097546 0.699130 0.724380 -0.000000 0.370434 0.000043
1.711190 0.456476 0.814423 -0.052804 -0.014391 -0.013564
1.748598 0.888753 0.409044 -0.023666 -0.007897 -0.008102
0.976128 0.748026 0.683829 0.000000 0.845659 0.000021
0.872645 0.736547 0.698905 0.000000 0.734143 0.000016
1.079612 0.700729 0.538161 -0.000001 0.368890 -0.000021
1.711190 0.869352 0.814423 -0.052803 0.014391 -0.013564
2.055926 1.067065 0.243302 0.052840 -0.009564 -0.009863
2.942320 0.568612 0.597079 0.000000 -0.938152 -0.000006
0.976128 0.576469 0.681618 0.000000 -0.859156 0.000001
2.523457 0.667175 0.731046 -0.000000 0.026173 0.000162
0.116894 0.709239 0.702285 -0.322451 0.000060 0.000098
1.959224 0.719672 0.548369 0.000000 0.555602 -0.000051
1.943492 0.517246 0.481742 0.052837 0.016429 -0.016442
1.944806 0.251604 1.030687 -0.023666 0.010529 0.010405
2.580127 0.756222 0.594432 0.000000 0.929027 -0.000002
1.131354 0.730086 0.556595 0.000000 0.677906 -0.000009
2.110343 0.667339 0.731041 -0.000000 0.026182 0.000324
2.273782 0.658490 0.530861 0.000000 -0.026173 -0.000162
2.001097 0.869389 0.833974 0.052838 -0.007235 0.007512
1.943558 0.048009 1.218906 -0.023671 0.011029 0.010812
1.768699 1.126756 1.073583 -0.023666 -0.005265 0.005558
1.810155 0.328847 0.306982 -0.023668 0.027056 -0.019277
3.543774 0.751648 0.599902 0.188167 0.000841 -0.000242
1.579059 0.823667 0.474695 -0.023667 -0.009401 -0.009449
3.304513 0.645138 0.532340 0.000000 -0.169199 -0.000049
3.337424 0.873873 0.834394 0.028163 0.011807 -0.012457
1.079612 0.577349 0.683097 -0.000000 -0.859304 0.000010
3.045804 0.568035 0.598744 0.000000 -0.946813 -0.000003
1.947582 0.230361 0.233887 -0.052805 -0.002488 0.002427
0.355226 0.581775 0.689750 -0.000000 -0.816433 0.000003
3.554480 0.466697 0.443706 -0.051554 -0.007808 0.008189
3.554480 0.859132 0.443706 -0.051554 0.007808 0.008189
3.542145 0.390875 0.371351 -0.051551 -0.005206 0.005494
3.542145 0.934954 0.371351 -0.051552 0.005206 0.005494
2.321417 0.740814 0.567922 0.000000 0.785106 -0.000002
1.441805 0.616551 0.719777 -0.000001 -0.458371 0.000008
2.062708 0.595262 0.704862 -0.000000 -0.678776 0.000037
2.010467 0.525798 0.511958 0.117417 -0.007394 0.007734
2.714820 0.667094 0.530855 0.000000 0.026192 -0.000162
3.097546 0.578875 0.576375 0.000000 -0.845713 -0.000011
1.804602 0.339596 0.927008 -0.052804 -0.003258 -0.003176
2.082994 0.179505 0.169647 0.052836 0.015204 -0.015313
2.044822 0.924415 0.874255 0.117419 0.003035 -0.003180
2.044822 0.401414 0.874255 0.117417 -0.006070 -0.006353
0.872645 0.627427 0.537245 0.000000 -0.344657 -0.000012
2.994062 0.652848 0.531257 -0.000000 -0.091601 -0.000184
0.133044 0.606110 0.701100 -0.259510 -0.000097 0.000113
1.907482 0.686426 0.533544 0.000000 0.246119 -0.000067
0.562193 0.757188 0.664901 0.000000 0.938169 0.000002
2.580127 0.617863 0.720453 0.000000 -0.442198 0.000017
2.787094 0.746453 0.575625 -0.000000 0.831349 -0.000011
0.355226 0.716659 0.546387 0.000000 0.533606 -0.000054
2.787094 0.585616 0.694706 -0.000000 -0.768845 0.000014
1.959224 0.750256 0.680053 0.000000 0.872506 0.000002
1.855740 0.651138 0.531449 -0.000000 -0.117510 -0.000574
1.842654 1.143641 1.085272 -0.052803 0.009240 -0.008891
2.010966 0.727079 0.707909 -0.000001 0.638635 0.000020
1.668850 0.415911 0.392045 -0.023667 0.015791 -0.014208
2.838836 0.721978 0.550006 -0.000000 0.597487 -0.000011
2.683611 0.750657 0.679338 0.000000 0.872506 0.000002
2.580127 0.717695 0.547048 0.000000 0.554652 -0.000013
0.753556 0.659473 0.731067 0.000000 -0.026182 0.000021
1.027870 0.613384 0.543850 0.000000 -0.488603 -0.000061
2.166192 0.623814 0.538697 0.000002 -0.279913 -0.000007
1.812128 0.759571 0.694399 -0.052804 0.005331 -0.005181
0.195758 0.662914 0.731055 -0.072331 0.000010 0.000154
1.234838 0.727363 0.554230 -0.000000 0.639427 -0.000010
2.062708 0.762475 0.642240 0.000000 0.993041 0.000001
0.820903 0.755736 0.593213 0.000001 0.928328 -0.000007
1.960149 0.448152 0.417025 0.052837 0.007235 -0.007512
2.062708 0.716243 0.546124 0.000000 0.533369 -0.000013
3.201030 0.607248 0.547640 0.000000 -0.555443 -0.000025
0.924386 0.755493 0.592604 0.000000 0.918693 -0.000002
1.183096 0.613777 0.718273 0.000000 -0.488666 0.000015
2.114450 0.743321 0.571165 -0.000000 0.800037 -0.000006
0.355226 0.751092 0.678548 0.000001 0.884527 0.000009
3.517294 0.561232 0.731713 -0.051554 -0.013012 -0.013384
1.183096 0.567309 0.660938 -0.000000 -0.954941 0.000003
1.131354 0.584177 0.568984 -0.000000 -0.785293 -0.000027
2.010966 0.622571 0.539231 0.000001 -0.394716 -0.000079
1.338322 0.752271 0.585606 -0.000001 0.893130 -0.000004
1.545289 0.760804 0.609558 -0.000000 0.975270 -0.000004
1.493547 0.761887 0.646627 -0.000000 0.989651 0.000005
0.641859 0.658080 0.530872 -0.000000 -0.026187 -0.000324
0.355226 0.574298 0.584189 0.000001 -0.882734 -0.000009
2.942320 0.687141 0.533726 0.000000 0.245612 -0.000017
2.890578 0.649998 0.531583 -0.000001 -0.117145 -0.000072
1.493547 0.720843 0.549197 0.000001 0.573875 -0.000012
1.632717 0.927160 0.879540 -0.052804 0.003732 -0.003636
1.845640 0.268756 0.996424 -0.052802 -0.002784 -0.002716
1.545289 0.651056 0.531458 0.000000 -0.117417 -0.000143
2.476643 0.590005 0.562215 -0.000001 -0.681985 -0.000002
1.947582 1.084110 1.039917 -0.023669 -0.010528 0.010404
1.851192 1.076187 1.015571 -0.052800 0.002547 -0.002485
2.035799 0.019114 1.237599 0.117416 -0.004194 -0.004392
1.665019 0.784141 0.531219 -0.052805 0.005553 0.005394
2.476643 0.752561 0.586194 -0.000000 0.896783 -0.000008
1.234838 0.602570 0.550962 0.000001 -0.549172 -0.000003
2.034411 0.214674 1.050754 0.117414 -0.002152 -0.002255
3.189738 0.494359 0.470103 0.028164 -0.022940 0.020354
3.075353 0.778020 0.521109 0.028165 0.018355 0.017595
3.052476 0.558499 0.730592 0.028165 -0.018355 -0.017595
3.235492 0.472978 0.812202 0.028164 -0.027520 -0.022530
3.075353 0.547809 0.521109 0.028164 -0.018356 0.017595
3.235492 0.852850 0.812202 0.028163 0.027521 -0.022530
1.919371 1.140844 0.170435 -0.023669 -0.017543 -0.015245
1.979582 0.988442 0.337210 0.117418 0.005629 0.005892
2.373159 0.577912 0.684002 -0.000000 -0.845227 0.000003
1.310397 0.664553 0.530788 -0.000000 0.012946 -0.000021
2.424901 0.604015 0.712020 0.000000 -0.598370 0.000045
2.683611 0.753633 0.588407 -0.000000 0.906622 -0.000002
3.459739 0.709604 0.719606 -0.000000 0.465603 0.000129
0.510451 0.746772 0.576103 0.000000 0.831603 -0.000003
0.458709 0.719939 0.548558 -0.000000 0.577109 -0.000048
1.027870 0.753359 0.587812 0.000000 0.908225 -0.000004
2.764098 0.562756 0.632754 0.000000 -0.999657 0.000000
0.613935 0.617716 0.720380 0.000000 -0.441972 0.000009
0.717419 0.591772 0.701514 -0.000001 -0.713259 0.000008
1.813598 0.150154 1.120264 -0.052805 -0.016580 -0.015455
1.574135 0.914776 0.871296 -0.023667 -0.023491 0.018039
1.663934 1.012613 0.297243 -0.023668 -0.027556 -0.019429
1.604068 0.947389 0.359485 -0.023668 -0.031555 -0.020494
1.484336 0.816940 0.483969 -0.023668 -0.018796 -0.015922
1.574135 0.411053 0.390606 -0.052804 -0.011105 0.010616
1.858497 0.101236 1.166946 -0.052804 -0.012792 -0.012145
1.708833 0.264297 1.011341 -0.052804 -0.011134 -0.010643
1.589101 0.394746 0.886857 -0.052805 -0.014923 -0.014029
1.544202 0.882164 0.421727 -0.023668 -0.018796 -0.015922
1.648967 0.996307 0.949099 -0.023668 -0.007270 0.007516
1.529236 0.459971 0.824615 -0.052798 -0.003332 -0.003248
1.798632 0.166460 0.157199 -0.052803 -0.004146 0.004038
2.082994 0.833246 0.468409 0.052836 -0.015449 -0.015540
2.082994 0.218640 0.206993 0.052836 0.008584 -0.008879
2.082994 1.126756 1.073583 0.052835 -0.015204 0.015313
2.082994 0.989785 0.942874 0.052836 -0.011526 0.011802
2.082994 0.277342 0.998892 0.052835 0.009565 0.009864
2.082994 0.931082 0.375046 0.052836 -0.012507 -0.012755
2.269675 0.607248 0.547640 0.000000 -0.555589 -0.000025
1.441805 0.648861 0.531744 -0.000000 -0.143018 -0.000059
2.476643 0.714004 0.717145 -0.000001 0.511226 0.000057
0.820903 0.565296 0.608358 -0.000000 -0.975176 -0.000004
2.047598 0.362506 0.350065 0.117416 -0.002814 0.002949
1.913648 0.439625 0.816353 0.117418 -0.006953 -0.007274
0.717419 0.729719 0.705635 -0.000000 0.659019 0.000005
0.305126 0.660619 0.731127 0.000000 -0.013080 0.000041
1.891438 0.787114 0.763481 0.052836 -0.006132 0.006383
1.842654 0.185386 1.088623 -0.023665 0.019049 0.016052
2.994062 0.711372 0.718654 0.000000 0.488603 0.000061
1.845640 1.049365 0.257401 -0.023671 -0.023050 -0.017866
3.451007 0.515061 0.497850 -0.051552 0.006591 -0.006768
3.451007 0.810767 0.497850 -0.051553 -0.006590 -0.006768
2.890578 0.616551 0.719777 0.000001 -0.465165 0.000032
1.728820 0.393583 0.877475 -0.052804 -0.007344 -0.007106
1.220054 0.763041 0.627919 0.000000 0.999657 -0.000000
3.451007 0.802785 0.772417 -0.051554 0.006507 -0.006848
3.045804 0.622496 0.722640 -0.000001 -0.393711 0.000020
1.441805 0.712159 0.718213 0.000000 0.488603 0.000004
1.545289 0.685427 0.728588 -0.000000 0.220705 0.000037
0.355226 0.619775 0.540507 0.000000 -0.442116 -0.000017
1.784720 1.067455 1.011662 -0.052807 0.005567 -0.005408
1.183096 0.756692 0.666247 0.000000 0.938213 0.000006
1.597031 0.607486 0.714422 0.000001 -0.549162 0.000006
2.166192 0.753427 0.673942 0.000000 0.908225 0.000004
0.355226 0.700424 0.723864 0.000000 0.370581 0.000170
3.304513 0.743885 0.571920 0.000000 0.801220 -0.000006
1.027870 0.717490 0.546912 0.000000 0.533391 -0.000003
1.338322 0.575012 0.582851 0.000000 -0.872506 -0.000010
2.034411 1.105414 0.205133 0.052837 -0.008584 -0.008879
1.935406 0.663406 0.731144 0.000000 0.026192 0.000162
2.166192 0.624266 0.723400 0.000000 -0.394841 0.000039
0.251742 0.606668 0.713875 0.000000 -0.555559 0.000051
2.994062 0.759506 0.604306 0.000000 0.962471 -0.000010
1.441805 0.749528 0.580567 0.000000 0.859304 -0.000010
0.924386 0.598970 0.553811 0.000001 -0.639086 -0.000020
3.462953 0.504158 0.789374 -0.051553 -0.006507 -0.006848
1.482630 0.750764 0.716687 -0.023668 -0.018796 0.015922
3.097546 0.573340 0.675856 -0.000000 -0.896554 0.000004
3.527627 0.571256 0.598879 0.188167 -0.000863 -0.000358
2.942320 0.570886 0.670579 -0.000000 -0.918757 0.000007
0.036604 0.624513 0.632964 -0.636872 -0.000022 0.000001
0.613935 0.568683 0.596887 0.000000 -0.938155 -0.000006
1.952514 0.305826 0.311517 0.117418 -0.002594 0.002717
0.665677 0.705384 0.540198 0.000000 0.418592 -0.000074
2.735353 0.610314 0.716238 -0.000000 -0.533585 0.000027
3.252771 0.690230 0.534549 0.000001 0.271413 -0.000241
0.872645 0.695782 0.536295 -0.000001 0.319482 -0.000013
2.269675 0.756805 0.595964 -0.000000 0.937906 -0.000003
2.424901 0.701337 0.538405 0.000000 0.392461 -0.000010
2.683611 0.579603 0.686618 -0.000000 -0.831481 0.000023
1.907482 0.719638 0.713556 0.000001 0.532252 0.000003
1.951820 0.863520 0.800946 0.117418 0.003477 -0.003642
3.566815 0.542519 0.516062 -0.051553 -0.009110 0.009516
3.566815 0.783310 0.516062 -0.051555 0.009109 0.009516
3.539061 0.371919 0.908640 -0.051553 -0.010411 -0.010825
3.389541 0.560643 0.520571 -0.051553 -0.009110 0.009516
3.389541 0.765186 0.520571 0.028164 0.015589 0.015605
2.580127 0.722011 0.711872 0.000000 0.594860 0.000006
1.493547 0.646673 0.729826 -0.000000 -0.169221 0.000099
2.002485 1.192030 0.139189 -0.052804 0.014213 0.013408
3.432636 0.661603 0.530763 0.000000 -0.013087 -0.000329
1.648773 0.617422 0.541667 0.000000 -0.465297 -0.000016
1.752257 0.711015 0.543049 0.000000 0.488603 -0.000015
1.647377 0.522633 0.751526 -0.052807 -0.005553 -0.005394
1.803998 0.707819 0.720526 -0.000001 0.442210 0.000069
1.441805 0.576804 0.682182 -0.000000 -0.859190 0.000010
1.907482 0.618010 0.720526 0.000001 -0.442057 0.000069
0.769161 0.567955 0.662926 -0.000000 -0.946736 0.000003
3.356255 0.715166 0.545449 0.000000 0.511714 -0.000004
2.890578 0.744834 0.573257 0.000000 0.816368 -0.000012
0.562193 0.713581 0.544506 0.000000 0.511311 -0.000057
0.458709 0.617606 0.541577 0.000000 -0.442549 -0.000004
2.269675 0.572195 0.588407 0.000000 -0.908087 -0.000004
0.562193 0.617642 0.541558 0.000000 -0.442260 -0.000009
1.856806 0.789571 0.721729 -0.052801 0.005331 -0.005181
1.648773 0.702617 0.722947 0.000001 0.391674 0.000010
0.717419 0.567078 0.601708 0.000003 -0.612161 -0.000001
3.407997 0.746909 0.576307 0.000000 0.831378 -0.000003
0.924386 0.572506 0.674165 0.000000 -0.896887 0.000002
2.735353 0.577825 0.578039 0.000000 -0.845869 -0.000001
2.217934 0.719058 0.547959 0.000000 0.555371 -0.000006
0.200000 0.713017 0.544170 -0.032213 0.000353 -0.000594
1.234838 0.712016 0.718293 0.000001 0.488407 0.000030
2.787094 0.609517 0.546168 0.000000 -0.533588 -0.000027
3.356255 0.609898 0.545927 0.000000 -0.533616 -0.000108
3.407997 0.577825 0.578039 0.000000 -0.845713 -0.000011
0.613935 0.757259 0.597194 0.000000 0.938067 -0.000006
3.313284 0.781108 0.527572 0.028165 -0.028230 -0.019159
2.082994 0.296910 0.281683 0.052836 0.010546 -0.010838
1.597031 0.571869 0.672788 -0.000000 -0.906622 0.000002
1.079612 0.615100 0.719014 0.000000 -0.488603 0.000015
1.597031 0.752470 0.675892 -0.000001 0.894214 0.000004
0.303484 0.711873 0.543530 0.000000 0.488603 -0.000061
2.890578 0.708407 0.720235 -0.000000 0.466016 0.000008
1.390063 0.611755 0.717103 0.000000 -0.511177 0.000014
2.424901 0.617716 0.541522 0.000000 -0.442409 -0.000017
2.631869 0.564275 0.648566 -0.000001 -0.985010 0.000006
2.838836 0.576406 0.580390 -0.000001 -0.855168 -0.000005
1.201986 0.664553 0.530788 0.000000 0.026182 -0.000021
0.251742 0.708625 0.720121 0.000002 0.463258 0.000032
0.093399 0.651138 0.556597 -0.414165 -0.000013 -0.000072
1.234838 0.610280 0.716216 0.000000 -0.533562 0.000054
3.201030 0.622609 0.722688 0.000001 -0.352598 0.000006
0.200000 0.612812 0.544170 -0.032210 -0.000353 -0.000594
0.976128 0.614814 0.718854 0.000000 -0.488603 0.000030
0.769161 0.748647 0.682816 0.000001 0.858016 0.000010
0.820903 0.714426 0.716894 -0.000002 0.373101 0.000005
0.820903 0.603752 0.711823 0.000000 -0.597487 0.000011
3.304513 0.572688 0.587370 0.000000 -0.896718 -0.000004
2.838836 0.671838 0.531152 -0.000000 0.091519 -0.000369
1.803998 0.713581 0.544506 0.000000 0.511311 -0.000057
1.855740 0.578875 0.576375 0.000000 -0.845869 -0.000003
1.959224 0.574127 0.584516 -0.000000 -0.885044 -0.000004
1.726796 0.662505 0.731147 0.000000 -0.026173 0.000010
1.830280 0.663078 0.731153 -0.000000 0.026182 0.000324
3.407997 0.619334 0.721178 0.000000 -0.442356 0.000034
0.303484 0.625938 0.537826 0.000001 -0.370404 -0.000085
3.281246 0.451598 0.429298 0.028164 -0.023602 0.020702
3.281246 0.874231 0.429298 0.028164 0.023602 0.020702
1.648773 0.575252 0.679481 0.000000 -0.872506 0.000005
0.093399 0.651138 0.705306 -0.414171 -0.000013 0.000072
2.010966 0.760786 0.609478 0.000000 0.975350 -0.000004
1.854418 0.923435 0.373562 -0.023668 -0.014538 -0.013399
3.201030 0.573231 0.586268 0.000001 -0.896656 -0.000017
2.082994 0.473016 0.812166 0.052836 0.014468 0.014625
1.896991 0.828861 0.502992 -0.052805 0.005331 0.005181
2.114450 0.576301 0.681336 0.000000 -0.859396 0.000010
3.304513 0.707378 0.720743 -0.000000 0.442213 0.000034
3.543774 0.703703 0.546252 0.188167 0.000438 -0.000792
3.543774 0.622125 0.546252 0.188164 -0.000346 -0.000836
1.079612 0.642764 0.532799 -0.000000 -0.194840 -0.000043
1.600656 0.510791 0.779926 -0.023668 0.005876 0.006167
2.452004 0.562839 0.625953 0.000000 -0.999658 -0.000000
3.349877 0.419528 0.398694 0.028165 -0.009446 0.010245
3.349877 0.906301 0.398694 0.028164 0.009446 0.010245
3.097546 0.694811 0.535966 0.000000 0.321459 -0.000025
3.323955 0.814363 0.781868 0.028164 0.028315 -0.022857
1.813187 0.557297 0.743776 -0.023668 0.002821 0.003029
0.613935 0.711301 0.718694 0.000000 0.488603 0.000015
2.082994 0.159938 1.110928 0.052838 0.013242 0.013462
2.082994 0.199073 1.073583 0.052836 0.015204 0.015313
1.629735 0.822251 0.772368 -0.052807 0.002776 -0.002708
1.881679 0.413214 0.845811 -0.052803 -0.003495 -0.003406
1.924752 0.420094 0.387661 0.052837 0.014468 -0.014625
1.803998 0.624567 0.538373 0.000000 -0.394841 -0.000020
1.803998 0.574565 0.583681 -0.000000 -0.884979 -0.000018
1.830813 0.827827 0.799172 -0.023668 -0.030431 0.020221
3.235114 0.508842 0.487031 0.028166 0.012575 -0.011028
3.235114 0.508842 0.774872 0.028167 0.012574 0.011027
3.235114 0.816987 0.774872 0.028164 -0.012575 0.011028
3.149288 0.755872 0.593556 -0.000000 0.928066 -0.000003
2.415867 0.661030 0.731108 0.000000 -0.026173 0.000162
3.576066 0.633912 0.713836 0.188439 -0.000072 0.000198
2.039963 1.144752 1.093902 0.052837 -0.015203 0.015312
1.991380 0.172027 1.084419 0.117417 -0.007726 -0.008079
1.286580 0.565709 0.606645 -0.000001 -0.956212 -0.000001
1.868221 0.875088 0.453490 -0.052806 0.003731 0.003636
1.813187 0.768532 0.518127 -0.023668 -0.002821 -0.003029
1.648773 0.616406 0.719701 -0.000001 -0.458370 0.000008
0.769161 0.599727 0.553182 0.000000 -0.639433 -0.000010
1.360497 0.661685 0.731125 0.000000 -0.026173 0.000041
1.708833 1.061532 0.250562 -0.023668 -0.006267 -0.006552
0.418466 0.763004 0.635376 0.000000 0.999657 0.000000
1.958413 0.560684 0.708147 0.117417 -0.002069 -0.002168
2.042045 0.861101 0.438833 0.052837 -0.007235 -0.007512
1.989992 0.821270 0.766866 0.117419 0.003697 -0.003873
1.597031 0.574775 0.583282 -0.000000 -0.884776 -0.000002
2.269675 0.736714 0.698725 -0.000000 0.734143 0.000008
1.985828 0.202622 0.184601 0.052836 0.008584 -0.008879
3.459739 0.620929 0.539975 -0.000000 -0.418664 -0.000147
2.528385 0.571955 0.588928 0.000001 -0.906503 -0.000004
1.921108 1.255247 0.068314 -0.052804 0.005449 0.005295
2.010966 0.615390 0.719167 -0.000002 -0.463785 0.000032
1.935857 0.380554 0.350741 0.052837 0.013488 -0.013696
1.497597 0.555683 0.532877 -0.052802 -0.004443 0.004324
3.252771 0.748267 0.578455 0.000000 0.845662 -0.000003
0.480885 0.664800 0.530770 0.000000 0.012354 -0.000044
2.039963 1.149836 0.173328 0.117418 0.007725 0.008078
1.803998 0.569744 0.667814 0.000001 -0.927521 0.000007
1.907482 0.730176 0.556679 -0.000000 0.678695 -0.000018
1.907482 0.755218 0.669939 0.000001 0.918442 0.000015
2.217934 0.709894 0.719453 -0.000001 0.458306 0.000008
2.035799 1.301138 0.018460 0.052838 -0.009319 -0.009618
1.855740 0.756465 0.666862 0.000000 0.938181 0.000025
2.631869 0.708333 0.541631 -0.000001 0.439231 -0.000009
3.393601 0.877773 0.430180 0.028163 -0.020698 -0.016021
3.393601 0.452313 0.425718 0.028165 -0.018886 0.017948
2.042045 0.450106 0.827336 0.117417 -0.003256 -0.003411
3.252771 0.627273 0.724601 -0.000000 -0.344657 0.000012
0.976128 0.712517 0.718013 0.000000 0.488603 0.000015
1.769117 0.391323 0.385163 -0.052804 -0.003495 0.003406
0.036604 0.699486 0.642834 -0.636753 0.000020 0.000006
1.873351 0.459803 0.426037 -0.023668 0.007772 -0.007986
1.792307 0.304556 0.976806 -0.023667 0.006393 0.006675
0.538376 0.666684 0.530844 0.000000 0.026182 -0.000021
1.855740 0.622157 0.722494 -0.000001 -0.418621 0.000147
3.459739 0.706091 0.540525 0.000000 0.441464 -0.000009
1.597031 0.702881 0.539069 -0.000001 0.391674 -0.000010
0.665677 0.750757 0.679159 0.000000 0.872506 0.000002
1.497597 0.770146 0.532877 -0.052805 0.008884 0.008558
1.572429 0.474153 0.806828 -0.052805 -0.004442 -0.004324
3.252771 0.707414 0.720725 0.000000 0.441952 0.000017
1.903237 0.767977 0.517546 0.052836 -0.006132 -0.006383
1.584836 0.765644 0.528160 -0.023668 -0.009401 -0.009449
3.149288 0.615898 0.719434 -0.000001 -0.465592 0.000064
1.525823 0.733507 0.702123 -0.000000 -0.723450 -0.000062
2.166192 0.722471 0.711529 0.000001 0.549172 0.000003
2.114450 0.574146 0.584479 0.000000 -0.884875 -0.000009
0.510451 0.586245 0.566440 0.000000 -0.768845 -0.000014
2.580127 0.581042 0.688713 -0.000000 -0.816489 0.000006
2.787094 0.709205 0.719816 -0.000000 0.465351 0.000032
0.769161 0.693723 0.535601 0.000000 0.296742 -0.000014
0.355226 0.750016 0.581421 0.000001 0.872463 -0.000038
1.377744 0.562775 0.628411 0.000000 -0.999657 -0.000000
1.980276 1.103437 0.203061 0.052837 -0.009565 -0.009863
2.056967 0.766884 0.535989 0.117419 0.004139 0.004335
3.506307 0.444340 0.836334 -0.051553 0.015814 0.015654
2.006649 0.917747 0.400249 0.117418 0.003256 0.003411
1.801086 0.895343 0.860645 -0.023668 -0.007772 0.007986
2.062708 0.709278 0.719777 -0.000001 0.464848 0.000016
0.382329 0.658490 0.530861 0.000000 -0.026173 -0.000021
3.459739 0.628311 0.724984 0.000001 -0.346078 0.000184
2.528385 0.570951 0.670730 0.000000 -0.918806 0.000002
1.131354 0.698825 0.724502 -0.000000 0.370529 0.000085
1.753530 0.809229 0.482419 -0.023668 -0.030431 -0.020221
1.752257 0.622232 0.722526 0.000000 -0.394973 0.000010
1.727432 0.927468 0.389214 -0.052806 0.003731 0.003636
3.392078 0.485487 0.469095 0.028163 0.012939 -0.011292
3.392078 0.840342 0.469095 0.028163 -0.025866 -0.018303
0.976128 0.757032 0.596579 0.000000 0.937954 -0.000006
1.594452 0.856516 0.818080 -0.023664 -0.005877 0.006168
0.085796 0.591499 0.634694 -0.451251 -0.000031 0.000001
1.885886 0.558485 0.745021 0.052836 0.006132 0.006383
1.700515 0.618414 0.720725 0.000001 -0.438824 0.000009
0.665677 0.617826 0.541468 -0.000001 -0.434989 -0.000009
1.880334 0.578255 0.535342 0.052837 0.012262 -0.012518
0.278845 0.667831 0.530874 0.000000 0.026173 -0.000021
2.373159 0.729842 0.705527 0.000000 0.659431 0.000010
1.716122 0.545780 0.510607 -0.023668 0.030431 -0.020221
3.404024 0.467665 0.810880 0.028164 0.012939 0.011292
1.856969 0.314716 0.292406 -0.023668 0.012534 -0.011980
0.820903 0.727615 0.554440 0.000001 0.628007 -0.000005
3.201030 0.707451 0.720707 0.000000 0.442294 0.000034
3.405547 0.433427 0.853141 0.028163 -0.018887 -0.017948
3.291162 0.486877 0.802135 0.028165 -0.014167 -0.014479
1.885421 0.409138 0.412202 -0.052804 -0.003495 0.003406
1.450018 0.763026 0.627346 0.000000 0.999657 -0.000000
2.321417 0.756434 0.666938 -0.000001 0.918297 0.000002
1.648773 0.702919 0.539085 -0.000001 0.393943 -0.000020
1.338322 0.575052 0.679123 0.000000 -0.872506 0.000001
1.726785 0.986760 0.319123 -0.023666 -0.006895 -0.007159
1.753530 0.502208 0.497500 -0.052803 -0.014391 0.013564
1.932387 0.576354 0.537334 0.052836 0.006132 -0.006383
1.286580 0.565992 0.656370 -0.000001 -0.962845 0.000002
0.288700 0.562837 0.635868 0.000000 -0.999657 0.000000
3.201030 0.750857 0.678980 0.000000 0.872506 0.000005
1.844570 0.215213 0.210584 -0.052804 -0.004975 0.004839
0.976128 0.629465 0.536493 0.000000 -0.346059 -0.000023
1.939029 1.132247 1.084152 -0.023667 -0.019048 0.016052
1.946334 0.036566 0.035399 -0.052805 -0.009002 0.008669
3.201030 0.574972 0.678980 0.000000 -0.872506 0.000001
1.951820 0.472092 0.470293 0.117417 -0.003697 0.003873
2.001791 0.250957 1.030010 0.052839 0.004783 0.004991
0.251742 0.588042 0.564363 0.000001 -0.751304 -0.000030
1.871963 0.464746 0.831251 -0.023672 0.007770 0.007984
1.514269 0.476277 0.452848 -0.052805 -0.013325 0.012622
2.735353 0.753599 0.673570 -0.000001 0.826274 0.000001
1.868221 0.857007 0.827361 -0.023668 -0.015791 0.014208
3.291552 0.563154 0.735470 0.028164 -0.025761 -0.021756
3.291552 0.762675 0.735470 0.028161 0.012889 -0.013408
1.989271 0.023930 1.242646 -0.023668 0.036051 0.021423
0.665677 0.573467 0.676113 0.000000 -0.896582 0.000008
1.995545 0.465878 0.804686 0.117418 -0.006953 -0.007274
3.459739 0.566859 0.659490 0.000001 -0.847821 0.000001
1.655167 0.951619 0.359021 -0.052803 0.007463 0.007218
2.039269 0.498798 0.481485 0.117417 -0.003697 0.003873
1.286580 0.703895 0.539512 0.000000 0.418782 -0.000037
2.683611 0.630086 0.536282 -0.000000 -0.321458 -0.000100
1.809643 0.472830 0.440137 -0.023668 0.030432 -0.020221
1.830813 0.845355 0.481099 -0.052805 0.014390 0.013564
2.994062 0.569194 0.666400 0.000000 -0.934048 0.000002
1.855740 0.571921 0.672900 -0.000000 -0.908127 0.000031
3.304513 0.602176 0.551256 0.000000 -0.598022 -0.000006
1.338322 0.747917 0.684002 -0.000000 0.843449 0.000003
1.994824 0.001700 0.003375 0.000000 -0.723459 -0.000316
1.948296 1.322430 0.001594 -0.023668 -0.036052 -0.021422
1.994824 1.324129 1.258528 -0.052804 0.017054 -0.015855
1.390063 0.618084 0.541341 -0.000000 -0.442264 -0.000017
3.318619 0.532793 0.498879 0.028164 -0.025761 0.021756
1.955290 0.769879 0.742364 0.052836 -0.016429 0.016442
1.959224 0.613884 0.543570 0.000000 -0.488603 -0.000015
1.631771 0.752464 0.538834 -0.023668 -0.023491 -0.018039
2.114450 0.707598 0.541268 0.000002 0.434846 -0.000018
1.631442 0.445091 0.841670 -0.023668 0.030431 0.020221
0.251742 0.742210 0.569692 -0.000001 0.784169 -0.000013
2.476643 0.618451 0.720743 0.000000 -0.442210 0.000034
0.036604 0.654919 0.668565 -0.636752 -0.000006 0.000023
2.045516 0.137311 1.126395 0.117416 -0.006843 -0.007159
2.045516 0.137311 0.135508 0.117416 -0.006843 0.007159
1.901655 0.362054 0.896673 -0.052803 -0.006397 -0.006203
1.954596 0.857907 0.435485 0.052837 -0.007726 -0.008011
1.924752 0.905735 0.874241 0.052837 -0.014468 0.014625
1.644702 0.494960 0.465918 -0.023671 0.007050 -0.007307
1.708212 0.755352 0.533699 -0.023667 -0.007051 -0.007308
2.082994 1.224593 1.166946 0.052834 -0.011282 0.011563
3.291162 0.842145 0.798789 0.028165 -0.015525 0.013059
3.323955 0.505080 0.775176 0.028164 0.031030 0.020042
2.030941 0.572754 0.541107 0.052838 0.006132 -0.006383
1.920666 0.305414 0.953219 -0.052803 -0.005923 -0.005750
2.001097 0.446764 0.438069 0.117418 -0.006953 0.007274
2.082994 0.852813 0.812166 0.052836 -0.007235 0.007512
2.039269 0.827031 0.481485 0.117417 0.003697 0.003873
1.946268 0.491206 0.772462 0.117417 -0.007394 -0.007734
3.166861 0.820780 0.480304 0.028165 0.009180 0.009985
1.493547 0.571064 0.670993 0.000001 -0.911741 0.000002
1.734826 0.794639 0.765389 -0.023668 -0.030431 0.020221
1.752257 0.568008 0.663081 -0.000000 -0.946100 0.000001
2.942320 0.727993 0.554754 0.000000 0.659431 -0.000005
1.919200 0.885965 0.406121 0.052837 -0.007235 -0.007512
1.390063 0.707010 0.540978 0.000001 0.442060 -0.000034
3.097546 0.653093 0.730668 -0.000001 -0.091330 0.000185
1.916502 0.333895 0.308221 -0.023668 0.012534 -0.011980
1.519193 0.562774 0.720132 -0.052800 -0.004443 -0.004324
1.131354 0.619924 0.540438 0.000000 -0.418782 -0.000018
3.052476 0.767330 0.730592 0.028163 0.018356 -0.017595
3.132168 0.556947 0.532936 0.028163 0.015090 -0.012775
1.701559 0.957254 0.356764 -0.052804 0.006989 0.006768
1.968477 0.926899 0.891240 0.052837 -0.006745 0.007011
1.079612 0.570321 0.592642 0.000001 -0.900595 -0.000002
1.788473 0.434742 0.830825 -0.052805 -0.007463 -0.007218
3.428424 0.906285 0.859997 0.028162 -0.015527 0.013059
1.902543 0.826654 0.800401 0.052836 -0.016429 0.016442
1.545289 0.741094 0.568276 -0.000000 0.785438 -0.000013
1.079612 0.744361 0.689315 -0.000001 0.816484 0.000024
1.838606 0.900798 0.424930 -0.052806 0.003672 0.003579
0.303484 0.746863 0.685664 0.000001 0.811181 0.000003
3.109291 0.758192 0.718765 0.028166 -0.020115 0.015724
1.949288 0.175544 1.101163 -0.023670 0.034052 0.021041
3.045804 0.758097 0.662266 -0.000000 0.946924 0.000012
1.912749 0.148465 1.125023 -0.023668 0.017043 0.014960
1.867880 0.148172 0.143716 -0.052804 -0.008292 0.008002
1.493547 0.678832 0.532021 0.000000 0.169405 -0.000099
3.401487 0.795779 0.746020 0.028164 -0.031030 0.020042
3.174235 0.527463 0.499623 0.028165 -0.009180 0.009985
3.576066 0.580876 0.599636 0.188439 -0.000198 -0.000072
3.413433 0.522871 0.775246 -0.051553 -0.009110 -0.009516
3.097546 0.756805 0.595964 -0.000001 0.933798 -0.000003
1.716525 0.357107 0.336133 -0.023668 0.007270 -0.007516
1.851192 0.256694 0.238941 -0.023668 0.023053 -0.017866
2.114450 0.758520 0.660938 0.000002 0.864702 0.000001
3.440370 0.401722 0.878069 0.028164 0.031030 0.020042
3.497055 0.390667 0.367956 -0.051553 -0.010411 0.010825
3.509390 0.466489 0.440311 -0.051552 -0.010411 0.010825
3.497055 0.935162 0.367956 0.028165 0.018886 0.017948
3.509390 0.859340 0.440311 -0.051552 0.005206 0.005494
3.097546 0.754045 0.672602 -0.000000 0.907720 0.000004
2.194937 0.562736 0.632017 0.000000 -0.999657 0.000000
3.149288 0.709894 0.542450 0.000000 0.465620 -0.000064
1.793405 0.527182 0.770984 -0.023668 0.030431 0.020221
3.349877 0.906301 0.863208 0.028165 0.009446 -0.010245
1.968477 0.408713 0.881904 0.052837 0.006745 0.007011
1.543349 0.850614 0.807941 -0.052802 0.004442 -0.004324
1.579912 0.856754 0.444072 -0.023669 -0.011750 -0.011383
3.132168 0.556947 0.728966 0.028163 0.015090 0.012775
3.063537 0.736811 0.563540 0.000000 0.723443 -0.000076
2.528385 0.755842 0.668423 0.000001 0.926632 0.000003
2.166192 0.691609 0.534945 -0.000000 0.296502 -0.000014
1.867911 0.518470 0.781443 -0.023672 0.005640 0.005933
1.286580 0.627004 0.537401 0.000000 -0.370607 -0.000085
1.751064 0.848991 0.445731 -0.023668 -0.030431 -0.020221
2.580127 0.621487 0.539718 -0.000000 -0.418612 -0.000018
1.682746 0.984933 0.327004 -0.052805 0.006989 0.006768
3.208173 0.780606 0.523819 0.028164 -0.010061 -0.009099
1.751064 0.476838 0.816171 -0.023668 0.030431 0.020221
1.841580 0.984056 0.317922 -0.023668 -0.006769 -0.007038
3.407997 0.574317 0.677750 -0.000001 -0.884793 0.000018
1.929657 0.763099 0.631771 0.000000 0.999657 0.000000
0.174607 0.745565 0.684625 -0.097851 0.000370 0.000254
0.232852 0.666766 0.530830 0.000064 0.022013 -0.001956
1.752257 0.755234 0.669901 0.000000 0.918797 0.000015
1.648773 0.757089 0.596733 -0.000000 0.938148 -0.000003
0.872645 0.624153 0.723352 -0.000001 -0.391674 0.000010
1.694076 0.381567 0.902429 -0.023666 0.007772 0.007986
1.748598 0.426743 0.419871 -0.052804 -0.003732 0.003636
1.835830 0.434588 0.434504 -0.052805 -0.007463 0.007218
1.286580 0.698210 0.724729 -0.000000 0.346118 0.000046
1.777166 0.581534 0.720202 -0.023668 0.005641 0.005934
1.824803 0.963331 0.902035 -0.052805 0.006515 -0.006316
1.700515 0.633398 0.535200 -0.000001 -0.295331 -0.000055
1.788473 0.891087 0.431078 -0.052805 0.007463 0.007218
1.855740 0.755979 0.593822 -0.000000 0.928814 -0.000027
1.784084 0.375017 0.892300 -0.052806 -0.003495 -0.003406
1.907482 0.563373 0.642403 0.000000 -0.993060 0.000002
1.286580 0.624720 0.723590 0.000001 -0.367538 0.000021
1.672502 0.780762 0.750548 -0.023671 -0.014098 0.013101
1.954841 0.148147 0.150272 -0.052804 -0.007344 0.007106
3.149288 0.568584 0.597156 0.000000 -0.938169 -0.000002
2.006649 0.417102 0.390796 0.052837 0.006745 -0.007011
1.671316 0.870156 0.428733 -0.023668 -0.030431 -0.020221
3.500528 0.825755 0.782084 -0.051551 -0.006591 0.006768
2.787094 0.620594 0.721773 -0.000001 -0.417581 0.000037
1.752257 0.570822 0.591474 0.000001 -0.918693 -0.000015
1.851254 0.577780 0.726063 -0.023668 0.022552 0.017664
3.576066 0.702473 0.650002 1.000000 0.000000 0.000000
3.576066 0.662914 0.674858 1.000000 0.000000 0.000000
3.576066 0.691242 0.597405 1.000000 0.000000 0.000000
3.576066 0.623356 0.650002 1.000000 0.000000 0.000000
3.576066 0.644981 0.590874 1.000000 -0.000000 0.000000
1.441805 0.572333 0.588109 -0.000000 -0.908121 -0.000016
1.643942 0.386439 0.891211 -0.052804 -0.007463 -0.007218
1.952065 1.168125 0.159845 -0.052803 0.016107 0.015051
2.735353 0.757046 0.596617 -0.000000 0.937863 -0.000006
1.888818 1.020828 0.956051 -0.052804 0.005923 -0.005750
3.407997 0.751931 0.676952 -0.000000 0.884875 0.000009
3.149288 0.756358 0.667128 -0.000001 0.926632 0.000003
1.993463 1.045216 0.259583 0.052835 -0.005273 -0.005499
1.713656 0.831620 0.775609 -0.052804 0.014391 -0.013564
2.217934 0.569911 0.593670 -0.000001 -0.928328 -0.000007
3.257614 0.540222 0.507656 0.028163 -0.011475 0.012158
3.506307 0.881488 0.836334 -0.051553 -0.015814 0.015654
1.700515 0.570514 0.669713 0.000000 -0.918704 0.000015
1.131354 0.755363 0.592303 0.000000 0.918750 -0.000007
1.895138 0.950141 0.883209 -0.052805 0.003258 -0.003176
3.304513 0.617716 0.720380 0.000000 -0.441952 0.000017
1.527956 0.818533 0.485639 -0.052804 0.013325 0.012622
1.895138 0.934355 0.362152 -0.023667 -0.014538 -0.013399
2.631869 0.703371 0.722623 -0.000001 0.393856 0.000040
1.027870 0.568035 0.663159 0.000000 -0.946998 0.000001
1.876899 0.538477 0.498671 -0.023666 0.011281 -0.011014
3.063537 0.589017 0.698363 -0.000001 -0.723368 0.000076
2.424901 0.755553 0.669146 0.000001 0.921551 0.000003
1.944806 1.074225 0.231216 -0.023668 -0.010529 -0.010404
2.838836 0.573014 0.675194 0.000001 -0.895888 0.000008
2.042045 0.885507 0.836673 0.117418 0.003256 -0.003411
1.960149 0.433637 0.829667 0.117418 -0.003477 -0.003642
1.971253 0.949987 0.375268 0.117417 0.006070 0.006353
1.914889 1.075362 1.009907 -0.052805 0.005094 -0.004953
0.593403 0.763015 0.634967 0.000000 0.999657 0.000000
3.386643 0.658162 0.731033 0.000000 -0.026173 0.000021
3.440370 0.924107 0.383833 0.028165 -0.031029 -0.020042
3.440370 0.403850 0.381603 0.028164 -0.028315 0.022857
1.903365 0.096445 1.168455 -0.052804 -0.012792 -0.012145
2.062708 0.564220 0.613660 -0.000001 -0.982074 -0.000001
1.700515 0.753462 0.673868 0.000001 0.906503 0.000004
0.141238 0.658075 0.538611 -0.235600 -0.000002 -0.000085
2.001791 1.084466 1.019955 0.117423 0.002373 -0.002486
1.932387 0.767270 0.555982 0.117417 0.004139 0.004335
1.843531 1.208287 1.151385 -0.023668 -0.031056 0.020375
1.987910 0.310166 0.287380 0.052837 0.005764 -0.006004
1.454946 0.665619 0.731086 -0.000000 0.026192 0.000162
3.304513 0.572470 0.674091 -0.000000 -0.907720 0.000004
0.049862 0.702592 0.602124 -0.584662 0.000025 -0.000017
1.234838 0.753771 0.588705 0.000000 0.908048 -0.000008
1.390063 0.698825 0.724502 -0.000000 0.370607 0.000043
1.821246 0.562756 0.629149 -0.000000 -0.999655 -0.000000
1.671316 0.870156 0.833170 -0.023668 -0.030431 0.020221
1.631442 0.885351 0.425067 -0.052805 0.014390 0.013564
2.994062 0.619334 0.721178 0.000001 -0.438824 0.000009
1.695359 1.001941 0.951356 -0.052801 0.006516 -0.006317
1.695359 0.323887 0.310546 -0.052805 -0.006515 0.006316
2.787094 0.715480 0.545643 0.000000 0.533588 -0.000027
2.890578 0.563848 0.615925 -0.000001 -0.989102 -0.000002
2.282816 0.562777 0.628329 0.000000 -0.999657 -0.000000
2.217934 0.569607 0.667471 0.000000 -0.928727 0.000003
1.815497 0.665864 0.530823 0.000000 0.026173 -0.000162
1.871711 1.105211 0.204920 -0.023668 -0.005265 -0.005558
2.002485 1.192030 1.122714 -0.052804 0.014213 -0.013408
1.653581 0.752108 0.723442 -0.023673 -0.005875 0.006166
0.406968 0.756343 0.594736 0.000000 0.928777 -0.000002
2.890578 0.609586 0.546124 -0.000000 -0.533632 -0.000027
0.166194 0.731816 0.562050 -0.130537 0.000238 -0.000226
1.648773 0.571048 0.590947 -0.000001 -0.918641 -0.000015
2.050374 0.992447 0.321818 0.117417 0.002594 0.002717
2.050374 1.012015 0.958757 0.117415 0.002594 -0.002717
1.851254 0.748049 0.535840 -0.023669 -0.022551 -0.017664
1.769117 0.934506 0.385163 -0.052804 0.013976 0.013199
1.673782 0.839619 0.475088 -0.052805 0.014390 0.013564
1.673782 0.486210 0.786815 -0.052804 -0.014391 -0.013564
3.459739 0.581089 0.573123 -0.000001 -0.816577 -0.000048
2.035799 1.306715 1.237599 -0.052806 0.017054 -0.015855
1.628976 0.402746 0.386252 -0.052804 -0.007463 0.007218
1.985134 0.308489 0.953176 0.117417 -0.002594 -0.002717
0.930136 0.658817 0.731050 0.000000 -0.026173 0.000162
2.035799 0.024690 0.018460 0.052836 0.009320 -0.009618
2.631869 0.620147 0.721567 0.000001 -0.417988 0.000037
1.989992 0.821270 0.495037 0.117418 0.007394 0.007734
1.907482 0.754959 0.591361 0.000000 0.917650 -0.000004
1.896991 0.496968 0.502992 0.117418 -0.003697 0.003873
2.394513 0.763099 0.630132 -0.000000 0.993607 -0.000000
3.542055 0.775816 0.736825 -0.051552 -0.009226 0.009403
2.166192 0.755137 0.591776 0.000001 0.916122 -0.000004
1.713656 0.494209 0.486294 -0.052804 -0.014390 0.013564
1.716122 0.531942 0.736794 -0.052804 -0.014390 -0.013564
1.671316 0.448477 0.825629 -0.052804 -0.014391 -0.013564
2.942320 0.595502 0.556818 0.000000 -0.678659 -0.000018
1.676333 0.918071 0.877638 -0.023667 -0.015791 0.014208
0.093399 0.728110 0.668592 -0.414166 0.000065 0.000035
2.051068 0.079063 1.182887 0.117420 -0.005077 -0.005315
2.051068 0.098630 0.097688 0.117417 -0.005960 0.006238
3.335901 0.838571 0.468655 0.028164 -0.015526 -0.013059
3.335901 0.487258 0.468655 0.028164 0.031031 -0.020042
1.660297 0.960474 0.911558 -0.052804 0.003495 -0.003406
1.810380 0.394543 0.391583 -0.052804 -0.003495 0.003406
3.074549 0.562728 0.629476 -0.000000 -0.999904 -0.000000
1.870230 0.974446 0.909976 -0.052803 0.006397 -0.006203
1.873006 0.341825 0.919549 -0.052805 -0.006397 -0.006203
1.867454 0.374470 0.347322 -0.023664 0.006770 -0.007039
1.855740 0.610557 0.545512 0.000000 -0.533596 -0.000108
1.686402 0.556666 0.548171 -0.052808 -0.002776 0.002708
0.166194 0.578527 0.679672 -0.130535 -0.000289 0.000157
0.166194 0.594013 0.562050 -0.130537 -0.000238 -0.000226
2.185082 0.763082 0.632426 0.000000 0.999657 0.000000
1.870230 0.961244 0.338092 -0.023668 -0.013536 -0.012709
1.708724 0.426493 0.861358 -0.023670 0.007896 0.008101
3.459739 0.743958 0.572019 0.000001 0.734451 -0.000002
1.843531 1.208287 0.110517 -0.023669 -0.031055 -0.020375
3.398051 0.842335 0.809093 0.028166 0.011806 -0.012456
3.511481 0.563017 0.638813 0.194164 -0.000218 0.000014
1.027870 0.625176 0.723773 0.000000 -0.370639 0.000011
2.994062 0.740317 0.567322 -0.000000 0.768799 -0.000028
1.648967 0.329522 0.312804 -0.052802 -0.003258 0.003176
2.012202 0.377765 0.908239 0.052836 0.012507 0.012755
0.819260 0.763037 0.634147 0.000000 0.999657 0.000000
0.872645 0.702693 0.722915 0.000001 0.390381 0.000020
1.671316 0.448477 0.436273 -0.052804 -0.014391 0.013564
1.935857 0.380554 0.911161 0.052837 0.013487 0.013696
1.578141 0.763020 0.634803 -0.000000 0.999658 0.000000
1.746563 0.950852 0.910215 -0.023667 -0.007396 0.007635
1.844159 0.919912 0.856120 -0.052803 0.003495 -0.003406
1.891438 0.516082 0.739763 0.117416 -0.004139 -0.004335
1.851642 0.412279 0.879111 -0.023669 0.007270 0.007516
1.870687 0.817244 0.471230 -0.023668 -0.005641 -0.005934
2.006649 0.908726 0.871106 0.052837 -0.006745 0.007011
2.036493 0.811980 0.776601 0.052837 -0.016429 0.016442
2.410939 0.562711 0.630869 -0.000000 -0.999657 -0.000000
2.026571 0.660784 0.530801 -0.000000 -0.026182 -0.000162
3.357898 0.762992 0.626035 0.000000 0.999658 -0.000000
1.691300 0.386286 0.374118 -0.052804 -0.003732 0.003636
2.476643 0.624115 0.538567 -0.000000 -0.394722 -0.000039
2.039269 0.474613 0.448063 0.052837 0.007726 -0.008011
1.545289 0.568219 0.598201 -0.000000 -0.946939 -0.000006
2.082994 0.433881 0.412391 0.052837 0.006745 -0.007011
3.149288 0.626928 0.537431 0.000001 -0.369017 -0.000021
2.042045 0.895290 0.415894 0.117416 0.003256 0.003411
3.470416 0.667995 0.731024 0.000000 0.026182 0.000021
3.201030 0.707010 0.540978 -0.000000 0.442209 -0.000034
3.045804 0.636979 0.534160 0.000000 -0.271382 -0.000060
1.556609 0.799207 0.763867 -0.023674 -0.009399 0.009447
3.150980 0.753881 0.549322 0.028166 -0.015089 -0.012774
1.027870 0.755979 0.668080 0.000001 0.928619 0.000014
1.822174 0.556435 0.703694 -0.052804 -0.002665 -0.002600
1.833279 0.807622 0.519913 -0.052805 0.014390 0.013564
0.379043 0.562835 0.635786 0.000000 -0.999657 0.000000
1.804602 0.977212 0.936461 -0.023668 -0.006769 0.007038
3.543774 0.742514 0.680967 0.188166 0.000738 0.000523
1.909137 0.546878 0.713268 0.117420 -0.002069 -0.002168
2.166192 0.589894 0.562335 -0.000000 -0.734224 -0.000016
1.752257 0.694268 0.726121 0.000002 0.315265 0.000025
1.927715 1.198754 1.135256 -0.052804 0.014686 -0.013823
1.809643 0.868221 0.805815 -0.052804 0.014390 -0.013564
3.252771 0.571869 0.672788 -0.000000 -0.908137 0.000031
2.047598 0.352722 0.921174 0.117418 -0.002814 -0.002948
1.748598 0.899086 0.842031 -0.052804 0.003732 -0.003636
1.795871 0.547940 0.547521 -0.052804 -0.014391 0.013564
1.941409 0.965045 0.332281 0.052836 -0.006254 -0.006509
1.979582 0.337387 0.924693 0.117417 -0.005629 -0.005892
1.974029 0.366285 0.365694 0.117417 -0.006070 0.006353
1.803998 0.631406 0.726068 0.000001 -0.321291 0.000100
0.303484 0.571921 0.672900 0.000000 -0.908122 0.000016
1.737905 0.274267 0.262968 -0.052804 -0.003021 0.002946
0.108957 0.596530 0.582720 -0.353427 -0.000082 -0.000057
1.043475 0.763054 0.628411 0.000000 0.999657 -0.000000
2.838836 0.743566 0.690409 -0.000001 0.793949 0.000006
0.748628 0.562786 0.628001 -0.000000 -0.999657 -0.000000
1.845958 1.110597 1.061132 -0.023669 -0.010528 0.010404
2.044822 0.401414 0.387647 0.117417 -0.003035 0.003180
2.044822 0.924415 0.387647 0.117416 0.006070 0.006353
0.924386 0.746954 0.685527 -0.000000 0.845662 0.000005
1.759494 1.029257 0.278772 -0.023668 -0.012784 -0.012166
1.893106 1.209131 0.108138 -0.023668 -0.015039 -0.013729
1.632717 0.927160 0.382362 -0.052804 0.007463 0.007218
1.794979 1.081639 0.229191 -0.023667 -0.005766 -0.006059
2.580127 0.566791 0.602649 -0.000001 -0.959050 -0.000002
1.599260 0.421954 0.858234 -0.052801 -0.002777 -0.002709
1.027870 0.698210 0.724729 -0.000000 0.346117 0.000092
1.908095 0.867089 0.797206 -0.052806 0.003731 -0.003636
2.217934 0.629388 0.536521 -0.000000 -0.344426 -0.000012
1.700515 0.715688 0.545774 0.000000 0.533719 -0.000027
1.583069 0.665782 0.530820 0.000000 0.026173 -0.000162
0.613935 0.563227 0.641099 0.000000 -0.995797 0.000000
1.814121 0.923267 0.886885 -0.023668 -0.014789 0.013565
1.730022 0.754996 0.728577 -0.023665 -0.007052 0.007309
1.651425 0.380869 0.360205 -0.023667 0.007897 -0.008102
1.860397 1.166634 1.113414 -0.023666 -0.017546 0.015246
2.053150 0.294474 0.977667 0.117418 -0.002373 -0.002486
1.946962 1.000888 0.931239 -0.052805 0.011845 -0.011290
2.528385 0.699396 0.537629 0.000001 0.368341 -0.000021
1.976806 0.956555 0.918930 0.052837 -0.006254 0.006509
1.770614 1.093731 1.039629 -0.052804 0.002547 -0.002485
1.823415 0.367276 0.897248 -0.052801 -0.003436 -0.003349
2.926715 0.562794 0.634229 0.000000 -0.999657 0.000000
0.717419 0.694656 0.725989 -0.000000 0.321369 0.000100
1.903365 1.227170 1.170775 -0.023671 -0.013534 0.012708
1.885623 0.124850 1.145985 -0.023669 0.031055 0.020375
1.719197 1.029088 0.981675 -0.023667 -0.012785 0.012166
3.346076 0.578709 0.723912 0.028164 -0.015589 -0.015605
3.253549 0.559706 0.721156 0.028164 0.025139 0.018019
3.253549 0.766123 0.721156 0.028161 -0.012577 0.011029
0.717419 0.625405 0.723864 0.000001 -0.360863 0.000011
1.716122 0.793887 0.525109 -0.052804 0.014391 0.013564
1.493547 0.572996 0.586745 0.000001 -0.884728 -0.000004
1.739080 0.383130 0.359468 -0.023668 0.007396 -0.007634
1.908095 0.479405 0.818861 0.052836 0.007726 0.008011
0.962166 0.763045 0.633819 0.000000 0.999657 0.000000
1.286580 0.756692 0.666247 0.000000 0.938213 0.000006
1.741751 1.003066 0.958340 -0.023669 -0.006769 0.007038
1.845958 0.210434 1.056105 -0.052802 -0.004620 -0.004496
1.963966 0.522002 0.515936 0.117418 -0.007394 0.007734
2.010966 0.691609 0.726958 0.000000 0.296371 0.000055
3.240267 0.567723 0.532346 0.028164 -0.011475 0.012157
1.726785 0.334559 0.938053 -0.052805 -0.006515 -0.006316
2.002485 0.133799 1.122714 0.117417 -0.006843 -0.007159
3.252771 0.756990 0.665439 0.000000 0.938148 0.000003
0.166194 0.759157 0.615708 -0.130530 0.000330 -0.000043
1.925796 1.029270 0.300007 -0.052802 0.002784 0.002716
1.789636 0.960906 0.341003 -0.023668 -0.007270 -0.007516
3.320012 0.464083 0.818027 0.028164 0.012939 0.011292
3.413433 0.522871 0.486656 -0.051553 -0.009110 0.009516
3.413433 0.802958 0.486656 0.028165 0.028314 0.022857
1.545289 0.613098 0.544010 0.000000 -0.488603 -0.000030
1.809643 0.457608 0.805815 -0.052804 -0.014391 -0.013564
1.793405 0.815622 0.753196 -0.052804 0.014391 -0.013564
3.177544 0.754398 0.712039 0.028164 -0.015090 0.012775
1.851983 0.802654 0.776579 -0.023668 -0.005641 0.005934
1.777166 0.744295 0.541700 -0.023667 -0.005641 -0.005934
1.664378 0.660784 0.530801 -0.000000 -0.026173 -0.000162
2.612979 0.659063 0.530846 0.000000 -0.026173 -0.000324
1.913648 0.886203 0.445549 -0.052804 0.014687 0.013823
1.752257 0.630397 0.536177 0.000000 -0.321153 -0.000025
2.008037 0.114685 0.120041 0.117417 -0.005960 0.006238
2.543168 0.562769 0.628657 -0.000000 -0.999657 -0.000000
1.208556 0.668077 0.731022 0.000000 0.026173 0.000162
2.890578 0.585354 0.694391 -0.000001 -0.709967 0.000002
0.689495 0.763102 0.629558 0.000000 0.999914 -0.000000
1.390063 0.756222 0.667471 -0.000000 0.928852 0.000003
2.166192 0.591429 0.701162 0.000000 -0.715334 0.000008
3.425379 0.831423 0.782165 0.028163 -0.025866 0.018303
0.157822 0.697338 0.720629 -0.163073 0.000099 0.000239
1.978114 0.763082 0.632426 -0.000000 0.999657 0.000000
3.257614 0.791813 0.514160 0.028163 -0.012576 -0.011028
2.528385 0.755493 0.592604 0.000000 0.918750 -0.000007
2.062708 0.629157 0.725296 0.000000 -0.344426 0.000012
0.406968 0.698825 0.537401 0.000000 0.370607 -0.000085
1.424471 0.751715 0.715691 -0.023669 -0.018795 0.015922
1.917465 0.807622 0.741990 0.117416 0.002069 -0.002168
0.852112 0.660784 0.530801 -0.000000 -0.026173 -0.000021
2.735353 0.700081 0.537902 0.000001 0.370278 -0.000085
2.476643 0.569080 0.595810 0.000000 -0.938169 -0.000002
0.924386 0.574050 0.584661 -0.000000 -0.884911 -0.000009
1.700515 0.571835 0.589189 0.000000 -0.906622 -0.000002
3.149288 0.564570 0.650137 0.000001 -0.980411 0.000007
2.010966 0.564345 0.648970 -0.000000 -0.985481 0.000001
3.246553 0.822332 0.481930 0.028164 -0.015090 -0.012775
1.855740 0.692627 0.726642 0.000000 0.296502 0.000014
3.081120 0.763039 0.634065 0.000000 0.999657 0.000000
2.090632 0.667749 0.530872 0.000000 0.026173 -0.000162
0.166194 0.627994 0.721921 -0.130538 -0.000126 0.000304
2.010966 0.580592 0.573826 -0.000000 -0.816664 -0.000024
1.234838 0.576553 0.580144 -0.000001 -0.827278 -0.000001
1.131354 0.566457 0.603833 -0.000000 -0.962408 -0.000010
1.183096 0.563111 0.622069 0.000000 -0.995789 -0.000001
1.441805 0.611966 0.544673 0.000000 -0.511308 -0.000057
3.530588 0.502341 0.782051 -0.051553 0.005273 0.005430
1.930700 0.223237 1.056462 -0.023673 0.009524 0.009556
1.875135 0.268466 0.267414 -0.052805 -0.002725 0.002658
1.931348 0.277445 0.280860 -0.052804 -0.005449 0.005295
3.332438 0.658080 0.731031 -0.000000 -0.026182 0.000162
3.358719 0.562833 0.626199 -0.000000 -0.999657 -0.000000
0.093399 0.729990 0.596774 -0.414166 0.000068 -0.000037
3.177544 0.571431 0.712039 0.028164 0.015090 0.012775
1.965100 1.188094 0.125270 -0.023666 -0.030059 -0.020125
3.304513 0.754522 0.671558 -0.000001 0.918677 0.000015
3.079477 0.659145 0.530844 -0.000000 -0.012874 -0.000021
2.012202 0.377765 0.353664 0.052837 0.006254 -0.006509
3.358778 0.481889 0.809026 0.028163 -0.011807 -0.012457
3.358778 0.843939 0.809026 0.028163 0.023603 -0.020702
2.321417 0.695937 0.725555 0.000000 0.321330 0.000025
0.788051 0.562773 0.628493 0.000000 -0.999658 -0.000000
1.792307 0.298283 0.291671 -0.052804 -0.003021 0.002946
1.424471 0.751715 0.546211 -0.023668 -0.018797 -0.015922
1.700515 0.757344 0.597425 -0.000000 0.934146 -0.000002
0.554802 0.763026 0.627346 0.000000 0.999657 -0.000000
1.765484 0.240953 0.230950 -0.052804 -0.002784 0.002716
3.149288 0.699701 0.724152 -0.000000 0.370527 0.000085
2.062708 0.750897 0.678909 0.000000 0.872506 0.000005
2.609694 0.763002 0.626444 0.000000 0.999657 -0.000000
2.055926 1.070263 1.015250 0.117414 0.002152 -0.002255
2.055926 0.235998 0.227980 0.117418 -0.002152 0.002255
2.055926 0.255565 1.015250 0.117416 -0.002152 -0.002255
1.925796 1.029270 0.961896 -0.052802 0.002784 -0.002716
0.665677 0.638688 0.728177 0.000001 -0.246014 0.000134
1.919200 0.905318 0.835501 -0.052803 0.003495 -0.003406
1.821698 0.255384 1.023222 -0.023670 0.005766 0.006058
1.840192 0.346716 0.939366 -0.023671 0.013534 0.012708
1.079612 0.760650 0.608878 -0.000000 0.975030 -0.000002
3.346076 0.747120 0.723912 0.028164 0.015589 -0.015605
1.648967 0.329522 0.949099 -0.052804 -0.013029 -0.012357
