2.964312 0.337905 0.952853 0.083892 0.004839 0.003835
0.602363 0.577959 0.718920 0.000000 -0.688771 0.000007
2.614178 0.617896 0.741194 0.000000 -0.266980 0.000048
2.256522 0.596587 0.732611 -0.000000 -0.480767 0.000012
1.317675 0.561131 0.697330 -0.000001 -0.875846 0.000007
0.602363 0.704227 0.719379 0.000001 0.681552 0.000007
1.943573 0.618040 0.563158 0.000000 -0.242252 -0.000027
1.790143 1.034361 0.248928 -0.039163 -0.004731 -0.004834
1.951971 0.106722 1.201882 -0.039160 0.005823 0.005928
2.256522 0.593578 0.573524 0.000001 -0.525698 -0.000043
2.986480 0.991818 0.295268 0.083892 0.005854 0.007087
1.873208 1.101377 1.114040 -0.055455 0.005705 -0.005213
2.875480 0.353166 0.945658 0.083891 -0.003903 -0.004731
3.004979 0.280465 1.019696 0.083891 -0.005854 -0.007087
2.745981 0.856801 0.432767 0.083890 0.003929 0.004763
2.745981 0.425868 0.432767 0.083890 -0.003929 0.004763
2.671982 0.815258 0.475074 0.083890 0.003929 0.004763
3.023479 0.270079 0.274115 0.083891 -0.003903 0.004731
2.838480 0.908731 0.924504 0.083891 0.003903 -0.004731
2.077694 0.614125 0.564280 -0.000000 -0.291825 -0.000043
0.099146 0.684889 0.710233 -0.366929 0.000049 0.000061
3.055166 0.965947 0.309094 -0.134102 0.002803 0.002775
1.832518 0.916448 0.943200 -0.039159 -0.005823 0.005928
1.974242 0.383576 0.922062 0.055486 0.001800 0.001767
0.960019 0.729998 0.676845 0.000000 0.963679 0.000000
2.020720 0.382905 0.910147 0.078531 -0.002544 -0.002497
2.882420 0.553357 0.679191 -0.000001 -0.954481 0.000004
2.841478 0.858500 0.860830 0.083891 -0.004839 0.003835
1.888328 0.534909 0.740464 0.078527 -0.001311 -0.001287
0.200000 0.686666 0.572097 -0.005599 0.001696 -0.002784
2.067198 0.391145 0.397406 0.055486 0.007200 -0.007012
1.496503 0.683338 0.570311 -0.000001 0.430332 -0.000003
2.002410 0.218325 1.088117 0.055490 0.005018 0.004908
2.704437 0.492145 0.491915 0.083891 -0.003929 0.004763
1.665738 0.869786 0.878985 -0.055455 0.002513 -0.002306
1.809452 0.559622 0.609861 0.000000 -0.888557 -0.000002
2.345936 0.721133 0.606350 0.000000 0.863823 -0.000015
1.903821 0.954451 0.984024 0.055486 -0.006328 0.006174
1.362382 0.723081 0.694461 0.000000 0.888584 0.000007
2.703592 0.725898 0.615884 -0.000000 0.920612 -0.000003
2.711352 0.509740 0.798727 0.083892 -0.003929 -0.004763
0.378828 0.556138 0.687002 0.000001 -0.913471 0.000003
2.882420 0.720082 0.604563 -0.000000 0.850522 -0.000004
3.130138 0.738593 0.553148 -0.134099 -0.002826 -0.002752
1.530161 0.549587 0.748499 -0.039160 0.004679 0.004782
2.167108 0.708163 0.588925 -0.000000 0.725052 -0.000013
1.777210 0.721274 0.750526 -0.039159 -0.005199 0.005304
2.750975 0.734422 0.763685 0.000000 0.713517 -0.000513
2.211815 0.686536 0.572026 0.000001 0.478921 -0.000012
0.200000 0.596003 0.572097 -0.005603 -0.001695 -0.002782
3.041319 0.801900 0.505371 -0.134100 -0.002707 -0.002636
2.923144 0.412316 0.402273 0.000000 -0.713516 0.000879
3.038464 0.867625 0.438438 -0.134099 -0.005414 -0.005269
2.971834 0.555216 0.619728 0.000000 -0.939981 -0.000001
1.962666 1.251266 1.269851 -0.055454 0.011952 -0.010734
0.152504 0.608146 0.570588 -0.159124 -0.000080 -0.000212
0.512949 0.723771 0.611279 0.000001 0.846006 -0.000002
2.593062 0.546326 0.563786 0.083893 0.006408 -0.005073
3.079029 0.610834 0.739360 -0.013832 -0.000889 0.002908
1.585917 0.725225 0.614359 0.000001 0.896180 -0.000003
2.927127 0.589652 0.728342 0.000001 -0.566705 0.000010
2.597982 0.773714 0.517381 0.083890 0.003929 0.004763
2.067198 1.178525 0.105130 0.055486 -0.011345 -0.010915
2.616482 0.498569 0.797583 0.083892 -0.003903 -0.004731
2.648687 0.767571 0.531984 0.083892 -0.004839 -0.003835
2.435350 0.703246 0.584105 -0.000000 0.669619 -0.000015
2.167108 0.560597 0.696357 -0.000000 -0.876549 0.000015
1.841850 0.484463 0.786612 0.078533 -0.002621 -0.002572
0.512949 0.560347 0.608485 0.000000 -0.876539 -0.000002
2.692727 0.774991 0.775786 0.083892 -0.004839 0.003835
2.950043 0.726953 0.548308 0.000002 0.713508 0.000397
1.818131 0.475199 0.836519 -0.039162 0.006914 0.007007
2.703592 0.682746 0.734382 -0.000000 0.458459 0.000026
0.870605 0.606048 0.567199 -0.000000 -0.388617 -0.000063
2.658885 0.557261 0.614764 0.000001 -0.909989 -0.000006
1.720038 0.558817 0.611445 0.000000 -0.900009 -0.000006
3.132374 0.664657 0.628871 1.000000 0.000000 0.000000
2.741562 0.811366 0.833697 0.083893 0.003929 -0.004763
2.760062 0.452572 0.468308 0.083891 0.004839 -0.003835
1.630624 0.654325 0.561088 -0.000001 0.141126 -0.000372
1.004726 0.558753 0.611579 0.000000 -0.900186 -0.000013
2.785728 0.467985 0.841249 0.083890 -0.003929 -0.004763
0.334121 0.727995 0.621225 -0.000000 0.940154 -0.000010
1.675331 0.620232 0.562611 -0.000000 -0.213863 -0.000008
1.585917 0.601253 0.735034 0.000000 -0.436234 0.000003
0.334121 0.712613 0.710403 0.000001 0.774927 0.000011
1.183554 0.586333 0.578406 0.000000 -0.589714 -0.000018
2.837713 0.726099 0.616361 -0.000001 0.921343 -0.000022
2.614178 0.599002 0.570481 0.000000 -0.458262 -0.000026
1.736237 1.035869 1.053979 -0.039163 -0.009825 0.009808
1.496503 0.725811 0.615679 0.000001 0.905927 -0.000003
1.094140 0.559147 0.610782 -0.000001 -0.886646 -0.000007
1.720038 0.558462 0.692208 -0.000000 -0.900134 0.000002
1.936214 0.939686 0.363086 0.078533 0.002197 0.002156
0.781191 0.717125 0.599994 -0.000001 0.821851 -0.000018
2.893980 0.342781 0.348152 0.083891 -0.003929 0.004763
3.035609 0.366010 0.355116 -0.000001 -0.713515 0.000439
2.945687 0.934308 0.942205 0.083891 -0.004839 0.003835
2.945687 0.356706 0.353987 0.083893 -0.003929 0.004763
0.736484 0.552730 0.627328 -0.000000 -0.963646 -0.000004
2.949480 0.311623 0.987965 0.083892 -0.003903 -0.004731
2.967980 0.981432 0.998542 0.083890 0.003929 -0.004763
1.742333 0.865913 0.415221 -0.039161 -0.013100 -0.012786
0.781191 0.603635 0.736145 0.000000 -0.412172 0.000059
2.703592 0.723523 0.693605 0.000000 0.888557 0.000002
2.971834 0.720159 0.604689 -0.000000 0.848928 -0.000002
2.301229 0.729518 0.678518 0.000001 0.956405 0.000016
1.720038 0.601320 0.735066 -0.000000 -0.434769 0.000014
0.380270 0.733345 0.654045 0.000000 0.999917 0.000000
3.060479 0.249307 0.252961 0.083892 -0.003903 0.004731
2.435350 0.595363 0.731917 0.000000 -0.503793 0.000023
0.289414 0.555270 0.619590 0.000000 -0.925171 -0.000001
0.512949 0.590112 0.728654 0.000000 -0.547460 0.000010
0.870605 0.726258 0.687650 -0.000001 0.919046 0.000006
1.595669 0.779001 0.507688 -0.039161 -0.004679 -0.004781
2.927127 0.611378 0.565174 0.000000 -0.316228 -0.000010
0.557656 0.565313 0.704059 0.000000 -0.822395 0.000002
1.926355 0.250045 0.269548 0.078533 -0.003469 0.003403
2.441118 0.549369 0.649529 0.000000 -0.999668 -0.000000
0.781191 0.680214 0.735611 0.000001 0.405672 0.000015
1.929151 0.733350 0.652934 0.000000 0.999668 0.000000
2.122401 0.714021 0.708637 0.000001 0.754712 0.000003
2.390643 0.561555 0.606318 0.000000 -0.861827 -0.000002
1.714274 0.347030 0.946681 -0.055456 -0.004482 -0.004104
1.228261 0.733164 0.646162 -0.000000 0.997916 -0.000001
1.272968 0.728542 0.681588 -0.000001 0.942807 0.000002
1.892553 0.922116 0.951987 0.055486 -0.006764 0.006593
3.082049 0.854932 0.861370 -0.134100 -0.005414 0.005269
1.988280 0.722001 0.696486 -0.000000 0.876441 0.000007
1.936214 0.724541 0.557069 0.055487 -0.010145 -0.009800
0.736484 0.730873 0.630911 -0.000000 0.969925 -0.000002
2.122401 0.611378 0.739213 0.000000 -0.316348 0.000020
0.870605 0.556095 0.686900 -0.000002 -0.634458 0.000001
2.852937 0.408777 0.897373 0.083892 -0.003929 -0.004763
3.016541 0.553497 0.679651 0.000001 -0.955617 0.000008
2.390643 0.656776 0.561471 -0.000001 0.165507 -0.000039
1.931757 0.146621 1.146973 -0.055457 -0.005161 -0.004721
1.933398 0.372065 0.367362 0.055488 0.003327 -0.003262
1.772496 0.508394 0.766256 -0.055456 -0.003929 -0.003601
1.630624 0.685627 0.732860 0.000000 0.479087 0.000006
0.557656 0.718018 0.703076 -0.000000 0.835580 0.000004
0.512949 0.692248 0.728857 0.000000 0.547462 0.000040
1.764745 0.611097 0.739119 0.000000 -0.340628 0.000037
1.541210 0.723387 0.693868 0.000000 0.888660 0.000014
0.106545 0.713243 0.675149 -0.338060 0.000083 0.000024
1.908991 0.121336 0.128022 -0.055455 -0.004618 0.004228
3.080590 0.880172 0.903768 -0.134100 0.005371 -0.005313
2.211815 0.712590 0.710432 0.000000 0.774955 0.000005
2.524764 0.728008 0.683127 0.000000 0.939912 0.000005
2.858183 0.510644 0.535795 0.000000 0.713516 -0.000854
2.834864 0.527335 0.784982 0.000000 -0.713517 -0.000427
3.132374 0.688661 0.732589 -0.017928 0.001215 0.002000
2.837059 0.819078 0.487877 0.000000 -0.713517 -0.000513
3.061248 0.553659 0.624204 -0.017519 -0.002282 -0.000755
0.781191 0.566029 0.599293 0.000001 -0.822274 -0.000018
1.671867 0.410703 0.891197 -0.039163 0.003366 0.003452
3.078418 0.930189 0.954703 -0.134101 0.005371 -0.005313
2.897932 0.735428 0.731323 0.000000 -0.713514 0.000256
3.061248 0.696575 0.725807 -0.017373 0.001481 0.001914
2.030579 0.083328 1.216339 0.078534 -0.008941 -0.008724
2.030579 1.199341 1.216339 0.078534 0.008941 -0.008724
1.720038 0.680483 0.735485 0.000000 0.435006 0.000014
2.122401 0.558769 0.611545 0.000001 -0.869438 -0.000002
1.620005 0.542553 0.741592 -0.055455 -0.006985 -0.006367
2.658885 0.713817 0.595487 0.000001 0.781945 -0.000005
1.317675 0.679101 0.736114 -0.000000 0.412028 0.000029
1.362382 0.669111 0.564453 -0.000001 0.258050 -0.000006
0.999678 0.643185 0.744181 -0.000000 0.025756 0.000033
1.874948 0.794565 0.823489 0.055486 -0.002127 0.002088
2.891442 0.848206 0.846174 -0.000000 -0.713519 0.000275
2.793006 0.676143 0.566997 0.000000 0.388669 -0.000016
3.079877 0.904949 0.392081 -0.134099 -0.005414 -0.005269
3.079877 0.386066 0.920501 -0.134099 -0.005371 -0.005313
1.183554 0.691101 0.574780 -0.000000 0.547563 -0.000020
1.898866 0.587350 0.577663 0.000001 -0.584282 -0.000009
2.837713 0.683832 0.733821 0.000001 0.457157 0.000026
1.568089 0.535955 0.540569 -0.039159 0.007019 -0.007110
1.228261 0.564043 0.602241 0.000001 -0.828655 -0.000004
1.854159 0.554046 0.681342 -0.000001 -0.941088 0.000002
2.067198 1.077230 0.208286 0.055488 -0.009164 -0.008878
3.121940 0.355382 0.360985 -0.134100 -0.005371 0.005313
1.675331 0.727958 0.621121 0.000000 0.940198 -0.000005
2.923144 0.870353 0.402273 0.083891 0.003929 0.004763
2.337283 0.733314 0.650047 0.000000 0.999668 -0.000000
2.480057 0.722640 0.609071 0.000001 0.874670 -0.000003
1.317675 0.684913 0.571135 0.000001 0.480767 -0.000024
1.962666 0.034373 0.031619 -0.039162 0.017463 -0.016417
0.557656 0.603669 0.568227 0.000000 -0.412104 -0.000015
1.625916 0.906718 0.381932 -0.039161 -0.003275 -0.003359
1.407089 0.631688 0.560668 -0.000000 -0.115366 -0.000057
2.077694 0.723149 0.610058 0.000001 0.886355 -0.000007
1.905415 0.200041 1.090988 -0.055455 -0.005976 -0.005459
1.451796 0.670869 0.565033 -0.000001 0.315351 -0.000020
1.049433 0.596003 0.732290 0.000000 -0.503833 0.000023
0.825898 0.724142 0.612045 0.000000 0.899695 -0.000006
1.451796 0.597301 0.733003 0.000000 -0.480767 0.000012
2.999786 0.419785 0.409879 -0.000000 -0.713516 0.000330
3.118960 0.286766 0.291108 -0.134099 -0.005607 0.005546
3.121940 0.927287 0.360985 -0.134101 -0.005414 -0.005269
3.078418 0.344135 0.946508 -0.134100 0.005414 0.005269
3.016541 0.594947 0.572713 -0.000002 -0.503459 -0.000091
2.971834 0.673869 0.738285 -0.000000 0.364788 0.000135
2.997644 0.912178 0.944708 0.083890 0.003929 -0.004763
1.854159 0.678190 0.567861 0.000000 0.412271 -0.000029
1.746009 0.468692 0.465486 -0.039161 0.007278 -0.007364
2.703592 0.602320 0.735550 -0.000000 -0.435167 0.000027
2.658885 0.603534 0.568288 -0.000000 -0.412200 -0.000117
1.764745 0.551011 0.669820 -0.000001 -0.961061 0.000001
0.289414 0.586991 0.726462 -0.000001 -0.589612 0.000036
2.793006 0.561350 0.606670 0.000000 -0.863574 -0.000004
1.988280 0.557612 0.613988 -0.000001 -0.895902 -0.000002
1.709890 0.541685 0.735158 -0.055456 -0.003929 -0.003601
2.846599 0.729194 0.758361 0.000000 0.713516 -0.000427
2.748299 0.680214 0.568776 -0.000001 0.405672 -0.000015
1.049433 0.683009 0.734246 0.000000 0.458525 0.000026
0.557656 0.679540 0.568471 0.000000 0.412104 -0.000015
1.585917 0.558753 0.692808 -0.000001 -0.899223 0.000013
2.703592 0.561686 0.606094 -0.000000 -0.863574 -0.000004
2.524764 0.683404 0.734042 -0.000001 0.458184 0.000026
0.647070 0.560347 0.695902 -0.000000 -0.876375 0.000004
2.614178 0.679405 0.568410 0.000000 0.412181 -0.000059
2.211815 0.555216 0.619728 0.000000 -0.940110 -0.000005
2.748299 0.596685 0.571723 -0.000001 -0.481033 -0.000024
1.496503 0.559333 0.693967 -0.000000 -0.887833 0.000003
1.004726 0.560561 0.696292 0.000000 -0.876281 0.000007
1.988280 0.722572 0.608939 0.000000 0.888557 -0.000003
1.407089 0.713407 0.594961 0.000000 0.775819 -0.000003
3.082795 0.444891 0.843901 -0.134099 0.005414 0.005269
3.082795 0.829433 0.452291 -0.134100 0.005371 0.005313
2.917032 0.733266 0.648196 0.000000 0.999668 -0.000000
1.944774 1.221289 1.238689 -0.055451 0.007063 -0.006437
1.944774 0.061381 0.065698 -0.055454 -0.007063 0.006437
1.886919 0.376721 0.935969 0.055488 0.006655 0.006488
2.634982 0.794486 0.808160 0.083890 0.003929 -0.004763
1.788779 0.822168 0.849197 -0.039160 -0.006915 0.007008
2.974168 0.793798 0.824153 -0.000002 0.713418 -0.000137
0.647070 0.721966 0.696551 0.000000 0.876537 0.000015
2.345936 0.621352 0.562362 0.000000 -0.217271 -0.000015
2.837713 0.555178 0.619833 -0.000001 -0.879122 -0.000001
3.127157 0.807209 0.483271 -0.134101 -0.002826 -0.002752
1.885466 0.172613 0.170165 -0.039162 0.007278 -0.007364
0.825898 0.558172 0.612779 0.000002 -0.792969 -0.000002
2.067198 0.908406 0.380213 0.055485 -0.006764 -0.006593
2.846599 0.745884 0.562416 0.000000 -0.713516 -0.000427
3.075437 0.275519 1.016386 -0.134103 0.001413 0.001376
0.334121 0.604650 0.736598 -0.000000 -0.386453 0.000008
1.771383 0.782657 0.809854 -0.039164 -0.003639 0.003729
1.774200 0.475592 0.801822 -0.055456 -0.002717 -0.002493
1.585917 0.599693 0.570124 0.000002 -0.457459 -0.000051
1.771383 0.799264 0.510840 -0.055455 0.005433 0.004968
2.764481 0.867187 0.882197 0.083894 0.003903 -0.004731
1.797526 0.175050 0.177340 -0.055455 -0.005705 0.005213
2.882420 0.617040 0.740956 0.000000 -0.266903 0.000048
2.256522 0.685562 0.732896 -0.000000 0.481262 0.000048
3.087172 0.728677 0.749488 -0.134100 0.002685 -0.002658
1.765859 0.361159 0.927067 -0.055456 -0.008964 -0.008130
2.914210 0.531557 0.747296 0.000000 0.713517 0.000256
2.480057 0.560793 0.607674 -0.000000 -0.876440 -0.000015
1.407089 0.729161 0.679687 0.000000 0.956576 0.000001
2.748299 0.723540 0.693572 0.000000 0.888557 0.000003
2.560982 0.752942 0.765852 0.083894 0.005204 -0.006302
2.971834 0.675869 0.566886 0.000000 0.364555 -0.000008
1.675331 0.678156 0.736541 0.000002 0.267944 0.000006
0.423535 0.676450 0.567127 0.000000 0.388619 -0.000063
1.708145 0.928464 0.939374 -0.055456 0.002241 -0.002057
1.908991 1.156742 0.123515 -0.039163 -0.006550 -0.006649
1.541210 0.606458 0.567026 0.000000 -0.388111 -0.000016
3.114592 0.720060 0.602727 -0.017627 0.008577 -0.005473
1.803909 0.928795 0.372514 -0.055457 0.002173 0.001995
2.982767 0.832148 0.474566 -0.000001 -0.713514 -0.000220
0.762443 0.639114 0.560216 -0.000000 -0.025756 -0.000008
2.122401 0.684589 0.570956 0.000000 0.481289 -0.000048
1.645827 0.396915 0.401215 -0.039162 0.006732 -0.006829
1.730076 0.431106 0.874553 -0.039161 0.003457 0.003544
1.720038 0.723251 0.610256 0.000001 0.885332 -0.000003
1.898978 1.192515 0.093258 -0.055454 0.004075 0.003734
2.935604 0.516132 0.507996 0.000001 -0.713516 0.000397
2.593062 0.554672 0.748796 0.083894 -0.005204 -0.006302
2.904519 0.422773 0.891466 0.000001 -0.713517 -0.000879
1.875652 0.552558 0.546592 0.055487 0.003709 -0.003634
0.691777 0.566239 0.598989 -0.000000 -0.821326 -0.000005
3.041319 0.497460 0.815406 -0.000001 -0.713514 -0.000439
1.628621 0.526629 0.528198 -0.039169 0.002924 -0.003001
1.607170 0.730928 0.553772 -0.039166 -0.004679 -0.004781
1.530161 0.546116 0.559297 -0.055457 -0.003493 0.003202
2.927127 0.557689 0.613820 -0.000001 -0.910996 -0.000024
2.345936 0.582838 0.723239 -0.000000 -0.630573 0.000033
1.004726 0.718383 0.702518 0.000000 0.836531 0.000004
3.001927 0.452388 0.827919 -0.000000 0.713516 0.000439
1.943573 0.558382 0.612345 0.000001 -0.900006 -0.000013
2.792919 0.537791 0.530054 0.000000 -0.713516 0.000683
1.915088 0.986787 0.288327 0.055487 -0.005891 -0.005753
0.352869 0.639705 0.560180 -0.000000 -0.012876 -0.000066
1.771383 0.483406 0.510840 -0.055455 -0.005433 0.004968
2.658885 0.558317 0.691908 -0.000001 -0.899582 0.000013
2.793006 0.685822 0.732753 -0.000000 0.481190 0.000024
2.024945 0.098956 0.104597 0.078533 -0.008941 0.008724
1.919313 0.570757 0.735798 0.055487 0.005564 0.005436
3.078979 0.238921 1.062003 0.083894 -0.003903 -0.004731
1.799089 1.052995 1.067461 -0.055456 0.006791 -0.006193
0.468242 0.724782 0.613381 0.000000 0.911137 -0.000001
1.985509 0.948311 0.971291 0.055488 -0.006327 0.006173
2.390643 0.558479 0.692242 -0.000000 -0.900167 0.000013
2.837713 0.729410 0.678872 -0.000000 0.955963 0.000002
1.317675 0.558720 0.611645 -0.000002 -0.877562 -0.000003
1.898866 0.724465 0.691675 -0.000000 0.899761 0.000006
1.712184 0.821045 0.843921 -0.039162 -0.014554 0.014041
1.046549 0.733350 0.652934 -0.000000 0.999668 0.000000
1.962666 1.251266 0.034536 -0.055455 0.011951 0.010734
1.991143 0.998244 1.021695 0.055485 -0.011782 0.011318
1.696498 0.854135 0.429170 -0.039162 -0.003457 -0.003544
2.390643 0.624580 0.742687 0.000000 -0.191852 0.000068
1.785963 0.814084 0.463199 -0.039162 -0.003457 -0.003544
2.030579 1.199341 0.088048 0.078533 0.008941 0.008724
1.968608 0.858611 0.442008 0.078533 0.001330 0.001306
2.909862 0.468072 0.492441 -0.000001 0.713515 -0.000397
3.042033 0.497200 0.522104 -0.000002 0.713443 -0.000137
1.692012 0.500032 0.781966 -0.055457 -0.007858 -0.007148
1.844666 0.548399 0.582570 0.078533 -0.005242 0.005136
1.541210 0.674214 0.566237 -0.000000 0.364656 -0.000034
0.825898 0.605093 0.736786 0.000000 -0.387775 0.000016
2.774294 0.548247 0.763685 0.000000 -0.713517 -0.000513
1.822041 0.146350 0.148112 -0.055456 -0.005161 0.004721
2.963249 0.825540 0.856478 0.000001 0.713506 -0.000220
3.035609 0.933350 0.371505 -0.134099 -0.005414 -0.005269
1.958749 0.273986 1.034896 0.055484 0.010691 0.010309
1.867574 0.203130 0.200797 -0.039161 0.008006 -0.008073
1.684742 0.753450 0.527648 -0.039161 -0.010527 -0.010463
2.738204 0.549384 0.655451 0.000000 -0.999668 0.000000
0.289414 0.728260 0.621956 0.000000 0.948648 -0.000018
1.362382 0.605230 0.736843 0.000000 -0.388111 0.000016
2.999072 0.896006 0.894852 -0.000000 -0.713515 0.000439
2.927127 0.561006 0.697103 -0.000000 -0.874328 0.000004
2.980090 0.388904 0.892570 0.000000 0.713515 0.000659
2.945338 0.815344 0.491680 0.000001 -0.713486 -0.000137
1.829646 0.835310 0.864200 -0.039161 -0.006551 0.006649
1.799279 0.728819 0.545323 -0.039159 -0.005199 -0.005304
1.714638 0.402513 0.402894 -0.039161 0.003275 -0.003359
2.067198 0.289851 1.010137 0.055486 0.011782 0.011317
2.029171 1.007618 0.283454 0.078533 0.003777 0.003705
0.691777 0.679776 0.735809 0.000000 0.412104 0.000007
0.084636 0.629493 0.587216 -0.423574 -0.000012 -0.000060
2.793006 0.604344 0.736465 0.000000 -0.412104 0.000015
2.435350 0.600186 0.569870 0.000000 -0.458418 -0.000026
2.256522 0.724626 0.613045 0.000000 0.900225 -0.000003
1.867574 1.079539 0.200797 -0.039160 -0.016009 -0.015253
2.834788 0.781475 0.811603 0.000000 0.713516 -0.000427
2.490152 0.643407 0.560212 0.000000 0.025756 -0.000017
1.272968 0.588495 0.576846 0.000001 -0.568607 -0.000038
0.691777 0.718322 0.601776 0.000000 0.836744 -0.000017
3.132374 0.618012 0.675516 1.000000 0.000000 0.000000
1.847483 0.792773 0.480545 0.055486 -0.002127 -0.002088
1.496503 0.558333 0.612445 -0.000002 -0.877562 -0.000003
1.988280 0.681149 0.569225 0.000000 0.435463 -0.000055
2.501689 0.641483 0.744226 -0.000000 0.012876 0.000033
2.658885 0.683700 0.733889 -0.000001 0.458432 0.000103
1.889032 0.856284 0.453325 0.078534 0.005319 0.005211
1.407089 0.557734 0.690669 0.000000 -0.911137 0.000001
0.244707 0.725637 0.689117 0.000000 0.911137 0.000001
0.423535 0.593231 0.573739 -0.000001 -0.523043 -0.000022
1.813784 0.242956 0.252589 -0.055456 -0.003531 0.003238
1.407089 0.557185 0.614933 0.000000 -0.910986 -0.000003
1.996777 1.031294 1.054906 0.055484 -0.010909 0.010512
0.850415 0.641853 0.560166 0.000000 0.012871 -0.000008
1.272968 0.552334 0.675632 0.000000 -0.970195 0.000007
2.301229 0.620774 0.741896 0.000000 -0.217271 0.000015
1.844666 0.548399 0.721817 0.078532 -0.005242 -0.005136
1.851020 0.907171 0.399919 -0.055455 0.004618 0.004228
1.854159 0.680181 0.735626 -0.000000 0.412104 0.000004
1.931989 1.035291 1.064114 0.055486 -0.009818 0.009494
1.094140 0.557307 0.689724 -0.000000 -0.910029 0.000003
2.658885 0.681483 0.569386 -0.000002 0.434734 -0.000055
1.870018 0.406324 0.869354 0.078534 -0.005010 -0.004910
1.984805 0.502037 0.800586 0.055487 0.004255 0.004166
2.614178 0.724207 0.692208 -0.000000 0.900146 0.000013
2.026354 0.949157 0.343306 0.078534 0.004394 0.004308
2.026354 0.316630 0.978273 0.078533 -0.008941 -0.008724
1.591450 0.477837 0.482819 -0.039162 0.004679 -0.004781
1.530161 0.733082 0.555888 -0.039163 -0.004679 -0.004781
1.632840 0.740625 0.741093 -0.055456 0.001746 -0.001604
1.825174 0.437370 0.465146 -0.055455 -0.002581 0.002368
2.971080 0.498694 0.523625 -0.000000 0.713516 -0.000793
2.948475 0.515125 0.764029 0.000000 0.713515 0.000397
1.867311 0.995470 0.282501 -0.039162 -0.002547 -0.002616
2.837713 0.564509 0.702859 0.000000 -0.836814 0.000009
1.854526 0.505562 0.497057 0.055481 0.001855 -0.001820
1.586187 0.780367 0.788182 -0.055454 0.006985 -0.006367
2.797187 0.842594 0.438888 0.083892 0.003929 0.004763
1.585917 0.557002 0.615338 0.000000 -0.921378 -0.000003
1.988280 0.554128 0.681588 0.000001 -0.942807 0.000002
0.031415 0.672126 0.658628 -0.632027 0.000016 0.000003
2.927187 0.367092 0.939823 0.083891 -0.003929 -0.004763
3.096811 0.661954 0.561854 -0.017625 0.001756 -0.010284
1.816723 0.479241 0.471872 -0.039160 0.006915 -0.007008
1.527509 0.549306 0.652416 0.000000 -0.999668 0.000000
2.964312 0.944764 0.351534 0.083892 -0.004839 -0.003835
3.001437 0.325408 0.322114 0.083890 -0.003929 0.004763
1.819315 0.735695 0.583969 -0.055456 0.007761 0.007061
2.978825 0.469566 0.493962 -0.000000 0.713512 -0.000137
1.682516 0.476099 0.828234 -0.039164 0.005264 0.005369
1.677473 0.546362 0.759684 -0.039162 0.010527 0.010463
1.865352 0.340655 0.363169 -0.055456 -0.002105 0.001933
2.026354 0.945241 0.964925 0.055486 -0.006328 0.006174
0.905217 0.640964 0.744223 0.000000 -0.012881 0.000008
0.423535 0.730595 0.629797 -0.000000 0.970211 -0.000013
2.846599 0.536785 0.741971 0.000000 0.713516 0.000427
0.647070 0.609008 0.566025 0.000000 -0.340742 -0.000018
1.962974 0.439686 0.458557 0.078533 -0.001330 0.001306
0.200000 0.717694 0.703571 -0.005602 0.002816 0.001646
1.991143 0.284425 0.282692 0.055486 0.011781 -0.011317
0.960019 0.553683 0.624134 0.000000 -0.948683 -0.000001
0.915312 0.564327 0.601807 0.000001 -0.836025 -0.000017
1.904525 0.783194 0.778370 0.078535 0.007168 -0.007010
3.016541 0.716977 0.599780 0.000001 0.822291 -0.000037
0.574962 0.639336 0.560200 0.000066 -0.002488 -0.001715
1.706550 0.815948 0.487356 -0.055453 0.002717 0.002493
1.809452 0.570383 0.710806 -0.000001 -0.775427 0.000022
2.837059 0.480282 0.471487 -0.000001 -0.713516 0.000513
1.482081 0.733358 0.652638 0.000000 0.999668 0.000000
2.142591 0.549311 0.651749 0.000000 -0.999668 -0.000000
2.997893 0.571400 0.740107 0.000000 -0.713515 -0.000269
1.138847 0.660558 0.562193 0.000004 0.074752 -0.000022
1.138847 0.553882 0.623537 0.000001 -0.919351 -0.000001
1.675331 0.555178 0.684555 0.000001 -0.939179 0.000005
1.451796 0.588495 0.576846 -0.000000 -0.568770 -0.000038
1.800542 0.860497 0.446581 -0.055454 0.002513 0.002306
1.905229 0.819968 0.815899 0.078534 0.002814 -0.002761
1.917178 1.096925 1.123196 -0.039162 -0.007278 0.007364
1.985509 0.334358 0.333096 0.055486 0.006328 -0.006174
2.046072 0.126874 1.173735 0.078534 -0.002544 -0.002497
1.768373 0.852125 0.877191 -0.039161 -0.006733 0.006829
0.289414 0.671431 0.565221 0.000000 0.316228 -0.000010
0.031415 0.618807 0.630238 -0.632025 -0.000013 -0.000012
3.020498 0.744391 0.563937 -0.000002 -0.713500 -0.000269
0.691777 0.600353 0.734598 0.000000 -0.434929 0.000003
1.954524 1.110763 0.186806 -0.055455 0.010865 0.009796
2.971834 0.549581 0.659370 0.000000 -0.995926 0.000000
1.982692 1.180802 0.096109 0.055484 -0.006546 -0.006384
1.755141 0.568941 0.562399 -0.039163 0.005199 -0.005304
2.957412 0.637041 0.560269 -0.000000 -0.025756 -0.000033
1.898891 0.410949 0.900162 0.055486 0.001773 0.001740
0.334121 0.681216 0.735130 0.000001 0.434995 0.000027
1.630624 0.574608 0.588818 -0.000002 -0.478070 -0.000002
2.003819 0.556407 0.731556 0.078531 -0.002775 -0.002723
0.129233 0.581998 0.594366 -0.249660 -0.000099 -0.000092
1.675331 0.608869 0.738312 0.000000 -0.365067 0.000017
1.862699 0.141657 1.158046 -0.055456 -0.010322 -0.009323
1.862699 0.141657 0.146341 -0.055456 -0.005161 0.004721
3.132374 0.584231 0.578422 -0.017240 -0.001516 -0.001901
1.970017 1.049460 0.228859 0.055486 -0.005019 -0.004908
1.681424 0.450968 0.451793 -0.039162 0.003548 -0.003637
1.929876 0.798652 0.507425 0.078533 0.001503 0.001476
0.468242 0.553800 0.680604 0.000000 -0.948683 0.000002
0.423535 0.568987 0.709077 0.000000 -0.791954 0.000020
1.909454 0.296929 0.319194 0.078533 -0.004085 0.004006
0.736484 0.609565 0.565823 0.000000 -0.340524 -0.000037
3.087172 0.553992 0.554899 -0.134100 -0.002685 0.002658
1.898866 0.726473 0.617249 0.000000 0.921450 -0.000006
1.843258 0.744772 0.529093 0.055487 -0.007418 -0.007221
3.096811 0.568888 0.709968 -0.017626 -0.007816 0.006386
1.627179 0.483347 0.498937 -0.055455 -0.007858 0.007148
1.785268 1.093269 1.112434 -0.039162 -0.016736 0.015840
0.468242 0.556253 0.617112 0.000001 -0.846641 -0.000001
1.788355 0.289888 0.289429 -0.039163 0.002638 -0.002709
2.032987 0.725500 0.689420 0.000000 0.911137 0.000003
1.783750 0.951488 0.958229 -0.055457 0.002105 -0.001933
1.627179 0.792813 0.811842 -0.039161 -0.010527 0.010463
2.904973 0.579616 0.572647 0.000001 -0.700639 -0.000556
1.817747 0.516227 0.550373 -0.055454 -0.003881 0.003557
2.764906 0.772025 0.768592 -0.000002 -0.713514 0.000683
2.690406 0.730200 0.578388 -0.000000 -0.713514 -0.000342
1.970017 1.058776 1.066381 0.078533 0.003469 -0.003403
3.010169 0.860156 0.858343 -0.000001 -0.713512 0.000330
2.882420 0.550124 0.639937 0.000000 -0.988747 -0.000001
2.301229 0.558737 0.692775 0.000000 -0.900166 0.000026
2.031987 1.023873 1.037804 0.078535 0.003854 -0.003780
2.031987 0.258796 0.266584 0.078532 -0.003854 0.003780
0.825898 0.678865 0.736221 0.000000 0.412163 0.000029
2.882420 0.727237 0.685211 0.000000 0.931035 0.000003
0.647070 0.677849 0.567717 -0.000001 0.388211 -0.000031
1.858751 0.825108 0.448509 0.055486 -0.002018 -0.001981
2.614178 0.700119 0.723005 0.000000 0.625852 0.000002
1.809452 0.730658 0.674339 0.000001 0.964411 0.000002
1.674134 0.824291 0.828773 -0.055456 0.010865 -0.009796
2.783531 0.500188 0.525146 0.000000 0.713516 -0.000342
2.582450 0.640520 0.744218 0.000000 -0.012881 0.000033
1.272968 0.603129 0.735916 0.000000 -0.412104 0.000015
1.815122 0.405731 0.903856 -0.039161 0.003093 0.003174
1.864385 0.860718 0.852806 -0.055455 0.009779 -0.008848
3.061248 0.646072 0.744106 -0.012149 0.000223 0.003461
0.736484 0.677508 0.567573 0.000001 0.388231 -0.000031
1.943961 0.427217 0.424366 0.055486 0.001909 -0.001874
3.105333 0.814278 0.824142 -0.134100 -0.002826 0.002752
1.732810 0.750065 0.528311 -0.039164 -0.010526 -0.010462
0.960019 0.553999 0.681201 0.000000 -0.946767 0.000002
2.641834 0.501641 0.514106 0.083892 0.004839 -0.003835
1.094140 0.724562 0.691475 0.000000 0.899971 0.000006
1.844064 0.733354 0.652786 0.000000 0.999668 0.000000
1.707663 0.790960 0.789740 -0.055456 0.015714 -0.013891
1.004726 0.728588 0.622940 -0.000000 0.948586 -0.000009
2.256522 0.567328 0.706896 0.000000 -0.807494 0.000019
2.690481 0.825644 0.839890 0.083893 0.003903 -0.004731
1.765309 0.421644 0.443113 -0.055456 -0.002513 0.002306
0.378828 0.572403 0.591217 -0.000000 -0.742172 -0.000006
1.496503 0.628858 0.743372 0.000000 -0.141151 0.000186
1.049433 0.650097 0.560583 -0.000000 0.089942 -0.000293
1.830582 0.515718 0.753515 0.078532 -0.002621 -0.002572
2.830018 0.834762 0.832483 0.083891 -0.004839 0.003835
1.708776 0.530912 0.527980 -0.039161 0.021047 -0.019084
1.767976 0.713369 0.562046 -0.039163 -0.005199 -0.005304
1.898866 0.603737 0.736191 0.000000 -0.412104 0.000015
2.999786 0.879575 0.426268 -0.000000 -0.713517 -0.000330
0.468242 0.728109 0.682849 -0.000001 0.749473 0.000001
0.084636 0.576073 0.642029 -0.423577 -0.000060 -0.000008
2.019312 1.134321 0.155531 0.078533 0.002852 0.002799
2.019312 0.148348 1.148856 0.078530 -0.002852 -0.002799
1.911049 1.089750 0.188498 -0.039163 -0.008006 -0.008072
0.468242 0.605912 0.737131 0.000000 -0.388619 0.000063
2.301229 0.645924 0.560277 0.000000 0.025756 -0.000257
1.675247 0.799303 0.502905 -0.055456 0.015714 0.013891
2.003819 0.726263 0.731556 0.078534 0.005550 -0.005436
2.827146 0.397606 0.408159 0.083891 0.004839 -0.003835
1.946337 0.122890 0.118523 -0.039162 0.005823 -0.005927
1.756611 0.841810 0.841072 -0.055456 0.002581 -0.002368
0.378828 0.620052 0.741732 0.000001 -0.242196 0.000106
1.797526 0.175050 1.127048 -0.055455 -0.011408 -0.010266
2.036213 0.033935 0.037115 0.078534 -0.006475 0.006337
2.036213 1.231852 0.054307 0.078531 0.007708 0.007533
1.740080 0.767207 0.793131 -0.039160 -0.010527 0.010463
1.693681 0.846051 0.867208 -0.039161 -0.006914 0.007008
1.943573 0.555378 0.685073 -0.000001 -0.929102 0.000005
1.824949 0.554568 0.759769 0.055487 0.003709 0.003634
0.960019 0.605605 0.737001 -0.000000 -0.388575 0.000063
2.523983 0.732170 0.559688 0.083894 0.005204 0.006302
2.997644 0.912178 0.359679 0.083891 0.003929 0.004763
3.087063 0.987185 0.306247 -0.134100 -0.005652 -0.005500
1.898187 0.344386 0.968005 0.055486 0.012436 0.011917
1.720519 0.891828 0.391232 -0.039162 -0.006369 -0.006469
1.991143 1.005535 0.289851 0.078532 0.007554 0.007384
1.970017 0.223893 1.066381 0.078531 -0.003469 -0.003403
0.269224 0.639187 0.560187 -0.000000 -0.012871 -0.000033
0.378828 0.670307 0.739541 0.000001 0.315567 0.000040
1.655141 0.549302 0.652120 0.000000 -0.999668 -0.000000
0.877816 0.549359 0.649899 0.000000 -0.999668 -0.000000
3.049458 1.005697 1.027426 0.083893 0.003903 -0.004731
0.468242 0.675869 0.737502 0.000000 0.365067 0.000017
1.764745 0.692372 0.728776 -0.000000 0.547527 0.000040
0.070555 0.657726 0.708506 -0.478615 0.000013 0.000042
1.801520 0.641705 0.744219 0.000000 0.025756 0.000017
0.077538 0.590430 0.688383 -0.451314 -0.000044 0.000030
1.961566 0.265902 0.261482 0.055486 0.005455 -0.005331
2.559376 0.733291 0.655229 0.000000 0.999668 0.000000
1.853754 1.126023 1.142465 -0.055457 0.005704 -0.005213
2.614178 0.555459 0.685280 -0.000001 -0.930511 0.000010
1.843258 0.766238 0.754214 0.078535 0.002621 -0.002572
1.655733 0.551535 0.728883 -0.055455 -0.002183 -0.002004
1.881890 0.255772 1.053220 -0.039159 0.004731 0.004834
1.641718 0.827098 0.458436 -0.039161 -0.007278 -0.007364
1.974923 0.017053 1.284465 -0.055455 -0.011951 -0.010734
2.523983 0.550499 0.744699 0.083892 -0.005204 -0.006303
2.524764 0.550421 0.637884 0.000000 -0.986022 -0.000001
2.034804 0.217218 0.223924 0.078533 -0.003546 0.003478
1.817080 0.327164 0.959866 -0.055461 -0.002105 -0.001933
1.916496 0.845218 0.871778 0.055487 -0.003764 0.003688
1.954524 0.182707 0.176200 0.055486 0.008073 -0.007845
1.756549 0.334302 0.334323 -0.039162 0.005823 -0.005927
2.958209 0.499701 0.813124 0.000001 -0.713513 -0.000397
2.643767 0.552469 0.725999 -0.000002 0.713514 0.000683
1.741607 0.967968 0.988293 -0.039161 -0.005641 0.005746
2.933884 0.859409 0.446804 -0.000000 -0.713517 -0.000439
3.010169 0.422513 0.446044 -0.000001 0.713515 -0.000330
1.306138 0.733343 0.653230 -0.000000 0.999668 0.000000
2.167108 0.728008 0.621260 0.000001 0.749471 -0.000001
3.061248 0.604479 0.567861 -0.011682 -0.001402 -0.003300
1.630624 0.732273 0.666357 -0.000000 0.989948 0.000008
3.061248 0.678190 0.567861 -0.016599 0.001047 -0.002308
1.272968 0.717525 0.600572 0.000000 0.822395 -0.000009
2.505483 0.560885 0.570265 0.083894 -0.005204 0.006302
1.682353 0.347140 0.355205 -0.055456 -0.002241 0.002057
0.244707 0.564327 0.702580 -0.000001 -0.836609 0.000035
1.641718 0.450036 0.840515 -0.055457 -0.005433 -0.004967
1.896161 0.097968 1.202854 -0.055456 -0.004618 -0.004228
1.850300 0.749898 0.566022 0.078532 0.002621 0.002572
1.711342 0.310946 0.318187 -0.055454 -0.004211 0.003857
1.724442 0.835395 0.445853 -0.039161 -0.013827 -0.013419
1.817938 0.383741 0.406177 -0.055455 -0.004618 0.004228
1.853117 0.829462 0.819709 -0.055455 0.010322 -0.009323
1.867574 0.196920 1.097492 -0.055454 -0.006248 -0.005704
1.985509 0.334358 0.971291 0.055486 0.012654 0.012115
1.793307 0.379817 0.376542 -0.039163 0.003093 -0.003174
2.015086 0.445734 0.855522 0.055484 0.002018 0.001981
1.725541 0.749307 0.742933 -0.055456 0.007858 -0.007148
2.944446 0.446787 0.470763 0.000000 0.713515 -0.000137
3.132374 0.650724 0.583180 1.000000 0.000000 0.000000
1.607549 0.549302 0.652268 0.000000 -0.999668 0.000000
0.915312 0.675455 0.566723 -0.000000 0.362232 -0.000009
2.553607 0.643704 0.560220 0.000000 0.025756 -0.000008
1.898187 0.344386 0.336382 0.055486 0.012436 -0.011917
0.084636 0.707033 0.645402 -0.392693 0.000031 -0.000002
1.764745 0.676143 0.566997 0.000000 0.388669 -0.000016
2.769676 0.547241 0.573064 0.000000 0.713516 -0.000256
2.769676 0.735428 0.731323 0.000000 -0.713514 0.000256
2.167108 0.726913 0.686038 0.000000 0.930582 0.000005
1.959453 0.509597 0.774238 0.078531 -0.007169 -0.007010
2.813816 0.776247 0.498108 0.000000 0.713516 0.000427
1.934102 0.525054 0.548741 0.078533 -0.007168 0.007010
2.748299 0.729118 0.624559 0.000001 0.954616 -0.000004
1.780879 0.535990 0.528974 -0.039161 0.010527 -0.010463
1.735594 0.361589 0.375304 -0.055455 -0.004618 0.004228
1.943961 0.418776 0.888617 0.055487 0.003818 0.003741
1.884807 0.455590 0.855819 0.055484 0.002018 0.001981
0.280761 0.549414 0.656635 0.000000 -0.999668 0.000000
2.032987 0.695020 0.577445 0.000001 0.586341 -0.000018
2.032987 0.669815 0.739705 -0.000000 0.315589 0.000020
0.423535 0.716725 0.704972 -0.000000 0.822127 0.000009
1.929876 0.497181 0.809888 0.055484 0.004255 0.004166
3.077672 0.326981 0.340409 -0.134100 0.004239 -0.004127
1.917178 0.185744 1.123196 -0.039160 0.007279 0.007365
0.077538 0.667811 0.595626 -0.451312 0.000023 -0.000045
1.651803 0.737026 0.545408 -0.039163 -0.005849 -0.005953
1.541210 0.727604 0.620146 0.000000 0.940091 -0.000005
1.709890 0.725197 0.553727 -0.039161 -0.021047 -0.019084
1.837425 1.034671 0.246043 -0.039163 -0.004731 -0.004834
1.576885 0.433351 0.864000 -0.055456 -0.010593 -0.009560
1.839505 0.880142 0.875992 -0.055457 0.002377 -0.002182
3.011573 0.979949 0.990771 0.083892 -0.009612 0.007582
3.030072 0.298593 0.296893 0.083892 -0.005854 0.007087
1.884807 0.442326 0.470035 0.078533 -0.002852 0.002799
1.898866 0.562208 0.605199 -0.000000 -0.863377 -0.000008
1.775663 0.879921 0.423395 -0.055454 0.004890 0.004475
2.524764 0.611940 0.739401 -0.000002 -0.222113 0.000007
1.707663 0.491709 0.514647 -0.055456 -0.015714 0.013891
1.984805 0.801192 0.498662 0.078530 0.003006 0.002950
0.602363 0.609461 0.738526 0.000001 -0.340117 0.000037
1.710165 0.872527 0.893835 -0.039164 -0.003366 0.003451
0.691777 0.552552 0.676417 -0.000001 -0.961593 0.000004
0.168245 0.662095 0.740163 -0.097958 0.000078 0.000371
2.030579 0.066445 0.070856 0.078532 -0.007708 0.007533
1.936214 0.737097 0.734989 0.078532 0.007169 -0.007010
2.122401 0.554303 0.682115 0.000002 -0.919184 0.000002
1.547971 0.771920 0.522263 -0.055456 0.005239 0.004792
3.016541 0.679202 0.568319 0.000000 0.412222 -0.000117
2.569471 0.562919 0.604027 0.000000 -0.850499 -0.000008
1.541210 0.555540 0.618901 -0.000002 -0.900805 -0.000003
1.815122 0.891114 0.414451 -0.055455 0.004618 0.004228
0.334121 0.557948 0.613246 -0.000001 -0.855159 -0.000002
1.710165 0.402649 0.886477 -0.055457 -0.002513 -0.002306
3.017340 0.367991 0.390520 -0.000000 0.713515 -0.000439
2.961465 0.883309 0.881922 -0.000000 -0.713515 0.000659
2.999786 0.419785 0.894508 -0.000001 -0.713512 -0.000330
2.980090 0.388904 0.411817 -0.000000 0.713515 -0.000659
1.228261 0.702504 0.720952 0.000001 0.667980 0.000015
3.044888 0.562925 0.589037 0.000021 -0.133932 -0.000022
2.974718 0.637855 0.744149 -0.000066 -0.017729 0.001926
1.742306 0.568582 0.741636 -0.039161 0.010397 0.010342
1.662558 0.907734 0.378943 -0.039164 -0.006368 -0.006469
1.819533 0.278516 1.027712 -0.039163 0.002547 0.002616
1.844666 0.712938 0.561623 0.055490 -0.003709 -0.003634
2.034804 0.225659 1.071867 0.078531 -0.003546 -0.003478
2.034804 1.057010 1.071867 0.078529 0.003546 -0.003478
1.841850 0.776605 0.807824 0.055483 -0.003710 0.003635
1.712184 0.461624 0.843921 -0.039162 0.003639 0.003729
1.997481 0.897201 0.918292 0.055487 -0.001800 0.001767
0.935502 0.733312 0.649973 0.000000 0.999668 -0.000000
1.902412 0.796358 0.481251 0.055486 -0.002127 -0.002088
1.945369 0.879614 0.423233 0.078532 0.001253 0.001230
0.224517 0.639039 0.560188 -0.000000 -0.012871 -0.000017
2.017903 0.858185 0.436900 0.078533 0.001349 0.001324
0.450936 0.549395 0.648492 -0.000000 -0.999668 -0.000000
0.468242 0.610401 0.565520 -0.000001 -0.340214 -0.000037
1.924947 0.877911 0.904401 0.055487 -0.003546 0.003475
1.541210 0.649691 0.743840 0.000000 0.090101 0.000037
2.077694 0.650503 0.560620 0.000000 0.090155 -0.000146
1.898866 0.672616 0.565646 0.000001 0.340359 -0.000037
2.224794 0.549327 0.653230 0.000000 -0.999668 0.000000
1.788148 0.782598 0.774031 -0.055454 0.007858 -0.007148
0.691777 0.729801 0.677559 0.000000 0.963886 0.000001
1.906637 0.762676 0.546675 0.078533 0.007168 0.007010
0.915312 0.727021 0.618625 0.000000 0.931172 -0.000001
1.705328 0.915925 0.368647 -0.039162 -0.006187 -0.006289
0.378828 0.725057 0.690399 -0.000000 0.910822 0.000006
0.299509 0.733259 0.656487 0.000000 0.999668 0.000000
2.041142 0.809362 0.479012 0.055486 -0.002018 -0.001981
1.943573 0.689942 0.730337 -0.000000 0.525709 0.000043
1.903116 0.899574 0.407656 0.078530 0.001253 0.001230
2.003819 1.177867 1.191461 0.078536 0.002544 -0.002496
1.677473 0.749327 0.746900 -0.055454 0.007858 -0.007148
3.132374 0.548313 0.645110 -0.023469 -0.001787 -0.000113
3.096811 0.610730 0.564731 -0.017628 -0.004011 -0.009442
2.907169 0.766797 0.541119 0.000000 -0.713516 -0.000128
2.914210 0.734422 0.763685 0.000000 0.713517 -0.000256
2.758016 0.547241 0.731323 0.000000 0.713516 0.000256
1.610414 0.466682 0.824966 -0.055455 -0.015714 -0.013891
1.622967 0.859233 0.871008 -0.055454 0.010594 -0.009560
1.610710 0.844883 0.447992 -0.055454 0.002649 0.002431
1.861677 0.303367 0.298519 -0.039162 0.005095 -0.005200
0.114030 0.585350 0.706754 -0.308876 -0.000072 0.000067
1.859719 0.911198 0.364803 -0.039161 -0.011644 -0.011487
2.017903 0.407602 0.419707 0.078533 -0.001253 0.001230
2.648461 0.571271 0.580842 0.000001 -0.700639 -0.000556
0.446610 0.643038 0.744206 0.000000 0.012881 0.000033
1.146058 0.642667 0.744194 0.000000 0.025756 0.000033
1.734201 1.000743 0.288476 -0.055456 0.007877 0.007165
2.066156 0.549308 0.651897 0.000000 -0.999668 -0.000000
2.677633 0.644592 0.560243 0.000000 0.025756 -0.000033
1.094140 0.625127 0.561601 -0.000000 -0.166579 -0.000078
1.656792 0.854797 0.440984 -0.055455 0.005297 0.004845
1.971425 1.148466 0.128145 0.055484 -0.003710 -0.003634
1.863944 0.938108 0.937081 -0.055457 0.002173 -0.001995
1.988280 0.604752 0.567745 -0.000000 -0.388573 -0.000031
2.435350 0.672268 0.565520 -0.000001 0.340214 -0.000037
1.632161 0.415307 0.884554 -0.039161 0.003457 0.003544
1.980557 1.281244 1.301014 -0.055453 0.010866 -0.009796
1.980557 1.281244 0.003373 -0.055456 0.010865 0.009796
1.980557 0.001425 0.003373 -0.000001 -0.700611 -0.000125
2.016495 0.574002 0.589324 0.078533 -0.005550 0.005436
1.978467 1.090659 1.099800 0.078533 0.003160 -0.003101
0.144694 0.716691 0.609544 -0.189494 0.000162 -0.000086
1.407089 0.676280 0.737332 0.000000 0.388327 0.000016
1.228261 0.631540 0.560685 -0.000000 -0.115285 -0.000057
1.970017 0.223893 0.238006 0.078532 -0.003469 0.003403
1.702148 0.321708 0.975240 -0.055455 -0.002105 -0.001933
2.029171 0.287138 0.288471 0.055486 0.011781 -0.011317
1.793645 0.570018 0.743046 -0.039161 0.010397 0.010342
1.868417 0.945602 0.359515 -0.055455 0.002105 0.001933
2.031987 0.253730 1.049714 0.055487 0.005455 0.005331
0.361522 0.549407 0.656339 0.000000 -0.999668 0.000000
2.037621 1.098589 1.114526 0.078533 0.003238 -0.003176
2.037621 1.098589 0.189861 0.078533 0.006475 0.006337
1.965791 0.140650 0.153709 0.078533 -0.005704 0.005586
3.021623 0.799400 0.474530 -0.000001 0.713514 0.000439
1.881286 0.746279 0.773813 0.055487 -0.005564 0.005436
2.765605 0.733282 0.655599 -0.000000 0.999668 0.000000
1.138847 0.706931 0.716743 -0.000001 0.700047 0.000007
2.167108 0.676689 0.737160 0.000000 0.386453 0.000008
1.644534 0.447487 0.450427 -0.039161 0.007278 -0.007364
3.096811 0.706857 0.717716 -0.017628 0.007815 0.006385
3.096811 0.733415 0.662568 -0.017628 0.010394 0.000503
3.096811 0.557848 0.611989 -0.017627 -0.009684 -0.003516
0.602363 0.673800 0.738312 -0.000000 0.364790 0.000068
2.031987 1.028939 0.254673 0.055487 -0.005455 -0.005331
3.132374 0.709163 0.666157 1.000000 0.000000 0.000000
1.809452 0.612081 0.564940 -0.000001 -0.310845 -0.000010
2.862726 0.468819 0.493201 0.000000 0.713516 -0.000128
2.699642 0.761569 0.546443 0.083892 -0.004839 -0.003835
2.750975 0.751113 0.557092 -0.000000 -0.713517 -0.000513
2.725309 0.526329 0.551767 0.000001 0.713515 -0.000513
1.938327 0.847417 0.456813 0.078532 0.001330 0.001306
2.036213 1.245764 1.270189 0.055485 -0.009600 0.009289
2.579089 0.716962 0.586305 0.000001 0.700636 -0.000366
0.152504 0.630023 0.739561 -0.159123 -0.000034 0.000221
1.835367 1.101663 1.123328 -0.039164 -0.008005 0.008072
1.826421 0.196265 0.196375 -0.039162 0.008370 -0.008424
1.741193 0.525039 0.553680 -0.055455 -0.007858 0.007148
1.576885 0.433351 0.440388 -0.055455 -0.002649 0.002431
1.740080 0.500051 0.777998 -0.055456 -0.007858 -0.007148
1.642831 0.807645 0.491163 -0.055455 0.007858 0.007148
1.853754 1.123188 0.159139 -0.039159 -0.007279 -0.007365
2.837713 0.611028 0.565293 -0.000001 -0.270826 -0.000006
1.708776 0.530912 0.776407 -0.039162 0.010527 0.010463
2.037621 0.186915 0.187077 0.055486 0.009164 -0.008879
2.122401 0.729969 0.676952 -0.000000 0.963500 0.000004
0.025410 0.619947 0.667398 -0.655624 -0.000012 0.000008
2.897932 0.563932 0.747713 0.000000 -0.713514 -0.000256
1.883903 1.168056 1.190494 -0.039160 -0.006187 0.006289
3.095708 1.031662 1.053869 -0.134098 0.002803 -0.002775
3.095708 1.035835 0.254616 -0.134103 -0.002826 -0.002752
1.593758 0.536673 0.764523 -0.039163 0.004679 0.004781
1.733738 0.549306 0.651971 0.000000 -0.999668 -0.000000
2.090673 0.640298 0.744202 0.000000 -0.025756 0.000017
0.200000 0.560098 0.608939 -0.005596 -0.002993 -0.001362
2.032987 0.613205 0.739822 0.000000 -0.316348 0.000020
2.345936 0.697983 0.579666 0.000001 0.610287 -0.000034
0.334121 0.610192 0.565596 0.000000 -0.340589 -0.000037
1.988280 0.591940 0.729850 0.000000 -0.547249 0.000010
2.658885 0.728172 0.682675 0.000000 0.938961 0.000001
0.960019 0.654875 0.561166 -0.000000 0.141077 -0.000046
3.019784 0.521847 0.547204 0.000000 0.713515 -0.000269
3.044174 0.719484 0.555914 -0.134099 0.002685 0.002658
3.042033 0.785469 0.782283 -0.134100 -0.002707 0.002636
2.974217 0.736175 0.572304 -0.000001 -0.713515 -0.000793
2.924301 0.524347 0.788024 -0.000000 -0.713515 -0.000397
2.974217 0.546494 0.732084 -0.000001 0.713515 0.000793
2.945338 0.815344 0.812707 -0.000001 -0.713515 0.000549
2.946907 0.774753 0.804758 -0.000000 0.713515 -0.000397
0.388923 0.643038 0.560181 -0.000000 0.012818 -0.000067
1.947482 0.303287 0.321393 0.078533 -0.004085 0.004006
1.953115 0.298595 1.010281 0.055486 0.005891 0.005753
1.762244 0.425231 0.857621 -0.055455 -0.005026 -0.004598
1.183554 0.675455 0.737664 -0.000000 0.364581 0.000017
2.971834 0.728635 0.681307 0.000000 0.948633 0.000009
1.697907 0.416999 0.432524 -0.055456 -0.002513 0.002306
1.729712 0.909679 0.917156 -0.055455 0.002377 -0.002182
1.853117 0.473729 0.839860 0.055486 0.007964 0.007741
1.896470 0.224346 0.219833 -0.039162 0.008734 -0.008773
1.780879 0.746680 0.775413 -0.039161 -0.010527 0.010463
2.876808 0.500188 0.779241 0.000000 0.713517 0.000513
1.675331 0.709845 0.713638 -0.000001 0.741601 0.000012
2.921165 0.476548 0.836703 -0.000000 -0.713513 -0.000275
2.891442 0.831515 0.441824 0.000000 0.713517 0.000275
2.872817 0.444919 0.835525 0.000001 0.713514 0.000275
1.855493 0.368003 0.392129 -0.055455 -0.008693 0.007890
0.960019 0.676825 0.737102 0.000000 0.388570 0.000031
1.809433 0.476120 0.506033 -0.055457 -0.005433 0.004967
1.858310 0.360189 0.920533 -0.055454 -0.004347 -0.003981
0.647070 0.555919 0.617935 0.000000 -0.931172 -0.000001
1.781544 0.891323 0.892920 -0.055456 0.002377 -0.002182
1.803359 0.414358 0.866081 -0.055453 -0.002445 -0.002244
1.919995 0.169424 0.181270 -0.055455 -0.005433 0.004968
1.925629 1.128873 1.139666 -0.055459 0.005161 -0.004721
2.041847 0.757890 0.536346 0.078532 0.007169 0.007010
2.041847 0.524779 0.536346 0.078532 -0.007169 0.007010
1.991143 0.555694 0.573530 0.078534 -0.007168 0.007010
2.067198 0.019732 1.285220 0.055489 0.007854 0.007637
2.041847 0.558544 0.570732 0.078531 -0.002775 0.002723
1.986918 0.768012 0.772173 0.078533 0.007168 -0.007010
2.067198 0.756465 0.769440 0.055484 -0.003928 0.003847
2.067198 0.722700 0.735054 0.055487 -0.007855 0.007637
1.809433 0.787715 0.816848 -0.039162 -0.014554 0.014042
2.602640 0.549369 0.649529 0.000000 -0.999668 -0.000000
1.738967 0.475063 0.499098 -0.055455 -0.005433 0.004968
3.061248 0.732881 0.661657 -0.016818 0.002496 0.000223
1.917614 0.641187 0.560163 0.000000 -0.025756 -0.000033
1.894264 0.287953 1.022626 -0.039166 0.002365 0.002430
2.958209 0.782969 0.491263 -0.000000 0.713516 0.000397
2.996822 0.735916 0.539181 0.000002 0.713508 0.000397
2.925869 0.548247 0.540702 0.000000 -0.713517 0.000128
2.922733 0.782222 0.492024 -0.000001 0.713516 0.000793
0.152504 0.726526 0.674629 -0.159121 0.000221 0.000052
0.160357 0.661860 0.565220 -0.128607 0.000072 -0.000273
1.870018 0.857444 0.887914 0.055486 -0.001909 0.001874
0.025410 0.653667 0.629031 -0.655622 0.000006 -0.000011
3.016541 0.570313 0.710719 0.000001 -0.775847 0.000022
1.656792 0.427872 0.863403 -0.055456 -0.005297 -0.004844
1.898187 0.739234 0.571497 0.078531 0.002621 0.002572
1.556985 0.579724 0.720682 -0.039161 0.014035 0.013598
1.733738 0.641113 0.744223 0.000000 -0.025756 0.000033
1.645827 0.888252 0.900720 -0.055456 0.010050 -0.009086
2.703592 0.554510 0.682709 -0.000001 -0.937237 0.000005
2.693496 0.733353 0.650935 0.000000 0.999917 -0.000000
1.965791 0.140650 1.150678 0.078533 -0.005704 -0.005586
1.917364 0.068629 1.233049 -0.055454 -0.004075 -0.003733
2.726666 0.644592 0.560243 0.000000 0.025756 -0.000017
1.764745 0.609252 0.565936 0.000001 -0.340593 -0.000073
1.791899 0.383859 0.923841 -0.039160 0.006187 0.006289
2.858183 0.755334 0.519405 -0.000000 0.713517 0.000854
2.840656 0.514265 0.506095 -0.000002 -0.713493 0.000214
0.453820 0.733270 0.648344 0.000000 0.999668 -0.000000
1.815122 0.876938 0.903856 -0.039157 -0.003094 0.003174
1.760225 0.386238 0.384589 -0.039163 0.003093 -0.003174
1.921249 1.171092 1.195486 -0.039167 -0.005822 0.005927
0.223075 0.733354 0.651009 -0.000000 0.999914 -0.000000
1.245567 0.641187 0.744224 0.000000 -0.025756 0.000033
2.902610 0.645332 0.744125 0.000000 0.025756 0.000033
1.881286 0.889780 0.919951 0.055487 -0.001800 0.001767
1.675331 0.697983 0.579666 0.000001 0.610171 -0.000034
1.562537 0.724830 0.742250 -0.039159 -0.007019 0.007110
1.965791 1.132298 1.160223 0.055484 -0.008073 0.007845
1.870018 0.406324 0.435033 0.078532 -0.001253 0.001230
1.817080 0.945042 0.970140 -0.039162 -0.005641 0.005746
1.272968 0.549959 0.641259 -0.000000 -0.993283 -0.000003
1.868828 1.148187 1.165353 -0.055456 0.010322 -0.009323
1.735478 0.960793 0.323401 -0.039160 -0.002821 -0.002895
1.858249 0.247354 0.261028 -0.055457 -0.003531 0.003238
