1.241172 0.692822 0.771596 0.000000 -0.028019 0.000009
0.115599 0.640021 0.736370 -0.294309 -0.000088 0.000083
0.115599 0.728014 0.612357 -0.294307 0.000055 -0.000107
1.547498 0.784354 0.681996 0.000000 0.999607 0.000000
3.212201 0.783863 0.672489 0.000001 0.994466 -0.000002
1.758824 0.871345 0.498364 0.063476 -0.002052 -0.002086
0.312152 0.689990 0.592162 -0.000000 -0.028398 -0.000019
1.790639 1.057678 1.028590 0.095572 0.008338 -0.008448
3.366261 0.867918 0.494054 0.000001 0.701099 0.000961
0.659488 0.757462 0.745917 0.000000 0.697067 0.000033
3.615991 0.398206 0.390464 -0.176409 -0.004148 0.003869
3.615991 0.990900 0.390464 -0.176409 -0.003800 -0.004212
3.457720 0.481643 0.908504 0.000000 -0.701099 -0.000456
3.102608 0.578047 0.779062 0.000000 0.701099 0.000779
3.249453 0.540567 0.513108 -0.000001 -0.701098 0.000585
1.663378 0.831086 0.575013 0.095572 0.003207 0.003260
1.067922 0.769716 0.632705 -0.000000 0.839171 -0.000010
0.419282 0.698802 0.771525 0.000000 0.028019 0.000019
2.803767 0.724102 0.766642 -0.000000 0.316228 0.000006
1.739251 1.385679 0.002309 -0.042086 -0.017146 -0.016964
1.739251 0.003427 0.002309 -0.000001 -0.713049 -0.000153
2.259746 0.784310 0.680108 0.000000 0.999607 -0.000000
3.110093 0.717668 0.595067 0.000000 0.263502 -0.000029
1.727009 0.958111 0.410216 0.063476 -0.007243 -0.007319
1.118977 0.626816 0.740789 -0.000000 -0.754847 0.000028
1.647470 0.556949 0.576102 0.095573 -0.003207 0.003260
3.416418 0.672275 0.594843 -0.000000 -0.236154 -0.000033
1.014357 0.604876 0.677275 0.000000 -0.999607 -0.000000
3.393820 0.784327 0.684043 0.000000 0.999902 0.000000
3.234167 0.916269 0.891171 0.084133 -0.008989 0.006543
3.013981 0.834092 0.810372 0.084135 -0.008989 0.006542
0.557380 0.646975 0.605676 0.000000 -0.520500 -0.000007
3.156994 0.820193 0.788043 0.000000 -0.701100 0.000487
1.723827 0.440935 0.419706 0.063476 0.007243 -0.007319
1.500333 0.875187 0.494019 -0.042086 -0.016921 -0.016772
3.539228 0.684149 0.777499 -0.088618 -0.000064 0.000524
1.616128 0.697071 0.771573 0.000000 0.028019 0.000287
1.343281 0.695969 0.592073 0.000000 0.028019 -0.000019
0.761597 0.639774 0.610686 -0.000000 -0.612390 -0.000021
2.899180 0.784268 0.678613 0.000000 0.999607 -0.000000
1.221085 0.709285 0.593254 0.000001 0.153423 -0.000104
3.378782 0.493673 0.467001 -0.000000 -0.701099 0.001217
1.361694 0.697228 0.771569 -0.000000 0.028019 0.000287
1.268612 0.808097 0.793478 -0.042087 -0.010315 0.010702
2.037953 0.726431 0.765793 -0.000000 0.343580 0.000022
3.437911 0.831438 0.799099 0.000001 -0.701097 0.000961
3.228103 0.693215 0.592052 0.000002 -0.009273 -0.000227
1.425302 0.782501 0.699975 0.000000 0.977899 0.000007
1.698431 0.144396 1.215911 -0.063433 -0.010196 -0.009510
3.080799 0.698172 0.771543 0.000000 0.028019 0.000038
3.380429 0.604880 0.686559 0.000000 -0.999607 0.000000
3.241291 0.577104 0.814645 0.000000 -0.701099 -0.001169
1.559762 0.404771 0.388405 -0.042084 0.003555 -0.003783
1.884790 0.699588 0.592175 0.000000 0.069686 -0.000058
2.381942 0.697071 0.771573 0.000000 0.028019 0.000287
1.692068 0.163564 0.167470 -0.063433 -0.011470 0.010662
2.497442 0.776930 0.717579 -0.000000 0.918302 0.000014
1.739997 0.698015 0.592131 0.000000 0.028019 -0.000287
3.282090 0.477570 0.877852 0.000001 0.701099 0.001364
1.506696 0.895067 0.888638 -0.042086 -0.016920 0.016772
3.314310 0.745483 0.755795 0.000000 0.567131 0.000023
3.149430 0.604805 0.679321 -0.000069 -0.277185 -0.000003
1.374248 0.605501 0.693377 -0.000000 -0.991740 0.000002
1.782682 0.723168 0.766954 -0.000001 0.316160 0.000048
1.592238 0.298523 0.287062 -0.042084 0.002877 -0.003066
1.731781 0.503835 0.512527 0.095573 -0.002726 0.002771
3.466979 0.593598 0.798428 -0.000000 -0.701099 -0.000489
1.728628 1.221750 1.207285 -0.042086 -0.015793 0.015796
0.761597 0.781107 0.705751 -0.000000 0.964374 0.000004
1.851088 0.570656 0.801515 0.095573 -0.003207 -0.003260
2.140062 0.753919 0.614463 0.000000 0.655766 -0.000009
1.752461 0.331877 1.048646 0.063476 0.005794 0.005869
2.892821 0.811492 0.566862 0.084134 0.006421 0.009065
3.430800 0.376830 0.994231 0.084133 -0.006421 -0.009066
3.430800 1.012276 0.994231 0.084132 0.006421 -0.009066
1.866996 0.856572 0.522538 0.063477 -0.008208 -0.008280
1.866996 0.895766 0.879675 0.063476 -0.007725 0.007800
1.866996 0.532533 0.522538 0.063476 0.008208 -0.008280
3.161811 0.911884 0.468154 0.084135 0.006426 0.009073
3.261690 0.870431 0.526239 0.000000 -0.701099 -0.000682
2.854821 0.676571 0.593858 0.000000 -0.208769 -0.000151
2.605409 0.696598 0.771587 0.000000 0.028398 0.000019
1.501592 0.380284 0.984409 -0.063433 -0.002390 -0.002256
1.797002 1.116039 0.276849 0.095571 0.007055 0.007156
1.467711 0.580082 0.776030 -0.063431 -0.004552 -0.004289
1.612829 1.073603 1.061907 -0.042087 -0.002877 0.003066
1.722236 0.806025 0.804353 0.063475 -0.010622 0.010656
1.680573 0.606223 0.665673 0.000000 -0.983407 -0.000006
1.601665 0.944207 0.906742 -0.063434 0.005098 -0.004800
1.604782 1.220656 0.164563 -0.042085 -0.008801 -0.009202
1.564442 1.171149 1.150438 -0.042085 -0.019852 0.019183
1.497208 1.088637 0.294367 -0.042085 -0.003103 -0.003306
1.758824 0.525252 0.833734 0.095573 -0.001363 -0.001386
0.302109 0.607635 0.659256 0.000001 -0.955510 -0.000001
1.016868 0.771903 0.727467 -0.000000 0.868383 0.000002
1.619192 1.102028 0.291482 -0.063434 0.015292 0.014044
0.251054 0.767817 0.629903 0.000001 0.823592 -0.000089
3.553069 1.057909 1.039098 0.084132 0.008561 -0.012060
3.553069 0.331197 1.039098 0.084134 -0.008561 -0.012060
1.777913 0.222961 1.153464 0.063476 0.009656 0.009710
1.833736 0.783089 0.696882 0.000000 0.988122 0.000010
2.191116 0.609949 0.711943 -0.000000 -0.939111 0.000006
2.757735 0.604814 0.679478 0.000000 -0.999607 -0.000000
1.986899 0.636613 0.750453 0.000000 -0.655874 0.000019
1.170031 0.779368 0.652327 -0.000001 0.939581 -0.000003
1.833736 0.605471 0.670534 0.000000 -0.992067 -0.000000
0.761597 0.609051 0.709297 0.000000 -0.948076 0.000001
2.752713 0.783162 0.696415 0.000000 0.980939 0.000001
1.527411 0.727823 0.598433 -0.000001 0.368343 -0.000020
0.863705 0.650668 0.760185 -0.000000 -0.495713 0.000014
2.650604 0.750048 0.611240 0.000000 0.612461 -0.000041
3.314310 0.642780 0.755214 0.000001 -0.510960 0.000003
1.552819 0.830710 0.572568 -0.063432 0.016725 0.015279
0.442717 0.784239 0.677590 0.000000 0.999607 -0.000000
1.585094 0.260769 1.103204 -0.063433 -0.007647 -0.007172
2.446387 0.745613 0.607972 -0.000000 0.567088 -0.000047
2.446387 0.608851 0.708659 0.000001 -0.954711 0.000005
1.456867 1.039130 1.020634 -0.042089 -0.012635 0.012927
1.866996 0.258182 0.252789 0.063476 0.009656 -0.009710
1.755642 0.299677 0.308582 0.095572 -0.003848 0.003911
1.797002 0.057505 0.064904 0.095571 -0.007696 0.007803
2.037953 0.611234 0.648349 0.000000 -0.929054 -0.000003
1.335846 0.498497 0.874605 -0.063434 -0.002731 -0.002578
0.659488 0.659427 0.764481 0.000000 -0.395523 0.000075
1.784276 0.370193 0.374059 0.095572 -0.008979 0.009093
0.200000 0.679510 0.770375 0.000458 -0.008535 0.002485
1.797002 0.057505 1.298774 0.095570 -0.007697 -0.007803
3.567142 0.845979 0.532953 -0.176409 -0.003660 -0.004057
1.322399 0.874106 0.858379 -0.042085 -0.007737 0.008128
3.063996 0.513728 0.859630 0.084134 -0.006427 -0.009073
3.431091 0.923672 0.439236 0.000001 0.701100 0.000456
0.076134 0.645213 0.646830 -0.448387 -0.000048 -0.000032
2.599550 0.659101 0.599337 -0.000000 -0.395575 -0.000149
1.634201 1.003260 0.366392 -0.042086 -0.006319 -0.006675
0.076134 0.752687 0.698587 -0.448384 0.000056 0.000014
3.048222 0.801925 0.593597 0.000000 -0.701099 -0.001169
3.336555 0.897105 0.898321 0.000003 0.701075 -0.000304
2.145921 0.690619 0.771534 0.000000 -0.028019 0.000287
0.863705 0.669843 0.595502 0.000001 -0.260953 -0.000030
3.539228 0.694553 0.681839 1.000000 0.000000 0.000000
2.993837 0.613641 0.584956 0.000000 -0.701099 0.000779
1.443421 1.022627 0.359269 -0.042088 -0.003554 -0.003783
1.689729 0.263379 0.248535 -0.042086 0.009703 -0.010100
1.563951 0.620364 0.590003 -0.042088 0.006125 -0.006474
1.408365 0.858892 0.514581 -0.042088 -0.006447 -0.006807
1.502373 0.950119 0.423750 -0.042087 -0.007221 -0.007602
1.358214 0.600867 0.599517 -0.063434 -0.005462 0.005141
3.314310 0.653756 0.601841 -0.000000 -0.446473 -0.000032
3.467472 0.752493 0.613224 -0.089354 0.000332 -0.000382
1.502110 0.800122 0.763422 -0.063432 0.008364 -0.007833
0.302109 0.741122 0.758616 -0.000000 0.520136 0.000053
1.733372 0.401316 0.982074 0.063477 0.006760 0.006837
1.657015 0.600687 0.792860 0.063477 0.004828 0.004897
1.822454 0.996747 0.390713 0.095572 0.004490 0.004561
1.358214 0.788238 0.599517 -0.063435 0.005462 0.005141
1.774731 1.166530 1.133473 0.095571 0.003207 -0.003260
1.221085 0.614988 0.723474 -0.000002 -0.693829 0.000001
1.362740 0.465492 0.456622 -0.063433 -0.002709 0.002556
0.533945 0.604856 0.685694 0.000000 -0.999607 0.000000
1.866996 0.199392 1.168691 0.063478 0.007725 0.007800
3.449793 0.536897 0.509500 0.000001 -0.701100 0.000609
0.557380 0.740147 0.604469 0.000002 0.388022 -0.000005
3.595056 0.460315 0.912147 -0.176407 -0.003995 -0.003727
3.595056 0.928791 0.912147 -0.176408 -0.003660 0.004057
2.058877 0.784327 0.680737 0.000000 0.999607 -0.000000
1.771550 0.950299 0.941807 0.063477 -0.007243 0.007319
0.404217 0.641822 0.609154 0.000000 -0.590045 -0.000022
1.738533 1.239941 0.138790 -0.042086 -0.006996 -0.007371
1.055368 0.692192 0.771578 0.000000 -0.028019 0.000005
2.939451 0.605449 0.752119 -0.000001 0.701099 0.000779
3.477884 0.421822 0.396356 0.000000 -0.701099 0.000609
3.227691 0.784599 0.575975 0.000000 0.701099 0.000585
3.227691 0.604507 0.575975 0.000000 -0.701099 0.001169
2.293225 0.619583 0.632408 0.000001 -0.828595 -0.000005
0.506326 0.744770 0.756286 0.000000 0.566031 0.000012
1.688406 1.283523 1.257928 -0.063434 0.004461 -0.004203
3.242646 0.801925 0.770081 0.000000 -0.701099 0.001169
1.489748 0.604818 0.684357 0.000000 -0.999607 0.000000
2.242170 0.739634 0.604176 0.000000 0.495861 -0.000056
1.255165 0.791594 0.586425 -0.042086 -0.010315 -0.010702
0.863705 0.740044 0.759267 -0.000001 0.494613 0.000014
1.484154 0.461321 0.900234 -0.063434 -0.002708 -0.002556
0.200000 0.704608 0.592598 0.000455 0.005965 -0.003581
1.629519 0.771821 0.636076 -0.000000 0.852596 -0.000005
1.771550 0.144859 0.132854 0.063477 0.015448 -0.015268
3.622969 1.011603 0.993569 -0.176408 -0.005066 0.005615
3.622969 0.377503 0.993569 -0.176408 -0.005531 -0.005158
2.905876 0.611496 0.647691 0.000000 -0.908652 -0.000001
1.785867 0.867652 0.859270 0.063474 -0.002052 0.002086
3.366544 0.498240 0.892186 0.000001 -0.701100 -0.000609
3.300081 0.784239 0.677590 0.000000 0.999607 -0.000000
1.731628 0.772645 0.637510 0.000000 0.867410 -0.000005
1.425302 0.726284 0.597830 -0.000000 0.343281 -0.000044
1.517828 0.520200 0.834785 -0.063434 -0.008364 -0.007833
1.055368 0.691878 0.592109 0.000000 -0.028019 -0.000287
1.841543 0.190729 0.184198 0.063476 0.007725 -0.007800
3.546206 0.783870 0.594020 -0.176407 -0.003800 -0.004212
2.701658 0.733659 0.762680 0.000001 0.446003 0.000032
0.200000 0.610652 0.713865 0.000457 -0.044304 0.000167
1.797002 1.323768 0.056937 0.063477 -0.011587 -0.011594
1.797002 1.323768 1.306740 0.063477 -0.011587 0.011594
0.659488 0.645089 0.606890 -0.000001 -0.543250 -0.000025
2.974800 0.774522 0.743138 -0.000001 0.713064 0.000727
3.023748 0.613641 0.778721 0.000000 -0.701099 -0.000779
3.517700 0.912310 0.878614 -0.000001 -0.701099 0.000913
2.795006 0.614120 0.602755 0.084134 -0.006421 0.009065
1.702334 0.693609 0.771618 0.000000 -0.028019 0.000287
1.565705 0.343157 1.033298 -0.042085 0.003159 0.003365
1.677695 0.526277 0.864176 0.063476 0.002052 0.002086
3.237216 0.843971 0.846079 0.000002 0.701093 -0.000585
1.648610 0.428520 0.958165 -0.042086 0.007108 0.007487
1.777671 0.004562 1.362523 -0.000001 -0.713063 0.000153
2.672365 0.604814 0.684199 0.000000 -0.999607 0.000000
1.986899 0.747855 0.609572 0.000002 0.572787 -0.000011
3.214091 0.614584 0.743138 0.000000 -0.713063 0.000363
1.653382 0.395630 0.409565 -0.063433 -0.005019 0.004726
1.323194 0.764566 0.738075 0.000000 0.772995 0.000013
1.660197 0.847351 0.850519 0.063474 -0.002414 0.002454
1.795411 0.439530 0.922944 0.095573 -0.004810 -0.004886
0.914760 0.758439 0.618732 -0.000000 0.713173 -0.000004
1.551820 0.614989 0.778007 -0.042086 0.003063 0.003263
3.078134 0.784599 0.787702 0.000000 0.701099 -0.001169
1.422773 0.572888 0.553702 -0.042085 0.006448 -0.006808
2.772800 0.694474 0.592035 0.000000 -0.014382 -0.000037
1.641107 0.787710 0.793582 0.063475 -0.004829 0.004897
2.571931 0.784301 0.679793 0.000000 0.999607 -0.000000
0.659488 0.782968 0.666138 0.000000 0.983163 -0.000003
3.539228 0.621214 0.619544 -0.091700 -0.000393 -0.000325
1.221085 0.765633 0.736711 0.000000 0.790523 0.000012
1.714283 1.065325 1.060011 0.063475 -0.005794 0.005869
3.481463 0.520825 0.835323 -0.000002 0.701096 0.000609
3.088449 0.884504 0.495075 0.084134 0.006421 0.009066
3.577523 0.322071 0.315606 0.084133 -0.004281 0.006054
3.577523 1.067035 0.315606 0.084133 0.004281 0.006054
1.884790 0.621110 0.733515 -0.000000 -0.823375 0.000011
1.866996 0.591323 0.580341 0.063476 0.009656 -0.009710
1.866996 1.091731 1.072353 0.063476 -0.010622 0.010656
1.866996 1.209310 1.187959 0.063476 -0.007725 0.007800
1.866996 0.395357 0.387663 0.063476 0.006277 -0.006353
1.282059 0.564507 0.553975 -0.063434 -0.007283 0.006835
3.390240 0.614426 0.777950 0.000002 -0.701062 -0.000222
1.579572 1.030687 1.000338 -0.063435 0.008921 -0.008345
2.879930 0.691563 0.771560 0.000000 -0.028019 0.000075
1.884790 0.770593 0.634059 0.000000 0.854067 -0.000002
1.866996 1.032941 1.014550 0.063475 -0.005794 0.005869
3.210718 0.458969 0.913470 0.084134 -0.006427 -0.009073
3.443143 0.595989 0.602257 0.000000 0.701099 -0.000978
0.165770 0.777720 0.652737 -0.099104 0.000409 -0.000130
3.477884 0.984609 0.413977 -0.000002 -0.701096 -0.000609
3.033930 0.691248 0.592126 0.000000 -0.028019 -0.000019
1.672259 0.206355 1.167521 -0.042085 0.017597 0.017345
1.604782 0.168450 0.164563 -0.063432 -0.005736 0.005396
1.510655 0.283967 0.278142 -0.063433 -0.008284 0.007760
1.416527 0.989623 0.971958 -0.042087 -0.003780 0.004021
1.429974 0.382981 0.375494 -0.063433 -0.009559 0.008929
1.349293 0.907111 0.472847 -0.042085 -0.010316 -0.010702
1.866996 0.336568 1.033817 0.063477 0.011587 0.011594
0.251054 0.780105 0.709148 -0.000000 0.932856 0.000001
1.777671 1.387392 1.359626 -0.063433 0.012107 -0.011235
1.641374 0.307632 1.070923 -0.042086 0.005755 0.006090
0.836923 0.784285 0.679242 0.000000 0.999607 -0.000000
3.546206 0.605236 0.769657 -0.176408 -0.004148 -0.003869
1.549408 0.492924 0.471532 -0.042085 0.007673 -0.008063
3.355513 0.938938 0.458882 0.000000 -0.701099 -0.001217
1.672259 1.189871 1.160279 -0.063434 0.012744 -0.011803
2.293225 0.756983 0.746383 -0.000001 0.694964 0.000017
1.676104 0.946043 0.946136 0.063476 -0.007243 0.007319
1.578763 0.962385 0.407858 -0.042086 -0.003780 -0.004021
3.470650 0.755403 0.758996 0.018369 0.032801 0.015773
1.432128 0.868224 0.859204 -0.042086 -0.011846 0.012181
1.170031 0.606330 0.665093 -0.000000 -0.983425 -0.000001
0.353163 0.753057 0.613715 0.000000 0.655812 -0.000074
1.792230 0.463812 0.465036 0.095572 -0.002566 0.002608
1.677695 0.862828 0.499501 0.063476 -0.002052 -0.002086
1.624388 0.470970 0.877038 -0.063434 -0.011311 -0.010519
1.163335 0.693215 0.771607 0.000000 -0.028019 0.000038
1.399516 0.618675 0.765768 -0.042086 0.010315 0.010702
3.381682 0.792118 0.760439 0.000000 -0.701099 0.000890
1.754801 0.111093 1.261469 -0.042084 0.012185 0.012503
1.784276 1.205080 0.191015 0.095572 0.005773 0.005860
1.986899 0.649574 0.604117 -0.000001 -0.493479 -0.000014
3.064534 0.614584 0.620540 0.000000 -0.713063 -0.000363
2.963925 0.792791 0.602578 0.000001 -0.701098 -0.000779
3.390240 0.792006 0.603349 0.000000 -0.701099 -0.000445
3.468751 0.894042 0.503025 0.000003 -0.701066 -0.000304
3.136038 0.784257 0.685458 0.000000 0.999597 0.000000
3.574120 0.522424 0.512598 -0.176409 -0.004148 0.003869
0.965814 0.627803 0.621765 0.000000 -0.736203 -0.000015
2.446387 0.737993 0.760439 -0.000000 0.495894 0.000007
1.605118 0.843838 0.517322 -0.042087 -0.008462 -0.008862
2.344279 0.762083 0.622651 0.000000 0.754964 -0.000003
1.698375 0.618439 0.591961 0.063476 0.009656 -0.009710
1.790639 1.057678 0.335088 0.095573 0.004169 0.004236
1.935845 0.756191 0.747150 0.000000 0.676958 0.000004
3.518639 0.808591 0.785299 -0.176409 -0.003660 0.004057
3.143394 0.792791 0.602578 0.000000 -0.701099 -0.000779
3.161147 0.657872 0.599866 0.000000 -0.421600 -0.000009
1.557588 0.748861 0.754696 -0.000000 -0.713063 -0.000391
0.353163 0.611074 0.714926 -0.000000 -0.929135 0.000006
2.548496 0.626041 0.739897 0.000000 -0.754964 0.000007
1.434718 0.915393 0.471987 -0.063434 0.002708 0.002556
1.866996 0.081813 1.284298 0.063476 0.009656 0.009710
1.569722 0.548200 0.563338 -0.063433 -0.016725 0.015279
2.394496 0.692822 0.592082 0.000000 -0.028019 -0.000038
3.428936 0.966341 0.931738 -0.000001 -0.701098 0.000609
3.161147 0.753622 0.749472 0.000000 0.655848 0.000018
1.658570 0.102441 1.264016 -0.063432 -0.008922 -0.008346
2.140062 0.608326 0.656752 -0.000000 -0.943266 -0.000001
1.739735 1.021911 0.986569 0.095571 0.008979 -0.009093
1.425302 0.737993 0.760439 -0.000000 0.496139 0.000004
0.115599 0.715902 0.755944 -0.294312 0.000037 0.000115
2.497442 0.609113 0.654194 0.000000 -0.948608 -0.000001
2.293225 0.637556 0.751227 -0.000001 -0.632249 0.000020
1.683005 1.117475 0.256647 -0.042085 -0.010606 -0.010986
2.803767 0.649950 0.759775 -0.000000 -0.495795 0.000028
0.404217 0.763867 0.738927 -0.000000 0.772773 0.000013
3.404462 0.431899 0.922757 0.000000 0.701098 0.000913
0.914760 0.613676 0.720874 0.000000 -0.894881 0.000002
0.455271 0.637313 0.751028 0.000001 -0.633251 0.000020
1.558981 0.343932 0.346096 -0.063434 -0.004461 0.004203
2.824691 0.784276 0.678928 0.000000 0.999607 -0.000000
2.868367 0.586740 0.787842 0.084134 -0.006421 -0.009066
2.548496 0.741929 0.758125 0.000000 0.520163 0.000007
1.454888 0.940146 0.916029 -0.063434 0.005656 -0.005322
3.173312 0.546077 0.810495 0.000000 0.701099 0.000487
1.118977 0.728627 0.598753 0.000000 0.369660 -0.000040
1.714283 0.925642 0.475190 0.095572 0.002566 0.002608
3.299751 0.582614 0.589106 0.000001 0.701098 -0.000682
2.395333 0.609612 0.652701 0.000000 -0.948355 -0.000005
1.797002 1.108206 1.094795 0.063476 -0.010622 0.010656
1.432128 0.512591 0.512905 -0.063433 -0.008364 0.007833
2.494931 0.693137 0.592073 0.000000 -0.028019 -0.000019
1.866996 0.434550 0.937479 0.063476 0.013518 0.013448
1.795411 0.949575 0.440734 0.095572 0.004810 0.004886
1.833736 0.662526 0.765739 -0.000000 -0.369651 0.000162
1.398729 0.469603 0.899373 -0.063434 -0.002708 -0.002556
3.313358 0.504973 0.512768 -0.000001 0.701098 -0.000445
3.185549 0.541510 0.548692 -0.000001 0.701099 -0.000974
1.500925 0.858710 0.825556 -0.063433 0.016725 -0.015279
1.578674 0.880795 0.879429 -0.042086 -0.004231 0.004497
3.332023 0.444978 0.427787 0.084135 -0.006426 0.009073
3.209693 0.490634 0.472677 0.084133 -0.006427 0.009073
0.140410 0.658164 0.606276 -0.197687 -0.000094 -0.000181
0.140410 0.611870 0.667790 -0.197685 -0.000198 -0.000028
3.087384 0.536282 0.517559 0.084134 -0.006427 0.009073
1.087172 0.604809 0.679636 -0.000000 -0.999607 -0.000000
1.476356 0.778090 0.648898 -0.000000 0.929157 -0.000013
2.191116 0.781066 0.657775 -0.000001 0.962605 -0.000002
1.812812 0.693451 0.592064 0.000000 -0.028019 -0.000287
0.710543 0.609841 0.652030 0.000000 -0.939084 -0.000003
3.595056 0.460315 0.451531 -0.176407 -0.003995 0.003727
3.595056 0.928791 0.451531 -0.176409 -0.003660 -0.004057
1.613819 1.126121 1.111132 -0.042079 -0.005304 0.005621
0.722260 0.697228 0.592109 0.000000 0.028019 -0.000038
3.481463 0.850955 0.852945 -0.000000 0.701100 -0.000609
1.722236 0.566881 0.787877 0.095571 -0.007055 -0.007156
2.905876 0.754742 0.748482 -0.000001 0.675872 0.000018
3.544585 0.397034 0.406640 0.000001 0.701099 -0.000609
3.457720 0.481643 0.455173 -0.000000 -0.701099 0.000913
3.524421 0.456855 0.898220 0.000000 0.701099 0.000609
3.544585 0.974746 0.389019 0.000001 0.701098 0.000609
1.323194 0.639494 0.752775 0.000000 -0.612264 0.000021
0.053971 0.676389 0.725690 -0.535162 -0.000016 0.000036
1.629519 0.628975 0.620491 -0.000000 -0.736188 -0.000030
1.765187 0.261127 1.094284 0.095573 -0.007055 -0.007156
2.140062 0.685986 0.592452 -0.000000 -0.097965 -0.000082
1.016868 0.629734 0.743986 0.000000 -0.716876 0.000004
3.365364 0.721899 0.596299 -0.000000 0.316121 -0.000012
1.391831 0.559611 0.804724 -0.063432 -0.007283 -0.006835
2.497442 0.777071 0.646424 -0.000000 0.918417 -0.000007
1.665054 1.249185 0.139939 -0.063433 0.005098 0.004800
3.414004 0.538232 0.852865 -0.000001 -0.701097 -0.000961
1.866996 1.307293 0.079380 0.063475 -0.009657 -0.009710
1.866996 1.307293 1.284298 0.063475 -0.009657 0.009710
1.866996 1.228907 0.156451 0.063477 -0.013518 -0.013448
1.554361 0.920231 0.477939 -0.063433 0.005656 0.005322
1.680573 0.736327 0.602349 0.000000 0.471433 -0.000015
3.477884 0.421822 0.967322 0.000002 -0.701095 -0.000609
1.647019 0.974308 0.429268 -0.063433 0.002390 0.002256
1.866996 0.062216 0.060112 0.063476 0.009656 -0.009710
1.866996 1.111328 0.272057 0.063475 -0.009657 -0.009710
1.502110 0.588984 0.600256 -0.063433 -0.008364 0.007833
3.320150 0.830270 0.531070 0.000001 0.701099 0.000890
1.358346 0.784332 0.680895 0.000000 0.999607 -0.000000
2.701658 0.778250 0.649300 0.000000 0.929206 -0.000003
2.191116 0.741828 0.758186 0.000000 0.519884 0.000026
2.089007 0.639680 0.610758 -0.000000 -0.612154 -0.000021
1.272139 0.662896 0.597803 0.000000 -0.343810 -0.000011
1.749279 0.802332 0.565368 0.063476 -0.010622 -0.010656
2.395333 0.633697 0.747869 -0.000000 -0.675519 0.000009
3.467472 0.651112 0.760439 -0.089448 -0.000238 0.000446
1.608300 0.535328 0.507832 -0.042086 0.008462 -0.008862
3.404462 0.431899 0.440920 -0.000001 0.701098 -0.000456
0.251054 0.659065 0.599352 -0.000000 -0.395595 -0.000149
3.268277 0.696521 0.771616 0.000009 0.000653 0.000809
0.053971 0.719805 0.641650 -0.535158 0.000022 -0.000033
3.159719 0.848539 0.850569 0.000000 0.701100 -0.000487
1.109770 0.784265 0.685143 -0.000000 0.999607 0.000000
3.378215 0.849538 0.851551 -0.000000 0.701099 -0.000961
0.608434 0.717592 0.768632 -0.000001 0.262506 0.000030
2.905876 0.756133 0.616474 -0.000000 0.676744 -0.000009
3.086297 0.821136 0.540051 0.000000 0.701099 0.001169
0.608434 0.623376 0.736587 0.000000 -0.790309 0.000006
0.350652 0.692821 0.771620 0.000000 -0.014008 0.000150
1.765943 0.604801 0.679950 -0.000000 -0.999607 -0.000000
1.593620 0.386616 0.969187 -0.063434 -0.005019 -0.004726
1.572248 1.060014 0.316833 -0.042087 -0.003103 -0.003305
1.680573 0.620128 0.732089 0.000000 -0.823575 0.000022
2.992082 0.784261 0.678377 0.000000 0.999607 -0.000000
2.253051 0.604831 0.684829 0.000000 -0.999607 0.000000
1.739735 1.007670 0.362624 0.063475 -0.013518 -0.013448
3.110093 0.639991 0.753160 0.000000 -0.612524 0.000010
3.367965 0.615032 0.620980 0.018369 -0.016413 -0.012036
0.965814 0.740786 0.758821 0.000001 0.519544 0.000053
3.080799 0.604840 0.685143 0.000000 -0.999607 0.000000
3.488916 0.936537 0.937091 -0.000000 0.701100 -0.000609
0.608434 0.688575 0.592241 0.000000 -0.069984 -0.000115
1.615169 1.170926 0.218171 -0.063434 0.007010 0.006582
0.965814 0.780654 0.656337 0.000001 0.921890 -0.000001
1.612474 0.775723 0.727376 -0.000001 -0.713064 -0.001096
0.608434 0.780117 0.709111 -0.000000 0.956820 0.000001
1.754801 1.278013 1.261469 -0.042086 -0.012185 0.012503
0.710543 0.765585 0.626904 0.000000 0.790429 -0.000025
1.594575 0.777871 0.579689 -0.042085 -0.006125 -0.006475
1.785867 0.541050 0.523675 0.063475 0.002052 -0.002086
1.739735 0.767156 0.736089 -0.000001 -0.713064 -0.000635
3.539228 0.750690 0.759991 -0.091332 0.000304 0.000412
0.710543 0.720544 0.767792 0.000000 0.290296 0.000106
1.666737 0.296885 0.306265 -0.063433 -0.007647 0.007172
0.506326 0.770550 0.633993 0.000000 0.839428 -0.000003
1.545114 1.067913 1.042937 -0.063435 0.002230 -0.002106
1.494868 0.388535 0.387381 -0.063433 -0.004780 0.004502
1.986899 0.605352 0.692206 0.000000 -0.992046 0.000002
1.255165 0.597511 0.777252 -0.063434 -0.007283 -0.006835
1.966812 0.695812 0.771609 0.000000 0.028019 0.000287
3.282090 0.894210 0.468204 -0.000000 0.701099 0.001364
1.608028 0.442108 0.420575 -0.042086 0.007560 -0.007948
1.687240 0.491558 0.466216 0.063476 0.004104 -0.004166
1.803365 0.633353 0.615990 0.063475 0.009657 -0.009710
1.621115 0.990795 0.954261 -0.063433 0.005019 -0.004726
2.316659 0.695890 0.771607 0.000000 0.028019 0.000009
1.831999 0.295019 0.293721 0.095573 -0.003528 0.003585
3.485411 0.662138 0.596369 -0.079916 -0.001017 -0.002259
1.456867 0.349976 1.020634 -0.063432 -0.008922 -0.008346
1.549408 0.477792 0.876756 -0.063434 -0.002708 -0.002556
3.299751 0.582614 0.774571 0.000000 0.701100 0.000682
1.709178 0.215367 0.202464 -0.042085 0.008801 -0.009202
3.263255 0.765344 0.626593 0.000000 0.790452 -0.000012
2.242170 0.675493 0.594088 -0.000000 -0.208980 -0.000038
1.816091 0.899192 0.487487 0.095572 0.005131 0.005211
1.765187 0.164739 1.211844 0.063477 0.007725 0.007800
1.170031 0.670223 0.595398 0.000000 -0.263502 -0.000015
1.016868 0.741794 0.605471 -0.000000 0.516207 -0.000007
1.787457 1.214664 1.182514 0.095572 0.005772 -0.005860
0.380782 0.699038 0.592159 -0.000036 0.000062 -0.001850
3.467472 0.783476 0.669285 -0.089517 0.000501 -0.000064
2.701658 0.715225 0.594452 0.000000 0.236156 -0.000132
3.353647 0.692349 0.771613 -0.000009 -0.001013 0.000522
0.514695 0.692900 0.592057 0.000000 -0.014392 -0.000009
0.795912 0.691563 0.592117 0.000000 -0.028019 -0.000019
0.710543 0.628176 0.742318 -0.000000 -0.732842 0.000004
2.752713 0.686221 0.771249 -0.000001 -0.098003 0.000163
2.324192 0.784318 0.680423 0.000000 0.999607 -0.000000
1.835180 0.236443 1.127978 0.095571 -0.003207 -0.003260
0.608434 0.767973 0.630130 0.000001 0.823122 -0.000011
1.866996 0.778186 0.764069 0.063476 -0.009656 0.009710
2.548496 0.628070 0.621476 -0.000000 -0.735947 -0.000007
3.298398 0.547418 0.843833 0.000002 -0.701096 -0.000682
2.842765 0.770191 0.747543 0.000000 0.713063 0.000439
1.819273 0.928373 0.905310 0.095572 0.005131 -0.005211
1.803365 0.782470 0.759713 0.095575 0.001603 -0.001631
2.650604 0.623183 0.627339 -0.000000 -0.785294 -0.000003
3.037348 0.568913 0.575635 -0.000001 0.701099 -0.000779
1.476356 0.689517 0.592175 -0.000000 -0.028019 -0.000287
0.506326 0.620374 0.631233 0.000001 -0.823409 -0.000022
1.771802 0.784274 0.684829 0.000000 0.999607 0.000000
1.947562 0.697385 0.592113 0.000000 0.028019 -0.000287
3.314310 0.607324 0.703161 0.000000 -0.971672 0.000004
0.608434 0.619369 0.632738 -0.000001 -0.835788 -0.000005
3.007984 0.748834 0.610300 -0.000001 0.612385 -0.000042
0.906390 0.695025 0.771637 0.000018 0.000286 0.000915
3.510978 0.514061 0.487047 -0.000001 -0.701098 0.000456
1.738051 0.077327 0.071564 -0.042087 0.012184 -0.012502
1.701556 0.363542 1.022053 0.063478 0.006277 0.006353
1.738051 1.316051 0.075909 -0.063433 0.015292 0.014044
0.260261 0.696757 0.771613 0.000000 0.014008 0.000150
1.699966 0.554679 0.529413 0.063476 0.010622 -0.010656
2.191116 0.649779 0.759677 0.000000 -0.495956 0.000028
1.509096 0.430736 0.948040 -0.042086 0.007560 0.007948
3.390168 0.848483 0.547820 -0.000001 -0.701099 -0.000961
1.221085 0.633089 0.616368 -0.000001 -0.675872 -0.000018
1.771550 1.146264 0.229193 0.063475 -0.004829 -0.004897
1.484022 0.848514 0.547351 -0.063434 0.008364 0.007833
0.481217 0.690383 0.771527 0.000036 -0.000149 0.000862
3.212201 0.618472 0.634127 0.000000 -0.854403 -0.000001
1.371935 0.779695 0.772850 -0.042085 -0.007737 0.008129
3.155631 0.609074 0.783212 0.000000 -0.701099 -0.000487
3.208668 0.866807 0.495147 0.000000 0.701100 0.000585
0.812651 0.765826 0.736462 0.000001 0.789568 0.000012
1.476356 0.634103 0.748242 -0.000001 -0.674487 0.000009
1.440268 0.794576 0.790724 -0.042088 -0.003224 0.003433
0.812651 0.617366 0.635942 0.000000 -0.854067 -0.000010
2.344279 0.642844 0.608419 0.000000 -0.567043 -0.000006
1.444022 0.977928 0.406646 -0.063433 0.002549 0.002406
1.616972 0.364740 0.347627 -0.042083 0.003103 -0.003306
1.597757 0.576271 0.768027 -0.063435 -0.004324 -0.004075
2.395333 0.763717 0.739109 -0.000000 0.773052 0.000026
2.037953 0.665489 0.766804 -0.000000 -0.317046 0.000096
1.812910 0.509296 0.856705 0.095570 -0.002726 -0.002771
0.812651 0.624840 0.738440 0.000000 -0.773070 0.000013
1.822454 0.421754 0.419614 0.095571 -0.004810 0.004886
3.503260 1.008037 0.998727 0.084134 0.006426 -0.009073
1.425302 0.607371 0.660325 -0.000001 -0.971453 -0.000008
3.440690 0.604782 0.679399 0.000000 -0.999896 -0.000000
2.953582 0.604840 0.685143 0.000000 -0.999607 0.000000
1.884790 0.641473 0.609410 0.000001 -0.585432 -0.000011
1.543313 0.692507 0.771587 0.000000 -0.028019 0.000287
3.379987 0.930747 0.931398 -0.000001 0.701099 -0.000913
3.233142 0.513164 0.877512 0.000001 -0.701099 -0.001169
2.089007 0.754127 0.749034 0.000000 0.655838 0.000019
2.448061 0.784318 0.680423 0.000000 0.999607 -0.000000
1.301433 0.694238 0.771635 0.000000 -0.028019 0.000019
3.110771 0.847596 0.814986 0.000001 -0.701098 0.000779
2.752713 0.623328 0.736525 -0.000000 -0.790109 0.000012
3.378215 0.539568 0.512126 -0.000000 -0.701101 0.000961
1.688830 1.005741 0.399861 -0.063435 0.002230 0.002106
2.650604 0.623569 0.736836 0.000000 -0.790538 0.000025
1.310601 0.756158 0.616403 -0.000002 -0.712840 0.000078
2.599550 0.765175 0.737303 0.000001 0.790394 0.000025
3.581099 0.501721 0.871435 -0.176409 -0.003995 -0.003727
3.636926 0.336097 0.329397 -0.176409 -0.002765 0.002580
3.636926 0.336097 1.034280 -0.176409 -0.002766 -0.002580
3.629948 1.032306 0.349753 -0.176407 -0.005066 -0.005615
3.581099 0.887385 0.492242 -0.176408 -0.003660 -0.004057
3.581099 0.887385 0.871435 -0.176408 -0.003660 0.004057
3.636926 1.053009 1.034280 -0.176406 -0.002533 0.002809
3.609012 0.418909 0.952858 -0.176408 -0.003995 -0.003727
3.609012 0.970197 0.952858 -0.176408 -0.003660 0.004057
1.425302 0.672428 0.768872 -0.000000 -0.236231 0.000066
1.629519 0.641441 0.754244 0.000000 -0.589428 0.000011
0.353163 0.620307 0.631330 -0.000000 -0.823569 -0.000044
1.680573 0.675185 0.594154 0.000000 -0.208805 -0.000075
1.533326 0.781635 0.622716 -0.063435 0.004324 0.004075
3.007984 0.730257 0.764232 0.000001 0.395591 0.000149
1.657015 0.909900 0.865300 -0.063433 0.011311 -0.010519
1.364388 0.822167 0.551501 -0.042091 -0.005157 -0.005468
3.139386 0.690619 0.771534 0.000000 -0.028019 0.000075
1.470707 0.486902 0.470435 -0.042086 0.008462 -0.008862
3.567903 1.025746 0.370643 -0.176410 -0.002533 -0.002808
3.567903 0.377798 0.355959 -0.176408 -0.002766 0.002580
2.956930 0.657230 0.600164 -0.000001 -0.421137 -0.000069
1.511496 1.026657 1.002373 -0.063435 0.004461 -0.004203
1.494267 1.045270 0.340005 -0.063441 0.002230 0.002105
2.647256 0.692822 0.592082 -0.000000 -0.028019 -0.000019
1.221085 0.765248 0.626468 0.000000 0.789153 -0.000006
0.954933 0.604831 0.678849 0.000000 -0.999597 -0.000000
1.758824 0.172514 0.183124 0.095572 -0.005773 0.005860
1.170031 0.779431 0.711164 0.000000 0.948301 0.000005
1.570314 0.811611 0.769272 -0.063439 0.002162 -0.002041
3.299751 0.789166 0.792193 0.000000 0.701099 -0.000682
1.731781 0.870573 0.836700 0.095573 0.005452 -0.005536
1.272139 0.743059 0.757408 -0.000001 0.536699 0.000013
1.316498 0.604787 0.683255 0.000000 -0.999607 0.000000
0.245196 0.604884 0.676961 0.000000 -0.999597 -0.000000
0.251054 0.625114 0.738775 -0.000000 -0.772994 0.000053
1.680573 0.745581 0.755728 0.000001 0.565394 0.000012
1.825636 1.006331 0.982816 0.095572 0.004490 -0.004561
1.782682 0.741761 0.605450 -0.000000 0.520046 -0.000053
1.343394 0.537917 0.832174 -0.063434 -0.005462 -0.005141
1.329947 0.834686 0.815949 -0.063434 0.005462 -0.005141
2.854821 0.626248 0.623542 0.000000 -0.751562 -0.000004
3.263255 0.774410 0.722917 -0.000001 0.894444 0.000016
1.746098 0.351757 0.334011 0.063476 0.006277 -0.006353
0.404217 0.771576 0.635673 0.000000 0.854067 -0.000005
3.503260 0.372406 0.989916 0.084134 0.008989 0.006543
1.302778 0.817572 0.563332 -0.063433 0.007283 0.006835
1.370013 0.900084 0.881473 -0.063436 0.003642 -0.003434
1.016868 0.649472 0.604176 0.000000 -0.495904 -0.000056
2.191116 0.713728 0.594112 0.000002 0.204560 -0.000038
1.650469 1.055218 0.343933 -0.063430 0.004143 0.003905
1.733372 0.386363 0.396812 0.095571 -0.004490 0.004561
2.037953 0.767237 0.629108 -0.000001 0.796068 -0.000003
2.088171 0.695340 0.771622 -0.000000 0.028019 0.000009
1.546283 1.111946 0.274233 -0.063435 0.004142 0.003905
0.827716 0.695261 0.771634 0.000000 0.013625 0.000019
2.599550 0.768799 0.631330 -0.000000 0.822853 -0.000003
0.761597 0.746034 0.755415 0.000001 0.566255 0.000023
1.765187 0.272520 0.257806 0.063478 0.005311 -0.005383
1.669741 0.538852 0.808368 0.095575 -0.003207 -0.003260
2.752713 0.755959 0.747363 -0.000000 0.676511 0.000009
3.485411 0.613613 0.639358 -0.079915 -0.002260 -0.001017
2.854821 0.733941 0.601138 -0.000000 0.446397 -0.000016
1.650469 1.055218 1.019745 -0.063432 0.002071 -0.001955
1.591817 0.252518 0.252361 -0.063434 -0.007647 0.007172
1.866996 0.797783 0.580341 0.063476 -0.009656 -0.009710
3.039542 0.866251 0.850656 0.084135 0.006421 -0.009065
3.038455 0.545880 0.819353 0.084135 0.008989 0.006542
2.663159 0.691878 0.771569 0.000000 -0.028019 0.000287
3.124357 0.614584 0.620540 0.000000 -0.713063 -0.000363
3.110771 0.558836 0.832607 0.000000 -0.701100 -0.000779
3.259625 0.948390 0.931417 0.084132 0.006427 -0.009073
0.557380 0.764191 0.738531 0.000001 0.772372 0.000026
3.307549 0.454112 0.926909 0.084135 -0.006426 -0.009073
0.863705 0.727165 0.598171 0.000000 0.369432 -0.000020
1.809728 0.025577 0.018979 0.063478 0.009656 -0.009710
1.527411 0.616383 0.726031 -0.000001 -0.864153 0.000005
1.527411 0.663931 0.597425 -0.000000 -0.343353 -0.000044
3.320150 0.558836 0.531070 -0.000002 -0.701098 0.000890
3.306565 0.485762 0.459223 -0.000000 -0.701099 0.000445
1.809728 1.369938 0.025497 -0.063435 0.012107 0.011234
1.669741 0.440869 0.904706 0.095572 -0.010261 -0.010377
3.314310 0.613799 0.642557 0.000000 -0.894482 -0.000008
1.720646 1.085205 0.284687 0.063476 -0.011587 -0.011594
0.761597 0.778090 0.648898 -0.000000 0.929076 -0.000006
2.814647 0.604831 0.678849 -0.000000 -0.999607 -0.000000
1.819273 0.607707 0.760802 0.095572 -0.003207 -0.003260
2.086497 0.604876 0.677275 0.000000 -0.999607 -0.000000
1.526506 0.942843 0.912255 -0.063433 0.002549 -0.002406
3.567903 0.377798 1.007719 -0.176409 -0.002765 -0.002580
3.567903 1.011308 1.007719 -0.176412 0.002765 -0.002580
0.914760 0.647042 0.605635 0.000000 -0.520247 -0.000026
1.781094 0.832960 0.806357 0.095571 0.007055 -0.007156
1.539953 0.429760 0.435197 -0.063434 -0.010196 0.009509
3.059038 0.622426 0.735332 -0.000000 -0.807242 0.000006
0.506326 0.620463 0.732575 0.000000 -0.823541 0.000011
3.185239 0.889345 0.882027 0.084134 0.006426 -0.009073
2.965054 0.807168 0.801229 0.084135 0.006426 -0.009073
2.089007 0.733588 0.600962 -0.000001 0.432255 -0.000008
1.784276 0.095841 0.104311 0.095572 -0.008979 0.009093
3.263255 0.633784 0.615728 0.000000 -0.676761 -0.000017
3.539228 0.785740 0.651114 -0.095397 0.000466 -0.000150
1.765187 0.497880 0.884293 0.063476 0.015448 0.015268
1.720646 0.287523 1.062333 0.095573 -0.007696 -0.007803
0.302109 0.638134 0.611976 0.000000 -0.634238 -0.000020
3.161147 0.739429 0.604059 -0.000001 0.495864 -0.000056
1.050346 0.784296 0.684042 0.000000 0.999607 0.000000
0.710543 0.771903 0.727467 -0.000000 0.868336 0.000009
2.599550 0.643201 0.755505 0.000000 -0.563029 0.000006
1.425302 0.611708 0.716495 0.000000 -0.918360 0.000007
1.812910 0.850415 0.535874 0.095573 0.002726 0.002771
3.416418 0.617898 0.728610 -0.000001 -0.854046 0.000039
1.731628 0.616539 0.637373 0.000000 -0.867115 -0.000002
2.037953 0.769994 0.730543 0.000000 0.838642 0.000005
1.527411 0.613210 0.643802 -0.000000 -0.906809 -0.000007
2.446387 0.652362 0.761106 0.000001 -0.447962 0.000008
3.110093 0.768665 0.732542 -0.000000 0.822219 0.000006
1.816091 0.182065 1.190268 0.063475 0.007725 0.007800
2.037953 0.610885 0.714450 -0.000000 -0.929133 0.000013
3.034622 0.774522 0.743138 -0.000001 0.713064 0.000727
0.404217 0.621961 0.734696 -0.000000 -0.807065 0.000012
1.648425 0.166007 1.197661 -0.063433 -0.011470 -0.010662
2.599550 0.721448 0.596160 -0.000001 0.288988 -0.000053
1.935845 0.610652 0.713865 0.000000 -0.939206 0.000003
1.323194 0.643298 0.608106 -0.000000 -0.563029 -0.000006
1.476356 0.775465 0.720804 -0.000000 0.906982 0.000015
3.212201 0.605002 0.688484 0.000001 -0.995241 0.000001
3.283342 0.698802 0.592153 0.000000 0.028019 -0.000038
1.067922 0.621155 0.630098 -0.000001 -0.823122 -0.000011
0.455271 0.660844 0.598608 0.000000 -0.369693 -0.000081
1.909062 0.784354 0.681996 0.000000 0.999607 0.000000
1.615169 0.218180 1.145507 -0.063432 -0.007010 -0.006582
1.722265 0.177623 1.178529 -0.063431 -0.005736 -0.005396
1.678501 0.123418 0.123714 -0.063433 -0.010196 0.009510
1.839953 0.858393 0.839288 0.095572 0.001363 -0.001386
1.765187 0.910822 0.903561 0.063476 -0.007725 0.007800
0.590021 0.604840 0.685143 0.000000 -0.999607 0.000000
2.548496 0.679510 0.593302 0.000000 -0.181384 -0.000044
1.217737 0.784310 0.683570 0.000000 0.999607 0.000000
3.094445 0.774522 0.620540 -0.000001 0.713064 -0.000727
1.682467 0.790608 0.612242 0.095570 0.003207 0.003260
3.455254 1.021402 0.360473 0.084134 0.006426 0.009073
3.455254 0.367703 0.360473 0.084134 -0.006426 0.009073
2.966182 0.550234 0.539942 0.084135 -0.006426 0.009073
3.308532 0.966643 0.414314 0.084134 0.006426 0.009073
2.917274 0.568487 0.805789 0.084134 -0.006426 -0.009073
3.381893 0.395083 0.976284 0.084135 -0.006421 -0.009065
3.381893 0.994023 0.976284 0.084136 0.006421 -0.009065
2.941728 0.829745 0.548915 0.084134 0.006421 0.009066
2.843913 0.793239 0.584809 0.084132 0.003211 0.004543
3.210718 0.930137 0.450207 0.084133 0.006427 0.009073
3.039542 0.866251 0.513021 0.084135 0.006421 0.009065
2.242170 0.622797 0.735840 0.000000 -0.807343 0.000006
3.313358 0.884133 0.512768 0.000001 -0.701096 -0.000445
3.288883 0.857673 0.859550 -0.000001 0.701098 -0.000682
2.242170 0.770079 0.730411 -0.000000 0.839153 0.000005
1.587285 0.300676 1.060753 -0.063435 -0.002071 -0.001955
1.866996 1.346486 0.040844 0.063473 -0.007726 -0.007800
1.866996 1.346486 1.322833 0.063475 -0.007726 0.007800
1.866996 0.532533 0.841140 0.063475 0.008208 0.008280
1.866996 0.042620 1.322833 0.063477 0.007725 0.007800
1.866996 0.493340 0.484002 0.063476 0.007725 -0.007800
1.618350 0.208596 0.208319 -0.063433 -0.006373 0.005990
1.618350 1.180510 1.155358 -0.063434 0.006373 -0.005990
3.473700 0.573658 0.545644 -0.000001 -0.701099 0.000961
1.170031 0.746261 0.608419 0.000000 0.567220 -0.000012
1.170031 0.641409 0.754221 -0.000000 -0.589830 0.000022
1.677695 0.505093 0.521047 0.095572 -0.002726 0.002771
0.251054 0.723915 0.596973 0.000001 0.316330 -0.000048
2.344279 0.741324 0.758493 0.000000 0.519913 0.000026
3.402122 0.576329 0.815407 -0.000001 -0.701097 -0.000961
3.366333 0.811441 0.814094 -0.000000 0.701099 -0.000445
3.007984 0.664596 0.766496 0.000001 -0.342619 0.000044
3.416418 0.750546 0.752051 0.000000 0.612051 0.000003
1.891486 0.604750 0.681760 0.000000 -0.999607 -0.000000
1.666737 1.092221 1.057413 -0.063432 0.007647 -0.007172
0.107494 0.763219 0.653396 -0.325906 0.000101 -0.000038
0.200000 0.733518 0.762751 0.000457 0.021076 0.000917
0.200000 0.754394 0.614876 0.000458 0.031892 -0.000499
1.425302 0.769045 0.631686 -0.000000 0.823235 -0.000011
2.905039 0.697779 0.592124 0.000000 0.028019 -0.000019
0.761597 0.733941 0.601138 -0.000000 0.446322 -0.000032
0.863705 0.770358 0.633696 0.000000 0.839204 -0.000003
0.914760 0.756017 0.747310 0.000000 0.676761 0.000017
2.140062 0.634364 0.748482 -0.000001 -0.673122 0.000009
0.914760 0.708896 0.593193 0.000001 0.153181 -0.000052
1.935845 0.652154 0.760995 -0.000000 -0.470736 0.000008
0.302109 0.777024 0.646315 0.000000 0.918439 -0.000014
1.452336 0.398135 0.970071 -0.063432 -0.004780 -0.004502
1.784276 0.350596 1.008886 0.095572 -0.008338 -0.008448
1.568465 1.097622 1.081834 -0.042084 -0.005755 0.006090
3.263255 0.613442 0.720375 0.000000 -0.906435 0.000004
1.831999 0.304817 1.060323 0.095570 -0.003848 -0.003911
1.831999 1.084288 0.303355 0.095571 0.003848 0.003911
1.476356 0.743951 0.606847 -0.000000 0.543861 -0.000025
2.293225 0.772547 0.637339 0.000001 0.867070 -0.000009
1.669741 0.440869 0.458971 0.095572 -0.005131 0.005211
3.161147 0.618983 0.730345 0.000000 -0.839173 0.000021
2.497442 0.615805 0.725002 0.000001 -0.881385 0.000009
3.416418 0.738028 0.603259 0.000000 0.496140 -0.000007
2.549333 0.689675 0.771507 0.000000 -0.028019 0.000287
2.650604 0.748554 0.753594 0.000000 0.612524 0.000010
2.701658 0.772977 0.725587 0.000001 0.867457 0.000009
3.214091 0.757196 0.760759 0.000000 0.701100 -0.000487
0.761597 0.640901 0.753850 -0.000000 -0.589829 0.000022
1.627845 0.604880 0.677118 0.000000 -0.999607 -0.000000
1.108933 0.697700 0.771556 0.000000 0.028019 0.000287
1.067922 0.642522 0.755034 -0.000000 -0.588981 0.000006
1.669741 0.926162 0.436520 0.063477 -0.015448 -0.015268
3.485411 0.705571 0.772582 -0.086776 0.000080 0.000515
1.935845 0.760290 0.620664 -0.000000 0.736223 -0.000030
0.812651 0.604977 0.688131 0.000001 -0.996935 0.000001
2.344279 0.651112 0.760439 0.000000 -0.495976 0.000028
1.569722 0.569308 0.821807 -0.042086 0.023682 0.022053
1.986899 0.743356 0.757216 0.000000 0.543629 0.000012
1.570932 0.695340 0.592056 0.000000 0.028019 -0.000019
2.905876 0.646774 0.757879 0.000000 -0.543777 0.000025
1.712357 1.352674 0.034760 -0.042088 -0.020752 -0.019886
1.725804 0.019929 1.345143 -0.063432 -0.012744 -0.011803
1.524102 0.267464 1.101761 -0.063434 -0.007647 -0.007172
1.537548 0.250962 0.245691 -0.063434 -0.007647 0.007172
1.537548 1.138144 1.117987 -0.042085 -0.021655 0.020573
1.712357 0.036431 0.034760 -0.063433 -0.012744 0.011803
1.483761 1.072134 1.053085 -0.042086 -0.012636 0.012928
1.403080 0.415985 0.407945 -0.063433 -0.010196 0.009509
1.255165 0.597511 0.586425 -0.063434 -0.007283 0.006835
2.752713 0.742332 0.605798 0.000000 0.543816 -0.000012
1.723827 0.954394 0.918043 0.095572 0.005131 -0.005211
3.330472 0.505197 0.850689 0.000003 0.701086 0.000445
1.272139 0.724509 0.597181 0.000000 0.343476 -0.000022
1.600938 0.591354 0.560709 -0.042086 0.006125 -0.006475
0.200000 0.783476 0.694393 0.000455 0.047008 0.000058
0.353163 0.753265 0.749782 0.000000 0.655766 0.000019
0.965814 0.778337 0.714158 -0.000000 0.928807 0.000006
1.833736 0.736883 0.761032 0.000000 0.471410 0.000120
0.455271 0.761851 0.622384 0.000001 0.754635 -0.000028
1.067922 0.763542 0.739322 -0.000001 0.759850 0.000003
0.302109 0.741324 0.605184 -0.000000 0.520046 -0.000053
1.550995 0.234460 1.134212 -0.063434 -0.014018 -0.012931
2.242170 0.628443 0.621070 0.000000 -0.736142 -0.000015
2.701658 0.614520 0.641113 -0.000001 -0.865881 -0.000001
0.965814 0.620798 0.733061 -0.000001 -0.821104 0.000011
1.272139 0.651251 0.760513 0.000001 -0.470176 0.000015
1.816091 0.499712 0.497121 0.095573 -0.002726 0.002771
3.257616 0.486704 0.494806 0.000000 0.701099 -0.000682
2.140062 0.783754 0.671471 0.000000 0.992019 -0.000002
1.685463 1.319670 1.296467 -0.042087 -0.012184 0.012502
0.455271 0.771862 0.727534 -0.000001 0.828938 0.000003
1.016868 0.728335 0.765041 0.000000 0.369684 0.000081
1.639002 0.259240 1.116091 -0.042085 0.010606 0.010986
2.905876 0.645155 0.606847 -0.000000 -0.540354 -0.000006
1.722236 0.566881 0.575801 0.095571 -0.007055 0.007156
2.191116 0.779518 0.710902 0.000000 0.948608 0.000001
3.059038 0.736605 0.602497 -0.000000 0.471381 -0.000015
1.765187 0.910822 0.460117 0.063476 -0.007725 -0.007800
3.504257 0.855104 0.506653 0.000001 0.701100 0.000609
1.666560 0.840670 0.798516 0.095576 0.003207 -0.003260
2.905876 0.608520 0.707566 0.000001 -0.955976 0.000005
1.272139 0.609737 0.711350 0.000000 -0.948456 0.000003
2.497442 0.726173 0.765888 0.000001 0.322161 0.000012
1.374248 0.738198 0.603356 0.000000 0.495795 -0.000028
1.666737 1.079404 0.293229 -0.042087 -0.005754 -0.006090
1.718241 1.280381 0.111838 -0.063431 0.008922 0.008346
1.601665 0.927117 0.439555 -0.042086 -0.003780 -0.004021
1.374248 0.654355 0.601542 -0.000000 -0.446499 -0.000032
0.914760 0.612518 0.645303 0.000000 -0.918419 -0.000003
2.854821 0.772372 0.637031 0.000000 0.868020 -0.000009
1.170031 0.743356 0.757216 -0.000001 0.528334 0.000006
2.395333 0.769566 0.632474 0.000000 0.839174 -0.000010
1.866996 1.248503 1.226495 0.063477 -0.013518 0.013448
1.866996 0.974152 0.406931 0.063477 -0.013518 -0.013448
1.866996 0.160199 1.207227 0.063477 0.013518 0.013448
1.866996 0.121006 1.245762 0.063475 0.011587 0.011594
1.866996 1.013345 0.368396 0.063474 -0.012553 -0.012525
0.076134 0.636419 0.698587 -0.448384 -0.000056 0.000014
2.089007 0.773505 0.639058 -0.000001 0.881327 -0.000009
0.165770 0.643565 0.753700 -0.099106 -0.000239 0.000357
1.577172 0.957415 0.951075 -0.042085 -0.003780 0.004022
1.833736 0.775995 0.644016 0.000000 0.907071 -0.000002
3.212201 0.757914 0.618200 0.000000 0.697187 -0.000002
1.776322 0.590467 0.792266 0.063477 0.010622 0.010655
1.835180 1.142864 0.245334 0.095572 0.006414 0.006509
0.965814 0.750514 0.611602 0.000001 0.556118 -0.000003
0.710543 0.784206 0.676646 0.000000 0.997545 -0.000001
0.251054 0.750514 0.752075 0.000000 0.612051 0.000003
2.956930 0.618144 0.634665 -0.000000 -0.854070 -0.000020
1.016868 0.776260 0.644587 0.000000 0.907071 -0.000002
0.302109 0.775929 0.719804 0.000001 0.906768 0.000015
3.525360 0.819868 0.549962 -0.176408 0.003995 0.003727
3.525360 0.560574 0.804905 -0.176408 0.003660 0.004057
1.572311 0.528192 0.860450 -0.042086 0.008462 0.008862
1.519012 0.791194 0.571576 -0.042085 -0.011846 -0.012181
3.365364 0.662822 0.597830 0.000000 -0.343354 -0.000022
1.822454 0.137604 0.140232 0.095572 -0.010262 0.010378
1.494868 0.995230 0.381950 -0.042085 -0.006770 -0.007140
3.135245 0.532376 0.539711 -0.000001 0.701098 -0.000779
1.782682 0.670983 0.768487 0.000000 -0.263502 0.000007
2.752713 0.643622 0.607883 -0.000000 -0.566739 -0.000012
2.650604 0.781014 0.657585 0.000000 0.964659 -0.000001
1.731628 0.652154 0.760995 0.000000 -0.471381 0.000015
3.110093 0.665937 0.596724 0.000001 -0.316892 -0.000048
3.211379 0.812002 0.814645 0.000000 0.701099 -0.001169
3.007984 0.617817 0.728475 0.000001 -0.853906 0.000020
0.455271 0.616090 0.638159 -0.000001 -0.856985 -0.000002
3.282090 0.894210 0.895474 -0.000001 0.701099 -0.001364
0.659488 0.618791 0.730047 0.000000 -0.838710 0.000005
1.685738 0.316164 1.035244 -0.063434 -0.008125 -0.007613
1.221085 0.605220 0.672724 0.000000 -0.995142 -0.000000
1.644289 0.871564 0.537785 -0.063433 0.011948 0.011092
0.557380 0.627830 0.741941 0.000000 -0.736022 0.000004
0.659488 0.710912 0.770133 -0.000000 0.181238 0.000174
0.608434 0.665788 0.766904 0.000001 -0.316230 0.000024
1.604120 0.832003 0.575947 -0.063434 0.002162 0.002041
1.986899 0.614291 0.641571 0.000002 -0.794221 -0.000002
0.761597 0.608029 0.657813 -0.000000 -0.964670 -0.000009
2.037953 0.644400 0.607347 0.000000 -0.566739 -0.000012
1.688830 0.383364 0.963816 0.095572 -0.008979 -0.009093
3.365364 0.621043 0.733418 0.000000 -0.823584 0.000011
3.282758 0.805151 0.555768 0.000000 0.701099 0.000682
3.237216 0.527808 0.828457 -0.000002 0.701096 0.000585
3.391019 0.900000 0.462510 -0.000001 0.701098 0.000609
1.578465 0.615601 0.639058 -0.000000 -0.881712 -0.000009
1.727009 0.846399 0.551389 0.095573 0.007055 0.007156
2.752713 0.776161 0.644373 0.000000 0.906899 -0.000007
3.365364 0.741324 0.758493 0.000000 0.520046 0.000053
0.353163 0.642877 0.755281 -0.000000 -0.567072 0.000023
1.935845 0.645518 0.606612 -0.000000 -0.543538 -0.000012
1.578465 0.656195 0.763032 -0.000000 -0.421268 0.000069
0.302109 0.612845 0.719090 0.000000 -0.906965 0.000007
0.710543 0.648858 0.604529 -0.000000 -0.516207 -0.000007
2.344279 0.611089 0.648715 0.000000 -0.929008 -0.000006
2.191116 0.609612 0.652701 -0.000000 -0.948403 -0.000011
1.118977 0.771903 0.636211 0.000000 0.868383 -0.000005
2.140062 0.636256 0.613534 0.000000 -0.655766 -0.000019
3.510978 0.514061 0.876630 0.000000 -0.701100 -0.000456
