3.695320 0.589622 0.662250 1.000000 0.000000 -0.000000
1.799947 0.501596 0.791026 -0.000000 -0.451689 0.000019
0.893310 0.524715 0.799436 0.000000 -0.238481 0.000020
2.919910 0.455155 0.748848 0.000000 -0.854933 0.000006
1.213300 0.451612 0.635483 -0.000001 -0.869611 -0.000003
3.457558 0.649165 0.793657 -0.000003 -0.781051 0.000303
3.413049 0.703045 0.861052 0.000002 -0.781068 0.001151
2.102773 1.070364 0.048646 -0.066423 0.011167 0.008038
1.586621 0.648842 0.748194 0.000000 0.855225 0.000012
1.693284 0.502569 0.791494 -0.000001 -0.427189 0.000020
0.946642 0.655057 0.641642 0.000000 0.913784 -0.000002
1.799947 0.458079 0.624840 0.000001 -0.827780 -0.000026
2.152683 0.176894 1.161830 0.066487 0.006162 0.004905
1.106637 0.566825 0.801716 0.000000 0.139121 0.000034
1.266631 0.499509 0.588202 -0.000000 -0.451561 -0.000038
1.106637 0.468521 0.766387 0.000000 -0.733459 0.000071
2.546589 0.648609 0.629593 0.000000 0.855322 -0.000023
3.293231 0.590080 0.582102 -0.000000 0.335384 -0.000108
1.053305 0.627439 0.773880 -0.000001 0.660834 0.000044
0.413326 0.600707 0.586524 0.000000 0.428959 -0.000040
3.559889 0.656467 0.644855 -0.000001 0.923765 -0.000016
2.173268 0.507071 0.584626 0.000001 -0.379779 -0.000012
3.399894 0.590588 0.795889 0.000000 0.335245 0.000027
1.533289 0.477512 0.603103 0.000000 -0.660801 -0.000022
1.426626 0.603811 0.588060 0.000001 0.450784 -0.000038
1.906610 0.441793 0.717569 0.000000 -0.971147 0.000001
2.013273 0.505590 0.792891 -0.000001 -0.405932 0.000086
3.026573 0.453538 0.632025 0.000001 -0.867797 -0.000011
3.346563 0.449778 0.739130 0.000000 -0.892163 0.000005
2.269609 0.438188 0.688187 0.000000 -0.999679 -0.000000
3.613221 0.656226 0.644273 0.248387 0.000217 -0.000097
0.413326 0.495716 0.590266 0.000000 -0.496243 -0.000034
3.453226 0.646632 0.626479 -0.000001 0.813165 -0.000003
2.145553 0.040770 1.332858 0.066487 0.014786 0.011540
3.657536 0.432493 0.821102 0.000000 0.781069 0.000347
2.136046 0.071539 1.284802 0.059668 -0.019219 -0.014628
1.753699 0.675314 0.827654 -0.066424 0.008065 -0.005844
3.671501 0.777827 0.389152 0.000000 0.781069 0.000537
2.036226 0.463165 0.816184 0.066488 0.006897 0.005485
0.306663 0.651156 0.744233 0.000000 0.868121 0.000003
2.439926 0.504032 0.585984 0.000000 -0.429033 -0.000040
3.506557 0.656226 0.733898 0.000000 0.923887 0.000032
2.973242 0.492461 0.592184 0.000000 -0.518125 -0.000032
3.500485 0.753935 0.453467 -0.000000 -0.781070 -0.000459
1.709782 0.677281 0.521481 -0.073991 -0.003619 -0.003192
2.439926 0.661405 0.659127 -0.000000 0.963522 -0.000001
3.675491 0.813116 0.345011 -0.000000 0.781068 0.000537
3.675491 0.290484 1.033160 -0.000001 -0.781067 -0.000537
1.788020 0.779128 0.980786 -0.073987 -0.007238 0.006362
2.136046 0.076701 0.089242 0.066487 0.009037 -0.007159
2.136046 1.026900 1.288929 0.066487 -0.009037 0.007159
3.583259 0.268631 1.043281 0.124608 -0.007278 -0.008558
1.479958 0.500151 0.790295 -0.000000 -0.451088 0.000009
1.762099 0.551980 0.802716 0.000000 0.025191 0.000025
3.596712 0.356443 0.427515 -0.000000 -0.781069 0.000403
1.159968 0.507570 0.793752 -0.000000 -0.381499 0.000012
3.346563 0.445611 0.648654 -0.000001 -0.932761 -0.000007
0.893310 0.501756 0.587064 0.000000 -0.451845 -0.000038
3.602697 0.303510 0.361304 -0.000001 -0.781069 0.001074
3.346563 0.523885 0.799233 0.000000 -0.238339 0.000156
1.853279 0.655185 0.736242 0.000000 0.913861 0.000009
0.573321 0.651519 0.743560 -0.000000 0.880410 0.000010
2.160605 0.454723 0.564701 0.066487 0.004792 -0.003822
2.188333 0.641133 0.800826 0.066485 -0.009584 0.007584
1.826799 0.437636 0.521179 -0.073986 0.002068 -0.001826
3.623636 0.328575 0.985515 -0.000001 -0.781066 -0.000537
3.659531 0.688752 0.534999 0.000000 -0.781069 -0.000537
3.659531 0.671959 0.856598 0.000001 0.781069 -0.000537
3.577767 0.296940 0.990655 0.000000 0.781068 0.000806
1.755079 0.387906 0.495346 -0.066423 -0.009927 0.007166
1.639952 0.508110 0.584196 -0.000000 -0.382339 -0.000023
2.866579 0.485348 0.781254 0.000000 -0.581642 0.000027
0.036079 0.574436 0.652771 -0.677647 0.000011 -0.000017
1.788020 0.779128 0.397385 -0.073987 -0.007238 -0.006362
3.509862 0.804871 0.372540 0.124610 0.003572 0.004205
3.559889 0.449489 0.738521 -0.000001 -0.903200 0.000018
0.253332 0.510319 0.794872 0.000000 -0.359179 0.000100
2.694541 0.554138 0.802661 0.000000 0.025836 0.000012
2.013273 0.595948 0.584385 0.000000 0.382686 -0.000093
1.970868 0.778923 0.425813 0.059668 0.012128 0.009503
0.786647 0.660014 0.723745 0.000000 0.950221 0.000006
0.107739 0.642435 0.679869 -0.396607 0.000096 -0.000007
3.399894 0.450998 0.636634 -0.000001 -0.872876 -0.000001
3.133237 0.578710 0.799479 0.000000 0.238381 0.000313
2.119937 0.508151 0.584178 0.000000 -0.382339 -0.000023
2.046309 0.018036 0.021443 -0.066423 -0.011167 0.008038
1.648373 0.649154 0.817959 -0.073988 -0.003619 0.003192
2.046309 1.085564 1.356729 -0.073989 -0.009305 0.008154
2.046309 0.018036 1.356729 -0.066423 -0.011167 -0.008038
2.059993 0.721076 0.463657 0.066487 -0.011090 -0.008746
3.367541 0.440066 0.566542 0.000000 0.781069 -0.000727
1.969680 0.837711 0.352394 -0.066422 0.007135 0.005178
3.186568 0.586160 0.797397 -0.000000 0.311403 0.000059
0.519989 0.503707 0.792034 -0.000001 -0.428999 0.000081
2.599921 0.519376 0.797987 -0.000001 -0.274407 0.000008
2.138423 0.840989 0.332141 0.059669 0.019218 0.014628
3.133237 0.443979 0.653230 -0.000000 -0.950265 -0.000013
0.182704 0.662616 0.706062 -0.104607 0.000465 0.000059
3.695320 0.505589 0.685188 1.000000 0.000000 -0.000000
3.695320 0.488081 0.756485 0.246498 -0.000151 0.000155
1.915400 0.302437 0.358157 -0.073989 0.006204 -0.005460
1.922146 0.375262 0.439863 0.066487 0.011706 -0.009218
1.639952 0.521451 0.798585 -0.000001 -0.261416 0.000018
3.436466 0.774772 0.967984 0.124608 0.007278 -0.008558
1.639952 0.446669 0.732195 -0.000001 -0.922231 0.000004
1.799947 0.599488 0.792227 0.000001 0.426913 0.000020
3.667511 0.759330 0.446718 -0.000000 -0.781069 -0.000537
1.479958 0.661051 0.720346 -0.000000 0.964611 0.000001
2.279931 0.600991 0.586659 0.000000 0.428928 -0.000020
3.594717 0.729513 0.928587 -0.000001 0.781068 -0.000537
3.559889 0.508276 0.584127 -0.000001 -0.382684 -0.000185
0.077151 0.581260 0.620438 -0.516285 0.000023 -0.000050
2.599921 0.448270 0.642259 0.000000 -0.912816 -0.000004
1.840867 0.454297 0.839703 -0.073988 0.003361 0.002965
2.188333 1.063745 0.048735 0.066488 -0.011501 -0.009061
1.650275 0.665421 0.688546 0.000000 0.999683 -0.000000
3.239900 0.656153 0.644109 0.000001 0.903170 -0.000004
0.745358 0.438178 0.688096 0.000004 -0.141495 -0.000000
3.428190 0.375073 0.450816 -0.000000 -0.781068 0.000303
0.463217 0.546944 0.575574 -0.000000 -0.025505 -0.000024
0.306663 0.451762 0.742966 0.000000 -0.880434 0.000021
3.026573 0.655952 0.643657 -0.000001 0.911855 -0.000004
3.399540 0.648199 0.585723 -0.000002 -0.781065 -0.000484
1.961361 0.735301 0.942833 0.066487 -0.002927 0.002338
2.059993 0.382525 0.914515 0.066486 0.011090 0.008746
3.559889 0.450083 0.638440 -0.000000 -0.892145 -0.000019
2.188333 0.278723 0.347515 0.066487 0.008626 -0.006839
0.786647 0.591097 0.795708 -0.000001 0.334515 0.000027
3.118415 0.459257 0.804841 0.124611 -0.003572 -0.004205
1.850706 0.653260 0.845286 -0.073989 -0.004136 0.003647
3.118415 0.459257 0.573331 0.124611 -0.003572 0.004205
2.063558 0.264546 0.316468 0.066489 0.004313 -0.003441
3.239900 0.447649 0.734515 -0.000000 -0.913873 0.000017
2.043356 0.417309 0.534740 0.059669 -0.007685 0.006094
1.973961 0.195127 1.122252 -0.066422 -0.005894 -0.004285
3.559889 0.534637 0.801417 -0.000001 -0.126382 0.000019
3.378330 0.378727 0.489817 0.000002 0.781063 -0.000484
3.338604 0.734640 0.460386 0.124609 0.007278 0.008558
3.338604 0.734640 0.917786 0.124610 0.007278 -0.008558
1.426626 0.664524 0.674730 0.000000 0.993504 -0.000004
0.466658 0.456724 0.751315 0.000001 -0.841779 0.000025
3.079905 0.600707 0.586524 0.000001 0.428888 -0.000081
1.065348 0.438236 0.686298 -0.000001 -0.916023 -0.000000
2.013273 0.645875 0.752810 -0.000000 0.824031 0.000003
0.157050 0.473778 0.614920 -0.204350 -0.000168 -0.000152
2.138423 0.253425 1.057522 0.059670 -0.009382 -0.007410
3.186568 0.656501 0.644938 -0.000000 0.923449 -0.000004
1.713587 0.741247 0.922523 -0.066424 0.002404 -0.001754
3.695261 0.787720 0.992786 -0.226439 0.004565 -0.003528
3.346563 0.641156 0.618895 -0.000000 0.782936 -0.000030
2.140007 0.410666 0.517178 0.059670 -0.007685 0.006094
2.692821 0.552070 0.575455 0.000000 0.013244 -0.000047
1.479958 0.644021 0.622706 0.000000 0.813465 -0.000003
3.203823 0.636518 0.565904 0.000000 0.781070 0.000727
3.695320 0.582703 0.723666 1.000000 0.000000 0.000000
0.962125 0.551350 0.575457 -0.000000 -0.012582 -0.000098
2.016077 1.001304 0.120243 -0.073988 -0.014474 -0.012546
2.188333 0.843252 1.053640 0.066483 -0.003903 0.003115
2.143176 0.231200 0.283254 0.066487 0.015607 -0.012148
2.098020 0.864801 1.090230 0.066488 -0.003902 0.003115
1.008575 0.549462 0.802661 0.000000 -0.025174 0.000025
0.893310 0.447503 0.734186 0.000000 -0.913820 0.000009
3.295580 0.605848 0.773906 0.000000 0.781068 -0.000727
1.964454 0.891855 0.277616 -0.066422 0.006205 0.004509
3.216277 0.419125 0.855039 0.124609 -0.003572 -0.004205
1.680790 0.694807 0.873288 -0.073989 -0.002714 0.002395
1.683359 0.361408 0.450939 -0.066422 -0.002404 0.001754
0.359995 0.658152 0.649074 -0.000000 0.933235 -0.000004
1.779303 0.665430 0.689266 0.000000 0.999683 0.000000
1.201257 0.550002 0.575497 0.000000 -0.025183 -0.000012
3.278612 0.419620 0.540967 0.000001 0.781069 -0.000545
1.892834 0.479159 0.566692 0.066486 0.008900 -0.007053
3.240742 0.694509 0.510584 0.124609 0.007278 0.008558
0.359995 0.510571 0.583203 -0.000001 -0.359120 -0.000200
3.253682 0.673758 0.824418 -0.000001 -0.781069 0.001090
3.424176 0.430818 0.857628 0.000000 -0.781069 -0.000576
3.239900 0.602486 0.790783 -0.000001 0.451594 0.000076
1.880607 0.751121 0.959450 -0.073987 -0.014474 0.012546
2.062370 0.188845 1.131020 0.059669 -0.008467 -0.006702
1.816444 0.286965 0.363967 -0.066422 -0.008376 0.006065
1.998200 0.234808 1.105875 0.066486 0.016839 0.013052
2.069500 0.346593 0.958444 0.066486 0.010269 0.008114
3.303541 0.694204 0.528179 -0.000002 -0.781067 -0.000727
1.864354 0.818121 0.367341 -0.066423 0.015509 0.011024
2.084552 0.455072 0.821150 0.066485 0.006898 0.005485
0.229246 0.549012 0.575487 -0.000000 -0.012590 -0.000025
3.167346 0.664410 0.829940 0.124611 0.003572 -0.004205
3.328471 0.399173 0.862780 0.000000 0.781069 0.000363
1.850706 0.680363 0.554554 -0.066422 0.009927 0.007166
2.071876 0.174538 0.204771 0.066488 0.006778 -0.005391
1.266631 0.438933 0.675981 0.000000 -0.990016 -0.000001
2.152683 0.935893 0.204850 0.066488 -0.012322 -0.009687
1.953835 0.393114 0.865126 0.059668 -0.015369 -0.011900
3.403260 0.385296 0.914568 0.000000 -0.781069 -0.001151
3.490557 0.393172 0.904717 0.000000 -0.781069 -0.000348
3.367541 0.440066 0.811630 0.000000 0.781069 0.000363
0.564719 0.547843 0.575551 0.000000 -0.025505 -0.000024
1.997790 0.438170 0.688906 0.000000 -0.999683 -0.000000
1.159968 0.621709 0.599506 0.000000 0.621826 -0.000024
0.946642 0.595699 0.793890 0.000000 0.382716 0.000046
2.386595 0.522580 0.579280 -0.000000 -0.262668 -0.000035
0.786647 0.513055 0.582268 0.000000 -0.335245 -0.000013
1.888505 0.167328 1.169991 -0.066422 -0.011788 -0.008471
1.888505 0.167328 0.208180 -0.066423 -0.011788 0.008471
1.213300 0.592400 0.795211 0.000001 0.358307 0.000050
1.967303 0.662441 0.527108 0.066481 -0.003338 -0.002665
1.892834 0.479159 0.811480 0.066486 0.008900 0.007053
3.512993 0.715389 0.876491 -0.000001 -0.781068 0.000459
3.580301 0.663099 0.845516 0.000001 0.781068 -0.000459
1.664153 0.439517 0.541539 -0.073988 0.005428 -0.004781
0.200000 0.596613 0.793512 -0.071085 0.000142 0.000321
1.973961 0.908473 1.122252 -0.066421 0.005894 -0.004285
1.898003 0.308921 0.974912 -0.066423 -0.008066 -0.005844
1.670331 0.463643 0.810007 -0.073988 0.010856 0.009486
0.916535 0.438236 0.691874 0.000000 -0.999683 0.000000
2.066605 0.655696 0.643081 -0.000000 0.913810 -0.000017
2.279931 0.503625 0.586177 0.000001 -0.420169 -0.000010
2.173268 0.656725 0.645479 -0.000000 0.923741 -0.000008
0.657619 0.553420 0.802700 0.000002 0.010070 0.000246
3.467347 0.600320 0.611181 0.144234 0.002827 -0.003535
1.106637 0.654112 0.738521 0.000000 0.902009 0.000002
3.475591 0.551800 0.575451 0.000000 0.012671 -0.001563
2.386595 0.506248 0.793183 -0.000000 -0.404393 0.000011
1.752842 0.460508 0.822805 -0.073988 0.003619 0.003192
3.478049 0.337833 0.939505 0.000000 0.781069 0.000697
0.032962 0.512031 0.689086 -0.695989 -0.000010 0.000000
0.786647 0.587143 0.581097 -0.000000 0.311402 -0.000117
1.693284 0.591602 0.582654 0.000000 0.359023 -0.000025
3.653547 0.467783 0.601210 0.000000 0.781069 -0.000693
1.924907 0.835381 1.027641 -0.066423 0.007445 -0.005400
3.714857 0.342833 0.950466 -0.226439 -0.002484 -0.001920
3.502978 0.344403 0.412454 0.000000 -0.781069 0.000537
1.693284 0.639869 0.617275 0.000000 0.783320 -0.000004
0.705790 0.551261 0.802714 0.000000 -0.012590 0.000098
1.759596 0.355645 0.942303 -0.073988 0.003878 0.003420
1.012016 0.665389 0.690885 0.000000 0.999675 0.000000
3.669506 0.776975 0.953524 -0.000001 -0.781070 0.000537
3.527908 0.769421 0.978506 -0.000001 0.781069 -0.001074
1.857512 0.245886 0.300609 -0.073987 0.005945 -0.005234
1.857512 0.857715 1.077563 -0.073987 -0.005945 0.005234
1.533289 0.559711 0.802438 -0.000000 0.063286 0.000151
1.942304 0.843741 0.306928 -0.073989 -0.011373 -0.009928
1.533289 0.642337 0.757745 -0.000000 0.798437 0.000029
3.448065 0.546764 0.802593 0.000000 -0.025514 0.000024
2.439926 0.599731 0.792111 0.000001 0.428806 0.000040
3.558794 0.824937 1.030731 0.124608 0.003572 -0.004205
2.493258 0.438261 0.685309 0.000000 -0.999679 -0.000000
1.781835 0.625566 0.571964 -0.073990 -0.003360 -0.002965
1.646660 0.617564 0.781996 0.000000 -0.624444 -0.000628
1.650085 0.680744 0.524250 -0.073986 -0.007238 -0.006362
3.613221 0.504357 0.585829 0.246187 -0.000103 -0.000217
0.839979 0.490480 0.784745 0.000000 -0.539739 0.000030
3.649557 0.503072 0.732821 0.144235 -0.004259 0.005326
0.084587 0.494407 0.743643 -0.487156 -0.000046 0.000042
3.607724 0.845003 0.322342 0.124609 0.003572 0.004205
2.909588 0.554498 0.802652 0.000000 0.025505 0.000012
1.479958 0.597599 0.793073 -0.000000 0.405501 0.000022
1.937551 0.268638 1.060771 -0.073988 0.005687 0.005007
2.493258 0.665353 0.692323 0.000000 0.999683 0.000000
3.487926 0.646401 0.587973 0.000001 -0.781067 -0.000303
1.213300 0.658588 0.727916 -0.000001 0.938854 0.000003
3.695320 0.509229 0.606682 0.243074 -0.000104 -0.000194
3.372936 0.677412 0.863418 0.000002 0.781066 -0.000454
2.439926 0.597435 0.585026 -0.000001 0.388255 -0.000011
3.652556 0.820538 1.042443 -0.000001 0.781066 -0.000537
3.599704 0.313184 0.407834 0.000000 0.781068 -0.000806
3.186568 0.448698 0.736855 0.000000 -0.903249 0.000009
3.703769 0.871361 0.297981 -0.226442 -0.002420 -0.002000
3.703769 0.232240 1.080191 -0.226438 0.002420 0.002000
2.036226 0.954038 1.177652 -0.066423 0.009927 -0.007166
3.453226 0.507528 0.584437 0.000000 -0.382607 -0.000023
1.871288 0.415884 0.886610 -0.073986 0.001939 0.001712
0.423649 0.438289 0.684230 -0.000000 -0.999679 -0.000000
1.959942 0.664884 0.700224 -0.000001 0.994410 0.000002
1.930068 0.434660 0.567287 0.059669 -0.009916 0.007821
2.147930 0.899553 1.128374 0.066486 -0.006983 0.005552
2.147930 0.899553 0.249798 0.066486 -0.013964 -0.010927
2.066605 0.497881 0.789103 -0.000001 -0.472972 0.000018
1.994635 0.465330 0.560258 0.066485 0.006675 -0.005310
2.107526 0.202869 1.134159 0.066488 0.013964 0.010927
3.346563 0.572201 0.800870 -0.000001 0.188707 0.000200
1.994635 0.657395 0.802625 0.059669 0.007438 -0.005901
2.226600 0.482244 0.599226 0.000000 -0.622106 -0.000012
1.961361 0.368299 0.942833 0.066486 0.005854 0.004662
3.178893 0.460513 0.786055 0.000000 0.781069 0.000727
2.132877 0.643723 0.579416 0.059669 0.005340 0.004252
3.559889 0.655057 0.736529 0.000000 0.903765 0.000001
3.321662 0.662077 0.844237 0.000002 0.781060 -0.000363
3.725710 0.856768 1.070546 -0.226438 -0.002420 0.002000
1.319963 0.593281 0.794872 -0.000000 0.359079 0.000050
3.633745 0.609480 0.780883 0.246158 0.000558 0.000787
3.453226 0.447048 0.645063 0.000000 -0.923871 -0.000032
0.821055 0.438180 0.690255 0.000000 -0.999917 0.000000
2.173268 0.588893 0.581680 0.000000 0.335245 -0.000027
2.119937 0.660430 0.722415 0.000000 0.957854 0.000003
1.586621 0.462836 0.759769 0.000000 -0.782997 0.000002
1.053305 0.503056 0.586447 0.000000 -0.428994 -0.000081
0.200000 0.438166 0.689086 -0.062686 -0.000199 0.000003
3.026573 0.446095 0.730777 0.000000 -0.933226 0.000007
3.695320 0.551800 0.689086 1.000000 0.000000 0.000000
3.506557 0.583061 0.798336 0.000000 0.263341 0.000009
3.503110 0.458582 0.589701 0.000003 0.780959 -0.000151
3.695320 0.622666 0.629246 0.246500 0.000167 -0.000137
1.991070 0.378893 0.451760 0.066487 0.005853 -0.004662
2.128916 0.343541 0.434278 0.059669 -0.005721 0.004553
2.653252 0.658603 0.650298 0.000000 0.942079 -0.000014
1.987505 0.812598 0.996073 0.059667 0.005607 -0.004463
3.262166 0.626295 0.578691 0.000000 0.781068 0.000727
2.062370 0.902319 1.140963 0.066487 -0.007599 0.006036
1.586621 0.439476 0.671879 0.000000 -0.990309 -0.000003
0.466658 0.649052 0.747848 -0.000001 0.855239 0.000047
2.599921 0.447904 0.735091 -0.000000 -0.913871 0.000009
3.026573 0.585474 0.580559 0.000000 0.287257 -0.000032
3.186568 0.598586 0.585537 -0.000000 0.405981 -0.000043
0.107739 0.461166 0.679869 -0.396604 -0.000096 -0.000007
2.051675 0.291086 1.029776 0.066486 0.004724 0.003767
1.844868 0.262129 1.057754 -0.073991 0.006204 0.005460
1.880795 0.373806 0.490221 -0.066422 -0.009306 0.006727
1.959942 0.588554 0.581559 0.000000 0.335539 -0.000027
2.007706 0.904183 0.265608 -0.066422 0.005894 0.004285
1.986604 0.192260 0.225417 -0.073988 0.004653 -0.004101
1.911847 0.659555 0.853371 0.066483 -0.004450 0.003550
2.546589 0.656846 0.732402 0.000000 0.923903 0.000008
0.573321 0.439076 0.674730 0.000000 -0.993504 -0.000001
0.519989 0.447168 0.644772 -0.000001 -0.923426 -0.000008
1.053305 0.644649 0.623585 0.000000 0.810146 -0.000003
3.437979 0.713269 0.504333 0.000005 -0.781002 -0.000303
2.062370 0.188845 0.247152 0.059669 -0.016932 0.013024
3.367541 0.646742 0.553116 -0.000000 0.781069 0.000727
3.686930 0.381174 0.484271 -0.226440 0.004447 -0.003676
3.436466 0.774772 0.410188 0.124609 0.007278 0.008558
0.519989 0.511831 0.582719 -0.000000 -0.359074 -0.000050
2.076630 0.937841 0.194298 0.066487 -0.013554 -0.010619
2.789162 0.553779 0.575501 0.000000 0.025514 -0.000024
2.017213 0.920802 1.134260 -0.066424 0.011167 -0.008038
3.669506 0.343418 0.411222 -0.000001 -0.781068 0.000537
3.186568 0.657328 0.731239 0.000000 0.933252 0.000007
0.893310 0.620028 0.779948 -0.000000 0.602037 0.000051
2.099208 0.764400 0.946479 0.059669 0.002861 -0.002284
3.654270 0.652406 0.712049 0.246156 0.000903 0.000153
1.903133 0.721384 0.873904 -0.066424 0.009306 -0.006727
2.386595 0.641016 0.618719 -0.000000 0.782930 -0.000030
2.188333 0.205225 0.255583 0.066487 0.013964 -0.010927
2.026720 0.937420 0.222216 -0.066422 0.005274 0.003837
0.867505 0.555218 0.575538 0.000000 0.025174 -0.000012
1.373295 0.574321 0.577709 0.000000 0.188725 -0.000025
2.188333 0.352221 0.439448 0.066487 0.010269 -0.008114
3.528084 0.611585 0.631521 0.144235 0.002827 -0.003535
3.503110 0.458582 0.788471 -0.000000 0.781068 0.000303
2.919910 0.662821 0.713279 0.000000 0.975943 0.000002
3.345439 0.477306 0.578691 0.000000 -0.781068 0.000363
2.546589 0.567404 0.576537 0.000000 0.139084 -0.000034
1.947057 0.852520 1.081717 -0.073986 -0.011373 0.009928
3.496235 0.665421 0.690165 -0.000000 0.999921 0.000000
2.045733 0.132945 1.199349 0.059671 -0.013272 -0.010358
1.767767 0.461374 0.554675 -0.073986 0.003361 -0.002965
1.960173 0.305035 1.022092 0.066485 0.010064 0.007955
1.651798 0.391266 0.488287 -0.066425 -0.008686 0.006286
1.715104 0.652143 0.577908 -0.066422 0.006515 0.004732
3.382691 0.550181 0.575472 -0.000000 -0.012590 -0.000098
3.527202 0.549191 0.575484 0.000000 -0.012590 -0.000012
1.929660 0.259911 0.339683 -0.066422 -0.007135 0.005178
3.590815 0.479899 0.761806 -0.000000 0.781069 0.000347
0.200000 0.658361 0.649620 -0.071082 0.000330 -0.000118
2.350467 0.665403 0.687827 0.000000 0.999683 -0.000000
3.547938 0.665011 0.564695 0.000001 -0.781067 -0.000459
3.529175 0.397564 0.478949 0.000000 -0.781069 0.000459
3.628122 0.709558 0.903628 0.000002 0.781067 -0.000537
3.647318 0.721637 0.459436 0.000000 0.781069 0.000403
1.799947 0.531311 0.577319 0.000001 -0.188258 -0.000050
1.586621 0.594369 0.794441 0.000000 0.382339 0.000023
3.654270 0.449256 0.700640 0.246157 -0.000866 0.000049
3.654270 0.574763 0.588480 0.246156 0.000254 -0.000880
1.533289 0.438302 0.694482 0.000000 -0.999679 0.000000
2.018401 0.726502 0.486832 0.059665 0.003261 0.002604
2.155060 0.023213 0.024368 0.066487 0.011501 -0.009061
2.155060 1.080387 1.353804 0.066488 -0.011500 0.009060
2.013273 0.662000 0.661389 0.000001 0.970809 -0.000009
1.959942 0.586417 0.797313 -0.000001 0.311400 0.000117
2.031857 0.081266 1.271725 -0.066423 -0.016129 -0.011440
1.959942 0.462864 0.759805 0.000000 -0.782997 0.000008
3.133237 0.441504 0.716389 -0.000000 -0.971171 0.000019
0.839979 0.665027 0.679561 0.000000 0.995913 -0.000002
2.226600 0.479645 0.776866 0.000000 -0.641312 0.000011
2.074253 1.020510 1.264438 -0.066423 0.014889 -0.010604
2.074253 0.083090 0.113734 0.059669 -0.011442 0.008984
3.562310 0.328519 0.951156 -0.000001 0.781068 0.000403
1.950666 0.804475 0.395786 -0.066424 0.007755 0.005622
1.106637 0.657699 0.647899 -0.000000 0.933229 -0.000007
3.490623 0.644943 0.822806 -0.000004 0.781031 -0.000303
1.373295 0.444394 0.651993 0.000000 -0.942079 -0.000007
1.835258 0.653358 0.589811 -0.066423 0.016129 0.011440
3.661526 0.413997 0.499504 -0.000001 -0.781068 0.000537
1.954231 0.745248 0.469527 0.059670 0.013043 0.010188
2.101012 0.551261 0.575465 0.000004 -0.006706 -0.000185
2.264448 0.550721 0.802693 0.000000 -0.025514 0.000049
3.574047 0.404436 0.856197 -0.000000 0.781069 0.000918
0.968147 0.438241 0.692054 0.000000 -0.999674 0.000000
2.653252 0.658071 0.729308 0.000001 0.928813 0.000004
2.128916 0.340220 0.960075 0.066486 0.005135 0.004093
2.653252 0.483034 0.779541 0.000001 -0.598485 0.000013
2.546589 0.594286 0.794475 0.000000 0.382685 0.000093
2.076630 0.937841 1.183874 0.066488 -0.006778 0.005391
1.287276 0.665417 0.689805 -0.000000 0.999683 0.000000
2.018401 0.377098 0.891340 0.059669 -0.003261 -0.002603
3.545357 0.390124 0.908530 0.000000 -0.781070 -0.000918
3.567793 0.701645 0.484443 0.000001 0.781068 0.000459
2.133670 0.298483 0.377464 0.059668 -0.005264 0.004192
0.148614 0.567789 0.584716 -0.237191 0.000034 -0.000187
1.965502 0.944311 0.205861 -0.066422 0.010547 0.007603
2.152683 0.935893 1.173322 0.066487 -0.006162 0.004905
2.156248 0.737785 0.459524 0.059670 0.003032 0.002421
0.519989 0.664524 0.703442 0.000000 0.990324 0.000001
0.573321 0.462612 0.759488 0.000000 -0.782770 0.000015
2.152683 0.164187 0.207664 0.059670 -0.006865 0.005453
0.092169 0.626693 0.725823 -0.457477 0.000065 0.000030
3.674795 0.519442 0.781560 0.239668 -0.000360 0.000869
3.613221 0.463732 0.617275 0.246124 -0.000188 -0.000149
1.739631 0.428052 0.858075 -0.073987 0.013440 0.011679
1.836118 0.356984 0.462128 -0.066423 -0.004653 0.003388
2.157436 0.128317 1.215830 0.059669 -0.005950 -0.004734
2.813247 0.562221 0.802233 0.000000 0.088609 0.000216
1.889641 0.849669 0.326971 -0.066423 0.014268 0.010182
3.613221 0.515046 0.796613 0.246186 -0.000080 0.000226
1.988693 0.232653 0.309001 0.059669 -0.004692 0.003739
2.011271 0.244863 1.056060 0.059670 -0.005149 -0.004101
2.075441 0.217673 1.096213 0.059669 -0.008696 -0.006880
3.590815 0.606909 0.775232 -0.000003 0.781051 -0.000347
2.107526 0.919106 0.221029 0.066487 -0.006983 -0.005552
2.161001 0.314270 0.989111 0.066486 0.009447 0.007478
1.533289 0.475093 0.772915 0.000000 -0.679765 0.000005
1.586621 0.657683 0.647857 0.000000 0.933044 -0.000004
1.873292 0.225559 1.091922 -0.066422 -0.007135 -0.005178
1.958564 0.133451 1.208499 -0.066426 -0.005274 -0.003837
1.772240 0.332597 0.421500 -0.066422 -0.008996 0.006507
1.811351 0.637435 0.822955 -0.073987 -0.006721 0.005911
2.813247 0.445481 0.729182 -0.000000 -0.932951 0.000002
0.798690 0.548563 0.802639 0.000000 -0.025174 0.000025
2.115845 0.245808 0.313284 0.059669 -0.004692 0.003739
1.953835 0.416268 0.494536 0.066488 0.006897 -0.005485
1.373295 0.442963 0.721725 0.000000 -0.957972 0.000001
2.041364 1.033790 0.080624 -0.073986 -0.012407 -0.010807
1.871288 0.415884 0.491562 -0.073988 0.003878 -0.003420
0.712671 0.548023 0.575547 0.000000 -0.025183 -0.000012
2.919910 0.544743 0.575680 -0.000000 -0.063235 -0.000151
1.880795 0.705273 0.470616 -0.073988 -0.007755 -0.006811
3.465650 0.425224 0.513546 0.000001 -0.781067 0.000303
1.146205 0.549282 0.802657 0.000000 -0.025514 0.000049
1.930068 0.434660 0.810885 0.059669 -0.009916 -0.007821
2.030477 0.551441 0.575460 0.000000 -0.023708 -0.000026
3.654270 0.649202 0.655003 0.246156 0.000927 -0.000267
1.930068 0.643441 0.546900 0.066487 -0.004450 -0.003550
0.084587 0.513371 0.619850 -0.487158 -0.000032 -0.000054
2.119937 0.604413 0.789807 -0.000000 0.474130 0.000036
1.746616 0.637784 0.763375 0.000001 0.749774 0.000017
1.533289 0.627135 0.604024 -0.000000 0.660886 -0.000044
1.479958 0.441622 0.716870 -0.000000 -0.971035 0.000002
2.192192 0.550901 0.575474 0.000004 -0.006672 -0.000186
1.836978 0.263727 0.334445 -0.066423 -0.015509 0.011024
3.613221 0.546045 0.575597 0.251845 -0.000015 -0.000234
0.069870 0.490622 0.655129 -0.544817 -0.000042 -0.000022
2.092078 0.747343 0.453711 0.059670 0.006065 0.004824
0.275696 0.665298 0.683690 0.000000 0.999683 -0.000000
1.232224 0.553959 0.802666 0.000000 0.025183 0.000025
0.999974 0.621850 0.599618 0.000001 0.583933 -0.000003
2.173268 0.489571 0.784162 0.000000 -0.539627 0.000030
3.026573 0.530030 0.577565 -0.000000 -0.188760 -0.000100
1.933237 0.404543 0.900500 0.066487 0.006897 0.005485
1.959942 0.519937 0.580016 -0.000000 -0.287277 -0.000128
1.948290 0.651028 0.790224 0.059670 0.009916 -0.007821
1.981563 0.707151 0.905466 0.066485 -0.005854 0.004662
0.946642 0.658006 0.729475 0.000000 0.933104 0.000007
3.467347 0.617113 0.753565 0.144234 0.001413 0.001768
0.839979 0.578361 0.799565 -0.000000 0.238332 0.000078
2.117033 0.141524 1.195443 0.059668 -0.013272 -0.010358
2.107526 0.176516 0.227408 0.059669 -0.007552 0.005990
1.693284 0.591266 0.795647 -0.000000 0.359600 0.000012
2.226600 0.628507 0.605257 0.000001 0.674070 -0.000010
0.359995 0.595408 0.584161 0.000000 0.382546 -0.000046
2.188333 0.388970 0.485414 0.066487 0.011090 -0.008746
1.893626 0.704766 0.525964 -0.066424 0.002404 0.001754
1.479958 0.511327 0.582912 0.000000 -0.359178 -0.000100
1.623609 0.551710 0.575453 0.000000 -0.025174 -0.000098
1.941160 0.787857 0.960689 -0.066423 0.016129 -0.011440
1.373295 0.566424 0.801773 0.000000 0.138748 0.000068
3.399540 0.631407 0.805874 -0.000001 0.781068 -0.000484
1.725971 0.665430 0.689266 0.000000 0.999683 0.000000
2.624006 0.553419 0.802680 0.000004 0.006729 0.000184
2.653252 0.482103 0.599338 -0.000000 -0.620400 -0.000006
0.359995 0.446652 0.646019 0.000000 -0.923878 -0.000032
2.973242 0.440050 0.668508 -0.000000 -0.982003 -0.000002
2.044545 0.318034 0.381342 0.066486 0.002516 -0.002010
0.123792 0.504376 0.603644 -0.333933 -0.000058 -0.000111
1.878046 0.881422 1.106710 -0.073987 -0.005687 0.005008
1.688680 0.401329 0.882625 -0.073987 0.005429 0.004781
1.878046 0.222178 0.271462 -0.073988 0.005687 -0.005008
1.914928 0.232240 1.099450 -0.073989 0.005687 0.005007
1.715104 0.652143 0.800264 -0.066422 0.006515 -0.004732
1.853279 0.534504 0.801396 -0.000001 -0.163699 0.000058
3.026573 0.656777 0.732569 -0.000000 0.923839 0.000002
1.884120 0.445489 0.854525 0.066486 0.008900 0.007053
1.953835 0.710486 0.865126 0.059670 0.007685 -0.006094
0.893310 0.442653 0.657481 0.000000 -0.957835 -0.000003
2.043356 0.231268 0.302036 0.059669 -0.009383 0.007410
1.201257 0.665376 0.686748 0.000000 0.999683 -0.000000
1.979186 0.269922 1.063984 0.066486 0.009242 0.007319
1.957796 0.644884 0.830118 0.066489 -0.006675 0.005310
1.957796 0.458716 0.830118 0.066486 0.006675 0.005310
2.010083 0.778195 0.991286 0.066487 -0.005135 0.004093
2.386595 0.587913 0.796823 -0.000000 0.311326 0.000059
1.691341 0.413897 0.523760 -0.066423 -0.006515 0.004732
3.270866 0.555937 0.575556 0.000000 0.025174 -0.000025
1.693284 0.442455 0.719999 0.000000 -0.964765 0.000003
2.973242 0.664729 0.676517 0.000000 0.987897 -0.000000
0.573321 0.578579 0.799511 0.000000 0.238481 0.000039
2.022758 0.683702 0.506432 0.066487 -0.013793 -0.010798
1.949478 0.366662 0.897796 0.059668 -0.006522 -0.005184
1.624469 0.438188 0.689985 0.000000 -0.999679 0.000000
1.440389 0.438197 0.687827 0.000000 -0.999679 -0.000000
1.950666 0.299126 0.982386 0.059669 -0.011213 -0.008811
1.873292 0.872644 0.281935 -0.073988 -0.005687 -0.005008
1.857836 0.410774 0.538282 -0.066421 -0.002482 0.001810
1.985128 0.315220 0.371483 0.066486 0.005032 -0.004012
1.807122 0.680110 0.549979 -0.066423 0.008066 0.005844
0.107739 0.629113 0.640896 -0.396600 0.000080 -0.000047
3.613221 0.632152 0.608734 0.246502 0.000167 -0.000172
3.399894 0.498079 0.789210 0.000000 -0.474198 0.000036
1.799947 0.659747 0.724557 0.000000 0.949943 0.000003
0.029896 0.588448 0.690945 -0.719790 0.000008 0.000000
3.239900 0.517013 0.797257 -0.000000 -0.311248 0.000029
1.955996 0.184825 1.157743 -0.073989 0.009305 0.008154
3.102270 0.548383 0.575538 0.000000 -0.025514 -0.000024
2.090890 0.973363 0.151388 0.066487 -0.011911 -0.009374
2.000576 0.751451 0.419323 0.066487 -0.002721 -0.002174
1.159968 0.444756 0.727196 0.000000 -0.942131 0.000002
1.930465 0.409085 0.535260 0.059671 -0.007437 0.005900
3.345439 0.477306 0.799480 0.000000 -0.781069 -0.000363
0.679984 0.445179 0.728382 0.000000 -0.942079 0.000007
2.036226 0.640435 0.561988 0.066487 -0.006897 -0.005485
2.029492 0.425849 0.831423 0.059669 -0.015369 -0.011900
2.147930 0.204047 1.128374 0.066488 0.013964 0.010927
3.267822 0.497752 0.604266 0.000000 -0.624446 -0.000373
2.010083 0.316993 0.965725 0.059668 -0.003032 -0.002421
3.399894 0.444817 0.727365 0.000000 -0.942057 0.000007
3.516880 0.438193 0.691245 -0.000004 -0.267996 0.000000
1.836306 0.683521 0.877938 -0.073988 -0.004136 0.003647
0.786647 0.461832 0.758499 0.000000 -0.798345 0.000014
0.946642 0.514199 0.581861 0.000000 -0.335360 -0.000054
3.165924 0.551261 0.802714 0.000000 -0.012586 0.000197
0.182704 0.470545 0.766325 -0.104607 -0.000348 0.000314
3.156792 0.497752 0.773906 0.000000 -0.624446 0.000373
1.957796 0.667646 0.566252 0.059670 0.007437 0.005901
2.027908 0.727281 0.925700 0.066486 -0.005545 0.004418
2.157436 0.131367 0.159903 0.066487 0.005340 -0.004256
2.157436 0.972233 1.218269 0.066486 -0.005340 0.004256
2.156248 0.388784 0.889919 0.059669 -0.006179 -0.004914
3.323338 0.605848 0.604266 -0.000000 0.781069 0.000545
3.372936 0.409396 0.528179 -0.000000 0.781069 -0.000454
3.478137 0.678453 0.547881 0.000007 -0.780562 -0.000152
3.428190 0.745321 0.464242 0.000005 -0.781002 -0.000303
0.679984 0.658087 0.648906 -0.000001 0.932915 -0.000007
0.413326 0.661193 0.719826 0.000001 0.963260 0.000003
2.813247 0.446047 0.647521 0.000000 -0.932077 -0.000001
3.654270 0.464424 0.743988 0.246157 -0.000844 0.000467
3.678599 0.640341 0.569730 -0.226439 0.004565 0.003528
2.126143 0.684395 0.529187 0.059670 0.007685 0.006094
2.160605 0.621316 0.778996 0.066488 -0.009584 0.007584
2.160605 0.427162 0.847946 0.066487 0.004792 0.003822
1.988297 0.398333 0.516274 0.059669 -0.007685 0.006094
2.029492 0.677752 0.831423 0.059669 0.007686 -0.006094
2.126143 0.684395 0.848985 0.059670 0.015369 -0.011900
2.386595 0.567627 0.576568 0.000001 0.138411 -0.000137
1.969680 0.287478 0.335134 0.066487 0.002362 -0.001887
2.629167 0.551620 0.575453 -0.000000 -0.012590 -0.000025
1.739631 0.428052 0.520096 -0.073990 0.003360 -0.002965
3.599704 0.790417 0.407834 0.000001 -0.781068 -0.000806
2.037415 0.758618 0.963883 0.066486 -0.002721 0.002174
1.616812 0.477735 0.602813 -0.066423 -0.008686 0.006286
2.069500 0.787115 0.406125 0.059670 0.011213 0.008811
3.657536 0.449286 0.543644 0.000002 -0.781062 0.000347
1.213300 0.587913 0.581349 0.000000 0.311239 -0.000029
0.679984 0.659327 0.725840 -0.000000 0.950262 0.000001
0.999974 0.538114 0.576285 0.000001 -0.110726 -0.000043
0.626653 0.453873 0.631440 0.000000 -0.868284 -0.000003
2.973242 0.644963 0.754148 -0.000000 0.812710 0.000007
0.626653 0.646077 0.625660 0.000000 0.827223 -0.000007
0.253332 0.658859 0.651018 0.000001 0.942038 -0.000027
3.649564 0.309530 1.009338 0.000001 -0.781068 -0.000537
2.050486 0.400081 0.484603 0.066487 0.002927 -0.002338
2.997327 0.549102 0.802652 0.000000 -0.025174 0.000012
1.746616 0.588554 0.796613 -0.000000 0.335245 0.000027
2.066605 0.443377 0.723104 0.000000 -0.957808 0.000003
0.946642 0.466411 0.764050 0.000000 -0.750562 0.000008
1.906610 0.513690 0.796130 -0.000000 -0.335368 0.000216
1.053305 0.445498 0.648948 0.000000 -0.933264 -0.000015
2.021966 0.473074 0.771633 0.059670 -0.007437 -0.005901
2.279931 0.445028 0.650213 0.000000 -0.941990 -0.000007
0.626653 0.518816 0.797819 0.000000 -0.287054 0.000032
3.057540 0.438261 0.692863 0.000000 -0.999675 0.000000
2.022758 0.683702 0.871739 0.066487 -0.013793 0.010798
1.805269 0.401418 0.519526 -0.066422 -0.002482 0.001810
2.049694 0.629232 0.772668 0.000000 -0.624441 -0.000243
2.050486 0.703519 0.893569 0.066487 -0.002927 0.002338
1.973245 0.761841 0.974761 0.066488 -0.005443 0.004337
2.173268 0.444681 0.651188 0.000000 -0.942057 -0.000007
2.828730 0.551620 0.575453 0.000000 -0.012586 -0.000197
1.901716 0.199784 0.243451 -0.073989 0.005170 -0.004555
1.969680 0.816122 1.043038 0.066489 -0.002362 0.001887
0.679984 0.443685 0.654127 -0.000000 -0.949950 -0.000006
3.234409 0.477306 0.799480 0.000000 -0.781069 -0.000727
3.328471 0.399173 0.515392 0.000000 0.781069 -0.000363
3.334127 0.436412 0.850631 0.000000 -0.781068 -0.000363
2.027036 0.551441 0.802712 0.000000 -0.025183 0.000098
3.478093 0.705317 0.898323 -0.000000 0.781068 -0.000348
1.721478 0.354889 0.931860 -0.066423 -0.009616 -0.006946
1.354370 0.438207 0.687467 0.000000 -0.999675 -0.000000
1.479958 0.451079 0.636473 0.000000 -0.892164 -0.000005
3.079905 0.659267 0.652163 0.000000 0.942131 -0.000003
1.893626 0.398834 0.525964 0.059669 -0.009916 0.007821
1.836118 0.746616 0.462128 -0.066425 0.004653 0.003388
0.253332 0.517184 0.580859 -0.000000 -0.311384 -0.000117
2.010083 0.795795 0.400956 0.059668 0.002804 0.002239
0.946642 0.587101 0.581083 0.000000 0.311403 -0.000059
0.165549 0.519043 0.793490 -0.171284 -0.000077 0.000270
2.037415 0.330081 0.426202 0.059669 -0.003032 0.002421
1.853703 0.373704 0.891149 -0.066423 -0.009306 -0.006727
3.490557 0.727222 0.486880 -0.000001 -0.781067 -0.000348
2.019590 0.291188 0.998912 0.059669 -0.005607 -0.004463
1.799947 0.660585 0.656274 0.000000 0.957790 -0.000001
1.778986 0.691374 0.880406 -0.073987 -0.002068 0.001826
3.613662 0.416799 0.503008 0.000000 -0.781068 0.000537
2.919910 0.470915 0.609282 -0.000000 -0.715840 -0.000019
2.706584 0.662974 0.712576 0.000000 0.975943 0.000002
1.906610 0.592610 0.795130 0.000000 0.359162 0.000199
2.049694 0.488057 0.594561 0.066486 0.006675 -0.005310
0.519989 0.594119 0.583628 0.000000 0.382384 -0.000012
1.632593 0.640795 0.584140 -0.066421 0.008686 0.006286
2.599921 0.512970 0.582298 -0.000001 -0.333245 -0.000027
3.293231 0.516243 0.797005 -0.000000 -0.311379 0.000117
0.650738 0.665339 0.692863 0.000000 0.999675 0.000000
3.346563 0.516201 0.581181 -0.000000 -0.311342 -0.000029
1.426626 0.471009 0.768987 -0.000000 -0.715996 0.000009
1.935857 0.438168 0.688996 0.000000 -0.999675 -0.000000
1.721478 0.358527 0.443404 -0.073987 0.002003 -0.001769
1.699139 0.757122 0.432266 -0.073988 -0.008013 -0.007036
2.070688 0.650235 0.800949 0.059668 0.007686 -0.006094
1.856944 0.197187 1.132644 -0.066421 -0.013028 -0.009332
1.688680 0.702272 0.495547 -0.073987 -0.005429 -0.004781
2.106338 0.796329 1.003698 0.066489 -0.004724 0.003767
1.533289 0.664596 0.675355 0.000000 0.993443 -0.000002
0.359995 0.442361 0.719652 0.000000 -0.964823 0.000021
1.977998 0.312214 0.409541 0.059669 -0.006065 0.004824
1.901716 0.908744 1.130781 -0.066424 0.006515 -0.004732
2.090890 0.120616 0.159080 0.059669 -0.013272 0.010358
2.090890 0.982985 1.219092 0.059668 0.013272 -0.010359
2.066605 0.443144 0.655843 -0.000000 -0.957853 -0.000012
3.631114 0.752818 0.923308 -0.000000 -0.781070 0.000403
3.587240 0.768512 0.977369 -0.000001 0.781068 -0.000403
3.640357 0.638052 0.563986 0.000001 0.781062 0.000347
3.695320 0.546600 0.596481 0.243074 -0.000015 -0.000219
2.008754 0.158460 0.184661 -0.073988 0.004136 -0.003647
2.158625 0.332440 0.411535 0.066487 0.002567 -0.002051
0.023922 0.560899 0.718086 -0.725604 0.000005 0.000014
3.156792 0.622641 0.617692 0.000000 0.624446 -0.000373
0.654179 0.547664 0.575556 0.000000 -0.025191 -0.000012
2.279931 0.443979 0.724942 -0.000000 -0.949943 0.000003
0.354834 0.665404 0.686657 0.000000 0.999921 -0.000000
1.880607 0.770597 0.434293 -0.066423 0.017369 0.012266
1.991070 0.744184 0.910840 0.059671 0.006522 -0.005183
2.132877 0.638247 0.803133 0.066489 -0.004792 0.003821
2.124163 0.733377 0.910062 0.059669 0.006179 -0.004914
3.453226 0.582931 0.579800 0.000000 0.262444 -0.000009
1.766054 0.469967 0.609023 -0.066423 -0.008686 0.006286
0.191339 0.540367 0.576648 -0.075250 -0.000083 -0.000654
1.266631 0.626224 0.774950 0.000000 0.660869 0.000022
2.226600 0.609291 0.787103 0.000000 0.496603 0.000017
2.439926 0.444161 0.652674 0.000000 -0.950278 -0.000006
1.822666 0.395521 0.473953 -0.073987 0.004007 -0.003533
1.894246 0.726562 0.933170 -0.073988 -0.003619 0.003192
1.810023 0.411764 0.884409 -0.073988 0.004136 0.003647
0.519989 0.444515 0.726518 0.000000 -0.942026 0.000003
3.674795 0.456285 0.667285 0.243076 -0.000216 -0.000040
3.399894 0.584095 0.580146 0.000001 0.287262 -0.000064
2.759916 0.583061 0.579836 0.000000 0.287652 -0.000016
3.654270 0.632480 0.753426 0.246156 0.000747 0.000530
1.766154 0.731890 0.903767 -0.066420 0.002404 -0.001754
0.077151 0.559358 0.763405 -0.516288 0.000007 0.000054
3.265705 0.547843 0.802620 0.000000 -0.025174 0.000025
1.290717 0.550002 0.575497 -0.000000 -0.025505 -0.000049
1.991358 0.171045 1.153285 -0.066422 -0.011167 -0.008038
1.949478 0.366662 0.480376 0.059669 -0.003261 0.002603
2.706584 0.663245 0.666918 -0.000001 0.981611 -0.000007
0.165549 0.604903 0.593413 -0.171281 0.000142 -0.000242
1.743816 0.740301 0.460359 -0.066423 0.004808 0.003500
1.751986 0.647009 0.589108 -0.066423 0.008686 0.006286
2.158625 0.352474 0.935563 0.059668 -0.005721 -0.004553
2.133670 0.808908 0.361657 0.066487 -0.002362 -0.001887
3.547938 0.455382 0.826903 0.000001 -0.781069 -0.000918
3.522921 0.361498 0.468267 0.000001 0.781068 -0.000459
3.535429 0.400044 0.516481 -0.000000 0.781069 -0.000918
3.574047 0.421229 0.508550 0.000000 -0.781068 0.000918
3.586556 0.459774 0.556763 -0.000000 -0.781069 0.000459
3.484303 0.729702 0.928824 -0.000000 0.781068 -0.000697
3.618919 0.675499 0.826596 0.000001 -0.781068 0.000459
3.503066 0.414925 0.843078 0.000006 0.780812 0.000174
3.541684 0.419317 0.837584 0.000000 0.781069 0.000459
3.574047 0.699164 0.856197 -0.000001 -0.781068 0.000459
3.282909 0.438170 0.689446 0.000000 -0.999919 0.000000
3.643579 0.362464 0.943127 -0.000002 -0.781062 -0.000403
1.967303 0.419336 0.833617 0.059664 -0.003719 -0.002968
0.802131 0.665433 0.689266 0.000000 0.999921 0.000000
0.123792 0.619127 0.759913 -0.333933 0.000084 0.000093
0.920836 0.552610 0.802710 0.000000 0.013253 0.000047
2.408959 0.665417 0.689805 0.000000 0.999675 0.000000
0.437411 0.556656 0.802598 0.000000 0.025183 0.000025
2.845934 0.665355 0.685938 0.000000 0.999683 -0.000000
1.807122 0.423491 0.828192 -0.066422 -0.008066 -0.005844
1.159968 0.445304 0.649452 0.000000 -0.933286 -0.000004
2.408959 0.550182 0.802680 0.000000 -0.025174 0.000025
0.157050 0.640153 0.627590 -0.204348 0.000189 -0.000125
0.157050 0.446356 0.710755 -0.204348 -0.000223 0.000040
2.106338 0.293490 1.020935 0.066489 0.002362 0.001887
0.466658 0.467788 0.612577 -0.000001 -0.698852 -0.000002
2.759916 0.585129 0.797716 -0.000000 0.287285 0.000128
0.626653 0.636357 0.764995 -0.000000 0.748186 0.000004
2.027908 0.736468 0.440981 0.066486 -0.002773 -0.002215
1.949478 0.736939 0.897796 0.059671 0.003261 -0.002603
2.161001 0.787436 0.396964 0.059669 0.005264 0.004192
1.991070 0.359417 0.910840 0.059669 -0.006522 -0.005184
3.640357 0.465549 0.814186 0.000002 -0.781062 -0.000347
1.941160 0.340148 0.980200 0.066486 0.010885 0.008588
1.765540 0.551441 0.575460 -0.000000 -0.023706 -0.000026
2.360789 0.438179 0.688546 0.000000 -0.999679 -0.000000
0.432250 0.665312 0.684230 0.000000 0.999674 -0.000000
2.091682 0.413987 0.852213 0.059670 -0.007685 -0.006094
1.997011 0.814920 0.339555 0.066490 -0.002362 -0.001887
0.626653 0.583405 0.579939 0.000000 0.287191 -0.000064
3.577093 0.665294 0.683510 0.000000 0.999683 -0.000000
1.883327 0.623311 0.777401 -0.000001 -0.624445 -0.001216
0.049042 0.510567 0.724484 -0.626614 -0.000023 0.000019
2.189612 0.665433 0.689176 0.000000 0.999683 0.000000
1.670919 0.551261 0.802707 0.000000 -0.025174 0.000012
0.573321 0.531399 0.800870 0.000001 -0.188877 0.000200
2.279931 0.659010 0.651442 0.000001 0.933292 -0.000003
2.126540 0.106531 1.240123 0.059668 -0.011442 -0.008984
0.655899 0.438270 0.693223 0.000000 -0.999679 0.000000
1.871100 0.349621 0.922182 -0.066422 -0.008996 -0.006507
2.063954 0.660253 0.838013 0.066488 -0.013793 0.010798
2.057144 1.053882 1.312095 -0.066425 0.013648 -0.009758
2.057144 0.049719 0.066077 -0.066423 -0.013648 0.009758
3.588820 0.589264 0.625011 0.144235 0.002827 -0.003535
3.619189 0.517101 0.749704 0.144235 -0.001413 0.001768
3.619189 0.517101 0.628468 0.144235 -0.001413 -0.001768
3.528084 0.594792 0.760076 0.144235 0.002827 0.003535
3.649557 0.583736 0.631925 0.144234 0.004260 -0.005326
3.558452 0.511573 0.621553 0.144234 -0.001413 -0.001768
3.619189 0.586500 0.749704 0.144237 0.001413 0.001768
3.655541 0.653462 0.799032 -0.000002 -0.781061 0.000347
2.057144 0.054881 1.316222 -0.073989 0.010339 0.009043
2.973242 0.439564 0.706826 0.000001 -0.943083 0.000000
1.892834 0.624441 0.566692 0.066485 -0.008900 -0.007053
1.426626 0.538651 0.801948 0.000001 -0.113172 0.000084
3.278612 0.436412 0.850631 -0.000001 -0.781069 -0.000545
3.296733 0.668646 0.560148 0.000003 -0.781061 -0.000545
2.132877 0.478253 0.602399 0.059669 -0.005340 0.004252
2.092078 0.379226 0.895732 0.059669 -0.006522 -0.005184
3.239900 0.445578 0.648738 0.000000 -0.933147 -0.000007
2.094455 0.352103 0.448287 0.059669 -0.003032 0.002421
0.626653 0.512673 0.582404 0.000000 -0.335360 -0.000054
3.565550 0.369223 0.934673 0.000000 -0.781068 -0.000537
0.606008 0.665330 0.693223 -0.000000 0.999683 0.000000
2.105150 1.008886 0.108477 0.066487 -0.010269 -0.008114
0.253332 0.632623 0.768955 -0.000001 0.715721 0.000037
2.333263 0.579235 0.799351 0.000000 0.238481 0.000020
2.813247 0.624508 0.601768 0.000001 0.640038 -0.000023
3.559889 0.592526 0.583009 -0.000001 0.359083 -0.000200
1.998200 0.234808 0.272296 0.066487 0.016838 -0.013052
2.105150 0.467771 0.786229 0.059667 -0.005340 -0.004252
2.070688 0.464981 0.567937 0.066487 0.006897 -0.005485
3.399894 0.517611 0.580719 -0.000000 -0.311403 -0.000117
1.135883 0.549372 0.575513 0.000000 -0.025836 -0.000048
2.000576 0.352149 0.958849 0.066486 0.002721 0.002174
2.887223 0.665385 0.687108 0.000000 0.999674 -0.000000
1.825751 0.466860 0.766665 -0.066423 -0.009927 -0.007166
1.693284 0.440915 0.664278 0.000000 -0.976898 -0.000008
2.006518 0.832477 1.059563 0.066490 -0.004621 0.003685
2.000576 0.333611 0.434144 0.059669 -0.006065 0.004824
1.907510 0.793699 1.010678 -0.073986 -0.006721 0.005911
0.131976 0.581923 0.785093 -0.302021 0.000046 0.000136
1.373295 0.490404 0.784696 -0.000000 -0.539201 0.000007
3.208933 0.438261 0.692863 0.000000 -0.999679 0.000000
1.711495 0.708871 0.892654 -0.073986 -0.003361 0.002965
3.079905 0.662279 0.715647 0.000001 0.970679 0.000005
3.437979 0.407124 0.887264 -0.000000 -0.781068 -0.000303
1.586621 0.534949 0.576712 0.000000 -0.138963 -0.000137
1.934136 0.551800 0.575451 0.000000 0.025514 -0.000194
3.358605 0.438284 0.693762 0.000000 -0.999679 0.000000
3.459373 0.367329 0.475561 -0.000000 0.781069 -0.000697
3.278612 0.667188 0.850631 -0.000003 0.781061 -0.000545
3.178893 0.643088 0.592117 0.000001 -0.781069 -0.000727
3.203823 0.450290 0.579329 0.000000 0.781069 -0.000727
3.602697 0.800091 1.016868 -0.000001 0.781068 -0.001074
3.378330 0.378727 0.888355 -0.000000 0.781069 0.000484
3.328471 0.687635 0.501966 0.000000 0.781069 0.000363
3.403260 0.735097 0.901143 -0.000001 -0.781069 0.001151
3.527908 0.317387 0.413092 0.000001 0.781066 -0.000537
3.453119 0.364849 0.940143 0.000000 -0.781068 -0.000697
3.527908 0.769421 0.399666 0.000001 0.781068 0.000537
3.353401 0.714651 0.502604 -0.000001 -0.781069 -0.000908
3.478049 0.337833 0.438667 0.000001 0.781069 -0.000697
3.385400 0.682523 0.508360 -0.000001 0.781068 0.000484
3.577767 0.789868 0.374091 -0.000001 0.781068 0.000806
3.228753 0.663534 0.566542 0.000000 -0.781070 -0.000727
3.321662 0.662077 0.533935 0.000002 0.781066 0.000363
3.602697 0.303510 1.016868 -0.000001 -0.781068 -0.001074
3.627626 0.276494 0.361942 0.000000 0.781069 -0.001074
3.447768 0.681217 0.833748 -0.000002 -0.781066 0.000606
3.392470 0.673758 0.553754 -0.000001 -0.781068 -0.000484
3.437979 0.696476 0.887264 -0.000004 0.781031 -0.000303
3.574775 0.763401 0.407197 0.000001 0.781069 0.000806
3.353401 0.405742 0.888993 0.000001 -0.781069 -0.000908
3.353401 0.405742 0.489179 0.000000 -0.781069 0.000908
2.045733 0.956576 0.167567 0.066486 -0.006162 -0.004905
3.129034 0.622641 0.760480 0.000000 0.624446 0.000746
1.994238 0.471780 0.607574 0.059668 -0.009917 0.007821
0.839979 0.643498 0.756197 -0.000000 0.813458 0.000014
2.866579 0.599406 0.585906 0.000000 0.428969 -0.000020
2.333263 0.476431 0.604054 -0.000001 -0.659022 -0.000011
0.893310 0.663134 0.711828 0.000000 0.981883 0.000001
1.373295 0.495013 0.590668 0.000001 -0.490199 -0.000008
3.472742 0.472610 0.805353 -0.000002 -0.781055 -0.000303
3.346563 0.588978 0.581710 -0.000001 0.335355 -0.000108
2.844214 0.438243 0.692144 0.000000 -0.999683 0.000000
2.049298 0.808073 0.996328 0.059669 0.002804 -0.002239
0.191339 0.546076 0.801958 -0.079464 -0.000008 0.000312
3.422839 0.432607 0.557212 0.000000 0.781068 -0.000969
3.428190 0.728528 0.927356 -0.000004 0.781031 -0.000303
3.429909 0.458165 0.788992 -0.000002 0.781065 0.000484
3.521829 0.489536 0.784183 0.000003 -0.781016 -0.000174
3.478093 0.398283 0.479849 -0.000001 -0.781067 0.000348
3.547938 0.648218 0.826903 0.000001 0.781068 -0.000459
3.512993 0.388211 0.876491 -0.000001 0.781069 0.000459
3.535429 0.686764 0.875116 0.000000 0.781069 -0.000918
3.522921 0.725310 0.454842 -0.000001 0.781067 0.000459
3.570374 0.636386 0.566070 0.000000 0.781070 0.000459
3.545357 0.730270 0.895104 0.000000 -0.781068 0.000918
2.066651 1.066276 0.041004 -0.073988 -0.010339 -0.009043
2.091682 0.680070 0.859842 0.066487 -0.006897 0.005485
0.927718 0.665385 0.687108 0.000000 0.999674 -0.000000
0.140254 0.459107 0.643618 -0.269753 -0.000147 -0.000077
0.140254 0.654912 0.694315 -0.269792 0.000164 0.000005
1.864966 0.679595 0.501467 -0.073988 -0.002068 -0.001826
2.493258 0.470977 0.609217 0.000001 -0.710802 -0.000005
1.864966 0.705290 0.856162 -0.066422 0.002482 -0.001810
1.855459 0.414929 0.834466 -0.066424 -0.004964 -0.003613
1.831553 0.697505 0.528904 -0.066421 0.002482 0.001810
0.165549 0.647473 0.742189 -0.171287 0.000249 0.000130
2.460571 0.550002 0.575497 0.000000 -0.023706 -0.000026
2.027908 0.376320 0.452472 0.066488 0.005545 -0.004418
1.836118 0.729369 0.929833 -0.073987 -0.003878 0.003420
2.866579 0.527959 0.577989 -0.000000 -0.213814 -0.000088
2.188333 0.714631 0.892758 0.066488 -0.011090 0.008746
1.955996 0.927692 1.150614 -0.066422 0.011788 -0.008471
1.940215 0.912763 0.246231 -0.066422 0.011788 0.008471
2.016025 0.871640 0.305518 0.059669 0.009383 0.007410
3.559889 0.625819 0.775307 0.000000 0.660937 0.000174
