2.679525 0.681537 0.489662 -0.000001 -0.315096 -0.000044
2.003291 0.819133 0.559535 -0.000001 0.783391 -0.000001
2.783958 0.643340 0.663772 0.000001 -0.769390 0.000329
1.661325 0.228747 0.985047 -0.069102 -0.004655 -0.005143
1.431859 1.035302 0.331347 -0.069108 0.001825 0.002020
1.614769 0.422800 0.336503 -0.047533 0.009050 -0.011354
1.822962 0.815802 0.550704 0.000000 0.914490 -0.000006
1.664161 0.903072 0.423328 0.069161 -0.001484 -0.001787
1.191810 0.679722 0.490266 0.000000 -0.315761 -0.000044
1.134164 0.717076 0.484394 0.000000 0.023803 -0.000005
3.140835 0.502867 0.773516 -0.058850 -0.003262 -0.003864
1.777880 0.691785 0.700678 0.000000 -0.224137 0.000032
1.377138 0.882472 0.464264 -0.069103 0.001285 0.001422
1.643615 0.620570 0.498882 0.069162 0.005530 -0.006639
2.544278 0.768076 0.497975 0.000000 0.489545 -0.000013
2.363949 0.791188 0.515037 0.000000 0.693166 -0.000004
2.916454 0.600650 0.676846 0.026474 0.008518 0.008774
1.753315 0.970195 0.796098 0.100451 0.000910 -0.001096
1.504335 1.093103 0.285910 -0.069101 0.001614 0.001786
1.913126 0.608175 0.616566 0.000001 -0.974088 0.000002
1.958209 0.635616 0.518682 -0.000000 -0.731917 -0.000014
1.761020 1.304346 1.088665 0.069162 -0.004717 0.005668
1.507386 0.765350 0.691051 -0.000000 0.468762 0.000028
1.281975 0.627215 0.528728 0.000000 -0.780217 -0.000001
2.724607 0.608419 0.569887 0.000000 -0.974576 -0.000001
0.831152 0.630717 0.524235 0.000000 -0.778505 -0.000006
2.783331 0.583568 0.479331 0.026476 -0.020950 0.022083
2.812544 0.564854 0.723127 0.026477 -0.010479 -0.013093
1.518091 0.582425 0.467339 -0.047531 0.007929 -0.009989
0.290165 0.625414 0.531241 -0.000000 -0.821424 -0.000020
0.290165 0.734634 0.486096 0.000000 0.177552 -0.000163
2.859854 0.612369 0.631183 0.000000 -0.941027 0.000003
0.335247 0.790781 0.672926 0.000000 0.698635 0.000004
1.592984 0.844526 0.722044 0.069160 -0.002765 0.003328
2.995101 0.768715 0.498334 0.000000 0.489647 -0.000052
0.966399 0.822877 0.613292 -0.000001 0.802716 0.000000
1.628761 1.333023 1.106721 -0.047529 -0.004526 0.005754
1.666124 0.136731 1.067701 -0.069103 -0.006983 -0.007693
2.589361 0.650314 0.505673 -0.000000 -0.586696 -0.000005
0.106419 0.711042 0.506380 -0.391288 -0.000003 -0.000080
3.185430 0.927278 0.769854 -0.058848 0.006524 -0.007693
1.783034 1.060601 0.875056 0.100451 0.003191 -0.003842
3.040183 0.807109 0.653185 -0.000000 0.834563 0.000010
1.803580 0.140329 0.119289 0.100450 -0.001848 0.002225
1.616465 0.942092 0.754808 -0.069102 0.007618 -0.008384
0.515576 0.691229 0.487015 0.000000 -0.223852 -0.000032
1.626738 0.895269 0.470284 0.100449 0.001904 0.002293
2.665483 0.716588 0.703199 -0.000000 0.012453 0.000010
1.486270 0.830050 0.483307 -0.047532 -0.007929 -0.009989
2.183620 0.790484 0.673205 0.000000 0.681162 0.000016
2.814772 0.764549 0.496114 -0.000000 0.447613 -0.000059
2.904937 0.740846 0.487398 0.000000 0.223852 -0.000032
2.053547 0.713985 0.484379 0.000000 -0.023803 -0.000040
0.740987 0.757381 0.694754 -0.000001 0.318150 0.000005
1.678380 1.304105 0.100489 -0.047531 -0.009051 -0.011355
1.534002 0.856953 0.459356 -0.047533 -0.015854 -0.019210
1.581243 0.596833 0.527473 0.100449 -0.003807 0.004583
1.432662 0.348503 0.289331 -0.069102 -0.001614 0.001786
1.634076 0.996350 0.385400 -0.069100 0.001719 0.001903
0.740987 0.606511 0.606451 -0.000000 -0.994255 0.000001
2.969973 0.605797 0.591667 -0.000000 -0.999931 -0.000000
1.824859 0.206327 1.016275 0.069160 0.006018 0.007221
1.708555 0.988127 0.830854 0.069162 -0.002643 0.003181
1.868044 0.771356 0.687703 0.000000 0.510326 0.000012
0.113833 0.736578 0.681882 -0.362287 0.000020 0.000090
1.777880 0.781916 0.680521 0.000001 0.607649 0.000019
1.011481 0.812320 0.543350 0.000000 0.883364 -0.000008
3.178129 0.409468 0.341668 -0.058847 0.006408 -0.007790
1.146728 0.777278 0.503667 -0.000001 0.570136 -0.000042
2.260482 0.824603 0.592318 0.000000 0.999717 -0.000000
1.771293 0.913643 0.751505 0.100449 0.001022 -0.001231
1.824859 0.538686 0.447230 0.069162 0.005936 -0.007124
1.717727 0.531777 0.455551 0.100450 -0.001022 0.001231
0.160050 0.611097 0.583842 -0.182256 -0.000218 -0.000026
3.126869 0.983772 0.811596 -0.058848 -0.006408 0.007790
1.437328 0.847258 0.685880 -0.069103 0.003212 -0.003553
1.056563 0.644971 0.677696 0.000000 -0.645623 0.000017
0.560658 0.615800 0.548028 -0.000000 -0.901929 -0.000002
0.650823 0.606705 0.607985 -0.000001 -0.991264 0.000004
2.644551 0.823581 0.501224 0.026475 0.023939 0.023871
0.099107 0.798467 0.581811 -0.419785 0.000072 -0.000012
0.353723 0.605882 0.598420 0.000000 -0.999725 0.000000
2.183620 0.657145 0.501031 0.000000 -0.530131 -0.000003
2.919795 0.849355 0.694835 0.026478 -0.017029 0.015500
1.628106 1.044302 0.880600 -0.047533 -0.008485 0.010667
0.921316 0.627215 0.658838 0.000000 -0.797892 0.000001
1.505138 1.139709 0.943672 -0.069103 0.002804 -0.003102
1.694613 0.858579 0.695726 0.100448 0.005039 -0.006062
2.363949 0.648075 0.680199 0.000001 -0.608319 0.000038
1.634503 0.711788 0.484431 0.000000 -0.023803 -0.000308
2.995731 0.988377 0.366984 0.026476 0.007486 0.009680
2.769690 0.775966 0.684791 -0.000000 0.550592 0.000022
2.740099 0.890260 0.448444 0.026476 0.008983 0.011431
0.831152 0.686568 0.699399 0.000000 -0.270268 0.000052
2.308520 0.718134 0.703146 -0.000000 0.023803 0.000308
1.341809 0.634954 0.668439 -0.047532 0.010303 0.012859
1.824859 0.984046 0.816986 0.069161 -0.002480 0.002986
2.634443 0.799591 0.663458 -0.000000 0.778505 0.000006
1.322531 0.566081 0.466361 -0.047524 0.002576 -0.003285
2.228703 0.613767 0.634831 0.000001 -0.922292 0.000006
3.106874 0.574166 0.716041 -0.058848 -0.004893 -0.005785
1.462304 0.668125 0.692563 -0.000000 -0.426071 0.000016
1.598943 0.321188 0.257893 -0.047534 0.003960 -0.005039
2.919836 0.507789 0.425018 0.026477 0.006808 -0.007135
1.794040 1.392251 1.151850 0.100451 0.004703 -0.005659
1.642881 0.563879 0.492025 0.100451 -0.003807 0.004583
0.200000 0.643542 0.676487 -0.058302 -0.000238 0.000269
3.017684 0.561796 0.709104 -0.058848 0.008699 0.010523
1.525654 0.304722 0.258471 -0.069105 -0.001508 0.001669
1.663427 0.596612 0.706789 0.069156 0.002074 0.002497
1.549909 1.163405 0.218429 -0.047532 -0.003677 -0.004682
3.063170 0.788371 0.525360 -0.058847 0.006650 0.007840
1.721396 0.852235 0.493591 0.100451 0.005039 0.006062
1.376203 0.491716 0.413402 -0.069102 -0.005932 0.006545
0.740987 0.654546 0.684858 -0.000000 -0.550627 0.000022
3.038337 0.425680 0.834158 0.026475 -0.011977 -0.014664
0.039035 0.735337 0.554731 -0.655171 0.000009 -0.000017
2.194706 0.712439 0.703150 0.000000 -0.023803 0.000308
3.118043 0.598638 0.493011 -0.058848 -0.008365 0.009827
1.777880 0.627996 0.659880 0.000000 -0.793338 0.000011
1.507386 0.816098 0.636147 -0.000000 0.923623 0.000006
1.605875 1.166429 0.974887 -0.047534 -0.003394 0.004323
2.138538 0.763021 0.692217 -0.000000 0.447653 0.000029
0.876234 0.811073 0.541018 0.000002 0.865166 -0.000008
1.327796 0.716019 0.703196 0.000000 0.023803 0.000040
1.505892 0.906010 0.764925 -0.047533 -0.005445 0.006908
1.568789 0.447647 0.391577 -0.069101 -0.003597 0.003978
1.658390 1.181844 0.197433 -0.047532 -0.006222 -0.007879
1.597551 0.607287 0.611930 0.000000 -0.988005 0.000001
1.574758 0.897536 0.762452 -0.047533 -0.010746 0.013387
3.162103 0.687408 0.508231 0.245716 -0.000059 -0.000174
2.538366 0.824580 0.591342 0.000000 0.999717 -0.000000
0.380329 0.699470 0.702077 0.000001 -0.154055 0.000188
1.457839 1.071213 0.886226 -0.069107 0.001719 -0.001903
1.725065 0.794982 0.669009 0.069162 -0.005530 0.006639
0.829674 0.605822 0.595898 0.000000 -0.999717 0.000000
0.239909 0.605892 0.588738 0.000000 -0.999717 -0.000000
1.748179 0.584518 0.692222 0.100451 -0.005039 -0.006062
0.647128 0.712520 0.703152 -0.000003 -0.014185 0.000136
1.743409 0.191842 0.169953 0.100451 -0.002296 0.002764
1.687715 0.683090 0.698389 0.000001 -0.293077 0.000192
1.101646 0.612066 0.630341 0.000000 -0.940918 0.000005
0.335247 0.777613 0.503899 0.000000 0.570361 -0.000021
2.003291 0.647051 0.679394 0.000000 -0.623860 0.000002
2.853255 0.533344 0.446235 0.026476 0.017030 -0.015501
1.617705 1.016972 0.328994 -0.047534 -0.002263 -0.002886
1.398401 0.584876 0.499609 -0.069099 -0.002570 0.002843
1.681772 0.437136 0.381695 0.100450 -0.001820 0.002191
1.783034 1.032904 0.335504 0.100452 0.003415 0.004111
3.089658 0.635490 0.654318 -0.000001 -0.769122 0.000027
2.052808 0.824537 0.598013 -0.000000 0.999717 0.000000
2.935104 0.593492 0.504776 0.026478 0.008516 -0.008773
1.653521 0.472416 0.810795 0.069160 0.005611 0.006736
2.904937 0.654139 0.684589 0.000000 -0.550637 0.000011
2.273785 0.810654 0.540273 -0.000000 0.871878 -0.000016
1.797709 1.225834 1.014166 0.100449 0.002072 -0.002495
0.921316 0.771041 0.687890 0.000000 0.510192 0.000049
1.687715 0.624973 0.531877 0.000000 -0.821404 -0.000020
2.183620 0.765059 0.496369 -0.000000 0.447489 -0.000029
1.771293 0.885946 0.459055 0.100450 0.002044 0.002461
0.340420 0.710812 0.484454 0.000069 -0.004689 -0.001948
2.409032 0.638261 0.515975 -0.000000 -0.697255 -0.000008
1.586628 0.480949 0.764248 -0.069104 -0.001904 -0.002108
3.010195 0.632498 0.650713 0.000001 -0.769387 0.000233
2.005508 0.710486 0.703103 0.000000 -0.023803 0.000308
1.669297 1.104865 0.290684 -0.069102 0.001402 0.001552
2.318867 0.608134 0.571199 -0.000000 -0.978200 -0.000002
3.085266 0.820205 0.624614 0.246057 0.000194 0.000060
2.363949 0.756479 0.695128 -0.000001 0.318150 0.000005
1.241327 0.710974 0.703115 0.000000 -0.023803 0.000308
2.138538 0.655769 0.685664 -0.000001 -0.549919 0.000022
1.372139 0.813347 0.642181 -0.000000 0.894134 0.000004
0.695905 0.673104 0.492780 -0.000000 -0.382596 -0.000035
1.748913 0.942783 0.414804 0.100450 0.001932 0.002326
2.048373 0.618929 0.541768 -0.000000 -0.883405 -0.000004
2.048373 0.606711 0.608025 -0.000000 -0.991445 0.000002
1.497519 0.812044 0.539106 0.000001 -0.769389 0.000785
0.245082 0.646607 0.508529 0.000000 -0.627448 -0.000073
1.236892 0.775932 0.684813 0.000000 0.550638 0.000011
1.567361 0.287384 0.954234 -0.047533 0.007353 0.009281
1.696814 0.507428 0.777826 0.069161 0.001484 0.001787
1.562397 0.629062 0.661342 0.000001 0.769389 -0.000458
1.777163 0.470985 0.790286 0.100451 -0.000966 -0.001163
0.560658 0.616077 0.640126 -0.000000 -0.903920 0.000003
1.770559 1.227585 0.175509 0.100449 0.002296 0.002764
1.769092 0.024152 1.172549 0.069162 0.006831 0.008188
1.769092 1.406258 0.015017 0.069161 -0.006831 -0.008188
1.011481 0.813238 0.642399 0.000000 0.893557 0.000004
0.605741 0.786371 0.510658 0.000000 0.645712 -0.000004
1.519526 0.317119 0.928059 -0.047532 0.004031 0.005129
0.335247 0.645033 0.677748 0.000000 -0.645840 0.000069
1.639212 0.535946 0.718250 0.100449 -0.005039 -0.006062
2.724607 0.776543 0.503156 0.000000 0.550128 -0.000006
1.011481 0.768502 0.689352 -0.000001 0.483685 0.000013
1.741208 0.385576 0.331088 0.100449 -0.003416 0.004112
1.801011 0.962503 0.391595 0.100450 0.001820 0.002191
1.691192 1.263075 1.055722 -0.047533 -0.005091 0.006465
1.077996 0.713578 0.484389 -0.000000 -0.023803 -0.000040
0.335247 0.646227 0.508835 0.000001 -0.627457 -0.000073
1.822962 0.820157 0.624769 0.000000 0.956095 0.000002
1.669297 0.325545 0.896882 0.100450 -0.005935 -0.007136
1.714633 0.053475 1.138364 -0.069104 -0.005290 -0.005840
1.913126 0.813743 0.546188 -0.000001 0.894255 -0.000002
0.470494 0.822921 0.613051 -0.000001 0.983816 0.000005
3.162103 0.649955 0.655703 0.245716 -0.000135 0.000125
3.040183 0.659439 0.687932 0.000000 -0.510251 0.000099
1.777880 0.624444 0.532649 -0.000000 -0.834681 -0.000010
1.101646 0.731422 0.702002 0.000001 0.154045 0.000188
1.692778 0.253202 0.227540 0.100450 -0.002520 0.003034
1.864349 0.605780 0.593457 -0.000005 -0.187541 -0.000000
2.544278 0.676507 0.491426 0.000001 -0.356875 -0.000010
3.162103 0.760043 0.590254 1.000000 0.000000 -0.000000
1.515243 0.994333 0.352915 -0.047532 -0.009616 -0.012037
2.724607 0.797909 0.665446 0.000000 0.763105 0.000012
2.859854 0.770096 0.688451 0.000000 0.510151 0.000025
1.056563 0.641117 0.513251 -0.000000 -0.681483 -0.000016
1.011481 0.734474 0.486067 0.000000 0.177596 -0.000163
2.584298 0.639957 0.659698 0.000001 -0.769377 0.000110
2.983817 0.846276 0.473133 0.026475 0.005241 0.006908
3.202093 1.029323 0.332989 -0.058850 0.006523 0.007693
3.202093 1.029323 0.854576 -0.058851 0.006523 -0.007693
0.560658 0.817034 0.633848 0.000001 0.926416 0.000003
1.508125 0.715042 0.484354 0.000000 -0.023620 -0.000041
0.876234 0.655973 0.501767 0.000000 -0.550638 -0.000006
1.607461 0.364215 0.896496 -0.047533 0.002121 0.002706
1.414265 0.710649 0.484458 0.000000 -0.023803 -0.000308
0.746900 0.824545 0.597688 -0.000000 0.999716 0.000000
0.966399 0.655226 0.502260 -0.000000 -0.550722 -0.000022
1.824859 0.390971 0.324590 0.069160 0.004635 -0.005571
1.542016 0.980287 0.825270 -0.047531 -0.002404 0.003067
1.664161 0.903072 0.764238 0.069161 -0.002968 0.003572
2.679525 0.814454 0.639869 0.000000 0.904526 0.000007
1.619995 0.160445 1.056814 -0.047534 0.005232 0.006642
2.679525 0.642994 0.676000 0.000001 -0.663688 0.000066
0.650823 0.633582 0.666664 -0.000000 -0.747903 0.000026
1.574138 0.604213 0.706552 -0.047534 0.004040 0.005141
2.724607 0.747592 0.698306 -0.000001 0.291336 0.000024
1.462304 0.618776 0.542056 0.000000 -0.883361 -0.000016
0.921316 0.766500 0.497125 0.000000 0.468762 -0.000007
1.822962 0.768644 0.498294 -0.000000 0.489332 -0.000013
2.860564 0.881559 0.460831 0.026477 -0.008517 -0.008773
1.434912 0.527553 0.451247 -0.069102 -0.005932 0.006545
2.454114 0.609501 0.622106 0.000000 -0.968880 0.000002
1.748179 0.592859 0.485297 0.069161 0.007319 -0.008766
2.589361 0.691785 0.700678 0.000000 -0.224137 0.000032
1.417221 0.778281 0.683203 -0.000000 0.570238 0.000011
0.064326 0.749739 0.647519 -0.555887 0.000021 0.000030
2.763038 0.824549 0.590040 0.000000 0.999717 -0.000000
0.786070 0.786744 0.676592 -0.000001 0.639652 0.000009
0.515576 0.769638 0.498852 0.000000 0.490053 -0.000003
0.425411 0.779668 0.682204 0.000001 0.589674 0.000080
2.995101 0.675672 0.491748 -0.000000 -0.360567 -0.000076
0.470494 0.617937 0.643928 0.000000 -0.894281 0.000002
1.716993 1.129485 0.923581 0.100449 0.002968 -0.003573
1.618537 0.272310 0.237868 -0.069102 -0.002592 0.002868
0.425411 0.730577 0.702128 -0.000000 0.130341 0.000014
1.409831 0.718785 0.703131 -0.000000 0.023803 0.000308
1.552468 0.734073 0.701571 0.000000 0.177583 0.000163
3.162103 0.710497 0.683614 0.242630 -0.000012 0.000186
2.048373 0.628516 0.660558 -0.000002 -0.776784 0.000006
2.963738 0.829595 0.674989 0.026475 -0.017031 0.015501
1.565884 0.379369 0.329642 -0.069101 -0.003227 0.003569
2.937312 0.930947 0.775912 0.026475 0.010480 -0.013094
2.774124 0.710974 0.703115 0.000000 -0.023803 0.000308
2.003291 0.613024 0.632937 0.000000 -0.931105 0.000003
1.372139 0.814228 0.547218 -0.000000 0.904486 -0.000003
1.383638 0.411282 0.846112 -0.069101 -0.007300 -0.008039
1.507386 0.607497 0.613091 -0.000000 -0.984071 0.000003
2.458548 0.714554 0.484358 0.000000 -0.011721 -0.000082
2.048373 0.810435 0.647683 0.000001 0.863529 0.000004
1.784531 0.605772 0.593783 0.000000 -0.999717 0.000000
2.228703 0.650840 0.682276 0.000000 -0.569615 0.000003
3.127187 0.916531 0.430935 -0.058847 -0.003204 -0.003912
2.138538 0.607634 0.613852 0.000000 -0.984103 0.000003
1.327057 0.776810 0.684224 0.000001 0.569610 0.000021
3.081512 0.859514 0.720752 -0.058847 0.008366 -0.009827
1.417793 0.517940 0.764659 -0.047532 0.007929 0.009988
1.868044 0.623058 0.652809 -0.000001 -0.843803 0.000005
1.552468 0.790955 0.514810 0.000000 0.698635 -0.000008
0.650823 0.815638 0.637233 0.000001 0.896686 0.000003
1.462304 0.617791 0.643637 0.000001 -0.891248 0.000004
0.084818 0.652746 0.638259 -0.475633 -0.000047 0.000032
0.425411 0.771461 0.499925 0.000000 0.510241 -0.000049
2.769690 0.617664 0.544183 0.000001 -0.893924 -0.000015
1.232458 0.710974 0.484450 0.000000 -0.023803 -0.000308
1.758819 0.283109 0.958478 0.069162 0.007319 0.008766
2.859854 0.665133 0.496478 0.000001 -0.442100 -0.000007
1.327057 0.793979 0.517829 0.000001 0.712824 -0.000014
2.087543 0.714391 0.703196 0.000000 -0.023803 0.000081
2.273785 0.800919 0.661810 0.000000 0.778505 0.000003
3.034004 0.473125 0.397100 0.026476 0.017017 -0.015492
2.859854 0.817313 0.554439 -0.000001 0.932687 -0.000023
1.571823 0.521044 0.729419 -0.069103 -0.004020 -0.004444
1.329274 0.715856 0.484365 0.000000 0.023803 -0.000081
0.662648 0.711788 0.484431 0.000000 -0.023803 -0.000020
0.425411 0.650742 0.505361 -0.000000 -0.589683 -0.000080
1.507386 0.647495 0.679752 0.000001 -0.603842 0.000005
1.658390 1.192620 0.977154 -0.069103 0.004761 -0.005259
1.913126 0.640938 0.674148 0.000000 -0.680205 0.000008
1.694127 0.157973 0.124336 -0.047532 0.010181 -0.012714
3.103905 0.427983 0.357900 0.026476 0.020417 -0.017499
0.650823 0.771181 0.687807 -0.000000 0.510243 0.000049
1.236892 0.610106 0.563305 0.000001 -0.956930 -0.000002
0.740987 0.806011 0.654849 -0.000000 0.834704 0.000010
1.643615 0.829555 0.522628 0.100450 0.001904 0.002293
1.262515 0.598470 0.688363 -0.069100 -0.005139 -0.005675
1.549913 0.543628 0.476498 -0.069103 -0.005932 0.006545
3.040183 0.758020 0.694489 -0.000000 0.382660 0.000035
1.761020 0.126064 1.088665 0.069162 0.004717 0.005668
2.904937 0.689881 0.487325 -0.000000 -0.224126 -0.000032
1.332230 0.605780 0.594108 0.000005 -0.187530 0.000000
1.552468 0.690516 0.487179 -0.000001 -0.222240 -0.000032
1.442263 0.911135 0.422473 -0.047532 -0.003965 -0.005046
3.010195 0.797912 0.536852 -0.000001 0.769384 -0.000233
1.191810 0.738148 0.700780 0.000000 0.200868 0.000072
1.598943 1.119798 0.916934 -0.069103 0.002804 -0.003102
3.140835 0.499484 0.418124 -0.058849 0.003204 -0.003912
0.560658 0.770481 0.688222 0.000000 0.509806 0.000012
1.800645 1.262574 0.142512 0.100450 0.001848 0.002225
1.354251 0.545163 0.727943 -0.069111 -0.001285 -0.001422
2.318867 0.632133 0.522554 0.000000 -0.763470 -0.000025
0.128939 0.759313 0.508226 -0.303381 0.000057 -0.000104
1.958209 0.812728 0.643418 0.000000 0.894281 0.000007
2.409032 0.679876 0.697351 0.000000 -0.316008 0.000022
1.588095 0.496183 0.395577 -0.047533 0.010181 -0.012714
0.695905 0.736075 0.701205 -0.000001 0.198744 0.000036
1.783034 0.397506 0.852062 0.100450 -0.003415 -0.004111
0.113833 0.673665 0.674359 -0.362291 -0.000043 0.000078
1.146728 0.709307 0.703051 0.000001 -0.059056 0.000124
1.687715 0.768147 0.689551 -0.000000 0.489638 0.000052
1.777880 0.805112 0.531408 0.000001 0.812093 -0.000005
3.049326 0.864585 0.479346 -0.058846 -0.007094 -0.008612
1.236892 0.610384 0.625197 0.000000 -0.956036 0.000004
1.761020 1.311290 0.107265 0.100449 0.001848 0.002225
0.650823 0.801820 0.526911 -0.000001 0.793130 -0.000023
1.442263 0.911135 0.765092 -0.047534 -0.007929 0.009988
1.687715 0.670378 0.493959 -0.000000 -0.404571 -0.000066
1.822962 0.642933 0.675946 -0.000001 -0.663713 0.000033
1.528421 0.475938 0.383331 -0.047533 0.005091 -0.006465
2.273785 0.774231 0.501635 0.000000 0.530558 -0.000012
2.609255 0.790030 0.527358 -0.000003 0.769241 -0.000110
1.507386 0.702982 0.702524 -0.000000 -0.106933 0.000068
2.484468 0.638266 0.529905 -0.000001 -0.769185 -0.000027
1.476888 0.382928 0.873951 -0.047535 0.004596 0.005842
1.798076 0.532343 0.742088 0.100450 -0.004087 -0.004919
3.162103 0.802094 0.617065 0.242632 0.000179 0.000051
1.392273 0.592723 0.681442 -0.069101 -0.002570 -0.002843
1.785969 1.083878 0.284191 0.069161 -0.004310 -0.005181
2.496979 0.605783 0.594678 0.000000 -0.999931 0.000000
1.699382 0.373646 0.860894 0.100451 -0.003415 -0.004111
1.868044 0.812149 0.644539 -0.000001 0.883165 0.000016
0.276862 0.720087 0.703100 0.000000 0.023803 0.000020
2.640355 0.711788 0.484431 -0.000000 -0.023803 -0.000020
1.236892 0.822186 0.570760 0.000001 0.974633 -0.000003
1.682542 0.605869 0.589715 -0.000000 -0.999717 -0.000000
0.605741 0.626423 0.529812 0.000000 -0.807607 -0.000005
1.822962 0.670489 0.493910 -0.000000 -0.404537 -0.000017
1.745611 0.099050 0.075084 0.069162 0.009432 -0.011257
1.955253 0.605880 0.589227 0.000000 -0.999717 -0.000000
1.409831 0.605857 0.590203 0.000000 -0.999717 -0.000000
1.564416 1.034188 0.868831 -0.047530 -0.002263 0.002887
0.470494 0.802811 0.659364 -0.000000 0.807626 0.000005
0.921316 0.817269 0.633240 -0.000001 0.932226 0.000011
0.470494 0.650216 0.681820 -0.000000 -0.589654 0.000020
2.806148 0.880604 0.734115 0.026477 0.010479 -0.013093
1.913126 0.669894 0.494173 0.000000 -0.404541 -0.000017
2.454114 0.805507 0.655589 -0.000000 0.820352 0.000005
1.327057 0.659684 0.499489 -0.000000 -0.509752 -0.000012
2.769690 0.745448 0.488618 -0.000000 0.270259 -0.000105
1.720295 1.044041 0.876218 0.069162 -0.002318 0.002790
1.146728 0.607068 0.610523 0.000001 -0.986182 0.000002
1.236892 0.790897 0.514753 0.000000 0.698635 -0.000015
0.786070 0.663047 0.497583 0.000000 -0.468762 -0.000014
0.515576 0.673067 0.694770 -0.000000 -0.382003 0.000018
1.610595 0.900699 0.420471 0.069161 -0.001484 -0.001787
1.639946 0.994321 0.842179 0.069162 -0.005286 0.006348
1.777163 0.470985 0.397280 0.100450 -0.001932 0.002326
0.831152 0.618280 0.644575 0.000000 -0.883324 0.000004
1.574138 0.851088 0.676571 -0.069103 0.003023 -0.003344
1.349748 0.911563 0.435435 -0.069101 0.002570 0.002843
1.101646 0.777345 0.683853 -0.000001 0.490278 0.000003
0.033117 0.713375 0.632208 -0.678453 -0.000001 0.000016
1.417221 0.762248 0.494985 -0.000000 0.425039 -0.000008
1.714633 1.372944 0.044395 -0.047534 -0.013573 -0.016669
1.573291 0.537555 0.428868 -0.047533 0.005374 -0.006819
2.412727 0.605822 0.595898 0.000000 -0.999717 0.000000
2.950019 0.761954 0.692719 0.000000 0.426176 0.000031
1.507386 0.611174 0.559844 0.000000 -0.948866 -0.000005
1.236892 0.663802 0.690383 0.000001 -0.467099 0.000014
1.538446 1.097593 0.916911 -0.047539 -0.002015 0.002571
1.777880 0.813110 0.642654 0.000001 0.892334 0.000007
2.093456 0.673255 0.492718 0.000000 -0.382733 -0.000035
1.146728 0.809977 0.648499 -0.000000 0.871937 0.000016
0.380329 0.803387 0.658575 -0.000000 0.807203 0.000011
0.605741 0.815654 0.550370 -0.000000 0.914219 -0.000003
1.629871 0.210838 1.017951 -0.047533 0.006222 0.007879
2.679525 0.743881 0.488178 -0.000000 0.270329 -0.000105
2.499196 0.819198 0.627837 0.000001 0.925100 0.000001
3.014868 0.970717 0.808070 0.026476 0.007486 -0.009680
0.152179 0.796063 0.657371 -0.212881 0.000145 0.000108
1.597551 0.763603 0.495641 0.000000 0.447616 -0.000059
0.515576 0.815407 0.549811 0.000001 0.911468 -0.000007
2.724607 0.816176 0.551607 -0.000001 0.918584 -0.000003
2.228703 0.673668 0.492547 -0.000001 -0.381009 -0.000018
2.544278 0.761696 0.692841 -0.000000 0.426215 0.000031
2.138538 0.740370 0.487289 0.000000 0.224184 -0.000064
1.507386 0.763458 0.495568 -0.000000 0.447489 -0.000029
1.557366 1.090995 0.292763 -0.069102 0.006031 0.006652
2.804007 0.914789 0.428079 0.026476 0.020950 0.022083
2.796124 0.816744 0.686258 0.026475 0.020950 -0.022083
1.696507 1.338524 1.115124 -0.047532 -0.003960 0.005040
2.950019 0.659264 0.499738 -0.000000 -0.510228 -0.000025
2.589361 0.818915 0.628687 -0.000000 0.948661 0.000005
1.712957 0.423623 0.341616 0.069162 0.002480 -0.002986
2.003291 0.672127 0.493185 0.000000 -0.404541 -0.000008
1.236892 0.663263 0.497469 0.000000 -0.468535 -0.000014
2.248657 0.713578 0.703177 0.000000 -0.023803 0.000010
2.589361 0.787081 0.676298 -0.000000 0.659029 0.000004
0.921316 0.673330 0.492687 0.000001 -0.382561 -0.000071
2.619662 0.605838 0.596549 0.000000 -0.999717 0.000000
1.824859 1.039439 0.862975 0.069159 -0.004635 0.005571
2.228703 0.818000 0.556267 0.000000 0.941007 -0.000011
2.634443 0.665278 0.496406 -0.000000 -0.447799 -0.000004
3.085925 0.940588 0.414404 -0.058847 -0.006408 -0.007790
1.747078 0.330561 0.284642 0.100450 -0.002968 0.003573
1.723597 0.495227 0.424436 0.100450 -0.004087 0.004919
1.334242 0.827541 0.677695 -0.069103 0.003854 -0.004261
2.990388 0.604116 0.487787 0.000001 -0.638779 0.000800
3.085266 0.776543 0.684410 0.250428 0.000110 0.000167
2.814772 0.667243 0.692144 0.000000 -0.447799 0.000015
1.720503 1.391668 1.158188 -0.047533 -0.013573 0.016670
0.470494 0.765204 0.691124 0.000000 0.447360 0.000015
1.597551 0.698425 0.701914 0.000001 -0.138192 0.000013
2.273785 0.633744 0.666846 -0.000001 -0.747804 0.000026
2.690811 0.595693 0.689565 0.026475 0.017017 0.015492
0.401023 0.605873 0.589552 -0.000000 -0.999717 -0.000000
1.732797 0.616251 0.547071 -0.000000 -0.901929 -0.000002
3.032668 0.912536 0.422208 0.026476 0.007486 0.009680
1.571228 0.234101 0.191375 -0.047533 0.006788 -0.008582
1.824859 0.224791 0.186621 0.069161 0.003009 -0.003621
1.824859 1.131761 0.939625 0.069159 -0.003660 0.004402
1.824859 0.836330 0.493219 0.069160 -0.005530 -0.006639
1.824859 0.040147 0.033321 0.069162 0.005530 -0.006639
1.824859 0.169398 1.046935 0.069165 0.005367 0.006445
1.824859 0.095540 1.108254 0.069163 0.008131 0.009727
1.824859 1.297941 1.077595 0.069162 -0.004717 0.005668
1.824859 1.168690 0.217281 0.069163 -0.006668 -0.007994
1.824859 0.501757 0.416570 0.069163 0.005611 -0.006736
0.300511 0.824626 0.592806 0.000000 0.999929 -0.000000
0.245082 0.631660 0.664452 0.000002 -0.763131 0.000050
1.583484 1.212004 0.178344 -0.047535 -0.012725 -0.015699
1.868044 0.619895 0.540024 -0.000000 -0.871808 -0.000004
1.056563 0.800051 0.524678 -0.000001 0.778091 -0.000012
1.626123 1.277813 0.124236 -0.047535 -0.010463 -0.013051
1.642881 0.846736 0.719383 0.069164 -0.004147 0.004986
3.140517 0.998167 0.363158 -0.058847 -0.006408 -0.007790
2.690811 0.834717 0.689565 0.026479 -0.008510 0.008766
2.995101 0.814782 0.639168 -0.000002 0.662275 0.000001
1.639212 0.556140 0.444992 0.069162 0.007319 -0.008766
1.101646 0.824142 0.583381 0.000000 0.994270 -0.000001
2.183620 0.806101 0.532852 -0.000000 0.834734 -0.000010
0.740987 0.616355 0.546850 -0.000000 -0.904578 -0.000007
2.318867 0.801646 0.526685 0.000000 0.793353 -0.000045
2.995101 0.734714 0.701455 0.000000 0.177485 0.000163
1.146728 0.663370 0.690154 0.000001 -0.467460 0.000014
2.318867 0.699954 0.485421 0.000000 -0.130545 -0.000111
3.072277 0.926193 0.760350 -0.058847 -0.006408 0.007790
2.399424 0.824578 0.596305 0.000000 0.999725 0.000000
3.149644 0.878972 0.455666 -0.058848 0.004077 0.004826
2.318867 0.813420 0.642036 -0.000000 0.894281 0.000004
0.966399 0.818454 0.557531 0.000000 0.941027 -0.000003
2.634443 0.758953 0.694084 0.000000 0.404577 0.000066
1.504335 0.337307 0.285910 -0.069103 -0.001614 0.001786
0.515576 0.623234 0.534483 0.000001 -0.825623 -0.000005
2.874557 0.528550 0.752193 0.026477 -0.005989 -0.007849
2.548375 0.613737 0.678026 0.026477 -0.005989 -0.007849
2.931823 0.466562 0.800216 0.026476 -0.020949 -0.022083
2.995731 0.442033 0.366984 0.026476 -0.007486 0.009680
3.166153 1.053788 0.874888 0.026473 0.011977 -0.014664
2.782705 0.523797 0.752698 0.026475 -0.010480 -0.013094
2.718797 0.882084 0.732333 0.026476 0.014969 -0.017511
2.697494 0.556502 0.725544 0.026475 -0.007486 -0.009680
3.080942 1.021082 0.847735 0.026474 0.017961 -0.019977
3.038337 1.004730 0.353407 0.026473 0.011978 0.014664
2.569678 0.605560 0.502751 0.026476 -0.023938 0.023871
3.099573 0.482193 0.794122 -0.058846 -0.009785 -0.011453
2.093456 0.643542 0.676487 0.000000 -0.663841 0.000017
1.591992 0.144471 0.119936 -0.069102 -0.007829 0.008614
1.653273 0.065997 0.054783 -0.069103 -0.005290 0.005841
1.285589 0.893570 0.741869 -0.047534 -0.005152 0.006541
1.346869 0.972044 0.807021 -0.047533 -0.010888 0.013554
1.346869 0.972044 0.380544 -0.047532 -0.010888 -0.013555
1.493943 0.270029 0.224179 -0.069102 -0.005608 0.006189
1.236564 0.599619 0.497818 -0.069103 -0.005139 0.005675
1.567480 1.254550 1.041569 -0.047532 -0.011595 0.014387
1.334613 0.474061 0.393575 -0.069102 -0.002037 0.002254
1.641017 1.348718 0.067814 -0.047532 -0.008202 -0.010322
1.457175 1.113297 0.263270 -0.047530 -0.002121 -0.002707
1.285589 0.536840 0.445697 -0.069101 -0.005139 0.005675
1.469431 0.301418 0.937326 -0.069102 -0.006031 -0.006652
0.921316 0.802811 0.528202 0.000000 0.792733 -0.000001
0.200000 0.660488 0.499011 -0.058302 -0.000183 -0.000309
2.499196 0.675178 0.695626 -0.000000 -0.360086 0.000019
3.085266 0.817738 0.555540 0.247740 0.000190 -0.000068
1.588095 0.953982 0.419371 -0.069102 0.007618 0.008384
2.724607 0.667098 0.495495 0.000000 -0.447438 -0.000029
0.695905 0.630053 0.525058 -0.000000 -0.778277 -0.000012
0.650823 0.613494 0.553414 0.000000 -0.932745 -0.000006
1.281975 0.615661 0.639243 0.000000 -0.914655 0.000002
1.281975 0.686255 0.699311 -0.000000 -0.270188 0.000026
0.515576 0.747670 0.698282 0.000001 0.293077 0.000096
1.616465 0.488318 0.432757 0.100451 -0.004087 0.004919
0.245082 0.807087 0.534347 -0.000002 0.828261 -0.000010
2.964103 0.524187 0.758396 0.026476 -0.010480 -0.013094
0.966399 0.615661 0.548323 0.000000 -0.914507 -0.000026
1.462304 0.735755 0.486298 0.000000 0.177564 -0.000041
0.411369 0.710812 0.484454 -0.000000 -0.023803 -0.000020
2.318867 0.659929 0.688222 0.000001 -0.510115 0.000049
1.699382 1.056764 0.326672 0.100449 0.003416 0.004112
1.741208 0.376211 0.882767 0.069162 0.004635 0.005571
2.990388 0.590586 0.683481 -0.000002 0.638778 0.000800
2.003291 0.626639 0.529517 -0.000000 -0.805857 -0.000005
2.363949 0.820381 0.563579 0.000001 0.939911 -0.000001
1.011481 0.778081 0.504224 0.000000 0.569677 -0.000011
0.786070 0.666770 0.691907 0.000001 -0.445802 0.000029
1.708188 1.080433 0.280042 0.069161 -0.004310 -0.005181
1.732797 0.816332 0.551983 0.000000 0.923437 -0.000002
1.552468 0.817958 0.556153 0.000000 0.941027 -0.000005
0.966399 0.614561 0.636748 -0.000000 -0.922292 0.000003
1.011481 0.655905 0.685754 -0.000001 -0.540418 0.000006
1.587114 0.851663 0.511687 -0.069103 0.003023 0.003344
2.409032 0.743607 0.699465 -0.000000 0.270188 0.000026
1.518456 0.238639 0.198118 -0.069102 -0.005184 0.005724
1.637328 1.149796 0.247121 -0.069101 0.005184 0.005724
1.687715 0.764768 0.496223 0.000000 0.447616 -0.000059
1.355876 0.919411 0.758646 -0.069108 0.001285 -0.001422
2.867915 0.491091 0.779851 0.026476 -0.014980 -0.017522
2.950019 0.756366 0.492391 0.000000 0.382551 -0.000018
1.824859 0.280184 0.954955 0.069163 0.007318 0.008766
1.716993 0.300924 0.923581 0.100450 -0.002968 -0.003573
3.144850 0.384798 0.868100 0.026476 -0.011976 -0.014663
1.646391 0.263723 0.954852 -0.069103 -0.005078 -0.005608
0.786070 0.608820 0.619424 0.000001 -0.973109 0.000003
2.964103 0.524187 0.429169 0.026476 -0.010480 0.013094
1.777880 0.756967 0.492640 -0.000000 0.382733 -0.000035
1.913126 0.759846 0.693689 0.000000 0.404303 0.000017
0.290165 0.780915 0.681289 0.000000 0.607665 0.000010
2.499196 0.788299 0.512348 -0.000001 0.662259 -0.000017
2.769690 0.612479 0.631490 0.000000 -0.941027 0.000005
2.454114 0.820110 0.562641 0.000000 0.956075 -0.000004
1.613302 0.427481 0.847309 -0.047534 0.009050 0.011354
1.751481 0.080325 1.127498 0.069161 0.008132 0.009728
2.976090 0.953369 0.398630 0.026478 -0.010212 -0.010310
0.876234 0.752567 0.696633 0.000000 0.338291 0.000041
2.869169 0.829923 0.678703 0.026472 -0.006809 0.007136
1.327057 0.616528 0.546482 0.000000 -0.904578 -0.000007
0.605741 0.622129 0.651326 -0.000000 -0.847240 0.000009
0.560658 0.644536 0.677328 0.000000 -0.645679 0.000009
2.544278 0.810056 0.539208 -0.000000 0.871905 -0.000008
1.542968 1.223160 1.015508 -0.047530 -0.012726 0.015701
2.859854 0.752950 0.491071 -0.000000 0.338289 -0.000082
1.544792 0.913097 0.414740 -0.047533 -0.005374 -0.006820
0.831152 0.800663 0.662127 -0.000001 0.777438 0.000012
0.335247 0.616164 0.640310 0.000000 -0.904526 0.000007
1.958209 0.759511 0.493729 0.000001 0.403263 -0.000033
3.123684 0.801542 0.643630 0.245418 0.000685 0.000445
3.162103 0.625374 0.589075 0.236440 -0.000191 -0.000008
1.372139 0.785253 0.509712 -0.000000 0.645620 -0.000017
1.642633 0.609853 0.623360 0.000001 -0.962735 0.000016
0.695905 0.771041 0.499676 0.000000 0.510234 -0.000006
1.281975 0.823524 0.609357 -0.000000 0.991463 0.000001
3.040183 0.619776 0.540237 -0.000000 -0.871905 -0.000033
1.735338 1.026748 0.346874 0.100449 0.006831 0.008209
0.831152 0.750920 0.490343 0.000000 0.315569 -0.000011
1.146728 0.814679 0.548175 -0.000001 0.901999 -0.000003
1.101646 0.636573 0.669882 -0.000000 -0.714066 0.000007
2.950019 0.823305 0.576802 0.000000 0.987676 -0.000002
2.363949 0.744155 0.488255 -0.000000 0.269854 -0.000013
3.020356 0.492594 0.783766 0.026475 -0.007486 -0.009680
1.647998 1.259898 1.038884 -0.069104 0.003915 -0.004328
0.425411 0.631240 0.663955 0.000000 -0.763275 0.000003
1.824859 0.427900 0.355250 0.069161 0.004961 -0.005960
2.003291 0.788329 0.512375 0.000001 0.663609 -0.000033
2.814772 0.616702 0.641452 0.000000 -0.904653 0.000003
1.777880 0.660879 0.498792 0.000000 -0.489582 -0.000052
2.950019 0.612995 0.632861 -0.000001 -0.932572 0.000023
1.754783 0.444851 0.824556 0.069161 0.005286 0.006348
0.335247 0.809312 0.537946 0.000000 0.860003 -0.000009
1.417221 0.817503 0.632633 -0.000000 0.932683 0.000006
0.290165 0.785874 0.510238 0.000000 0.645840 -0.000035
3.001545 0.535944 0.453986 0.026476 0.010212 -0.010310
2.183620 0.623413 0.534211 0.000000 -0.834744 -0.000001
1.592984 0.560661 0.691665 0.100451 -0.001904 -0.002293
0.335247 0.612314 0.556536 0.000000 -0.941027 -0.000005
1.056563 0.615921 0.639795 -0.000000 -0.904486 0.000003
3.154166 1.012561 0.837219 -0.058847 -0.003204 0.003912
3.068955 0.976473 0.373426 0.026473 0.011978 0.014664
2.634443 0.817474 0.554857 0.000000 0.932686 -0.000011
3.068955 0.453937 0.373426 0.026474 -0.011977 0.014664
1.599029 0.824522 0.598664 0.000000 0.999717 0.000000
1.327057 0.670675 0.693738 0.000001 -0.404459 0.000066
2.929152 0.540839 0.731666 0.026478 0.008517 0.008773
2.910521 0.474739 0.394138 0.026475 -0.010480 0.013094
1.732797 0.701648 0.702367 0.000000 -0.130530 0.000223
1.101646 0.752682 0.490974 -0.000000 0.338173 -0.000020
1.562165 1.183011 0.977457 -0.069100 0.010368 -0.011354
0.786070 0.797504 0.521663 0.000000 0.742680 -0.000003
1.508323 0.542550 0.750860 -0.047533 0.003965 0.005046
1.506199 1.176076 0.211149 -0.047532 -0.003677 -0.004682
3.162103 0.747442 0.509803 0.242630 0.000069 -0.000173
2.589361 0.753027 0.491098 0.000001 0.334475 -0.000010
1.417221 0.613876 0.635094 0.000000 -0.923787 0.000012
2.679525 0.615464 0.638796 0.000000 -0.914460 0.000003
2.183620 0.668861 0.692910 0.000001 -0.407266 0.000004
1.439455 0.382739 0.320885 -0.069103 -0.001719 0.001903
2.273785 0.765350 0.691051 -0.000000 0.468762 0.000014
3.001545 0.894466 0.733579 0.026478 -0.010211 0.010309
1.417221 0.660138 0.688347 0.000000 -0.510243 0.000049
0.245082 0.810575 0.647435 -0.000000 0.871893 0.000033
2.950019 0.678417 0.696839 0.000000 -0.338330 0.000041
1.508864 0.824522 0.588901 0.000000 0.999717 -0.000000
2.093456 0.635395 0.518921 -0.000000 -0.726473 -0.000003
1.958209 0.780424 0.681652 0.000000 0.589654 0.000020
1.595562 0.971471 0.783292 -0.069102 0.007194 -0.007924
1.692778 1.177208 0.227540 -0.069102 0.004761 0.005259
2.836944 0.605794 0.591911 -0.000000 -0.999931 -0.000000
0.470494 0.818619 0.557991 0.000000 0.941027 -0.000001
0.740987 0.622194 0.651429 0.000001 -0.846694 0.000009
1.822962 0.682974 0.698354 -0.000000 -0.293077 0.000048
1.913126 0.784373 0.508988 0.000000 0.627638 -0.000009
1.785969 0.351534 0.890614 0.100450 -0.002968 -0.003573
1.657924 0.990196 0.800186 0.100447 0.000966 -0.001163
2.409032 0.784911 0.509423 0.000000 0.644382 -0.000009
2.138538 0.821818 0.569133 0.000001 0.969479 -0.000003
1.868044 0.751571 0.490575 -0.000000 0.338173 -0.000020
0.335247 0.817876 0.631643 0.000000 0.941027 0.000003
0.425411 0.620075 0.539705 0.000001 -0.868122 -0.000008
1.604804 0.185502 0.151290 -0.047534 0.005798 -0.007350
0.740987 0.816737 0.552960 0.000001 0.917553 -0.000003
1.146728 0.672277 0.493123 0.000001 -0.381502 -0.000018
2.273785 0.614739 0.550407 0.000000 -0.914557 -0.000006
2.409032 0.676886 0.491279 0.000000 -0.360520 -0.000019
2.183620 0.817093 0.633696 -0.000001 0.908160 0.000001
1.421993 0.971806 0.387771 -0.069104 0.001931 0.002137
1.056563 0.614673 0.550556 -0.000001 -0.910685 -0.000003
2.093456 0.821754 0.618710 -0.000000 0.971371 0.000001
0.921316 0.674533 0.695377 0.000001 -0.382630 0.000071
2.499196 0.670154 0.494058 0.000000 -0.404523 -0.000008
0.876234 0.781044 0.506375 0.000000 0.608781 -0.000019
1.732797 0.615365 0.638573 -0.000001 -0.914301 0.000013
2.544278 0.609501 0.565459 0.000000 -0.968880 -0.000001
3.040183 0.762984 0.495332 -0.000001 0.407712 -0.000004
2.853255 0.893683 0.745404 0.026474 0.014982 -0.017523
0.245082 0.617391 0.544729 -0.000001 -0.894157 -0.000029
1.101646 0.629696 0.525502 -0.000001 -0.774909 -0.000006
1.343620 0.526694 0.441950 -0.069102 -0.002570 0.002843
3.116145 0.640044 0.527763 -0.000001 -0.769380 -0.000191
2.904937 0.616147 0.547292 0.000000 -0.904359 -0.000007
1.500972 0.885728 0.472882 -0.069103 0.005932 0.006545
0.121342 0.791428 0.539505 -0.332999 0.000087 -0.000059
1.544792 0.930897 0.751387 -0.069102 0.004021 -0.004444
1.777880 0.740886 0.700158 -0.000000 0.223898 0.000008
1.367761 0.635743 0.518176 -0.047531 0.006869 -0.008682
3.137821 0.843275 0.697531 -0.058848 -0.009612 0.011600
2.363949 0.796180 0.667394 -0.000000 0.747909 0.000026
3.166153 0.376622 0.312677 0.026476 -0.011976 0.014663
2.904937 0.815210 0.549365 0.000000 0.914058 -0.000006
1.597551 0.649624 0.681388 0.000000 -0.608754 0.000005
2.138538 0.609269 0.566366 -0.000001 -0.901525 -0.000001
0.569527 0.824549 0.590040 0.000000 0.999717 -0.000000
1.642633 0.764186 0.691634 -0.000000 0.446064 0.000007
0.245082 0.667389 0.692217 0.000000 -0.448385 0.000004
1.635186 1.297656 1.074180 -0.069097 0.003492 -0.003861
1.191810 0.820381 0.623987 0.000000 0.962812 0.000002
1.606192 0.808182 0.690680 0.069164 -0.002765 0.003328
1.719928 1.147761 0.248426 0.100450 0.005487 0.006599
0.470494 0.668420 0.494863 -0.000000 -0.426215 -0.000062
0.650823 0.821453 0.567589 -0.000001 0.957792 -0.000002
1.687715 0.824366 0.586098 -0.000000 0.998191 -0.000001
1.642633 0.819030 0.628339 -0.000001 0.935339 0.000001
2.093456 0.758283 0.694380 -0.000000 0.404456 0.000033
1.642633 0.666224 0.495932 -0.000000 -0.446059 -0.000007
0.605741 0.742819 0.487897 -0.000000 0.247265 -0.000115
0.560658 0.699631 0.485464 0.000000 -0.154176 -0.000024
2.048373 0.759586 0.493762 -0.000001 0.403300 -0.000033
2.093456 0.797369 0.521511 -0.000001 0.727803 -0.000003
1.516294 0.482504 0.769408 -0.069102 -0.003862 -0.004269
0.921316 0.611174 0.559844 0.000000 -0.948837 -0.000010
2.454114 0.772920 0.686751 0.000000 0.530303 0.000023
0.380329 0.657145 0.686535 0.000000 -0.530558 0.000023
1.822962 0.634014 0.520415 0.000000 -0.747975 -0.000007
3.129213 0.623109 0.673068 -0.058846 -0.016727 -0.019093
3.078488 0.616570 0.505075 -0.058850 -0.003611 0.004276
1.672966 0.490020 0.393138 0.069162 0.002806 -0.003376
1.478990 0.937787 0.423815 -0.069104 0.002037 0.002254
3.144168 0.947952 0.790460 -0.058848 0.009785 -0.011453
2.690811 0.831334 0.493926 0.026475 0.007486 0.009680
2.858831 0.644608 0.665300 0.000001 -0.769390 0.000384
2.969265 0.487198 0.786095 0.026475 -0.008983 -0.011431
1.535211 0.581045 0.508918 -0.069101 -0.002966 0.003282
3.162103 0.715205 0.593783 1.000000 0.000000 0.000000
3.106874 0.856244 0.471524 -0.058847 0.004893 0.005785
1.434249 0.442910 0.374741 -0.069103 -0.003862 0.004269
1.462304 0.647558 0.507763 0.000000 -0.627638 -0.000009
3.185430 0.503132 0.769854 -0.058846 -0.006524 -0.007693
1.288467 0.833090 0.500587 -0.069102 0.005139 0.005675
0.695905 0.646005 0.678552 -0.000001 -0.622662 0.000009
1.625171 0.378749 0.334615 -0.069101 -0.003174 0.003511
0.733597 0.712113 0.703142 0.000000 -0.023803 0.000020
1.552468 0.811252 0.646228 -0.000000 0.883173 0.000004
2.808603 0.824990 0.511238 0.026476 -0.011914 -0.011756
1.597551 0.609018 0.567352 0.000002 -0.967501 -0.000008
2.859854 0.727752 0.702490 0.000000 0.106895 0.000034
0.831152 0.646607 0.679037 0.000000 -0.627277 0.000018
2.895819 0.830004 0.488148 0.026477 0.014980 0.017522
0.084818 0.648801 0.555445 -0.475636 -0.000050 -0.000027
3.164799 0.937615 0.407408 -0.058849 0.006523 0.007693
0.605741 0.696217 0.701549 -0.000000 -0.177591 0.000163
2.814772 0.674912 0.492042 0.000000 -0.360577 -0.000019
1.511891 0.511114 0.411875 -0.047532 0.005374 -0.006820
2.138538 0.798251 0.665042 0.000000 0.763105 0.000006
0.200000 0.818619 0.557991 -0.058306 0.000341 -0.000113
0.470494 0.753448 0.491250 0.000000 0.338330 -0.000010
1.868044 0.692780 0.486679 0.000000 -0.200844 -0.000018
0.650823 0.669377 0.693153 -0.000000 -0.425977 0.000016
1.698649 1.181565 0.992347 0.069161 -0.007319 0.008766
2.950454 0.897748 0.738455 0.026474 -0.005958 0.006289
1.056563 0.755498 0.695524 -0.000000 0.360577 0.000038
0.831152 0.816052 0.551306 0.000000 0.923887 -0.000006
3.162103 0.760182 0.671685 0.245719 0.000094 0.000158
1.308290 0.609834 0.686084 -0.047532 0.010303 0.012859
2.882494 0.605520 0.492394 0.026475 -0.014981 0.017522
1.056563 0.816916 0.634151 -0.000002 0.926416 0.000006
1.744510 0.546861 0.740789 0.069161 0.002968 0.003572
1.555482 1.024510 0.352632 -0.069099 0.001719 0.001903
2.138538 0.624309 0.654713 0.000000 -0.834744 0.000005
3.085266 0.605803 0.596387 0.266536 -0.000188 0.000002
1.868044 0.815880 0.550892 0.000001 0.919132 -0.000003
2.409032 0.613813 0.552622 0.000000 -0.923840 -0.000003
1.794774 1.195054 0.192681 0.069161 -0.003334 -0.004011
1.788170 1.337236 0.082161 0.100451 0.006495 0.007807
2.724607 0.607750 0.614493 0.000000 -0.984045 0.000001
2.363949 0.619158 0.646228 0.000000 -0.883324 0.000002
1.552468 0.609699 0.622811 0.000001 -0.961151 0.000004
1.420406 0.364197 0.885204 -0.069101 -0.006877 -0.007577
0.470494 0.610968 0.560462 0.000000 -0.956024 -0.000002
2.690811 0.595693 0.498000 0.026475 0.008511 -0.008767
1.714633 0.057466 0.044395 -0.047534 0.013573 -0.016669
1.681772 0.977709 0.362948 0.069163 -0.001321 -0.001591
2.904937 0.757231 0.694816 0.000000 0.382479 0.000035
1.419603 1.016853 0.846505 -0.047536 -0.004879 0.006198
1.675168 1.106668 0.932280 0.069161 -0.008620 0.010303
1.678380 0.121037 0.106835 -0.069103 -0.006983 0.007693
2.228703 0.754169 0.491528 0.000000 0.360564 -0.000076
1.794139 0.824599 0.592156 0.000000 0.999708 -0.000000
1.747078 1.099849 0.902923 0.100451 0.002968 -0.003573
1.708188 0.349977 0.907524 0.069162 0.004310 0.005181
0.395110 0.824533 0.598176 0.000000 0.999717 0.000000
1.714058 0.322020 0.257360 0.069162 0.004310 -0.005181
1.606192 0.808182 0.496886 0.069163 -0.002765 -0.003328
1.236892 0.753979 0.491455 0.000000 0.360506 -0.000019
0.183933 0.720355 0.701903 -0.097214 0.000005 0.000212
2.814772 0.613288 0.553946 0.000001 -0.932572 -0.000011
2.634443 0.612534 0.555923 -0.000000 -0.940591 -0.000003
0.515576 0.814627 0.639501 0.000001 0.901999 0.000007
2.102324 0.716019 0.484369 0.000000 0.023620 -0.000010
1.590899 0.711462 0.484439 -0.000000 -0.023803 -0.000308
3.099732 0.509048 0.429075 -0.058848 0.003204 -0.003912
1.676258 0.193771 0.172325 -0.069103 -0.004232 0.004677
2.589361 0.611071 0.627413 0.000000 -0.948756 0.000002
1.502987 0.989653 0.808353 -0.069102 0.001825 -0.002020
1.652262 0.256413 0.203948 -0.047532 0.006788 -0.008582
1.555224 1.238855 0.159027 -0.047532 -0.006222 -0.007879
1.191810 0.822064 0.570204 0.000000 0.974576 -0.000001
3.040183 0.819429 0.560423 0.000002 0.700619 -0.000001
1.643248 0.940365 0.430677 0.100449 0.002044 0.002461
1.788904 1.115616 0.921502 0.100451 0.002744 -0.003303
1.327057 0.758283 0.493185 0.000000 0.382743 -0.000035
1.624001 1.208032 0.193284 -0.069100 0.004761 0.005260
2.889218 0.947495 0.400926 0.026476 0.011976 0.014663
0.876234 0.696337 0.485995 0.000000 -0.177536 -0.000163
2.183620 0.753752 0.696199 0.000000 0.360254 0.000005
1.687715 0.726821 0.702590 -0.000000 0.106579 0.000017
1.297845 0.521145 0.754899 -0.069105 -0.003854 -0.004261
1.297845 0.909265 0.432666 -0.047533 -0.005152 -0.006541
1.364882 0.859024 0.719610 -0.047540 -0.001717 0.002191
0.200000 0.782852 0.507763 -0.058299 0.000225 -0.000280
1.669297 0.342467 0.270303 0.069162 0.004310 -0.005181
3.085266 0.709998 0.484474 0.250430 -0.000012 -0.000199
3.162103 0.801455 0.568234 0.242633 0.000179 -0.000051
1.801011 0.955293 0.795263 0.069165 -0.001321 0.001591
1.822962 0.775184 0.685306 -0.000000 0.550637 0.000011
1.587748 1.140470 0.250916 -0.069098 0.001402 0.001552
2.902502 0.872577 0.456243 0.026477 0.007492 0.009687
0.995961 0.605820 0.595817 0.000000 -0.999708 0.000000
2.904937 0.815865 0.636711 -0.000001 0.769001 0.000001
2.963738 0.816065 0.496279 -0.000001 0.638780 0.000800
2.226485 0.605815 0.591993 -0.000000 -0.999717 -0.000000
1.327057 0.815737 0.637010 0.000001 0.912101 0.000003
1.913126 0.677575 0.696536 0.000000 -0.338447 0.000020
1.687715 0.645313 0.677985 0.000001 -0.645279 0.000017
1.445960 0.493278 0.785673 -0.047534 0.002722 0.003471
3.162103 0.683401 0.561979 1.000000 -0.000000 0.000000
1.752215 0.163383 0.129091 0.069161 0.002684 -0.003230
1.656506 0.100169 1.101619 -0.069103 -0.003068 -0.003394
2.904937 0.615266 0.638350 0.000000 -0.914154 0.000006
0.027373 0.689407 0.573495 -0.701071 -0.000012 -0.000010
1.376203 0.496001 0.779325 -0.047533 0.003965 0.005046
1.443312 0.426019 0.827233 -0.069101 -0.001825 -0.002020
1.443312 1.004391 0.360333 -0.069101 0.001825 0.002020
0.966399 0.752337 0.490850 0.000000 0.338173 -0.000020
0.605741 0.657662 0.500707 -0.000000 -0.530303 -0.000023
2.318867 0.607634 0.613852 0.000001 -0.983458 0.000005
2.806148 0.549806 0.453450 0.026474 -0.010480 0.013094
1.492872 0.407987 0.332271 -0.047533 0.004596 -0.005842
2.679525 0.821422 0.567470 0.000001 0.967993 -0.000004
1.191810 0.612369 0.556382 0.000000 -0.941027 -0.000001
1.610595 0.506404 0.739022 0.100450 -0.004087 -0.004919
0.425411 0.803003 0.528465 0.000001 0.807318 -0.000021
1.056563 0.677498 0.491057 -0.000000 -0.335844 -0.000010
1.559726 0.949031 0.385699 -0.047531 -0.005091 -0.006465
1.824859 0.409435 0.847646 0.069159 0.004635 0.005571
1.824859 0.464829 0.801656 0.069162 0.005286 0.006348
1.732797 0.817210 0.633392 0.000002 0.845594 0.000002
2.644551 0.606829 0.686342 0.026475 -0.023939 -0.023871
2.724607 0.655497 0.685485 0.000001 -0.548833 0.000011
1.288467 0.601197 0.495917 -0.047532 0.003435 -0.004375
1.346869 0.458366 0.807021 -0.069102 -0.008146 -0.008959
1.389091 0.975251 0.805977 -0.069098 0.002037 -0.002254
2.769690 0.669968 0.693425 0.000000 -0.404506 0.000008
2.048373 0.818055 0.556421 0.000000 0.940918 -0.000005
1.598854 0.887835 0.707450 -0.069102 0.002037 -0.002254
1.913126 0.635450 0.518861 0.000002 -0.513051 -0.000002
1.695347 0.932389 0.430462 0.100450 0.002044 0.002461
1.735338 1.026748 0.840692 0.100449 0.001708 -0.002057
1.327057 0.816887 0.553338 0.000000 0.932706 -0.000006
2.622618 0.718703 0.703133 -0.000010 0.001266 0.000380
1.462304 0.765350 0.691051 -0.000000 0.468762 0.000014
1.462304 0.819133 0.628030 -0.000001 0.924989 0.000001
3.056150 0.567626 0.725464 -0.058848 -0.003611 -0.004276
2.950019 0.612804 0.555198 -0.000000 -0.932288 -0.000006
1.639946 0.415974 0.369614 0.100450 -0.003639 0.004381
0.515576 0.652463 0.504131 -0.000000 -0.570274 -0.000042
1.782300 0.115889 0.092371 0.069162 0.004717 -0.005668
1.699382 0.373646 0.326672 0.100449 -0.003415 0.004112
2.363949 0.646037 0.508988 0.000001 -0.621202 -0.000005
2.409032 0.816020 0.636335 0.000000 0.917882 0.000001
1.507386 0.673818 0.492485 -0.000001 -0.382414 -0.000035
1.327057 0.613844 0.635019 -0.000002 -0.912064 0.000006
1.624001 1.200848 1.002934 -0.047532 -0.006222 0.007879
0.786070 0.630666 0.524298 -0.000000 -0.778863 -0.000003
2.454114 0.627946 0.659815 -0.000001 -0.769182 0.000003
1.467942 0.550183 0.742442 -0.047533 0.015854 0.019210
1.597551 0.634674 0.519695 0.000001 -0.731524 -0.000027
1.542562 0.846650 0.720660 -0.047533 -0.007929 0.009988
1.056563 0.681652 0.697942 0.000001 -0.312520 0.000022
1.574384 0.887308 0.478307 -0.069101 0.005933 0.006545
1.673323 1.217778 0.168393 -0.047532 -0.005657 -0.007174
1.574659 0.445445 0.830907 -0.047533 0.004808 0.006109
2.760515 0.610143 0.673697 0.026475 0.010212 0.010310
1.791839 0.290879 0.238514 0.069162 0.003659 -0.004402
1.146728 0.608702 0.568657 0.000000 -0.974378 -0.000002
1.417221 0.818799 0.558531 -0.000001 0.939372 -0.000002
1.436120 0.568118 0.461090 -0.047532 0.007929 -0.009989
0.071022 0.721703 0.525736 -0.529647 0.000005 -0.000042
