1.614657 0.576337 0.712919 0.000001 0.445912 0.000029
0.674804 0.454765 0.639927 0.000000 -0.999604 0.000000
1.788014 0.639042 0.540762 0.070477 0.004438 0.003741
1.809782 0.516821 0.718476 -0.000000 -0.263424 0.000053
1.616238 0.651242 0.495600 -0.037747 -0.012411 -0.010443
1.734873 0.195599 0.234129 -0.051572 -0.016833 0.012658
1.651230 0.410522 0.799160 -0.037747 0.024811 0.018370
3.029314 0.503484 0.713571 0.000000 -0.421288 0.000062
1.490253 0.651587 0.506162 -0.051571 0.004677 0.003684
1.883589 0.933923 1.112731 0.051598 -0.005196 0.004366
2.951663 0.460481 0.730547 0.001278 -0.324301 -0.001199
2.900722 0.424332 0.773002 0.001279 -0.521879 -0.001491
2.736626 0.462492 0.672436 -0.000000 -0.906968 0.000007
1.539994 0.619457 0.723002 -0.051573 0.007015 -0.005498
1.858563 0.463517 0.674574 -0.000000 -0.894193 0.000004
1.110584 0.623745 0.637705 -0.000000 0.999603 0.000000
1.286196 0.540557 0.721469 -0.000000 0.028158 0.000009
3.078095 0.612721 0.678728 -0.000000 0.866928 0.000004
1.126844 0.475943 0.693019 -0.000001 -0.753885 0.000013
1.321969 0.550197 0.553145 0.000000 0.125878 -0.000114
2.590282 0.530201 0.721018 0.000000 -0.098150 0.000073
3.373349 0.625539 0.667167 -0.133059 0.001236 0.000356
3.356233 0.529243 0.548380 -0.133060 -0.000215 -0.001268
3.307462 0.623472 0.736161 -0.003000 -0.170886 0.002603
3.322001 0.578027 0.712075 -0.129358 0.000148 0.000277
1.224407 0.501382 0.712555 0.000000 -0.446229 0.000029
0.882938 0.616049 0.672234 -0.000001 0.906378 0.000007
2.590282 0.501482 0.561324 0.000000 -0.446248 -0.000007
1.750310 0.623862 0.562864 -0.051573 0.011357 0.008773
1.764339 0.441890 0.770187 0.051598 0.006062 0.005085
0.785375 0.616393 0.602434 0.000000 0.918395 -0.000002
3.364791 0.539224 0.727260 -0.133061 0.000046 0.000823
1.956126 0.613567 0.596723 -0.000001 0.881710 -0.000015
1.870437 0.718215 0.858376 0.051598 -0.004676 0.003933
1.552421 0.684310 0.812029 -0.037746 -0.006097 0.005331
1.614657 0.466927 0.593156 -0.000001 -0.845242 -0.000002
2.492720 0.612611 0.678921 -0.000000 0.868316 0.000017
1.743336 0.458978 0.524232 -0.037749 0.007403 -0.006434
1.912525 0.679663 0.794897 0.070475 0.003677 -0.003101
1.887097 0.385399 0.827245 0.051598 0.005023 0.004222
1.864299 0.789861 0.353833 0.070476 0.006340 0.005333
1.719916 0.798000 0.340164 -0.051573 0.010021 0.007781
1.858563 0.499963 0.711831 0.000000 -0.471405 0.000054
1.915155 0.814663 0.304934 0.051599 -0.014545 -0.011825
2.549631 0.623704 0.634742 0.000000 0.999604 -0.000000
2.687845 0.502811 0.713259 0.000000 -0.420970 0.000016
2.882970 0.575166 0.560451 0.000001 0.420578 -0.000031
3.407581 0.491352 0.640796 1.000000 0.000000 0.000000
1.817283 0.091040 1.165138 -0.051573 -0.005211 -0.004101
1.907344 0.462914 0.673343 0.000001 -0.904548 0.000003
1.653576 0.740198 0.880895 -0.037752 -0.003984 0.003509
1.758671 0.380055 0.839680 -0.037747 0.003985 0.003510
1.565876 0.616018 0.672302 -0.000001 0.894955 0.000002
1.912086 0.607960 0.549434 0.051600 -0.006061 -0.005084
1.922170 0.849370 0.264401 0.051598 -0.013161 -0.010771
2.590282 0.585478 0.566207 0.000001 0.541708 -0.000022
3.402947 0.697115 0.824181 -0.002997 0.161564 -0.002585
3.440145 0.652010 0.770508 -0.002997 0.102375 -0.002549
1.736362 0.656431 0.753404 -0.051571 0.019036 -0.014127
0.092917 0.582730 0.588281 -0.365331 0.000053 -0.000063
1.809782 0.475214 0.692180 0.000000 -0.754889 0.000013
2.326863 0.540928 0.721459 0.000000 0.028147 0.000004
2.736626 0.463981 0.598426 -0.000000 -0.894670 -0.000004
2.297595 0.613584 0.677173 0.000000 0.881777 0.000004
1.874821 0.813071 0.970339 0.051599 -0.007966 0.006649
1.937953 0.383391 0.825550 0.051599 0.005022 0.004222
2.834189 0.455903 0.622657 0.000000 -0.983446 -0.000001
1.855530 0.202038 1.021614 0.070476 -0.009636 -0.008064
3.089298 0.424516 0.500771 0.001278 -0.289967 0.001174
3.049721 0.381158 0.824121 0.001277 -0.484445 -0.001405
2.980488 0.420668 0.496722 0.001278 0.215871 -0.001119
0.882938 0.614567 0.598625 0.000000 0.894749 -0.000007
2.248813 0.614056 0.597638 0.000000 0.881952 -0.000004
1.948475 0.284523 0.339804 0.070476 -0.005833 0.004909
1.846465 0.146873 1.092117 -0.051571 -0.006614 -0.005189
3.304698 0.751590 0.385380 0.001277 0.386388 0.001258
2.980532 0.513692 0.717557 0.000000 -0.290409 0.000024
0.678056 0.538187 0.552437 0.000000 -0.013675 -0.000035
1.855530 0.863955 1.032133 0.051598 -0.006581 0.005514
1.679440 0.779785 0.927065 -0.037746 -0.007447 0.006471
1.390263 0.454711 0.638001 0.000000 -0.999609 0.000000
2.408165 0.623720 0.635335 0.000000 0.999604 -0.000000
3.224439 0.501482 0.561324 0.000000 -0.446490 -0.000058
1.983768 0.539076 0.721502 0.000000 -0.027756 0.000035
3.089477 0.543224 0.552534 0.000000 0.028158 -0.000017
0.248781 0.614352 0.598194 0.000001 0.894771 -0.000058
1.774366 0.330413 0.866059 -0.051572 -0.002706 -0.002137
0.297563 0.463914 0.598559 0.000001 -0.894110 -0.000007
1.825598 0.196975 0.223722 -0.037747 0.009668 -0.008295
1.778369 0.691208 0.793878 -0.051572 0.013027 -0.009990
2.590282 0.606479 0.688182 -0.000000 0.790409 0.000006
0.834157 0.573517 0.559693 0.000000 0.395708 -0.000034
1.895865 0.195686 1.051172 0.051599 0.013161 0.010771
3.273220 0.513059 0.717350 -0.000000 -0.317010 0.000087
1.701371 0.439958 0.733633 -0.051572 -0.019036 -0.014127
1.531594 0.680493 0.473056 -0.051569 0.007015 0.005498
1.614657 0.617170 0.604237 -0.000001 0.918026 -0.000012
1.788014 0.439406 0.733167 0.070475 -0.004438 -0.003741
2.931751 0.506871 0.558858 0.000000 -0.395496 -0.000034
2.492720 0.615228 0.599951 -0.000000 0.894670 -0.000007
0.748789 0.541520 0.721442 0.000000 0.027343 0.000070
1.950229 0.073034 0.081885 0.051599 0.015238 -0.012344
1.950229 1.005414 0.081885 0.051598 -0.015238 -0.012344
1.950229 0.073034 1.192044 0.051598 0.015238 0.012344
2.673210 0.454753 0.634446 0.000000 -0.999604 -0.000000
2.785407 0.502410 0.560861 0.000000 -0.446409 -0.000029
0.687813 0.614160 0.597834 0.000000 0.881908 -0.000008
0.882938 0.506667 0.558945 -0.000000 -0.395735 -0.000034
1.855530 0.876410 0.252315 -0.051571 0.007616 0.005959
2.785407 0.465947 0.679114 0.000000 -0.868225 0.000008
1.855530 0.202038 0.252315 0.070475 -0.004818 0.004060
1.809782 0.504727 0.559781 -0.000001 -0.334892 -0.000005
1.932692 0.647508 0.769671 0.051600 -0.013074 0.010704
0.687813 0.579204 0.711447 0.000000 0.471411 0.000054
3.273220 0.622651 0.623316 -0.000001 0.987333 -0.000005
0.297563 0.465378 0.678116 0.000000 -0.868466 0.000004
1.846465 0.931575 1.092117 -0.051571 0.006614 -0.005189
3.253947 0.674228 0.797375 0.001277 0.290213 -0.001173
3.223554 0.330790 0.883760 0.001278 -0.253535 -0.001151
1.932692 0.425696 0.765242 0.070475 -0.009573 -0.008012
1.915155 0.831878 0.989378 0.051598 -0.014546 0.011825
1.802043 0.655262 0.484615 0.051598 -0.006062 -0.005085
1.899372 0.169974 0.209549 0.070475 -0.004311 0.003634
3.006549 0.535447 0.552528 -0.000001 -0.011866 -0.000020
3.139884 0.623758 0.636372 0.000000 0.999901 -0.000000
2.053688 0.499636 0.562272 0.000000 -0.471340 -0.000027
3.029314 0.578746 0.711691 0.000000 0.471358 0.000054
1.858563 0.519044 0.554874 -0.000000 -0.235896 -0.000030
3.273220 0.464130 0.675800 0.000001 -0.844824 0.000001
1.878429 0.052781 1.216024 -0.037747 0.021941 0.016805
1.878429 0.052781 0.057904 -0.037748 0.021940 -0.016805
1.878429 1.025667 0.057904 -0.037746 -0.021941 -0.016805
2.882970 0.463402 0.674342 0.000000 -0.894767 0.000014
0.200000 0.621647 0.618152 0.018341 0.001066 -0.000227
0.200000 0.515820 0.555726 0.018346 -0.000316 -0.001043
3.078095 0.572394 0.714719 -0.000000 0.395592 0.000134
2.217919 0.454719 0.635631 0.000000 -0.999615 -0.000000
2.053688 0.579008 0.711551 0.000000 0.471316 0.000027
1.956126 0.571985 0.559033 -0.000000 0.395568 -0.000067
2.980532 0.578616 0.562168 0.000000 0.470966 -0.000014
0.395125 0.615768 0.672839 0.000000 0.906915 0.000007
3.428296 0.350315 0.413074 -0.002997 -0.235868 0.002656
3.464567 0.371839 0.835155 -0.002997 -0.303451 -0.002753
2.541501 0.498852 0.711237 -0.000000 -0.471430 0.000054
2.053688 0.500421 0.712075 0.000000 -0.471652 0.000014
2.980532 0.615425 0.673579 -0.000000 0.906240 0.000003
0.926028 0.454750 0.639409 0.000000 -0.999603 0.000000
1.781989 0.891041 1.046234 -0.051571 0.007616 -0.005959
0.590250 0.533892 0.552597 0.000000 -0.069989 -0.000103
0.443906 0.518503 0.718923 -0.000001 -0.232598 0.000015
3.191970 0.371059 0.438063 0.001278 0.291287 -0.001161
3.191970 0.707178 0.437886 0.001277 0.290213 0.001173
1.780999 0.456243 0.561465 0.070477 -0.008876 0.007437
2.313855 0.537595 0.552468 -0.000000 -0.027947 -0.000034
2.323611 0.623720 0.635335 0.000000 0.999615 -0.000000
1.370751 0.499114 0.562552 0.000000 -0.465626 -0.000003
1.773984 0.585294 0.708715 0.051599 -0.012122 0.009967
1.958120 0.629860 0.740921 0.070477 0.004438 -0.003741
1.932692 0.425696 0.508687 0.070475 -0.009573 0.008012
1.851146 0.429902 0.522596 0.070476 -0.009573 0.008012
1.861668 0.399314 0.461123 0.051599 0.005022 -0.004222
0.507322 0.454702 0.638372 0.000000 -0.999901 0.000000
0.492688 0.579269 0.562517 -0.000000 0.471371 -0.000027
1.892357 0.883030 1.033484 0.070477 0.004818 -0.004060
1.874821 0.254725 0.312586 0.070476 -0.011664 0.009720
1.885444 1.046109 1.233683 -0.051572 0.014429 -0.010991
3.292176 0.380922 0.823921 0.001281 0.254173 0.001140
3.378219 0.761145 0.373987 0.001278 0.439335 0.001328
3.378219 0.317093 0.374164 0.001278 0.441467 -0.001313
3.487135 0.270080 0.318179 -0.002998 -0.161519 0.002585
0.284554 0.534780 0.721382 0.000000 -0.028147 0.000017
1.948475 0.288293 0.937308 0.051599 0.007966 0.006650
1.553982 0.458439 0.551393 -0.051573 -0.014028 0.010707
3.224439 0.497943 0.710737 0.000000 -0.495991 0.000025
1.922170 0.229078 0.264401 0.051597 0.006581 -0.005514
3.253947 0.403668 0.477020 0.001278 0.291376 -0.001160
3.252094 0.376977 0.828699 0.001278 0.441375 0.001313
3.225407 0.720783 0.852125 0.001278 0.290028 -0.001174
1.517094 0.506225 0.559136 0.000002 -0.393499 -0.000034
2.590282 0.463302 0.674143 0.000000 -0.894749 0.000002
1.614657 0.575267 0.560498 0.000000 0.421034 -0.000016
1.863825 0.114529 1.131565 -0.051572 -0.005812 -0.004568
0.639031 0.503147 0.560514 0.000001 -0.359210 -0.000005
1.839747 0.713718 0.827251 0.070476 0.007354 -0.006178
2.785407 0.579988 0.562901 0.000001 0.470376 -0.000014
1.547989 0.623762 0.637112 0.000000 0.999615 0.000000
1.944968 0.738372 0.876275 0.051598 -0.008659 0.007213
1.468313 0.511162 0.557217 0.000000 -0.343486 -0.000020
1.797892 0.235484 0.289804 -0.051573 -0.009019 0.007027
1.929185 0.188799 0.228574 0.070476 -0.009636 0.008064
1.606990 0.766003 0.366552 -0.037747 -0.007055 -0.006142
2.159381 0.540261 0.552451 0.000000 0.028158 -0.000009
3.247203 0.454807 0.641408 0.000000 -0.999609 0.000000
2.736626 0.564898 0.717514 -0.000000 0.316952 0.000011
2.346376 0.473126 0.584253 0.000000 -0.790542 -0.000006
3.126876 0.471765 0.687918 0.000000 -0.790542 0.000006
0.248781 0.613462 0.677401 0.000001 0.881684 0.000015
0.443906 0.565952 0.717162 0.000001 0.316976 0.000173
1.517094 0.573176 0.559546 -0.000000 0.395614 -0.000067
3.372137 0.385685 0.818361 -0.002996 0.102265 0.002557
3.417475 0.412985 0.786570 -0.002997 -0.102374 -0.002549
3.120229 0.391847 0.811252 0.001278 0.325732 0.001186
1.712219 0.463319 0.599752 0.000001 -0.894171 -0.000014
1.988810 0.610989 0.721937 0.051599 -0.012122 0.009967
1.781989 0.193635 1.051494 -0.037747 0.010713 0.009128
0.200000 0.619774 0.662638 0.018343 0.001043 0.000316
0.492688 0.578158 0.712006 0.000000 0.471652 0.000014
3.096670 0.628656 0.743416 0.001278 0.289908 -0.001174
3.089298 0.424148 0.772846 0.001277 0.291643 0.001159
0.736594 0.577298 0.561489 0.000000 0.446570 -0.000029
3.029314 0.464427 0.597573 -0.000000 -0.881832 -0.000008
3.429686 0.385554 0.455146 -0.002997 0.161353 -0.002593
3.421546 0.674694 0.797234 -0.002996 -0.102263 0.002557
1.642294 0.310342 0.911763 -0.037747 0.007055 0.006142
0.034584 0.525431 0.608322 -0.593634 -0.000010 -0.000022
1.676661 0.264495 0.965486 -0.037747 0.013847 0.011515
1.721197 0.213218 1.025920 -0.037748 0.011757 0.009943
1.935103 0.455953 0.729680 0.070473 -0.002219 -0.001873
3.320877 0.607111 0.556121 -0.003000 0.087217 0.002544
1.717690 0.856485 0.258084 -0.037747 -0.011758 -0.009943
1.601089 0.358196 0.428572 -0.051572 -0.006514 0.005111
1.782916 0.139017 1.113215 -0.037744 0.017765 0.014239
2.151251 0.499636 0.711656 0.000000 -0.471246 0.000014
1.927431 0.608566 0.723983 0.051599 -0.012122 0.009967
2.756139 0.454765 0.634002 -0.000000 -0.999604 -0.000000
0.639031 0.580537 0.563210 -0.000000 0.496074 -0.000025
2.931751 0.623351 0.645250 0.000000 0.995211 0.000001
2.834648 0.603853 0.713274 -0.000001 0.642872 0.000009
1.707000 0.733199 0.852910 -0.051571 0.003057 -0.002413
2.882970 0.465004 0.596494 0.000000 -0.881658 -0.000008
1.951982 0.828166 0.298877 0.070476 0.010650 0.008894
1.951982 0.250282 0.975052 0.070477 -0.010650 -0.008894
1.664858 0.721795 0.431929 -0.051572 0.011624 0.008969
0.712203 0.623696 0.639483 0.000000 0.999604 0.000000
1.781381 0.313577 0.387166 -0.051571 -0.005712 0.004491
2.931751 0.567982 0.557472 0.000001 0.340921 -0.000020
1.752057 0.905445 0.206991 -0.051573 0.015230 0.011554
1.629466 0.712605 0.833326 -0.051571 0.013027 -0.009990
1.863825 0.956872 0.136412 -0.037748 -0.015152 -0.012456
2.443938 0.462773 0.600888 0.000000 -0.906812 -0.000003
1.712219 0.617454 0.669007 0.000001 0.928485 0.000006
1.679440 0.298663 0.346864 -0.037748 0.007447 -0.006471
0.463419 0.623752 0.635927 0.000000 0.999907 -0.000000
0.949606 0.623761 0.637335 -0.000000 0.999895 0.000000
1.175625 0.576966 0.561324 0.000000 0.447214 -0.000004
3.390465 0.465929 0.695415 -0.133061 -0.001008 0.000901
1.969134 0.454699 0.637557 0.000000 -0.999604 0.000000
0.817896 0.537743 0.552460 0.000068 -0.005673 -0.001612
1.572711 0.727899 0.416542 -0.051571 0.003257 0.002571
2.492720 0.500686 0.561721 0.000001 -0.446172 -0.000029
1.663438 0.510884 0.716610 -0.000000 -0.343450 0.000040
1.490253 0.651587 0.767766 -0.051574 0.009353 -0.007279
2.053688 0.577497 0.561589 0.000000 0.446409 -0.000014
2.200032 0.588894 0.705367 0.000000 0.589573 0.000010
3.126876 0.572666 0.714602 0.000000 0.395569 0.000034
3.024888 0.690094 0.458327 0.001276 0.253748 0.001150
1.664858 0.366158 0.850027 -0.037748 0.004246 0.003737
1.419532 0.517357 0.555307 0.000000 -0.263274 -0.000026
1.175625 0.463716 0.598957 0.000001 -0.766747 -0.000001
1.944968 0.335979 0.872815 0.070475 -0.006847 -0.005756
3.283572 0.691143 0.457592 0.001276 -0.255043 -0.001136
3.283572 0.387804 0.457170 0.001278 -0.253364 0.001151
1.771354 0.424398 0.483592 0.051599 0.012122 -0.009967
1.224407 0.614335 0.675768 -0.000000 0.894829 0.000014
2.004907 0.535817 0.552518 0.000000 -0.028158 -0.000257
2.785407 0.506123 0.714749 -0.000001 -0.395594 0.000067
0.166310 0.609932 0.681393 -0.079652 0.000426 0.000251
1.771354 0.674372 0.500754 -0.051572 0.013027 0.009990
0.443906 0.460515 0.667802 0.000001 -0.929017 0.000012
1.805551 0.397315 0.784925 0.070477 -0.004438 -0.003741
2.102470 0.615612 0.673175 -0.000001 0.906308 0.000007
3.322001 0.609518 0.683933 -0.133251 0.000256 0.000166
1.273188 0.575906 0.713134 -0.000000 0.446248 0.000007
1.721614 0.691916 0.443672 -0.037746 -0.008492 -0.007338
1.858563 0.460706 0.605644 0.000000 -0.927828 -0.000003
0.027966 0.526375 0.660214 -0.619637 -0.000009 0.000017
3.043844 0.453351 0.739122 0.001277 -0.253702 -0.001150
2.776556 0.460310 0.730403 0.001277 -0.324407 -0.001199
3.322001 0.466407 0.679918 -0.133252 -0.000260 0.000158
0.077542 0.529447 0.579424 -0.425378 -0.000011 -0.000058
1.736362 0.656431 0.520525 -0.051572 0.019036 0.014127
1.419532 0.462633 0.601190 -0.000000 -0.906670 -0.000007
1.922170 0.222850 1.004268 0.070474 -0.005326 -0.004485
0.687813 0.509075 0.715948 0.000000 -0.369518 0.000018
0.157931 0.534595 0.719395 -0.120316 -0.000005 0.000161
3.202069 0.616119 0.728865 0.001280 0.293566 -0.001178
2.102470 0.461278 0.604237 -0.000000 -0.918398 -0.000006
1.638001 0.450252 0.725893 -0.051572 -0.009520 -0.007405
1.625110 0.328512 0.393041 -0.051571 -0.002906 0.002295
1.932692 0.016837 0.024579 0.070476 -0.009129 0.007647
1.629466 0.365843 0.833326 -0.051572 -0.003257 -0.002571
3.078095 0.495321 0.709203 0.000000 -0.520102 0.000095
1.929185 0.884077 0.223868 0.051598 -0.011776 -0.009697
1.929185 0.884077 1.050061 0.051598 -0.005889 0.004941
2.853701 0.623679 0.640075 0.000000 0.999604 0.000000
3.228134 0.422817 0.774155 0.001276 0.291815 0.001159
2.923621 0.454777 0.640371 0.000000 -0.999604 0.000000
0.274798 0.534780 0.552547 -0.000000 -0.028147 -0.000017
2.609795 0.454736 0.635039 -0.000000 -0.999604 -0.000000
3.261001 0.475061 0.713668 -0.000001 -0.645177 0.000055
1.714599 0.689665 0.797235 -0.051571 0.006514 -0.005112
0.897572 0.540854 0.552468 0.000000 0.028147 -0.000017
0.736594 0.462836 0.600753 -0.000000 -0.906915 -0.000007
2.102470 0.461689 0.670644 0.000000 -0.918431 0.000012
1.078063 0.483729 0.573197 0.000000 -0.654748 -0.000008
1.851146 0.648546 0.751332 0.070476 0.009573 -0.008012
1.851146 0.429902 0.751332 0.070475 -0.009573 -0.008012
1.869560 0.898939 0.201497 0.051600 -0.005888 -0.004941
1.721614 0.386532 0.830257 -0.037746 0.008492 0.007338
1.479695 0.454703 0.637705 0.000000 -0.999609 0.000000
1.962505 0.156167 1.087641 0.070475 -0.003804 -0.003208
1.962505 0.922281 0.186288 0.070475 0.003804 0.003208
1.869560 0.179509 1.072432 0.051599 0.005888 0.004941
0.077542 0.481226 0.630429 -0.395207 -0.000031 -0.000003
2.151251 0.574561 0.713758 -0.000001 0.421147 0.000062
1.765733 0.161940 1.086354 -0.037748 0.009667 0.008295
2.374019 0.538483 0.552443 -0.000000 -0.027756 -0.000069
1.734984 0.539224 0.552422 0.000000 0.028147 -0.000137
1.824416 0.539076 0.552426 0.000000 -0.028158 -0.000068
1.802680 0.161966 0.185499 -0.037748 0.019330 -0.015242
1.760425 0.375682 0.429211 -0.037748 0.003985 -0.003510
1.680367 0.474855 0.728183 -0.037748 0.007403 0.006434
1.629258 0.284758 0.338065 -0.051572 -0.002505 0.001979
3.397386 0.798027 0.943399 0.001277 0.439380 -0.001328
1.630917 0.623766 0.636964 0.000000 0.999615 0.000000
1.753498 0.707273 0.816260 -0.051573 0.003257 -0.002571
1.718106 0.380365 0.466342 -0.051572 -0.006514 0.005112
1.729347 0.619874 0.524573 -0.037746 -0.007404 -0.006435
1.689729 0.693357 0.830067 -0.037748 -0.008492 0.007338
1.792398 0.706527 0.850786 0.051599 -0.020083 0.015810
3.126876 0.500290 0.712006 -0.000000 -0.469687 0.000007
3.351874 0.458850 0.541454 -0.002997 -0.366131 0.002878
3.428296 0.350315 0.860855 -0.002997 -0.235860 -0.002656
3.396660 0.446536 0.527377 -0.002997 0.235483 -0.002666
3.453645 0.319297 0.897528 -0.002998 -0.303382 -0.002753
1.712219 0.461997 0.671359 -0.000000 -0.916357 0.000003
1.049607 0.541224 0.552478 0.000000 0.027943 -0.000034
1.951982 0.836773 0.985244 0.070476 0.005326 -0.004485
2.235805 0.540557 0.552460 0.000000 0.028158 -0.000009
3.200048 0.543520 0.721386 0.000000 0.028147 0.000034
2.834189 0.502543 0.560794 0.000000 -0.446409 -0.000014
1.511080 0.419221 0.498235 -0.051573 -0.007015 0.005498
1.126844 0.457108 0.616892 -0.000000 -0.969846 -0.000002
3.202069 0.616960 0.545775 0.001278 -0.295313 -0.001163
2.736626 0.524771 0.720258 0.000000 -0.181398 0.000078
1.871313 0.467794 0.542979 0.051599 0.013074 -0.010705
1.798536 0.414151 0.509707 0.070473 -0.004438 0.003741
2.297595 0.570062 0.558255 -0.000002 0.338782 -0.000010
0.639031 0.463484 0.674508 -0.000000 -0.894431 0.000007
1.957244 1.040121 1.232577 0.051598 -0.012468 0.010237
2.443938 0.520702 0.554480 0.000000 -0.208897 -0.000068
2.278082 0.540705 0.721465 0.000000 0.028147 0.000017
2.882970 0.604146 0.582821 0.000001 0.766372 -0.000006
0.248781 0.503685 0.560264 -0.000001 -0.421202 -0.000125
1.731287 0.777505 0.906907 -0.051575 0.002856 -0.002255
1.876574 0.632381 0.517675 0.051599 -0.013074 -0.010705
1.609624 0.624371 0.526317 -0.037745 -0.012411 -0.010443
1.512017 0.465832 0.545150 -0.037748 0.018286 -0.014578
3.342254 0.664514 0.784834 -0.002993 -0.122337 0.002565
1.517094 0.464410 0.676323 0.000000 -0.881882 0.000015
1.704857 0.611734 0.738769 -0.037746 -0.007404 0.006435
1.672993 0.447580 0.758558 -0.037748 0.012410 0.010443
3.094355 0.454786 0.633261 -0.000000 -0.999604 -0.000000
1.175625 0.461410 0.669998 -0.000000 -0.916916 0.000003
0.882938 0.467332 0.681437 0.000000 -0.854076 0.000009
3.126876 0.457635 0.614847 0.000001 -0.963954 -0.000004
0.443906 0.461381 0.603999 0.000001 -0.918186 -0.000012
3.407581 0.559527 0.543085 -0.132793 0.000074 -0.000321
1.907344 0.524516 0.720211 -0.000001 -0.180169 0.000039
1.853480 0.130036 0.161108 -0.051572 -0.006013 0.004724
3.349468 0.372101 0.439617 -0.002998 0.161304 -0.002594
3.294135 0.721433 0.852387 0.001280 -0.215661 0.001120
3.330406 0.720273 0.422995 0.001278 -0.215932 -0.001118
1.029282 0.623729 0.638298 -0.000000 0.999604 0.000000
1.614657 0.511407 0.716798 0.000000 -0.318155 0.000005
3.159397 0.454705 0.635334 -0.000000 -0.999901 -0.000000
0.200000 0.518107 0.718827 0.018345 -0.000287 0.001051
0.848791 0.454736 0.635039 -0.000000 -0.999603 -0.000000
1.532542 0.539891 0.552441 0.000000 0.027343 -0.000009
0.092917 0.587907 0.680470 -0.365330 0.000060 0.000051
1.094323 0.454728 0.635335 0.000000 -0.999609 -0.000000
0.639031 0.622782 0.624158 0.000000 0.988092 -0.000009
0.541469 0.500653 0.712191 0.000000 -0.445692 0.000015
1.449225 0.609055 0.556522 -0.051571 0.009353 0.007279
0.785375 0.460037 0.666557 0.000000 -0.939136 0.000005
1.666379 0.620549 0.560066 -0.051573 0.019036 0.014127
0.108712 0.488882 0.687307 -0.303724 -0.000075 0.000080
1.955490 0.216041 0.257950 0.070476 -0.004818 0.004060
0.954484 0.538039 0.721473 0.000000 -0.028158 0.000068
1.559259 0.383226 0.817193 -0.051572 -0.004677 -0.003684
0.320327 0.541151 0.721479 0.000000 0.014072 0.000069
1.679607 0.406724 0.777464 -0.051571 -0.009520 -0.007405
1.679607 0.671724 0.496464 -0.051570 0.009520 0.007405
1.587860 0.417019 0.485715 -0.037748 0.012410 -0.010443
2.811424 0.539076 0.552424 0.000000 -0.014077 -0.000068
1.858563 0.570957 0.715318 -0.000000 0.369576 0.000036
0.980500 0.462305 0.601896 0.000000 -0.906951 -0.000013
2.541501 0.572666 0.714602 0.000000 0.395666 0.000008
1.841490 0.454688 0.636742 0.000000 -0.999615 -0.000000
1.802680 0.916482 1.088430 -0.037745 -0.019331 0.015242
1.802680 0.916482 0.185499 -0.037747 -0.009668 -0.008295
0.318701 0.534928 0.552543 -0.000000 -0.028158 -0.000017
1.388637 0.623745 0.637705 -0.000000 0.999604 0.000000
2.443938 0.512356 0.717115 0.000000 -0.316838 0.000022
0.443906 0.618793 0.665513 -0.000001 0.938935 0.000011
0.346344 0.620618 0.614132 0.000000 0.964708 -0.000016
1.151235 0.540557 0.721469 0.000000 0.028158 0.000017
1.839051 0.623766 0.636964 0.000000 0.999626 0.000000
2.346376 0.618360 0.666696 0.000000 0.938964 0.000005
1.802043 0.655262 0.789314 0.051596 -0.006062 0.005085
0.372361 0.540854 0.721484 0.000000 0.014077 0.000068
1.811688 0.474451 0.727842 0.051600 0.006061 0.005084
3.407581 0.632530 0.659759 -0.132793 0.000321 0.000074
1.806427 0.758554 0.397238 -0.051572 0.011424 0.008822
1.750310 0.476874 0.729888 0.051599 0.012122 0.009967
1.778369 0.671542 0.463442 0.051598 -0.012122 -0.009967
2.102470 0.616112 0.601829 0.000000 0.907086 -0.000002
3.029314 0.573006 0.559473 0.000000 0.395568 -0.000067
1.849973 0.939994 0.171460 -0.051572 0.013227 0.010134
3.370936 0.585436 0.582430 0.251104 0.000022 -0.000026
1.731287 0.300943 0.906907 -0.051575 -0.002856 -0.002255
1.606990 0.766003 0.907377 -0.037744 -0.007056 0.006143
1.738974 0.725243 0.868874 -0.037745 -0.007970 0.006907
1.680367 0.474855 0.545746 -0.037748 0.007403 -0.006434
3.373349 0.621615 0.597287 -0.133058 0.001155 -0.000638
2.980532 0.461220 0.604373 -0.000000 -0.918295 -0.000003
0.443906 0.568678 0.557726 -0.000001 0.343351 -0.000079
3.342254 0.414407 0.785233 -0.002997 -0.122383 -0.002559
3.342254 0.664514 0.489095 -0.002997 -0.235535 -0.002665
1.806938 0.971901 0.127535 -0.051573 0.006013 0.004724
1.806938 0.971901 1.146393 -0.051571 0.012025 -0.009263
3.453645 0.759151 0.376401 -0.002997 0.303428 0.002753
3.453645 0.319139 0.376534 -0.002997 0.303006 -0.002762
3.453645 0.759309 0.897394 -0.002998 -0.302922 0.002763
1.565876 0.495384 0.709242 -0.000000 -0.520099 0.000024
0.062653 0.584678 0.615075 -0.483611 0.000043 -0.000019
1.806427 0.319894 0.876691 0.070475 -0.013693 -0.011353
1.752826 0.328625 0.897417 -0.037747 0.007447 0.006471
3.283572 0.690644 0.816759 0.001280 0.253147 -0.001152
3.304698 0.326858 0.385380 0.001277 -0.214963 0.001131
1.861668 0.691016 0.802771 0.070476 0.007354 -0.006178
1.809782 0.456810 0.618116 0.000001 -0.923268 -0.000000
1.489629 0.399612 0.802272 -0.051569 -0.004677 -0.003684
0.200000 0.573755 0.559796 0.018342 0.000459 -0.000988
2.443938 0.564898 0.717514 -0.000000 0.316952 0.000022
1.810812 0.392714 0.449236 0.051599 0.005022 -0.004222
2.004907 0.604052 0.691222 -0.000000 0.772954 0.000024
1.370751 0.617879 0.605989 -0.000000 0.928972 -0.000003
3.322001 0.522731 0.554047 -0.129367 -0.000057 -0.000309
0.248781 0.503047 0.713368 -0.000001 -0.420918 0.000062
2.834189 0.568747 0.557752 -0.000001 0.343482 -0.000079
2.297595 0.507009 0.558803 -0.000001 -0.368014 -0.000018
1.978890 0.623754 0.636520 0.000000 0.999604 -0.000000
1.644616 0.653783 0.757694 -0.051572 0.019036 -0.014127
3.407581 0.463676 0.577651 -0.133951 -0.000260 -0.000198
1.876574 0.151529 0.190205 0.070475 -0.008622 0.007228
2.980532 0.511548 0.557084 -0.000000 -0.316498 -0.000011
2.808172 0.539076 0.721504 0.000000 -0.014077 0.000068
1.799413 0.354430 0.870935 0.051599 0.009352 0.007772
1.774366 0.748035 0.407869 -0.051571 0.002706 0.002137
2.346376 0.569649 0.715838 0.000000 0.359181 0.000005
3.407581 0.584401 0.620672 1.000000 0.000000 -0.000000
0.583746 0.454702 0.638372 0.000000 -0.999907 0.000000
1.839051 0.539224 0.721506 -0.000000 0.028147 0.000137
1.539994 0.619457 0.550926 -0.051573 0.007015 0.005498
2.469955 0.623708 0.634890 0.000000 0.999604 -0.000000
2.395157 0.568086 0.557510 -0.000001 0.342840 -0.000040
1.175625 0.573074 0.714426 0.000000 0.395666 0.000004
3.377628 0.447346 0.639524 -0.133061 -0.001646 0.000092
1.526005 0.459544 0.723469 -0.051573 -0.007015 -0.005498
3.302652 0.645761 0.511445 -0.002998 -0.087131 -0.002552
3.329481 0.464927 0.725369 -0.002998 -0.087263 -0.002543
3.373349 0.578901 0.719355 -0.133063 0.000622 0.001125
1.779684 0.637164 0.769676 0.051597 -0.006062 0.005085
1.663438 0.461469 0.603795 -0.000000 -0.918342 -0.000003
1.780999 0.602786 0.545064 0.051598 -0.006062 -0.005085
0.372361 0.535224 0.552534 0.000000 -0.027756 -0.000017
0.980500 0.616143 0.601896 0.000001 0.896750 -0.000002
1.224407 0.617386 0.604749 0.000000 0.929169 -0.000003
2.639064 0.575435 0.713353 0.000000 0.421034 0.000016
2.639064 0.616803 0.603386 -0.000001 0.916408 -0.000006
1.956126 0.617660 0.668491 -0.000001 0.926868 0.000003
3.378219 0.317303 0.899942 0.001279 -0.439038 -0.001329
3.294135 0.357331 0.852654 0.001281 -0.214364 -0.001134
3.418301 0.757095 0.895253 -0.002997 0.161587 -0.002584
3.269302 0.364211 0.430061 0.001278 0.441348 -0.001313
3.469927 0.282898 0.940626 -0.002997 -0.082169 -0.002540
3.223554 0.330790 0.390168 0.001279 -0.253262 0.001152
3.271261 0.738143 0.401595 0.001278 -0.254654 -0.001138
3.397386 0.280421 0.943399 0.001278 -0.439228 -0.001328
1.813442 0.319445 0.362694 0.051598 0.008659 -0.007213
1.813442 0.759003 0.911235 0.051600 -0.008659 0.007212
2.395157 0.470690 0.686455 0.000000 -0.805592 0.000003
0.785375 0.503887 0.560170 -0.000001 -0.420578 -0.000031
1.565876 0.493623 0.565783 0.000001 -0.543708 -0.000045
1.858563 0.618180 0.667183 0.000000 0.929307 0.000001
3.356233 0.627809 0.626983 -0.133059 0.001218 -0.000068
1.714015 0.328412 0.873614 -0.051571 -0.005412 -0.004257
1.929185 0.188799 1.045355 0.070476 -0.004818 -0.004060
1.273188 0.583950 0.565226 0.000000 0.520636 -0.000006
1.314652 0.623731 0.638223 0.000000 0.999604 0.000000
2.687845 0.507560 0.558584 0.000001 -0.369205 -0.000036
1.916909 0.952453 0.141925 0.051600 -0.010390 -0.008603
1.644616 0.653783 0.516235 -0.051573 0.009520 0.007405
1.655497 0.455922 0.525786 -0.037747 0.024811 -0.018370
2.991019 0.456515 0.539433 0.001279 0.215689 -0.001120
1.712219 0.613741 0.597050 -0.000001 0.849750 -0.000001
2.980532 0.558000 0.719395 0.000000 0.209090 0.000008
1.956126 0.498460 0.562901 0.000000 -0.471340 -0.000014
1.614657 0.509353 0.557879 0.000000 -0.343342 -0.000040
1.573560 0.682150 0.474455 -0.051578 0.002338 0.001847
1.685549 0.752809 0.879489 -0.051572 0.002706 -0.002137
1.913402 0.127694 1.115978 0.070478 -0.007608 -0.006388
0.124858 0.495213 0.574937 -0.240814 -0.000090 -0.000119
1.907344 0.623062 0.626139 0.000000 0.991964 -0.000002
2.395157 0.617184 0.604271 -0.000000 0.917932 -0.000006
1.622852 0.687018 0.472403 -0.051571 0.019036 0.014127
1.818703 0.621489 0.525937 0.051598 -0.006062 -0.005085
3.057314 0.625084 0.739133 0.001278 0.439257 -0.001328
1.827471 0.793987 0.951534 0.051599 -0.007966 0.006650
1.827471 0.284461 0.322395 0.051598 0.007966 -0.006650
1.789754 0.949306 1.119255 -0.051574 0.006814 -0.005343
1.789754 0.949306 0.154673 -0.051572 0.006815 0.005343
1.809782 0.591437 0.703448 0.000001 0.611964 0.000037
1.708754 0.352593 0.406085 -0.037746 0.007970 -0.006906
2.858579 0.540039 0.721495 0.000005 0.002629 0.000367
2.517110 0.537595 0.552468 0.000000 -0.028158 -0.000034
1.956126 0.569234 0.715999 0.000000 0.343342 0.000020
0.590250 0.530643 0.721062 -0.000000 -0.098109 0.000073
1.078063 0.617096 0.669862 -0.000000 0.918395 0.000002
1.761001 0.454715 0.638149 0.000000 -0.999604 0.000000
1.827033 0.458727 0.559367 0.070476 -0.004438 0.003741
1.820457 0.301953 0.931384 0.051599 0.017315 0.013866
1.820457 0.776495 0.342544 0.051599 -0.017315 -0.013866
0.443906 0.617728 0.605610 0.000000 0.929129 -0.000023
2.297595 0.618551 0.607754 -0.000000 0.938664 -0.000005
1.663438 0.607168 0.687263 0.000000 0.807383 0.000021
3.050163 0.474385 0.713096 0.000001 -0.644577 0.000026
2.909148 0.625439 0.535095 0.001280 -0.440983 -0.001314
3.006374 0.661391 0.492474 0.001276 -0.254936 -0.001137
2.807709 0.474727 0.560544 0.000001 -0.631532 -0.000004
3.031207 0.668428 0.790108 0.001278 0.253497 -0.001151
2.857375 0.460231 0.730336 0.001278 0.524689 0.001473
1.448801 0.538928 0.552430 0.000000 -0.028147 -0.000017
0.166310 0.587547 0.568859 -0.079658 0.000297 -0.000395
0.166310 0.463987 0.600732 -0.079656 -0.000455 -0.000204
1.701371 0.439958 0.540296 -0.051572 -0.009520 0.007405
1.899120 0.018162 1.250469 -0.051573 -0.014429 -0.010991
1.899120 1.060286 0.023459 -0.051571 0.014429 0.010992
1.871313 0.467794 0.730950 0.051598 0.013074 0.010705
3.377598 0.666097 0.787508 -0.002997 0.102375 -0.002549
3.408871 0.419394 0.494921 -0.002997 -0.102374 0.002549
0.736594 0.572428 0.714705 -0.000000 0.395418 0.000034
3.045574 0.540854 0.721484 0.000000 0.013675 0.000035
1.824121 0.083951 0.100397 -0.051570 -0.005211 0.004101
1.824121 0.994497 1.173531 -0.051573 0.005211 -0.004101
1.824121 0.994497 0.100397 -0.051572 0.010422 0.008080
0.541469 0.567703 0.557370 0.000000 0.343454 -0.000079
1.714599 0.689665 0.476694 -0.051571 0.006514 0.005112
1.551796 0.715384 0.843305 -0.051573 0.004677 -0.003684
1.483415 0.433950 0.514556 -0.051572 -0.004677 0.003684
1.596770 0.539668 0.552435 0.000000 0.028147 -0.000009
2.687845 0.611714 0.593473 -0.000000 0.853818 -0.000009
1.722333 0.622758 0.711997 -0.051573 0.005679 -0.004465
1.699226 0.766986 0.377653 -0.051569 0.002706 0.002137
1.861668 0.679134 0.461123 0.051599 -0.005022 -0.004222
1.574465 0.346340 0.411366 -0.051572 -0.005813 0.004568
3.224439 0.616330 0.602299 0.000001 0.848238 -0.000002
1.517094 0.600657 0.695045 -0.000000 0.736143 0.000013
0.133042 0.617187 0.641343 -0.216950 0.000083 0.000002
0.149587 0.525599 0.556773 -0.144613 -0.000051 -0.000258
0.671552 0.542483 0.721415 0.000000 0.028147 0.000034
1.842378 0.605208 0.547110 0.051599 -0.006061 -0.005084
1.577884 0.735652 0.866760 -0.051572 0.002906 -0.002295
2.639064 0.478514 0.578140 -0.000001 -0.714154 -0.000007
1.906134 1.077123 1.271172 -0.051571 0.013628 -0.010422
1.588797 0.450246 0.729996 -0.051571 -0.009353 -0.007279
3.104042 0.474332 0.713052 0.000001 -0.644875 0.000031
2.975222 0.675703 0.798562 0.001278 0.214834 -0.001132
2.993957 0.420813 0.777328 0.001277 -0.215099 -0.001130
3.018790 0.413460 0.488214 0.001278 0.254639 -0.001138
1.175625 0.618920 0.665165 0.000001 0.938354 0.000005
0.248781 0.458674 0.662638 0.000000 -0.948361 0.000001
0.541469 0.501183 0.561473 -0.000001 -0.446191 -0.000058
2.200032 0.499342 0.562430 0.000000 -0.470966 -0.000007
1.100827 0.541224 0.552478 0.000001 0.011866 -0.000020
0.785375 0.459144 0.609885 0.000000 -0.948364 -0.000005
2.198406 0.623737 0.638001 -0.000000 0.999604 0.000000
2.443938 0.462055 0.671495 0.000000 -0.906927 0.000003
3.009801 0.623660 0.640742 -0.000000 0.999604 0.000000
1.988810 0.869216 0.246239 0.051599 -0.011776 -0.009697
1.988810 0.869216 1.027689 0.051598 -0.005889 0.004941
1.988810 0.209232 1.027689 0.051598 0.011776 0.009697
2.261822 0.454719 0.638298 0.000000 -0.999609 0.000000
3.330406 0.358175 0.850934 0.001277 0.216053 0.001118
3.322001 0.455213 0.646430 -0.133254 -0.000302 0.000038
1.622852 0.391430 0.801525 -0.051571 -0.019036 -0.014127
3.258845 0.734388 0.868207 0.001281 0.252986 -0.001153
1.834486 0.252548 0.314425 0.070477 -0.011664 0.009720
1.912525 0.672534 0.473010 0.051598 -0.005023 -0.004222
1.421248 0.607951 0.718340 -0.037749 -0.012192 0.010276
2.248813 0.488153 0.704333 0.000000 -0.612380 0.000019
3.408871 0.659212 0.495054 -0.002998 -0.102203 -0.002558
3.400730 0.437436 0.757326 -0.002997 0.122187 0.002568
1.597583 0.539446 0.721500 0.000000 0.027365 0.000035
1.622852 0.678113 0.809045 -0.037747 -0.024811 0.018370
1.594475 0.383784 0.460373 -0.051572 -0.009520 0.007405
1.663438 0.545665 0.552675 -0.000001 0.069915 -0.000206
1.752826 0.762770 0.886483 -0.051571 0.005712 -0.004491
1.749319 0.324096 0.397797 -0.051572 -0.005412 0.004257
0.882938 0.457947 0.613703 0.000000 -0.964741 -0.000002
2.443938 0.602262 0.580630 0.000000 0.755264 -0.000002
2.756139 0.623683 0.634002 0.000000 0.999604 -0.000000
2.785407 0.572258 0.714778 0.000000 0.395611 0.000067
1.810812 0.392714 0.824693 0.051599 0.005022 0.004222
1.657844 0.383650 0.444051 -0.037746 0.004246 -0.003737
2.687845 0.460775 0.605472 0.000001 -0.929008 -0.000012
3.322001 0.502543 0.713134 -0.133252 -0.000128 0.000276
2.541501 0.456199 0.652875 -0.000000 -0.977126 0.000001
1.370751 0.570751 0.558529 -0.000000 0.369644 -0.000018
3.407581 0.490463 0.554212 -0.133399 -0.000170 -0.000280
1.694356 0.603189 0.545405 -0.037749 -0.007403 -0.006434
1.029282 0.497332 0.710388 0.000001 -0.495789 0.000051
1.810928 0.808776 0.306639 -0.037745 -0.011758 -0.009943
1.907344 0.577762 0.561721 0.000000 0.446409 -0.000029
1.936199 0.936000 0.162951 0.051598 -0.005196 -0.004366
0.174715 0.579943 0.710640 -0.047031 0.000430 0.000728
1.370751 0.619022 0.664887 -0.000000 0.948522 0.000001
1.846762 0.361168 0.414763 0.051599 0.009352 -0.007772
1.860318 0.955501 1.121213 -0.051574 0.006013 -0.004724
3.050163 0.604063 0.713096 0.000000 0.645155 0.000026
0.108712 0.558933 0.568552 -0.303718 0.000033 -0.000104
1.792398 0.371922 0.423143 0.051599 0.020083 -0.015810
1.001639 0.454744 0.639186 0.000000 -0.999609 0.000000
1.958997 0.896648 1.056906 0.070476 0.004311 -0.003634
1.958997 0.896648 0.217023 0.070475 0.008622 0.007228
1.958997 0.181800 1.056906 0.070476 -0.008622 -0.007228
2.502476 0.541298 0.721448 0.000000 0.028158 0.000017
1.321969 0.457381 0.658152 0.000000 -0.964662 0.000001
2.004907 0.600451 0.578672 -0.000002 0.712024 -0.000014
1.175625 0.510606 0.716508 0.000000 -0.341887 0.000010
1.937953 0.400606 0.468762 0.051599 0.005022 -0.004222
3.104042 0.604116 0.560877 -0.000001 0.645117 -0.000031
1.839747 0.378660 0.839016 0.051598 0.010044 0.008327
1.497582 0.623758 0.637261 -0.000000 0.999604 0.000000
2.821180 0.623756 0.637705 0.000000 0.999901 0.000000
3.294358 0.541521 0.552454 0.000000 0.013675 -0.000018
3.420260 0.297131 0.350476 0.001279 0.524381 -0.001474
3.420260 0.781317 0.350476 0.001278 -0.524529 -0.001473
0.141288 0.460504 0.650339 -0.176883 -0.000212 0.000030
2.297595 0.460473 0.606229 0.000000 -0.929139 -0.000003
2.479711 0.454703 0.637705 0.000000 -0.999609 0.000000
2.040680 0.454686 0.636816 -0.000000 -0.880109 -0.000000
3.158932 0.396191 0.806001 0.001277 0.295434 0.001163
1.700042 0.806252 0.315806 -0.037746 -0.006925 -0.006032
0.736594 0.617851 0.668009 -0.000001 0.928169 0.000006
1.687341 0.473631 0.581702 -0.051573 -0.005679 0.004465
1.963381 0.401530 0.797216 0.070474 -0.003677 -0.003102
1.963381 0.668310 0.486905 0.070476 0.007354 0.006178
1.988810 0.697064 0.823854 0.051597 -0.004676 0.003933
1.866052 0.588928 0.568283 0.051599 -0.006061 -0.005084
0.070033 0.490094 0.660624 -0.454731 -0.000049 0.000022
1.869560 0.898939 1.072432 0.051599 -0.005888 0.004941
1.850269 0.734634 0.879432 0.051598 -0.009352 0.007772
0.541469 0.567390 0.716673 -0.000001 0.341983 0.000020
1.572711 0.350549 0.857387 -0.051572 -0.003257 -0.002571
1.725121 0.377786 0.433597 -0.037749 0.004246 -0.003737
3.407581 0.627716 0.599618 -0.136261 0.000294 -0.000129
0.736594 0.514650 0.556081 0.000000 -0.290318 -0.000095
1.896742 0.615958 0.717740 0.070476 0.009573 -0.008012
0.510574 0.542927 0.552526 0.000000 0.028158 -0.000034
2.541501 0.618818 0.665444 -0.000001 0.927598 0.000001
3.195170 0.623646 0.641260 0.000000 0.999615 0.000000
1.663438 0.460597 0.668009 0.000000 -0.927828 0.000003
3.407581 0.484016 0.715562 -0.136639 -0.000181 0.000265
3.297646 0.597884 0.705872 0.251106 0.000044 0.000053
1.964258 0.020835 0.021202 0.051598 0.009698 -0.008050
0.809766 0.541742 0.721436 0.000000 0.028158 0.000137
3.423863 0.615611 0.727410 -0.002997 0.235883 -0.002656
1.648403 0.732281 0.402268 -0.037746 -0.003789 -0.003339
1.152861 0.454730 0.635261 -0.000002 -0.406021 -0.000000
1.714015 0.750036 0.400315 -0.051572 0.005412 0.004257
0.834157 0.491278 0.706586 0.000000 -0.567263 0.000005
0.834157 0.620696 0.614418 0.000000 0.964602 -0.000008
0.834157 0.620843 0.658975 0.000000 0.964706 0.000008
1.600152 0.319534 0.374945 -0.037746 0.003985 -0.003510
1.964258 0.018540 1.250789 0.070475 -0.009129 -0.007647
1.964258 1.059908 0.023140 0.070473 0.009130 0.007647
1.927431 0.631517 0.534406 0.070475 0.009573 0.008012
1.862545 0.197001 0.221646 0.051598 0.013161 -0.010771
1.809782 0.567147 0.557166 0.000000 0.343357 -0.000010
1.830979 0.675457 0.780988 0.070477 0.009573 -0.008012
1.830979 0.675457 0.492940 0.070476 0.009573 0.008012
2.857375 0.618060 0.543459 0.001278 0.522078 0.001490
2.857375 0.618060 0.730469 0.001278 0.522078 -0.001490
3.175658 0.599908 0.695815 -0.000001 0.716487 0.000014
0.507322 0.535521 0.721403 0.000000 -0.028158 0.000017
0.956923 0.536928 0.552487 0.000000 -0.027365 -0.000018
1.616238 0.417018 0.504204 -0.051572 -0.009520 0.007405
1.771354 0.404076 0.773174 0.070475 -0.004438 -0.003741
1.601089 0.720252 0.428572 -0.051572 0.006514 0.005112
1.714599 0.388783 0.797235 -0.051572 -0.006514 -0.005112
1.273188 0.457986 0.613560 0.000000 -0.964715 -0.000004
3.175658 0.607343 0.586905 -0.000000 0.807206 -0.000011
2.672397 0.541668 0.721438 0.000000 0.028169 0.000017
1.676446 0.539372 0.721502 0.000000 0.028147 0.000017
1.864299 0.288587 0.920096 0.070476 -0.006340 -0.005333
1.912086 0.463318 0.555489 0.070477 -0.004438 0.003741
3.448285 0.408238 0.792057 -0.002997 -0.199462 -0.002617
1.866929 0.361894 0.833586 0.070475 -0.007354 -0.006178
3.104042 0.475069 0.560255 0.000001 -0.644875 -0.000031
1.110584 0.539817 0.721490 0.000000 0.028158 0.000034
2.736626 0.598792 0.576977 0.000000 0.696981 -0.000015
1.770187 0.795113 0.347997 -0.051572 0.005311 0.004179
1.752826 0.762770 0.387446 -0.051573 0.002856 0.002256
1.861668 0.399314 0.812805 0.051599 0.005022 0.004222
1.857284 0.760733 0.364155 0.051599 -0.008659 -0.007212
2.639064 0.510606 0.716508 -0.000000 -0.343412 0.000040
1.862545 0.893246 1.042317 -0.051572 0.014830 -0.011274
2.102470 0.567599 0.557332 0.000001 0.342073 -0.000040
2.834189 0.480188 0.697468 -0.000000 -0.697129 0.000030
0.687813 0.460624 0.668078 0.000001 -0.928518 0.000006
1.810928 0.269672 0.967290 -0.037747 0.011758 0.009943
1.675932 0.300936 0.911523 -0.051571 -0.005712 -0.004491
1.772669 0.639870 0.732467 0.070477 0.004438 -0.003741
2.717113 0.623757 0.636297 0.000000 0.999895 -0.000000
0.395125 0.590178 0.569505 0.000001 0.565811 -0.000003
0.980500 0.568817 0.557777 0.000000 0.343404 -0.000079
0.248781 0.459074 0.610096 -0.000000 -0.948420 -0.000019
0.166310 0.462074 0.668921 -0.079655 -0.000465 0.000178
1.722333 0.455690 0.711997 -0.051573 -0.005679 -0.004465
1.321969 0.595167 0.700343 0.000000 0.655887 0.000008
1.793568 0.288987 0.916838 -0.051573 -0.010622 -0.008229
1.800583 0.806298 0.937542 -0.051572 0.005311 -0.004179
1.746805 0.277682 0.338905 -0.051572 -0.005311 0.004179
1.800583 0.272150 0.336387 -0.051572 -0.005311 0.004179
2.785407 0.616964 0.670168 -0.000001 0.917500 0.000006
1.531594 0.400823 0.470634 -0.037748 0.012193 -0.010277
1.565876 0.560341 0.718827 -0.000000 0.263492 0.000026
0.639031 0.564578 0.717611 -0.000000 0.289561 0.000006
1.731959 0.356440 0.836683 -0.051570 -0.002906 -0.002295
1.588141 0.746285 0.394579 -0.051573 0.005812 0.004568
1.797892 0.842964 0.984124 -0.051572 0.009019 -0.007027
2.915466 0.603931 0.713207 0.000001 0.638717 0.000007
1.552889 0.662438 0.486568 -0.037747 -0.012193 -0.010277
1.800100 0.113635 1.138000 -0.051572 -0.012025 -0.009263
3.294048 0.439713 0.755442 -0.002995 -0.087361 -0.002540
0.560981 0.623749 0.638224 0.000000 0.999906 0.000000
1.867333 0.106111 0.132012 -0.051573 -0.005812 0.004568
1.370751 0.577497 0.712340 0.000000 0.446409 0.000058
1.616238 0.427206 0.778329 -0.037747 0.012410 0.010443
1.748237 0.401092 0.815334 -0.037748 0.016980 0.013718
1.689697 0.288030 0.939655 -0.037748 0.013063 0.010935
1.216277 0.454728 0.638594 0.000000 -0.999609 0.000000
1.126844 0.595251 0.573659 -0.000000 0.652991 -0.000004
2.014663 0.538483 0.721486 0.000000 -0.028147 0.000017
2.151251 0.619398 0.663762 -0.000000 0.948211 0.000005
0.286180 0.623736 0.639113 -0.000000 0.999906 0.000000
2.717113 0.541446 0.552485 0.000000 0.028147 -0.000009
1.927431 0.597086 0.575173 -0.000000 -0.645234 0.000273
1.878328 0.246307 0.971694 0.070477 -0.005833 -0.004909
1.000013 0.538928 0.721502 0.000000 -0.014480 0.000017
3.372137 0.386080 0.455234 -0.002997 -0.102374 0.002549
1.742976 0.664237 0.473707 -0.037747 -0.004246 -0.003737
1.761001 0.522731 0.554047 0.000000 -0.208320 -0.000017
1.550095 0.629732 0.750274 -0.037749 -0.009145 0.007872
1.439857 0.538557 0.721488 0.000004 -0.006166 0.000156
1.517094 0.458933 0.610518 0.000001 -0.945409 -0.000002
1.759841 0.767316 0.356362 -0.037747 -0.003724 -0.003282
1.759841 0.767316 0.917567 -0.037745 -0.003724 0.003282
1.973465 0.432201 0.762004 0.070475 -0.004438 -0.003741
1.988810 0.628204 0.531608 0.051599 -0.012122 -0.009967
1.973465 0.432201 0.511924 0.070475 -0.004438 0.003741
2.200032 0.458804 0.610904 -0.000000 -0.948360 -0.000002
0.856921 0.541150 0.721452 -0.000000 0.028158 0.000017
0.200000 0.455512 0.625146 0.018344 -0.001081 -0.000137
1.657084 0.322867 0.388564 -0.051572 -0.002706 0.002137
1.666316 0.802215 0.943557 -0.051574 0.010021 -0.007780
1.958120 0.448588 0.533007 0.070475 -0.004438 0.003741
1.818703 0.441063 0.734566 0.070476 -0.004438 -0.003741
1.625110 0.333265 0.884902 -0.037748 0.007969 0.006906
1.788014 0.458170 0.524914 0.051598 0.006062 -0.005085
3.261001 0.475061 0.560261 -0.000001 -0.645177 -0.000055
2.900856 0.623671 0.640371 -0.000000 0.999615 0.000000
0.346344 0.620745 0.659332 0.000000 0.964488 0.000004
0.200000 0.488387 0.569414 0.018342 -0.000668 -0.000861
3.322001 0.621087 0.615848 -0.133250 0.000296 -0.000072
2.931751 0.458768 0.611010 -0.000000 -0.947084 -0.000001
0.395125 0.622464 0.622220 0.000000 0.983410 -0.000001
1.883589 0.144525 0.161197 0.051599 0.005196 -0.004366
1.876574 0.926919 1.083724 -0.051571 0.013227 -0.010135
1.909894 0.933729 1.095434 0.070475 0.004311 -0.003634
1.936199 0.159663 0.183335 0.051598 0.005196 -0.004366
3.423863 0.615611 0.546519 -0.002997 0.235883 0.002656
1.707985 0.664077 0.765434 -0.051573 0.019036 -0.014127
1.340669 0.539298 0.721504 -0.000000 0.028147 0.000068
2.227675 0.539965 0.721486 -0.000000 0.028158 0.000017
0.055411 0.503156 0.608201 -0.511966 -0.000029 -0.000022
1.400019 0.538780 0.721494 0.000000 -0.028158 0.000034
1.657844 0.373490 0.821296 -0.051572 -0.003257 -0.002571
1.753498 0.690475 0.443482 -0.037747 -0.004246 -0.003737
1.664858 0.356653 0.431929 -0.051572 -0.002906 0.002295
1.657844 0.694798 0.444051 -0.037748 -0.016980 -0.013717
2.102470 0.509875 0.557688 0.000001 -0.339114 -0.000010
1.687341 0.604817 0.581702 0.000000 -0.645233 0.000829
2.882970 0.519188 0.554839 -0.000001 -0.235303 -0.000030
1.565876 0.556587 0.554232 -0.000000 0.208527 -0.000034
1.787830 0.623764 0.637038 0.000000 0.999626 0.000000
1.818760 0.883725 1.033924 -0.051573 0.007616 -0.005959
1.818703 0.621489 0.747991 0.051597 -0.006062 0.005085
0.108712 0.470812 0.617255 -0.303723 -0.000102 -0.000026
0.070033 0.539224 0.691494 -0.462003 0.000001 0.000025
1.629258 0.793690 0.935864 -0.051574 0.002505 -0.001979
1.792398 0.724881 0.438644 -0.051571 0.012225 0.009409
1.629258 0.284758 0.935864 -0.051573 -0.010021 -0.007781
1.629258 0.793690 0.338065 -0.051571 0.010021 0.007781
1.731959 0.722008 0.437245 -0.051573 0.002906 0.002295
2.561013 0.537002 0.552485 0.000000 -0.027756 -0.000069
3.029314 0.618043 0.606402 0.000001 0.869150 -0.000001
1.870437 0.729276 0.424895 0.070476 0.006847 0.005756
3.175658 0.503248 0.560467 0.000000 -0.421159 -0.000062
0.931719 0.620365 0.613241 -0.000001 0.956252 -0.000004
1.019525 0.538928 0.552426 -0.000005 -0.002608 -0.000369
1.748559 0.795224 0.325494 -0.037747 -0.013847 -0.011515
0.931719 0.584701 0.565703 -0.000000 0.543822 -0.000045
0.055411 0.579600 0.659279 -0.511970 0.000034 0.000020
3.105738 0.543298 0.721392 -0.000009 0.001568 0.000306
1.725861 0.628822 0.759260 -0.037748 -0.007403 0.006435
3.256960 0.541002 0.552447 0.000002 0.013236 -0.000583
1.914279 0.698426 0.442494 0.051599 -0.010044 -0.008327
3.137079 0.628616 0.743449 0.001278 0.290026 -0.001174
0.541469 0.458674 0.662638 0.000000 -0.948442 0.000001
0.980500 0.509631 0.557777 -0.000000 -0.343440 -0.000079
0.980500 0.619210 0.664325 -0.000001 0.927222 0.000001
0.918711 0.537298 0.721452 0.000000 -0.027745 0.000017
3.462302 0.801278 0.326787 0.001277 -0.326038 -0.001185
1.894111 0.719391 0.839921 0.070476 0.007354 -0.006178
1.419532 0.458804 0.663024 0.000000 -0.948209 0.000005
1.743295 0.584082 0.709738 0.051599 -0.012122 0.009967
1.078063 0.619609 0.610799 0.000000 0.947084 -0.000001
1.729347 0.458574 0.749355 -0.037747 0.007403 0.006435
1.552889 0.667696 0.782921 -0.051571 0.009353 -0.007279
1.642294 0.772531 0.365903 -0.051573 0.005412 0.004257
1.881835 0.664104 0.773115 0.070475 0.009573 -0.008012
1.881835 0.414344 0.773115 0.070477 -0.009573 -0.008012
0.736594 0.620657 0.614275 0.000000 0.964682 -0.000008
0.346344 0.489255 0.705148 0.000001 -0.589635 0.000020
1.672993 0.646137 0.745663 -0.051573 0.009520 -0.007405
0.443906 0.508145 0.558351 -0.000001 -0.368741 -0.000018
2.022794 0.623745 0.636224 0.000000 0.882356 -0.000000
2.372393 0.454723 0.635483 -0.000000 -0.999609 -0.000000
1.761001 0.518107 0.718827 0.000001 -0.263344 0.000212
1.988810 0.174802 0.205472 0.051598 0.005196 -0.004366
2.102470 0.509701 0.716177 0.000000 -0.343616 0.000010
1.677686 0.775412 0.351901 -0.037749 -0.003723 -0.003282
3.356233 0.469528 0.692545 -0.133061 -0.000959 0.000857
0.781310 0.623685 0.634076 0.000000 0.999604 -0.000000
1.712219 0.565108 0.556485 0.000001 0.316819 -0.000043
1.712053 0.251536 0.970975 -0.051570 -0.009220 -0.007179
1.829105 0.890219 0.213647 -0.037747 -0.019331 -0.015242
1.827033 0.619721 0.714562 0.070476 0.004438 -0.003741
2.346376 0.590061 0.569414 0.000000 0.612380 -0.000019
2.639064 0.618386 0.666627 0.000000 0.938664 0.000005
1.663438 0.623113 0.626543 -0.000001 0.988956 -0.000001
3.291106 0.536483 0.721456 -0.000067 -0.011077 0.001652
