1.735495 0.480181 0.361824 0.060200 0.004235 -0.005579
1.691097 0.140076 0.114348 0.085158 -0.004590 0.006053
1.594582 0.334706 0.614665 0.085159 -0.007783 -0.010236
3.491991 0.509185 0.502836 0.042991 -0.002104 0.001591
3.663269 0.655727 0.497286 0.042990 0.000701 0.000531
0.786623 0.534343 0.516575 -0.000000 -0.576137 0.000024
1.535261 0.264057 0.194523 -0.042499 0.008128 -0.011221
2.546494 0.627217 0.521717 0.000000 0.476146 0.000008
1.106600 0.629231 0.366136 -0.000001 0.504039 -0.000058
1.213259 0.501317 0.473766 0.000000 -0.936875 0.000003
1.106600 0.537762 0.367915 0.000001 -0.528123 -0.000027
0.492452 0.673970 0.445116 0.000000 0.999898 0.000000
3.475941 0.949842 0.167089 0.004331 0.133396 0.005948
3.190998 0.474823 0.358789 0.004333 -0.081684 0.005851
1.725843 1.057156 0.796767 0.085158 0.009180 -0.012054
1.714261 0.745202 0.568488 0.060199 -0.013266 0.017111
0.253329 0.635678 0.516529 0.000001 0.575919 0.000048
3.421109 0.752718 0.314553 0.004332 0.054501 0.005808
1.417084 0.482104 0.355833 -0.042500 0.010266 -0.014026
1.764449 1.051288 0.090274 0.060199 -0.011291 -0.014657
2.333176 0.553872 0.359971 -0.000000 -0.349411 -0.000045
1.584225 0.926269 0.196114 -0.060146 0.005978 0.007206
1.573451 0.134992 0.105532 -0.060147 -0.009299 0.011131
2.173188 0.563157 0.357074 0.000000 -0.239926 -0.000017
1.610024 0.292867 0.648001 0.085159 -0.006985 -0.009194
1.533235 0.535560 0.517398 0.000001 -0.552496 0.000051
2.580900 0.673941 0.445274 0.000000 0.999593 0.000000
0.122703 0.512443 0.474021 -0.263781 -0.000133 0.000052
3.680636 0.499742 0.464377 0.010592 -0.003915 0.000690
3.379701 0.466791 0.534963 0.004333 -0.060582 -0.005819
1.159929 0.498560 0.422049 -0.000000 -0.970277 -0.000002
2.653152 0.662604 0.486932 -0.000001 0.858707 0.000002
1.639894 0.631621 0.367558 0.000000 0.528585 -0.000054
0.282575 0.495987 0.441461 -0.000000 -0.999898 -0.000000
0.786623 0.499044 0.420164 0.000000 -0.963209 -0.000005
3.614554 0.807062 0.276034 -0.008057 -0.043525 -0.010489
3.614554 0.362893 0.610702 -0.008057 0.043523 0.010489
1.637857 0.079578 0.064813 -0.060147 -0.013282 0.015711
3.357277 0.863488 0.232200 0.004331 0.107693 0.005893
3.378378 0.269703 0.204639 0.004331 -0.094584 0.005869
1.426576 0.537896 0.367831 0.000001 -0.528328 -0.000027
3.305205 0.306896 0.653934 0.004336 -0.027310 -0.005742
3.593754 0.855446 0.649207 -0.008056 0.036300 -0.010406
3.649068 0.754883 0.571537 -0.008057 -0.050731 0.010545
3.649068 0.415539 0.314583 -0.008057 -0.050725 0.010546
1.764449 0.865244 0.655588 0.060200 -0.011291 0.014656
3.566671 0.792988 0.284545 -0.008057 0.050725 0.010546
3.566671 0.375701 0.600519 -0.008057 0.100406 0.010755
1.366178 0.406064 0.304388 -0.042499 0.006845 -0.009498
1.764449 0.281456 0.673198 0.060200 0.010162 0.013234
0.698888 0.496060 0.446862 0.000000 -0.999593 0.000000
2.988123 0.468062 0.354838 0.004332 -0.065579 0.005825
0.392674 0.496087 0.438921 0.000000 -0.999593 -0.000000
1.555976 0.712308 0.555554 0.060199 -0.003882 0.005116
1.599945 0.947831 0.725425 -0.042498 -0.014542 0.019340
3.399764 0.669587 0.415710 -0.000000 0.945389 -0.000003
3.296479 0.439505 0.552144 0.004332 0.058514 0.005651
3.416149 0.296073 0.662614 0.004330 -0.047756 -0.005794
2.692719 0.496019 0.445432 0.000000 -0.999593 0.000000
1.036067 0.587201 0.354414 0.000000 0.028517 -0.000019
3.019577 0.673907 0.446465 -0.000000 0.999593 0.000000
0.494172 0.495984 0.441700 0.000000 -0.999898 -0.000000
0.595670 0.673891 0.447021 0.000000 0.999593 0.000000
1.640909 0.836522 0.243551 0.060199 -0.005505 -0.007240
1.594582 0.349654 0.252329 0.060199 0.006211 -0.008159
0.946612 0.627077 0.364942 0.000000 0.479259 -0.000031
3.432494 0.445155 0.547062 0.004331 0.027837 0.005578
1.625467 0.793928 0.586687 0.085159 0.004291 -0.005659
2.627348 0.584898 0.532384 0.000000 -0.014252 0.000019
0.946612 0.623249 0.523729 -0.000000 0.425511 0.000009
3.079788 0.507276 0.399944 -0.000001 -0.875702 -0.000005
3.532788 0.447791 0.341151 -0.008056 0.032683 -0.010344
1.412506 0.893483 0.676971 -0.042498 -0.018815 0.024186
3.580786 0.457578 0.538659 -0.008057 0.124546 0.010850
3.580786 0.712378 0.538659 -0.008057 -0.124540 0.010850
3.580786 0.711245 0.346580 -0.008057 0.124524 0.010852
0.893282 0.662349 0.399355 0.000000 0.863365 -0.000010
3.476909 0.847244 0.245885 0.004331 -0.082817 -0.005685
1.510665 0.448699 0.327180 -0.042498 0.006845 -0.009498
2.813141 0.510838 0.492620 -0.000000 -0.833382 0.000011
2.386505 0.602966 0.530545 0.000001 0.212239 0.000078
1.625467 0.781697 0.283896 0.060199 -0.006775 -0.008892
2.546494 0.502742 0.477431 0.000000 -0.926589 0.000014
0.160961 0.584978 0.356547 -0.123359 0.000001 -0.000087
2.013200 0.627495 0.521565 0.000000 0.476147 0.000008
1.721982 0.352907 0.272194 0.085159 -0.004391 0.005791
2.226517 0.508507 0.397811 0.000000 -0.863588 -0.000010
3.427160 0.925047 0.185864 0.004332 0.158325 0.006015
1.569488 0.687322 0.499963 0.085159 0.005488 -0.007233
2.279847 0.671792 0.423710 -0.000001 0.975937 -0.000004
3.026458 0.497374 0.427603 0.000000 -0.982821 -0.000002
1.564644 0.284201 0.228033 -0.060147 -0.006642 0.007997
2.599823 0.663517 0.401478 -0.000001 0.876712 -0.000009
3.425320 0.795250 0.601203 0.004330 -0.055512 0.005645
3.425320 0.376038 0.602963 0.004333 -0.054486 -0.005810
3.427289 0.496087 0.438921 -0.000000 -0.999588 -0.000000
1.656352 0.706096 0.523491 0.085158 0.009878 -0.012959
3.399764 0.507314 0.486862 -0.000000 -0.877485 0.000005
3.100431 0.581643 0.532290 0.000000 -0.028506 0.000010
0.839953 0.630946 0.367138 -0.000000 0.528579 -0.000054
0.839953 0.673691 0.450669 0.000000 0.997457 0.000001
0.098068 0.641757 0.484620 -0.359854 0.000075 0.000051
1.426576 0.496078 0.439239 0.000000 -0.999593 -0.000000
1.617746 0.885097 0.681719 0.060200 -0.009880 0.012876
2.759811 0.660200 0.490955 -0.000000 0.840828 0.000001
3.646859 0.616325 0.526025 0.018189 0.002949 0.009341
3.586137 0.499579 0.506908 -0.008058 0.036296 0.010406
3.148600 0.495971 0.442574 0.000000 -0.999896 -0.000000
0.286015 0.673859 0.438604 0.000000 0.999583 -0.000000
0.679965 0.621411 0.524581 0.000001 0.398535 0.000019
2.173188 0.632531 0.518611 0.000000 0.528514 0.000054
3.186446 0.668921 0.472981 -0.000000 0.946525 0.000006
3.233918 0.702536 0.531049 0.004331 -0.099428 0.005711
3.049572 0.702054 0.531685 0.004331 -0.191353 0.005939
3.090109 0.588313 0.354446 0.000000 0.028506 -0.000038
1.601308 1.072832 0.076444 -0.060146 0.007971 0.009571
1.671794 0.383664 0.283923 0.060199 0.013548 -0.017457
3.518673 0.367647 0.277003 -0.008058 -0.100389 0.010757
3.079788 0.624608 0.523072 -0.000000 0.453519 0.000017
2.973129 0.535924 0.369096 0.000000 -0.552470 -0.000026
0.786623 0.663575 0.401582 0.000001 0.874688 -0.000005
1.693223 0.539009 0.367138 0.000000 -0.528852 -0.000014
0.034444 0.618013 0.443368 -0.615652 0.000011 0.000000
0.034444 0.551943 0.443368 -0.615643 -0.000011 0.000000
0.200000 0.667930 0.475664 0.002816 0.007357 0.000981
1.671794 0.398766 0.574436 0.085159 -0.004690 -0.006184
2.919799 0.500129 0.416467 0.000000 -0.955430 -0.000003
1.764449 0.141923 0.107883 0.060200 0.011291 -0.014657
3.276838 0.462586 0.349190 0.004331 -0.057476 0.005812
3.251033 0.788916 0.597291 0.004335 -0.099346 0.005716
1.428503 0.911755 0.195929 -0.042499 -0.008983 -0.012354
1.489881 0.921361 0.693941 -0.060147 0.013282 -0.015711
1.687237 0.875999 0.669573 0.060199 -0.011291 0.014657
0.940591 0.673920 0.445988 0.000000 0.999593 0.000000
1.586564 0.546634 0.363041 -0.000000 -0.428318 -0.000018
0.573306 0.505869 0.402570 -0.000000 -0.890707 -0.000009
3.293105 0.633965 0.369052 -0.000000 0.552528 -0.000026
2.066529 0.662169 0.399046 0.000000 0.863612 -0.000010
1.106600 0.496540 0.453515 0.000000 -0.995009 0.000001
1.560784 0.864763 0.664277 -0.042499 -0.017960 0.023256
3.613082 0.671071 0.465998 0.019993 0.002069 0.000572
1.617746 0.408574 0.561215 0.085158 -0.004690 -0.006184
0.946612 0.550694 0.525514 0.000000 -0.375661 0.000021
1.511731 0.585692 0.354371 0.000000 0.028361 -0.000038
1.633188 0.230110 0.188731 0.085159 -0.006187 0.008149
1.652491 0.279555 0.224102 0.085159 -0.003493 0.004609
1.721982 0.341279 0.623346 0.085159 -0.008780 -0.011535
1.444501 0.239928 0.704643 -0.060147 -0.013282 -0.015711
3.453094 0.663308 0.485642 -0.000000 0.877633 0.000019
3.560502 0.660086 0.498856 0.042991 0.001402 0.001061
1.302189 0.690803 0.359731 -0.042496 -0.005134 -0.007164
3.506423 0.625316 0.364025 -0.000000 0.453986 -0.000067
3.239776 0.503349 0.478856 0.000001 -0.915000 0.000015
2.973129 0.506248 0.484910 0.000000 -0.891251 0.000001
0.413318 0.664718 0.482928 -0.000000 0.890781 0.000004
1.487824 0.826157 0.633001 -0.042501 -0.004920 0.006869
3.346435 0.503445 0.479074 0.000001 -0.915396 0.000030
1.718122 1.169955 0.005384 -0.000000 0.797228 -0.000237
3.353304 0.474572 0.361832 0.004332 0.061696 -0.005656
2.405429 0.673954 0.444797 -0.000000 0.999594 0.000000
0.881240 0.582913 0.354409 0.000000 -0.028506 -0.000010
1.786120 0.495962 0.443447 0.000000 -0.999593 0.000000
3.293105 0.543790 0.364457 -0.000000 -0.453903 -0.000017
2.813141 0.631519 0.367495 -0.000000 0.528666 -0.000007
2.333176 0.624254 0.523252 -0.000000 0.454397 0.000008
2.826903 0.673945 0.445115 0.000000 0.999593 0.000000
1.479906 0.667810 0.410777 0.000000 0.926481 -0.000007
1.653855 1.105253 0.840245 -0.042499 -0.015396 0.020348
3.567891 0.944500 0.716155 0.004330 0.081368 -0.005846
0.191303 0.653909 0.387003 0.002809 0.006163 -0.002030
3.573505 0.170524 0.129540 0.004332 -0.158333 0.006015
3.573505 0.999431 0.757196 0.004332 0.158339 -0.006014
3.680636 0.667060 0.412238 0.009115 0.018749 -0.002555
1.623386 1.000164 0.122852 -0.042498 -0.006417 -0.008918
2.963732 0.689496 0.364226 0.004332 0.128860 0.005939
1.570453 0.712835 0.331878 0.060201 -0.003882 -0.005116
2.119859 0.507085 0.486444 -0.000001 -0.877499 0.000019
0.359988 0.506971 0.400501 0.000000 -0.877654 -0.000009
3.378260 0.589345 0.354475 0.000000 0.028517 -0.000019
1.441138 0.365174 0.271382 -0.042496 0.002674 -0.003751
1.653855 1.108650 0.050977 -0.060147 0.013282 0.015711
2.706482 0.628472 0.521032 0.000000 0.479259 0.000031
1.253364 0.675413 0.377373 -0.060147 0.007971 0.009571
1.301356 0.730229 0.335866 -0.060147 0.003986 0.004817
0.413318 0.666718 0.408134 0.000000 0.915428 -0.000004
1.539562 0.457226 0.554997 -0.042497 0.005990 0.008336
1.213259 0.667482 0.409967 0.000000 0.926655 -0.000002
1.959870 0.662775 0.400118 -0.000001 0.877524 -0.000019
0.131092 0.551312 0.369651 -0.231114 -0.000077 -0.000156
0.411597 0.589266 0.532263 0.000000 0.028517 0.000019
1.725843 0.112800 0.089969 0.085158 -0.009180 0.012054
2.226517 0.588948 0.354464 0.000000 0.028506 -0.000297
1.464938 0.410184 0.562479 -0.060146 -0.005314 -0.006412
3.506423 0.537323 0.368188 -0.000000 -0.528541 -0.000027
1.959870 0.552056 0.526066 0.000000 -0.376070 0.000084
2.333176 0.546275 0.523524 -0.000001 -0.428177 0.000072
1.515427 0.461415 0.370500 -0.060146 -0.004650 0.005615
1.959870 0.663156 0.485921 0.000000 0.877335 0.000005
1.653855 0.061305 0.835758 -0.060146 -0.013283 -0.015711
0.733294 0.667093 0.477725 0.000000 0.926589 0.000007
1.660213 0.267809 0.691416 0.060199 0.005082 0.006687
1.660213 0.902146 0.195320 0.060199 -0.005082 -0.006687
1.106600 0.549998 0.525220 -0.000000 -0.402320 0.000039
1.319917 0.504004 0.406389 0.000000 -0.915536 -0.000004
3.468576 0.589583 0.354482 0.000000 0.028506 -0.000038
2.866470 0.670879 0.466687 -0.000001 0.961250 0.000002
1.266588 0.502802 0.477578 0.000000 -0.926562 0.000007
3.346435 0.501345 0.412895 0.000001 -0.936748 -0.000013
1.359844 0.489975 0.522314 -0.042497 0.007701 0.010650
1.497880 0.239459 0.185877 -0.060147 -0.006642 0.007997
3.186446 0.670475 0.418595 0.000000 0.963136 -0.000001
2.599823 0.578905 0.354566 -0.000000 -0.071274 -0.000119
2.493164 0.542425 0.521546 0.000001 -0.478501 0.000031
0.712650 0.586090 0.354366 0.000000 0.014257 -0.000153
1.228741 0.586407 0.532345 0.000000 0.028517 0.000077
3.628038 0.321167 0.242916 -0.008057 -0.036296 0.010407
3.655122 0.258309 0.196427 -0.008057 0.029058 -0.010264
1.535261 0.257262 0.683240 -0.060147 -0.006642 -0.007997
3.696837 0.379670 0.598829 -0.008057 -0.043519 -0.010491
3.696837 0.790285 0.287907 -0.008056 0.043525 0.010489
3.079788 0.664537 0.403454 0.000000 0.890976 -0.000017
2.266084 0.586010 0.532356 0.000000 0.028517 0.000019
3.573413 0.815451 0.616638 -0.008057 -0.043522 0.010489
3.559470 0.307852 0.232142 -0.008057 -0.036296 0.010407
0.576746 0.581325 0.354455 0.000000 -0.028506 -0.000038
2.439835 0.502354 0.476474 0.000001 -0.899920 0.000002
3.655695 0.798274 0.605293 -0.008058 0.043517 -0.010491
3.668606 0.954039 0.722547 -0.008057 -0.086374 0.010704
3.505074 0.784242 0.592315 0.004331 -0.185773 0.005920
3.293105 0.508027 0.488101 -0.000000 -0.863610 0.000020
1.319917 0.658810 0.493084 0.000000 0.833462 0.000011
2.386505 0.665457 0.405348 0.000001 0.901744 -0.000008
3.467520 0.302511 0.658085 0.004331 -0.081343 -0.005848
3.459535 0.902444 0.684172 0.004331 0.081354 -0.005847
1.426169 0.337543 0.634232 -0.042499 0.005134 0.007163
0.999941 0.663996 0.402393 -0.000000 0.890972 -0.000017
0.946612 0.496785 0.455406 0.000000 -0.991748 0.000002
1.550381 0.779400 0.283738 -0.042498 -0.002674 -0.003751
0.148078 0.636746 0.510502 -0.165023 0.000162 0.000198
1.693223 0.670202 0.469054 0.000000 0.955368 0.000010
2.188671 0.673973 0.442574 0.000000 0.999593 -0.000000
3.293105 0.598509 0.531343 0.000000 0.156421 0.000214
2.386505 0.596031 0.355048 -0.000000 0.128212 -0.000131
1.510665 0.721257 0.559556 -0.042498 -0.006845 0.009498
1.729704 0.927932 0.705684 0.060199 -0.005082 0.006687
1.729704 0.893049 0.207465 0.060199 -0.005082 -0.006687
1.464938 0.748899 0.576836 -0.042497 -0.006845 0.009498
2.813141 0.505526 0.403242 0.000000 -0.891044 -0.000009
1.906541 0.498003 0.424448 -0.000000 -0.977143 -0.000015
3.506423 0.613764 0.527593 -0.000000 0.322505 0.000099
3.453094 0.505129 0.482715 -0.000000 -0.889511 0.000002
1.619676 0.650675 0.504066 0.060198 -0.007763 0.010169
1.671794 0.954326 0.173627 0.085158 0.003093 0.004083
1.302189 0.479152 0.359731 -0.042498 0.005134 -0.007164
1.815365 0.584819 0.354355 -0.000000 -0.028870 -0.000019
3.697410 0.492642 0.373451 -0.008058 -0.072195 0.010652
1.599945 0.222124 0.161311 -0.042498 0.014542 -0.019340
1.599945 0.947831 0.161311 -0.042499 -0.007273 -0.010075
1.118642 0.673936 0.445432 -0.000000 0.999594 0.000000
3.697525 0.541683 0.449593 1.000000 0.000000 0.000000
3.697525 0.567951 0.403078 1.000000 -0.000000 0.000000
3.697525 0.571461 0.484967 1.000000 -0.000000 0.000000
3.697525 0.616345 0.473852 1.000000 0.000000 0.000000
3.697525 0.616345 0.412884 1.000000 0.000000 -0.000000
1.764449 0.818734 0.620370 0.060200 -0.012419 0.016065
0.114397 0.660650 0.434685 -0.295892 0.000248 -0.000015
1.679516 0.838619 0.626322 0.085158 0.003892 -0.005134
0.733294 0.548653 0.524629 0.000000 -0.402381 0.000039
1.640909 0.960764 0.714673 -0.060147 0.005314 -0.006411
3.614927 0.436325 0.331638 -0.008057 0.124538 -0.010851
3.662925 0.446112 0.548172 -0.008057 0.124542 0.010850
3.697181 0.447453 0.339233 -0.008057 -0.036298 0.010406
3.663155 0.678655 0.372781 -0.008056 -0.036304 -0.010404
3.663155 0.491634 0.514395 -0.008057 -0.036298 -0.010406
3.662925 0.723844 0.338563 -0.008057 -0.124535 -0.010851
2.173188 0.498627 0.421779 0.000000 -0.969762 -0.000002
0.626635 0.544285 0.522531 0.000000 -0.453519 0.000017
3.627465 0.207528 0.158252 -0.008057 0.086373 -0.010704
1.462395 0.693342 0.378904 -0.060147 0.005314 0.006411
0.253329 0.617274 0.360416 0.000000 0.376077 -0.000334
3.399764 0.504004 0.406389 0.000000 -0.915490 -0.000015
3.360568 0.839122 0.636362 0.004328 0.054549 -0.005803
2.939341 0.677098 0.513123 0.004331 0.128882 -0.005938
1.718122 0.783334 0.588598 0.085159 0.004790 -0.006316
0.626635 0.663996 0.484343 0.000000 0.891025 0.000004
3.251033 0.788434 0.288808 0.004331 0.097657 0.005875
3.169244 0.581484 0.354450 0.000000 -0.028704 -0.000019
0.148078 0.624540 0.368390 -0.165023 0.000126 -0.000223
1.542982 0.927497 0.707984 -0.042498 -0.016252 0.021338
3.646859 0.553630 0.360711 0.018186 -0.002939 -0.009311
1.557454 1.014313 0.116227 -0.042498 -0.006417 -0.008918
0.156655 0.509909 0.400975 -0.131679 -0.000285 -0.000150
1.725843 0.310961 0.653776 0.060200 0.011291 0.014657
1.725843 0.322589 0.241764 0.060199 0.005646 -0.007424
1.533235 0.622172 0.362497 -0.000000 0.428308 -0.000036
1.462395 0.693342 0.507832 -0.060147 0.005314 -0.006411
1.462395 0.476613 0.507832 -0.060146 -0.005314 -0.006411
3.007535 0.588233 0.532293 -0.000001 0.003862 0.000035
1.383008 0.744776 0.569626 -0.042499 -0.006845 0.009498
3.289674 0.397199 0.300304 0.004330 -0.057490 0.005811
1.159929 0.621521 0.362203 -0.000001 0.399647 -0.000010
1.351013 0.708232 0.541954 -0.042496 -0.007701 0.010650
1.476496 0.966572 0.732314 -0.042498 -0.015397 0.020349
1.341766 0.411720 0.570835 -0.060146 -0.005978 -0.007205
1.341766 0.758235 0.315901 -0.060149 0.005978 0.007205
3.459535 0.267511 0.202564 0.004331 -0.081338 0.005848
0.200000 0.567300 0.356123 0.002810 -0.001672 -0.006606
1.284526 0.422649 0.320451 -0.060147 -0.007971 0.009571
2.173188 0.498531 0.464571 -0.000000 -0.970599 0.000008
1.423973 0.423118 0.573231 -0.042498 0.013687 0.018313
1.053270 0.505670 0.483777 0.000000 -0.891025 0.000002
1.558980 0.951885 0.172992 -0.060145 0.005978 0.007206
1.501740 0.228999 0.709193 -0.060147 -0.005978 -0.007205
0.519976 0.621957 0.362395 0.000000 0.428358 -0.000071
0.573306 0.504430 0.481245 -0.000001 -0.901163 0.000004
3.499896 0.844842 0.641386 0.004332 0.081335 -0.005848
0.999941 0.543192 0.364771 0.000001 -0.478968 -0.000031
1.533235 0.665594 0.481101 0.000001 0.901163 0.000004
3.323389 0.326647 0.248069 0.004331 0.027833 -0.005579
1.746553 0.626519 0.522098 -0.000000 0.479260 0.000031
1.426576 0.625988 0.364367 0.000001 0.453636 -0.000033
0.466647 0.548108 0.524389 0.000000 -0.402236 0.000005
1.583965 0.499263 0.364811 0.060198 0.003882 -0.005116
1.590420 0.162716 0.767197 -0.042499 0.006417 0.008918
3.239776 0.628819 0.520840 0.000000 0.503756 0.000015
0.031064 0.587571 0.413179 -0.622273 0.000003 -0.000022
2.866470 0.650233 0.382830 0.000001 0.713715 -0.000004
1.213259 0.670475 0.468141 0.000000 0.963412 0.000005
3.518465 0.495993 0.441064 -0.000000 -0.999898 -0.000000
2.013200 0.673534 0.434406 -0.000001 0.992979 -0.000001
1.304435 0.583231 0.354400 0.000000 -0.028517 -0.000010
1.679516 0.838619 0.260414 0.085158 0.007783 0.010236
3.559752 0.668360 0.412225 -0.000000 0.936945 -0.000025
1.729350 0.584501 0.354364 0.000000 -0.028506 -0.000019
1.825687 0.673991 0.443527 0.000000 0.999593 0.000000
3.346435 0.628228 0.521165 -0.000000 0.479238 0.000062
0.156655 0.670627 0.433541 -0.218216 0.000097 -0.000008
1.640909 0.322561 0.257908 0.085158 -0.003892 0.005134
1.625467 0.387655 0.308853 0.085158 -0.004690 0.006184
1.637049 0.814095 0.626495 0.060200 -0.006211 0.008159
3.190527 0.442866 0.550142 0.004332 0.083193 0.005686
1.371634 0.466924 0.347406 -0.042497 0.007701 -0.010650
3.183250 0.801073 0.606997 0.004332 0.159023 -0.006017
3.199084 0.399675 0.583263 0.004333 0.083170 0.005688
3.490726 0.925141 0.700596 0.004331 -0.135814 0.005783
0.753938 0.496042 0.446227 0.000000 -0.999593 0.000000
1.454026 0.299336 0.223865 -0.042498 0.009411 -0.012915
2.119859 0.504685 0.404953 0.000000 -0.902329 -0.000004
3.186888 0.764081 0.308166 0.004331 -0.083201 -0.005685
1.572643 0.894891 0.221115 -0.060147 0.006642 0.007997
2.315973 0.673964 0.444480 0.000000 0.999593 0.000000
0.679965 0.505220 0.482892 0.000000 -0.887626 0.000002
1.497880 0.927099 0.181390 -0.042499 -0.008128 -0.011221
3.586137 0.670377 0.379828 -0.008057 -0.036299 -0.010405
3.499896 0.325113 0.641386 0.004333 -0.081306 -0.005850
1.537596 0.985242 0.748788 -0.042497 -0.006845 0.009498
3.346435 0.662449 0.399526 0.000001 0.828448 -0.000003
2.090613 0.495965 0.443527 0.000000 -0.999593 0.000000
1.906541 0.551504 0.360894 0.000000 -0.376211 -0.000010
3.399764 0.644339 0.509691 0.000000 0.665505 0.000019
1.548254 0.479246 0.346952 0.060200 0.003882 -0.005116
0.927688 0.587042 0.532327 -0.000000 0.028517 0.000019
1.737425 0.986792 0.744728 0.085157 0.002694 -0.003556
0.200000 0.559898 0.528780 0.002811 -0.002324 0.005792
1.586564 0.614666 0.359450 0.000000 0.322521 -0.000006
0.626635 0.621957 0.362395 0.000000 0.428356 -0.000036
3.079788 0.503269 0.478674 -0.000000 -0.915464 0.000015
3.573470 0.367001 0.277068 -0.008058 -0.050724 0.010547
0.359988 0.549053 0.524805 -0.000000 -0.402453 0.000039
1.648631 0.300207 0.667760 0.060200 0.005646 0.007424
1.648631 0.869749 0.218975 0.060200 -0.005646 -0.007424
1.639894 0.526387 0.510379 0.000000 -0.665555 0.000038
1.661576 0.040386 0.034310 -0.060147 -0.010627 0.012676
3.505074 0.385713 0.592315 -0.008057 0.065080 0.010620
1.220537 0.495738 0.375795 -0.060146 -0.007971 0.009571
3.532788 0.447791 0.545585 -0.008057 0.065080 0.010620
1.639894 0.548835 0.362027 0.000000 -0.402236 -0.000010
3.133117 0.665798 0.480670 0.000001 0.903505 0.000016
3.546645 0.480297 0.362579 -0.008056 -0.032680 0.010346
3.546645 0.689659 0.362579 -0.008057 0.032679 0.010346
1.560784 0.294660 0.650369 -0.060146 -0.013946 -0.016457
1.592223 0.243723 0.709654 -0.042499 0.007273 0.010075
3.566929 0.742151 0.563696 -0.008058 0.124523 -0.010852
3.566929 0.427805 0.563696 -0.008057 -0.124528 -0.010852
3.566929 0.426539 0.324712 -0.008057 0.124544 -0.010850
3.566929 0.743417 0.324712 -0.008057 -0.124536 -0.010851
3.594643 0.488617 0.371441 -0.008057 0.124546 -0.010850
3.655753 0.382979 0.289997 -0.008058 -0.043516 0.010491
3.669122 0.317592 0.241178 -0.008058 0.036296 -0.010406
3.614927 0.733630 0.555098 -0.008058 -0.124530 0.010851
3.662925 0.723511 0.548612 -0.008058 0.124521 -0.010852
0.106182 0.632988 0.387961 -0.328184 0.000074 -0.000080
3.518931 0.751471 0.571238 -0.008059 0.032671 -0.010348
3.518931 0.751471 0.315498 -0.008057 0.032679 0.010346
3.614927 0.436325 0.555098 -0.008057 0.124542 0.010850
3.614927 0.733630 0.331638 -0.008057 -0.124536 -0.010851
3.546645 0.689659 0.524157 -0.008058 0.032673 -0.010348
3.525691 0.872039 0.659625 0.004332 -0.135775 0.005784
1.565453 1.025828 0.774286 -0.060146 0.004650 -0.005615
1.581450 0.125856 0.788122 -0.060146 -0.004650 -0.005615
3.505510 0.270182 0.682427 0.004331 -0.133414 -0.005947
1.735495 0.442750 0.547960 0.085159 -0.009878 -0.012959
1.735495 0.727206 0.338776 0.085158 0.009878 0.012959
1.558980 0.218070 0.172992 -0.060146 -0.011955 0.014203
1.764449 0.911755 0.690807 0.060200 -0.010162 0.013234
1.764449 0.911755 0.195929 0.060199 -0.010162 -0.013234
3.415931 0.353705 0.269354 0.004333 0.048590 -0.005638
1.733564 0.068625 0.055692 0.085158 -0.007583 0.009976
2.942163 0.587995 0.532299 0.000000 0.028517 0.000019
1.507706 0.687621 0.387168 -0.060145 0.004650 0.005615
1.729350 0.673982 0.443844 -0.000000 0.975155 0.000000
0.999941 0.618783 0.525708 -0.000000 0.376054 0.000042
0.519976 0.502922 0.408863 0.000000 -0.926524 -0.000003
2.013200 0.561889 0.357403 0.000000 -0.267955 -0.000061
2.529291 0.673945 0.445115 0.000000 0.999593 0.000000
1.706540 0.511022 0.393576 0.085158 -0.002994 0.003951
1.584930 0.456593 0.332574 0.060200 0.013971 -0.017975
3.413124 0.787718 0.288466 0.004332 0.054502 0.005808
0.074424 0.529244 0.423482 -0.452246 -0.000055 -0.000018
3.518891 0.307816 0.234675 0.004333 0.069188 -0.005667
1.533235 0.496739 0.431684 -0.000000 -0.991741 -0.000004
2.672936 0.673934 0.445512 0.000000 0.999594 0.000000
2.066529 0.525646 0.377018 -0.000001 -0.665270 -0.000019
3.467520 0.301711 0.229707 0.004333 0.082792 -0.005687
1.664073 1.014688 0.110394 0.060198 -0.006493 -0.008526
1.459262 0.586089 0.354382 0.000000 0.028517 -0.000019
2.066529 0.665168 0.481998 0.000001 0.903431 0.000016
1.627397 0.672273 0.366899 0.060199 -0.013971 -0.017975
1.565921 0.585931 0.532358 0.000000 0.028517 0.000019
1.384257 0.688695 0.356947 -0.042498 -0.010266 -0.014027
1.492493 0.185112 0.140586 -0.060147 -0.005314 0.006411
3.232099 0.719947 0.340041 0.004332 0.097640 0.005876
3.544270 0.582753 0.532354 0.000000 -0.014252 0.000077
3.317939 0.732184 0.556294 0.004332 0.057464 -0.005813
1.648631 0.188272 0.731341 0.085158 -0.005388 -0.007102
1.586564 0.669685 0.416012 0.000000 0.955284 -0.000005
2.759811 0.557470 0.358707 -0.000000 -0.322553 -0.000099
1.373247 0.629025 0.520719 0.000000 0.504116 0.000029
1.249385 0.496005 0.441780 0.000000 -0.999593 -0.000000
1.606164 0.477138 0.536999 0.060199 0.013971 0.017975
3.049572 0.702054 0.355051 0.004332 -0.191350 -0.005940
3.122744 0.739246 0.326888 0.004331 -0.066781 -0.005662
0.999941 0.496866 0.430699 0.000000 -0.991738 -0.000001
2.653152 0.621957 0.362395 0.000000 0.428506 -0.000004
0.239567 0.673855 0.438445 0.000000 0.999594 -0.000000
1.799882 0.503908 0.406607 -0.000001 -0.913153 -0.000004
3.266462 0.682474 0.518904 0.004328 0.049360 -0.005795
1.671794 0.223783 0.723877 0.060199 0.004517 0.005949
3.613082 0.500317 0.415860 0.020724 -0.001961 -0.000665
1.725843 0.092942 0.818863 0.060200 0.011291 0.014657
1.507706 0.500001 0.363836 -0.042498 0.011977 -0.016203
1.507706 0.500001 0.522899 -0.042498 0.011977 0.016204
1.448108 0.776848 0.308843 -0.060147 0.008635 0.010353
0.139553 0.573158 0.525574 -0.198183 -0.000035 0.000201
0.335904 0.580372 0.354482 -0.000000 -0.028517 -0.000019
2.013200 0.504787 0.481998 -0.000000 -0.903541 0.000016
1.106600 0.632464 0.518653 0.000001 0.520463 0.000007
0.839953 0.545988 0.363348 0.000000 -0.428236 -0.000036
0.359988 0.627426 0.521603 -0.000000 0.479249 0.000031
3.594643 0.681338 0.515295 -0.008058 -0.124528 0.010851
1.725843 1.080411 0.072360 0.085157 0.007583 0.009976
3.453094 0.502698 0.409415 -0.000001 -0.926547 -0.000028
1.656352 0.900860 0.670968 0.085159 0.006985 -0.009194
1.635118 0.441447 0.348550 0.085158 -0.009878 0.012959
1.335400 0.495992 0.442256 0.000000 -0.999588 -0.000000
2.350379 0.586089 0.532354 0.000000 0.028517 0.000010
2.030403 0.585295 0.532377 0.000000 0.028517 0.000019
3.302981 0.807553 0.275416 0.004331 -0.058517 -0.005651
2.066529 0.603859 0.530351 0.000001 0.212371 0.000039
3.662323 0.842131 0.638433 -0.008056 0.036301 -0.010405
1.605488 0.585772 0.532363 0.000000 0.028506 0.000038
2.629068 0.496005 0.444956 0.000000 -0.999593 0.000000
3.239776 0.664754 0.403879 0.000000 0.890721 -0.000002
3.437079 0.484704 0.370071 -0.008057 0.065073 -0.010621
0.413318 0.504004 0.406389 0.000000 -0.915536 -0.000004
2.919799 0.496866 0.456036 0.000000 -0.991735 0.000001
0.066805 0.559320 0.491995 -0.482059 -0.000024 0.000043
2.973129 0.505670 0.402959 0.000000 -0.891038 -0.000009
2.900876 0.673914 0.440509 0.000000 0.999593 -0.000000
1.725843 0.862391 0.237447 0.085159 0.003991 0.005266
1.725843 0.862391 0.649289 0.085160 0.003991 -0.005265
1.507706 0.669954 0.522899 -0.042499 -0.011977 0.016203
2.599823 0.618341 0.525887 0.000001 0.375841 0.000042
0.893282 0.568354 0.530811 0.000000 -0.184560 0.000180
1.144446 0.584739 0.532382 0.000000 -0.014263 0.000019
3.479497 0.814945 0.267781 0.004332 0.081337 0.005848
1.558241 0.375188 0.272394 -0.042498 0.004920 -0.006869
2.439835 0.635937 0.516346 0.000000 0.575914 0.000012
3.186446 0.532146 0.515004 0.000000 -0.598326 0.000011
1.498597 0.459287 0.551392 -0.042497 0.006845 0.009498
1.799882 0.503493 0.479184 -0.000000 -0.915275 0.000002
1.053270 0.665951 0.480347 -0.000000 0.915260 0.000002
3.148600 0.581484 0.532286 0.000000 -0.028506 0.000038
2.866470 0.503972 0.480274 0.000001 -0.901734 0.000002
3.190998 0.695132 0.527946 0.004332 0.081712 -0.005849
3.190527 0.442866 0.336594 0.004331 0.161920 -0.005849
3.134940 0.745445 0.564541 0.004330 -0.131252 0.005771
3.134940 0.424832 0.321770 0.004332 -0.065591 0.005824
3.160274 0.695212 0.358896 0.004332 0.081712 0.005848
1.544590 0.406755 0.591170 -0.042497 0.010694 0.014577
1.635245 1.026894 0.769714 -0.060148 0.004318 -0.005216
3.473737 0.589583 0.532254 0.000000 0.028506 0.000038
3.434170 0.589424 0.532259 0.000000 0.028892 0.000019
1.545594 0.175577 0.131030 -0.042497 0.006845 -0.009498
1.479906 0.670645 0.467529 0.000000 0.963407 0.000009
1.853211 0.644428 0.377124 0.000000 0.665520 -0.000019
1.502654 0.804758 0.268187 -0.042499 -0.010266 -0.014026
0.811568 0.581722 0.532293 0.000000 -0.028517 0.000010
1.619525 0.989365 0.755999 -0.042498 -0.012832 0.017267
1.733564 0.964705 0.159146 0.085158 0.006386 0.008410
2.897435 0.587519 0.354423 0.000000 0.028506 -0.000010
3.697525 0.582480 0.530811 0.002948 -0.000613 0.013997
0.466647 0.625316 0.522711 -0.000000 0.454009 0.000133
0.106182 0.511784 0.439183 -0.336137 -0.000051 -0.000001
0.573306 0.667123 0.477652 -0.000000 0.926481 0.000007
2.706482 0.654260 0.387485 0.000000 0.782955 -0.000003
0.090064 0.568001 0.378781 -0.391100 -0.000023 -0.000079
1.450328 0.487372 0.386843 -0.060146 -0.010627 0.012676
1.479906 0.621375 0.524597 -0.000000 0.402402 0.000077
2.226517 0.602500 0.530642 0.000000 0.184560 0.000045
1.053270 0.667691 0.410483 -0.000000 0.926528 -0.000014
3.133117 0.666974 0.408716 0.000000 0.915428 -0.000004
1.635118 0.728509 0.348550 0.085158 0.009878 0.012959
1.683376 0.179758 0.756337 0.060198 0.003953 0.005209
0.795225 0.587995 0.354436 0.000000 0.028517 -0.000038
3.109033 0.673900 0.440033 0.000000 0.999593 -0.000000
1.389411 0.825572 0.627446 -0.042500 -0.002674 0.003751
1.373247 0.620793 0.361883 0.000000 0.402864 -0.000005
3.406097 0.714995 0.347060 0.004333 -0.121525 -0.005754
1.853211 0.646555 0.507642 0.000001 0.686459 0.000036
3.371488 0.494324 0.509636 0.004333 0.052821 0.005645
1.389411 0.342175 0.624530 -0.060147 -0.004318 -0.005216
0.287736 0.587281 0.532353 0.000000 0.014252 0.000038
3.353304 0.693396 0.527528 0.004332 0.119377 -0.005918
3.060864 0.495973 0.444242 0.000000 -0.999898 0.000000
2.460479 0.673973 0.444162 -0.000000 0.999593 0.000000
1.513901 0.760097 0.587359 -0.042497 -0.002674 0.003751
3.351545 0.774249 0.585478 0.004333 -0.121509 0.005754
1.656352 0.463860 0.523491 0.085158 -0.009878 -0.012959
1.635118 0.717127 0.553216 0.060199 -0.013971 0.017975
0.661041 0.585772 0.354362 0.000000 0.014252 -0.000038
1.266588 0.524786 0.508951 0.000000 -0.686557 0.000004
1.479906 0.504685 0.481783 0.000000 -0.903595 0.000016
3.387913 0.436971 0.557270 0.004333 -0.060588 -0.005819
3.351545 0.396869 0.587013 0.004332 -0.119391 -0.005917
2.780455 0.496028 0.445750 0.000000 -0.999594 0.000000
1.725843 0.287706 0.215351 0.060199 0.005646 -0.007424
3.203650 0.496055 0.446703 0.000000 -0.999588 0.000000
2.706482 0.548580 0.524597 0.000000 -0.402864 0.000010
3.303284 0.687300 0.367766 0.004331 -0.115444 -0.005740
0.786623 0.616902 0.526459 0.000000 0.343991 0.000006
3.263228 0.374840 0.284751 0.004332 0.058511 -0.005651
0.327302 0.587043 0.532356 0.000000 0.014252 0.000077
3.453094 0.665628 0.405707 -0.000000 0.903613 -0.000032
0.733294 0.617274 0.360416 0.000000 0.375944 -0.000021
2.173188 0.549271 0.524901 -0.000001 -0.401438 0.000039
1.235623 0.585454 0.354364 0.000000 0.028506 -0.000077
1.873855 0.495962 0.443447 0.000000 -0.999593 0.000000
3.263860 0.673882 0.439398 0.000000 0.999593 -0.000000
2.279847 0.504124 0.406137 0.000001 -0.893946 -0.000002
1.702679 0.198812 0.157582 0.085159 -0.002694 0.003556
1.733564 0.048088 0.852242 0.060199 0.008469 0.011076
3.293105 0.501498 0.412486 0.000001 -0.936501 -0.000006
2.119859 0.621375 0.362139 0.000000 0.402402 -0.000077
1.586861 0.814331 0.288739 -0.060146 0.015274 0.017933
1.660213 0.256181 0.186515 0.060200 0.005082 -0.006687
2.402848 0.495999 0.444718 0.000000 -0.999594 0.000000
2.493164 0.672222 0.425690 0.000000 0.977161 -0.000004
1.417084 0.687851 0.530903 -0.042496 -0.010267 0.014027
0.156655 0.512452 0.489977 -0.131680 -0.000280 0.000169
2.386505 0.667586 0.476511 0.000001 0.925914 0.000007
1.159929 0.671510 0.422512 -0.000000 0.970173 -0.000002
1.737425 1.007669 0.121258 0.060199 -0.003952 -0.005209
0.626635 0.545701 0.363484 0.000000 -0.454100 -0.000008
1.534800 0.412063 0.555468 -0.060145 -0.002159 -0.002613
3.325148 0.763318 0.307158 0.004332 0.060595 0.005818
1.283791 0.673945 0.441621 0.000000 0.999593 -0.000000
1.513901 0.760097 0.299376 -0.042498 -0.002674 -0.003751
3.680636 0.526764 0.377659 0.008892 -0.012415 -0.009228
2.919799 0.524324 0.378221 0.000000 -0.686657 -0.000009
1.619525 0.173116 0.140608 -0.060146 -0.004982 0.006014
1.741286 1.145505 0.021415 0.085158 0.005987 0.007887
1.741286 0.024451 0.021415 0.085158 -0.005987 0.007887
2.439835 0.562348 0.529461 0.000000 -0.268002 0.000061
1.677585 0.672055 0.386745 0.085159 0.002994 0.003951
1.959870 0.539043 0.367118 -0.000000 -0.490729 -0.000004
1.586564 0.496916 0.430386 0.000000 -0.987702 -0.000003
0.253329 0.500141 0.416429 -0.000000 -0.955366 -0.000010
1.359844 0.688134 0.511546 -0.060145 0.005978 -0.007206
2.013200 0.503749 0.406971 0.000000 -0.915497 -0.000007
3.372239 0.580690 0.532263 0.000000 -0.028506 0.000038
1.373247 0.498674 0.421586 -0.000001 -0.958490 -0.000001
1.448108 0.401941 0.297177 -0.042499 0.013687 -0.018312
1.602303 0.841900 0.650178 0.060199 -0.011009 0.014302
3.330952 0.589107 0.354468 0.000000 0.028506 -0.000038
1.343431 0.687537 0.374401 -0.060147 0.005978 0.007205
0.733294 0.605911 0.529881 0.000001 0.240403 0.000137
3.346435 0.524093 0.378440 0.000000 -0.686629 -0.000072
1.617746 0.748471 0.578264 0.060200 -0.006634 0.008709
1.677573 1.147841 0.866262 -0.060147 0.010627 -0.012676
1.677573 1.147841 0.020474 -0.060147 0.010627 0.012676
1.799882 0.617568 0.360535 0.000000 0.376075 -0.000021
1.213259 0.619041 0.525603 -0.000000 0.376236 0.000021
3.053983 0.581643 0.354446 0.000000 -0.028517 -0.000010
0.253329 0.501567 0.474436 0.000001 -0.936869 0.000025
3.392899 0.708049 0.538681 0.004332 0.060608 -0.005817
0.733294 0.668541 0.412709 0.000000 0.936890 -0.000006
1.685307 0.720892 0.334465 0.060200 -0.013971 -0.017975
1.685307 0.449063 0.334465 0.060199 0.013971 -0.017975
1.457633 0.721177 0.355550 -0.060146 0.005314 0.006411
2.546494 0.567300 0.530613 0.000000 -0.212679 0.000078
3.366503 0.700286 0.358139 0.004332 -0.061705 -0.005655
1.513901 0.396609 0.316875 -0.060146 -0.004318 0.005216
1.407143 0.404002 0.300783 -0.042499 0.013687 -0.018312
3.239776 0.668844 0.473207 -0.000000 0.946489 0.000003
3.697525 0.592464 0.356210 0.017617 0.000239 -0.002383
1.737425 0.183164 0.744728 0.085158 -0.002694 -0.003556
1.694958 0.242987 0.694876 0.085159 -0.006187 -0.008149
2.680677 0.587201 0.354414 0.000000 0.028704 -0.000019
2.937002 0.587995 0.354436 0.000000 0.028517 -0.000019
0.253329 0.552645 0.526305 0.000000 -0.376297 0.000005
1.266588 0.667631 0.410336 -0.000001 0.924928 -0.000003
1.356044 0.673950 0.444956 0.000000 0.999593 0.000000
1.606417 1.030267 0.111985 -0.060146 0.004650 0.005615
1.694958 0.920853 0.183783 0.060198 -0.005082 -0.006687
1.602303 0.313787 0.255403 0.085159 -0.007783 0.010236
1.799882 0.668041 0.411369 0.000000 0.937013 -0.000003
3.026458 0.618415 0.525857 -0.000000 0.376074 0.000084
2.813141 0.638032 0.514837 0.000000 0.599279 0.000023
3.267507 0.816710 0.618546 0.004332 -0.058515 0.005651
2.247161 0.495983 0.444162 0.000000 -0.999593 0.000000
2.472521 0.583548 0.532345 0.000000 -0.028506 0.000038
2.054487 0.495969 0.443686 0.000000 -0.999593 0.000000
3.646859 0.506701 0.484450 0.018187 -0.009039 0.003643
2.866470 0.618084 0.525992 0.000000 0.376000 0.000042
1.575752 0.332823 0.645400 -0.042498 0.008984 0.012354
1.457633 0.448778 0.355550 -0.060147 -0.010627 0.012676
2.517248 0.584184 0.354373 -0.000000 -0.028517 -0.000077
2.279847 0.502862 0.477725 0.000000 -0.926589 0.000007
0.086107 0.584978 0.508346 -0.414358 0.000000 0.000018
1.639894 0.503349 0.407880 0.000000 -0.915536 -0.000002
1.481767 0.742694 0.339671 -0.060147 0.005314 0.006411
1.433498 0.482526 0.531459 -0.042498 0.006845 0.009498
1.563697 0.436049 0.571325 0.060200 0.013266 0.017111
1.407143 0.772408 0.309308 -0.060144 0.005314 0.006412
3.423480 0.665453 0.385201 0.042991 0.001338 -0.001012
2.386505 0.522039 0.380429 0.000000 -0.707482 -0.000002
3.453094 0.557357 0.358746 0.000000 -0.322565 -0.000099
1.537596 0.987960 0.141537 -0.060147 0.010627 0.012676
0.059331 0.627489 0.470688 -0.511325 0.000039 0.000024
3.117354 0.480861 0.363695 0.004331 -0.128882 0.005938
3.117354 0.480058 0.521980 0.004331 0.131216 0.005773
1.053270 0.555665 0.359322 -0.000000 -0.322600 -0.000099
2.759811 0.502742 0.409305 -0.000001 -0.924928 -0.000003
2.386505 0.523284 0.507533 0.000000 -0.686557 0.000009
1.053270 0.503749 0.406971 0.000001 -0.908663 -0.000002
3.025181 0.480620 0.364014 0.004331 -0.128882 0.005938
1.508490 0.166839 0.759986 -0.060146 -0.010627 -0.012676
3.663748 0.497526 0.432749 0.018186 -0.009683 -0.001566
1.454026 0.299336 0.662871 -0.042499 0.009411 0.012915
1.541203 0.823229 0.633704 -0.042498 -0.019669 0.025094
1.799882 0.619775 0.525300 -0.000001 0.390988 0.000010
3.646859 0.672735 0.454024 0.018188 0.009750 0.001575
1.072194 0.584739 0.532382 0.000000 -0.014263 0.000019
0.679965 0.672310 0.460577 0.000000 0.982821 0.000002
2.973129 0.616976 0.360305 0.000000 0.349435 -0.000045
2.973129 0.529002 0.512577 0.000000 -0.619893 0.000003
2.119859 0.572939 0.531561 0.000000 -0.128187 0.000262
3.551485 0.272853 0.680681 0.004332 -0.054498 -0.005809
3.551485 0.897103 0.206055 0.004334 0.054473 0.005811
3.394347 0.831052 0.257869 0.004327 -0.055549 -0.005641
2.279847 0.618489 0.360909 -0.000000 0.376071 -0.000042
3.502921 0.931006 0.181006 0.004331 0.067975 0.005828
3.654663 1.002024 0.758744 0.004329 -0.055522 0.005644
3.502921 0.238616 0.181446 0.004331 0.069207 -0.005666
3.502921 0.238616 0.705290 0.004331 0.069207 0.005666
1.799882 0.668402 0.474399 -0.000000 0.936619 0.000002
1.428735 0.442459 0.538661 -0.060148 -0.010627 -0.012675
1.428735 0.727496 0.538661 -0.060147 0.005314 -0.006411
0.519976 0.668818 0.473282 -0.000000 0.946523 0.000003
1.866974 0.673993 0.443289 0.000000 0.999594 -0.000000
1.159929 0.658810 0.493084 0.000000 0.833462 0.000022
2.279847 0.553612 0.526667 0.000000 -0.349411 0.000045
1.729704 0.250594 0.193894 0.085159 -0.003592 0.004740
0.519976 0.671224 0.421355 -0.000000 0.970660 -0.000008
1.553879 0.673966 0.442336 0.000000 0.999594 -0.000000
3.559470 0.862103 0.232142 0.004332 0.133383 0.005949
3.559470 0.307852 0.654594 -0.008056 -0.072208 -0.010651
1.293357 0.721093 0.543952 -0.060149 0.003985 -0.004817
1.293357 0.448862 0.342783 -0.060147 -0.003986 0.004817
1.309355 0.430590 0.557788 -0.060145 -0.003986 -0.004817
3.491911 0.879842 0.219263 0.004331 0.067983 0.005827
1.033487 0.673930 0.441065 0.000000 0.999594 -0.000000
1.617746 0.885097 0.205017 0.060200 -0.009880 -0.012876
1.610024 0.877088 0.648001 -0.060148 0.006642 -0.007997
1.617746 0.284859 0.681719 0.060200 0.009880 0.012876
1.685307 0.720892 0.552271 0.060199 -0.013971 0.017975
3.613082 0.543436 0.364638 0.018395 -0.001119 -0.002045
1.667419 0.585136 0.532381 -0.000000 0.028517 0.000019
0.466647 0.498991 0.466381 -0.000000 -0.963420 0.000005
1.617746 0.271948 0.222067 0.085158 -0.006985 0.009194
1.648631 0.981683 0.155395 -0.060146 0.009963 0.011906
3.607353 0.876244 0.223719 -0.008056 -0.072215 -0.010649
3.607353 0.293712 0.663017 -0.008057 0.072204 0.010651
2.759811 0.534732 0.516850 0.000000 -0.576148 0.000048
2.066529 0.532241 0.515075 0.000003 -0.572162 0.000012
3.696722 0.357076 0.270798 -0.008058 -0.072193 0.010653
3.578676 0.587916 0.354406 -0.000066 0.013538 -0.001614
1.662258 0.673986 0.443050 0.000000 0.999593 -0.000000
3.506423 0.668818 0.473282 0.000000 0.946523 0.000001
1.319917 0.501220 0.473506 0.000000 -0.937159 0.000002
3.559752 0.646989 0.379503 0.000000 0.676837 -0.000002
3.578676 0.589901 0.532245 0.000000 0.028506 0.000019
3.335120 0.456508 0.542399 0.004331 -0.060615 -0.005816
1.584930 0.729160 0.533299 0.085158 0.009878 -0.012959
1.190895 0.673936 0.441303 -0.000009 0.063733 -0.000000
1.612920 0.685081 0.502922 0.085158 0.002744 -0.003622
3.133117 0.643301 0.376119 0.000000 0.662886 -0.000005
3.322925 0.462707 0.349031 0.004333 -0.057454 0.005814
1.517762 0.386149 0.578195 -0.060144 -0.002076 -0.002513
1.399341 0.329848 0.248429 -0.042499 0.005134 -0.007163
1.399341 0.840107 0.248429 -0.042498 -0.005134 -0.007164
1.621606 0.771841 0.317187 0.085158 0.004690 0.006184
3.333361 0.793138 0.284851 0.004333 0.060588 0.005819
1.531841 0.691131 0.347509 -0.042498 -0.005989 -0.008336
1.185734 0.496019 0.445432 -0.000000 -0.743635 0.000000
2.973129 0.666846 0.408425 0.000000 0.915428 -0.000007
1.586564 0.657269 0.495302 0.000000 0.816753 0.000006
3.428937 0.857598 0.650526 0.004333 0.047726 -0.005798
1.562732 0.460967 0.515644 0.085161 -0.002744 -0.003622
2.577459 0.496001 0.444797 0.000000 -0.999594 0.000000
0.031064 0.573985 0.471603 -0.622271 -0.000009 0.000021
1.327017 0.483016 0.513124 -0.060143 -0.003986 -0.004817
0.195652 0.495911 0.443368 0.011245 -0.000983 0.000014
1.481767 0.742694 0.547064 -0.060146 0.010627 -0.012676
3.668950 0.886255 0.215515 -0.008057 -0.029057 -0.010265
3.668950 0.283700 0.671221 -0.008058 0.029054 0.010266
3.697525 0.649427 0.502519 0.018721 0.001682 0.001494
2.013200 0.634693 0.369535 0.000000 0.552610 -0.000051
2.906037 0.587598 0.532311 0.000000 0.028517 0.000077
1.583965 0.686575 0.385787 0.085158 0.002744 0.003622
1.625467 0.918926 0.681337 -0.060146 0.005978 -0.007205
3.675750 0.895955 0.679050 -0.008056 0.029060 -0.010264
3.627694 0.916572 0.695146 -0.008056 0.057915 -0.010587
0.436542 0.589345 0.354475 0.000000 0.028517 -0.000019
1.407653 0.586407 0.532345 0.000000 0.028517 0.000038
1.619250 0.673973 0.442574 0.000000 0.739710 -0.000000
3.600554 0.303611 0.231284 -0.008057 0.072207 -0.010650
1.053270 0.616678 0.360193 0.000000 0.349446 -0.000091
2.599823 0.668610 0.473841 -0.000000 0.936751 0.000003
1.639894 0.502279 0.476290 0.000000 -0.926582 0.000014
1.546520 0.768600 0.595113 -0.042498 -0.010694 0.014577
0.173931 0.656342 0.495217 -0.064586 0.000559 0.000382
1.735495 0.727206 0.547960 0.085159 0.009878 -0.012959
3.239776 0.549780 0.361611 -0.000000 -0.402359 -0.000077
3.391758 0.308004 0.234125 0.004332 0.096290 -0.005706
3.391758 0.861952 0.234125 0.004332 -0.096283 -0.005707
3.272462 0.495971 0.444162 0.000000 -0.999898 0.000000
3.377941 0.784055 0.293871 0.004332 -0.109624 -0.005730
3.348373 0.833456 0.255771 0.004328 -0.027858 -0.005574
2.066529 0.595952 0.355037 -0.000000 0.128187 -0.000131
3.435893 0.729750 0.335891 0.004333 -0.055469 -0.005649
1.496724 0.375165 0.275588 -0.042498 0.002674 -0.003751
1.496724 0.794790 0.611147 -0.042496 -0.002674 0.003751
3.484933 0.701642 0.352883 -0.008058 0.065065 0.010623
2.661754 0.587042 0.532327 0.000000 0.028517 0.000010
1.373247 0.668870 0.413604 0.000000 0.946523 -0.000003
1.434167 0.841548 0.245586 -0.042498 -0.005134 -0.007164
2.935282 0.673983 0.444242 0.000000 0.999898 0.000000
2.154264 0.673975 0.444083 -0.000000 0.999593 0.000000
3.491991 0.660770 0.383900 0.042991 0.002104 -0.001591
3.506423 0.536719 0.518167 0.000000 -0.551701 0.000013
3.453094 0.526150 0.510167 -0.000000 -0.665587 0.000038
3.026458 0.638096 0.371946 -0.000000 0.599258 -0.000023
2.732286 0.673927 0.445750 0.000000 0.999594 0.000000
1.906541 0.667930 0.475664 0.000000 0.936932 0.000025
0.867478 0.496044 0.440430 -0.000000 -0.743515 -0.000000
3.213971 0.588789 0.532277 -0.000000 0.028517 0.000077
3.326789 0.847991 0.642801 0.004340 0.027282 -0.005747
3.521916 0.947437 0.717549 0.004331 -0.055505 0.005646
3.643871 1.009425 0.122250 0.004333 -0.109597 -0.005731
3.643871 0.160531 0.764486 0.004330 0.109666 0.005727
0.861457 0.581881 0.532297 0.000000 -0.029267 0.000005
2.439835 0.507546 0.399458 0.000000 -0.863636 -0.000005
1.441138 0.804781 0.615354 -0.042494 -0.002674 0.003751
3.646859 0.643599 0.377198 0.018186 0.006985 -0.006521
1.237367 0.512815 0.495527 -0.060146 -0.007971 -0.009571
1.426576 0.527504 0.511334 0.000000 -0.643912 0.000010
3.628784 0.468031 0.354122 -0.008057 -0.124535 0.010851
1.557454 0.153264 0.767368 -0.060146 -0.004650 -0.005615
1.606417 0.144444 0.105703 -0.042497 0.005562 -0.007751
3.506423 0.500983 0.472831 0.000000 -0.946503 0.000006
1.959870 0.599490 0.531187 0.000000 0.156414 0.000214
3.419295 0.450058 0.343367 0.004331 0.121559 -0.005752
1.159929 0.553798 0.359999 -0.000001 -0.349370 -0.000091
1.540533 0.481139 0.388746 0.085159 -0.005488 0.007233
1.656352 0.463860 0.363245 0.085159 -0.009878 0.012959
0.786623 0.555289 0.359450 0.000000 -0.322750 -0.000012
1.590721 0.520335 0.505458 0.060198 0.003882 0.005116
0.359988 0.499847 0.469358 0.000000 -0.955370 0.000010
3.160274 0.473779 0.526567 0.004331 0.083194 0.005686
0.626635 0.670389 0.418289 0.000000 0.963405 -0.000005
1.906541 0.666462 0.407552 0.000000 0.915446 -0.000030
3.134468 0.393678 0.588222 0.004331 -0.128888 -0.005938
1.288952 0.585136 0.532381 0.000000 0.028517 0.000038
1.516444 0.339862 0.637295 -0.042499 0.009839 0.013472
1.625467 0.263260 0.189247 0.060200 0.005082 -0.006687
1.633188 0.355108 0.603355 0.085158 -0.004291 -0.005659
1.633188 0.814847 0.283381 0.085159 0.004291 0.005659
0.466647 0.670709 0.467299 0.000001 0.963394 0.000019
1.319917 0.539009 0.519598 0.000000 -0.528768 0.000027
2.252322 0.673991 0.443527 -0.000000 0.999493 0.000000
3.007123 0.505495 0.504053 0.000000 -0.797197 0.000012
1.428735 0.452822 0.334391 -0.042499 0.006845 -0.009498
2.732286 0.587042 0.532327 -0.000000 0.028517 0.000010
1.373247 0.509293 0.490213 -0.000000 -0.848856 0.000005
3.613082 0.505093 0.482644 0.022014 -0.001762 0.000833
0.495892 0.589107 0.354468 0.000000 0.028704 -0.000019
1.351013 0.461723 0.541954 -0.042496 0.007701 0.010650
3.646027 0.679326 0.514290 -0.008057 -0.036299 0.010405
1.433498 0.687430 0.355277 -0.042499 -0.006845 -0.009498
2.333176 0.636002 0.370436 -0.000000 0.575220 -0.000012
3.613082 0.617274 0.526320 0.017761 0.000845 0.002262
2.727125 0.586725 0.354400 0.000000 0.028517 -0.000010
3.663748 0.526560 0.509308 0.018187 -0.006071 0.007350
1.415338 0.858380 0.652143 -0.042497 -0.005134 0.007164
1.590721 0.413478 0.332132 0.085158 -0.002345 0.003096
3.384281 0.673967 0.445354 0.000000 0.999898 0.000000
1.533482 0.356094 0.601781 -0.060149 -0.003985 -0.004817
1.694958 0.926968 0.694876 0.085159 0.003093 -0.004083
1.539562 0.730057 0.532115 -0.060145 0.004650 -0.005615
3.505590 0.489254 0.368946 -0.008057 -0.065071 0.010622
1.415338 0.309537 0.649451 -0.060144 -0.003986 -0.004817
3.296479 0.730450 0.334592 0.004332 -0.058514 -0.005651
0.786623 0.667183 0.477505 0.000000 0.926323 0.000007
3.160745 0.664058 0.504584 0.000001 0.797204 0.000050
3.512131 0.428450 0.322975 -0.008057 -0.065073 0.010621
3.270033 0.751001 0.316652 0.004331 0.057474 0.005812
3.122744 0.430709 0.559848 0.004330 0.066798 0.005661
3.025181 0.480299 0.522298 0.004331 0.131216 0.005773
2.306511 0.583945 0.354380 0.000000 -0.028517 -0.000010
0.466647 0.500855 0.414281 0.000000 -0.946523 -0.000003
3.559752 0.507506 0.487209 0.000000 -0.863588 0.000001
1.398312 0.375751 0.605593 -0.042499 0.002781 0.003900
3.505590 0.682567 0.515325 -0.008057 -0.065074 0.010621
1.710401 0.992062 0.140914 0.085158 0.002694 0.003556
0.359988 0.671472 0.464378 0.000000 0.970672 0.000017
1.677573 0.024832 0.869852 -0.042500 0.011976 0.016203
2.472521 0.584819 0.354355 0.000000 -0.028517 -0.000038
1.266588 0.669920 0.469965 0.000000 0.952471 0.000001
1.764449 0.188434 0.143101 0.060199 0.003952 -0.005209
1.737425 0.148280 0.771142 0.085159 -0.004590 -0.006053
3.454514 0.344925 0.260386 0.004331 -0.094589 0.005869
2.837225 0.582278 0.532308 0.000000 -0.028517 0.000038
0.807267 0.673909 0.440351 0.000000 0.999593 -0.000000
1.540533 0.481139 0.497990 0.085158 -0.005488 -0.007233
1.718122 0.000000 0.005384 -0.000000 -0.797233 -0.000237
3.450678 0.705049 0.531795 0.004332 -0.052836 0.005643
2.653152 0.669709 0.416088 0.000001 0.951596 -0.000003
3.315176 0.356766 0.616756 0.004330 -0.060634 -0.005814
0.286015 0.580213 0.354486 -0.000000 -0.028506 -0.000019
1.365415 0.800372 0.603776 -0.060146 0.002159 -0.002613
1.332519 0.367833 0.607792 -0.060146 -0.008635 -0.010353
1.365415 0.800372 0.282960 -0.060147 0.004318 0.005216
1.365415 0.369583 0.282960 -0.060146 -0.002159 0.002613
1.531841 0.691131 0.539227 -0.042496 -0.005990 0.008336
1.714727 0.584422 0.532370 0.000000 -0.028496 0.000005
