3.060062 0.297139 0.819012 0.200673 -0.001522 -0.003397
1.735212 0.804376 0.387888 -0.060485 0.002293 0.002368
1.908178 0.653242 0.454526 0.000000 0.474214 -0.000014
2.287773 0.545121 0.465697 0.000000 -0.621003 -0.000002
2.854104 0.604349 0.443413 0.000000 -0.025412 -0.000038
0.175504 0.520448 0.584619 -0.089826 -0.000406 0.000186
3.060062 0.918109 0.264702 0.200672 0.001522 0.003397
2.572469 0.621307 0.639421 0.000000 0.139068 0.000053
1.936622 0.141170 0.128521 0.095448 -0.004204 0.004705
1.786247 1.149826 0.057859 -0.038317 -0.005341 -0.006239
1.786247 1.149826 1.025855 -0.038317 -0.005341 0.006239
1.936239 0.424448 0.381439 0.095448 -0.002136 0.002392
0.864291 0.683133 0.478576 0.000001 0.765429 -0.000012
2.050526 0.644677 0.633146 0.000000 0.382588 0.000036
2.783934 0.778723 0.694589 0.200675 0.001601 -0.003574
3.081422 0.438551 0.707794 -0.000004 -0.665798 -0.000224
3.081422 0.438551 0.375920 0.000000 -0.665930 0.000224
3.169413 0.606064 0.443350 0.000001 -0.012437 -0.000614
3.126960 0.902178 0.789778 0.000001 -0.665920 0.000234
1.793409 0.220762 0.208804 -0.060484 -0.005970 0.006139
2.192874 0.541401 0.614806 -0.000000 -0.679848 0.000008
1.538532 0.509098 0.541935 0.000000 -0.999682 0.000000
0.982149 0.605908 0.640341 0.000000 -0.025221 0.000019
1.804396 0.903560 0.785984 -0.060484 0.001857 -0.001917
2.981146 0.706046 0.537724 0.000000 0.999682 -0.000000
0.721943 0.563746 0.453645 -0.000001 -0.449606 -0.000029
0.816842 0.640116 0.634866 -0.000000 0.335525 0.000021
1.175008 0.606220 0.443365 0.000000 -0.025221 -0.000019
1.674844 1.024839 0.914285 -0.038313 -0.008759 0.010072
1.674844 1.024839 0.169429 -0.038314 -0.008759 -0.010071
1.823121 0.507654 0.470253 0.095448 -0.002373 0.002658
2.382672 0.704797 0.525629 0.000001 0.976954 -0.000001
1.006639 0.552630 0.460115 -0.000000 -0.560857 -0.000022
1.670931 0.632583 0.637167 0.000000 0.262887 0.000054
0.342348 0.643408 0.450065 0.000000 0.359157 -0.000077
0.342348 0.639380 0.635125 -0.000000 0.311641 0.000006
0.135335 0.607624 0.452282 -0.253687 0.000002 -0.000071
1.782768 0.901175 0.268852 -0.038316 -0.005234 -0.006117
0.579595 0.635027 0.447221 -0.000000 0.287259 -0.000049
0.579595 0.640373 0.634774 -0.000001 0.333464 0.000021
3.192312 0.540481 0.616806 0.000000 -0.746014 0.000521
1.386235 0.633787 0.636839 -0.000000 0.262833 0.000054
1.461235 0.606844 0.443350 -0.000000 -0.025221 -0.000019
1.771187 0.706149 0.541935 0.000000 0.999682 0.000000
1.584567 0.727505 0.449580 -0.060483 0.003900 0.004022
1.960315 0.927752 0.827620 0.060533 -0.010049 0.011106
1.960315 1.098492 0.980031 0.060533 -0.009835 0.010875
1.960315 1.098492 0.103683 0.060534 -0.009835 -0.010875
2.551040 0.509164 0.539206 0.000000 -0.999682 -0.000000
1.815860 0.441305 0.702065 0.060534 0.003368 0.003767
2.809716 0.509766 0.553259 0.000001 -0.993425 0.000007
2.050526 0.690838 0.489116 0.000001 0.833226 -0.000002
1.796466 0.212104 0.883031 -0.060485 -0.011938 -0.012103
1.493813 0.821736 0.732985 -0.038314 -0.009156 0.010503
1.148988 0.666064 0.621179 -0.000000 0.598959 0.000005
1.960315 0.946723 0.239160 0.060534 -0.009193 -0.010183
0.721943 0.531539 0.604450 0.000000 -0.766982 0.000012
1.646993 0.221655 0.886393 -0.060485 -0.006261 -0.006435
1.960315 0.515150 0.624404 0.060534 0.008018 0.008904
1.629524 0.468857 0.435095 -0.060485 -0.013727 0.013833
2.159200 0.607312 0.443338 0.000000 -0.025221 -0.000019
2.952921 0.472050 0.647863 0.000000 0.665931 0.000349
2.952921 0.472050 0.435851 0.000000 0.665931 -0.000349
2.572469 0.702555 0.515505 0.000000 0.964824 -0.000004
3.028595 0.608560 0.640372 0.000000 0.012609 0.000151
3.197605 0.896700 0.298826 -0.000004 -0.665828 -0.000234
1.317356 0.608715 0.443357 0.000000 0.025212 -0.000038
3.025534 0.609418 0.443352 0.000000 0.012604 -0.000076
1.883884 0.086580 0.997144 0.095447 -0.007051 -0.007878
1.882356 0.309077 0.798334 0.095447 -0.006238 -0.006973
0.119687 0.644968 0.617989 -0.306980 0.000047 0.000102
2.743899 0.610587 0.640309 0.000000 0.025603 0.000019
3.195089 0.309533 0.792935 -0.000000 0.665932 0.000312
3.195089 0.309533 0.290779 0.000000 0.665930 -0.000312
3.123702 0.786509 0.716553 -0.000001 0.665931 -0.000869
3.165271 0.742626 0.436361 0.000001 -0.665931 -0.000869
1.433684 0.705659 0.532045 0.000000 0.996064 -0.000001
2.667368 0.625006 0.444875 0.000000 0.188947 -0.000038
0.484696 0.542860 0.467614 -0.000000 -0.660747 -0.000017
0.247449 0.537138 0.473026 -0.000001 -0.715948 -0.000058
2.818173 0.479323 0.412315 0.000000 -0.665930 0.000399
0.484696 0.547502 0.619911 -0.000000 -0.598959 0.000005
2.847982 0.706064 0.545288 0.000000 0.999672 0.000000
1.859426 0.755865 0.661217 0.095450 0.005288 -0.005915
1.590503 0.323589 0.792503 -0.060484 -0.004296 -0.004427
1.603639 0.347407 0.315370 -0.060484 -0.004296 0.004427
1.538706 0.828319 0.348144 -0.060487 0.002366 0.002443
1.840318 0.341035 0.294131 0.060533 0.005345 -0.005965
1.462052 0.485159 0.646965 -0.060484 -0.006240 -0.006414
2.911708 0.720635 0.425964 0.000000 0.665931 0.000599
2.422468 0.509148 0.539830 -0.000000 -0.999682 -0.000000
3.310884 0.714127 0.636927 -0.350563 0.001255 -0.001649
3.310884 0.501120 0.446787 -0.350564 -0.001255 0.001649
2.932618 0.853777 0.322128 0.200675 0.001522 0.003397
2.720212 0.746557 0.417838 0.200674 0.001601 0.003574
1.260723 0.606532 0.640357 0.000000 -0.025603 0.000019
2.828269 0.474226 0.675948 0.000000 -0.665929 -0.000798
2.287773 0.665686 0.621454 -0.000000 0.581296 0.000021
3.310884 0.501120 0.636927 -0.350563 -0.001255 -0.001649
1.864012 0.778337 0.401847 0.095448 0.002136 0.002392
1.955627 0.701426 0.571983 -0.000001 0.949872 0.000010
3.187359 0.473003 0.436701 0.000000 0.665930 -0.000129
1.828024 0.018552 0.016021 -0.060485 -0.011065 0.011247
1.688769 0.174785 0.155483 -0.060485 -0.011356 0.011533
3.285778 0.689747 0.453536 -0.350562 0.000625 0.000821
1.243886 0.518296 0.500298 0.000001 -0.863705 -0.000002
3.255267 0.913336 0.814751 -0.350561 0.001255 -0.001649
1.718380 0.509302 0.535621 0.000001 -0.826256 -0.000000
1.724482 0.301360 0.280996 -0.060485 -0.003713 0.003829
2.922446 0.750842 0.654687 0.000000 -0.665931 0.001197
2.477570 0.687039 0.600173 0.000000 0.798161 0.000001
1.528583 0.586876 0.638167 -0.000000 -0.213300 0.000034
2.287773 0.665686 0.462260 0.000000 0.581423 -0.000021
1.410261 0.487251 0.434406 -0.060485 -0.006240 0.006414
0.911741 0.694954 0.587475 0.000000 0.880413 0.000016
1.576032 0.574764 0.448979 -0.000000 -0.335268 -0.000042
1.841949 0.002928 1.081639 -0.000002 -0.745946 0.000116
1.006639 0.513593 0.571278 0.000001 -0.955958 0.000004
1.623481 0.704836 0.557854 -0.000001 0.983039 0.000001
0.229082 0.610042 0.640354 0.000000 0.012996 0.000018
3.038469 0.730456 0.636490 0.000000 -0.665930 0.000200
2.924513 0.509098 0.541701 -0.000000 -0.999920 -0.000000
1.608709 0.827129 0.728516 -0.060485 0.002293 -0.002368
2.667368 0.509422 0.549805 0.000000 -0.996067 0.000000
0.864291 0.573259 0.449519 0.000000 -0.359107 -0.000019
0.356124 0.706125 0.543885 0.000000 0.999925 0.000000
1.717883 0.942780 0.846875 -0.038317 -0.010467 0.011910
1.712736 0.389690 0.718222 -0.060485 -0.002221 -0.002293
1.931654 0.535279 0.474948 0.060535 0.008018 -0.008904
1.567589 0.450775 0.671342 -0.060485 -0.006864 -0.007047
2.677730 0.725113 0.646734 0.200674 0.001601 -0.003574
1.860728 0.514772 0.574790 0.000001 -0.935019 0.000003
0.579595 0.706048 0.545912 0.000000 0.999672 0.000000
2.379610 0.605752 0.443377 -0.000000 -0.025403 -0.000019
1.424186 0.743620 0.663254 -0.038316 -0.009155 0.010503
3.107359 0.837474 0.321667 0.000000 0.665930 0.000869
1.629524 0.732516 0.664162 -0.038316 -0.010070 0.011488
3.236760 0.705645 0.551825 0.050699 0.000824 0.000094
2.287773 0.513122 0.569709 0.000000 -0.957868 0.000001
2.192874 0.514680 0.509181 -0.000001 -0.940843 -0.000005
2.999908 0.372668 0.736577 0.000004 0.665794 0.000200
2.999908 0.372668 0.347137 0.000000 0.665929 -0.000200
1.694876 0.719911 0.466232 -0.060484 0.001768 0.001826
0.119687 0.689715 0.520602 -0.306979 0.000108 -0.000031
0.089454 0.538621 0.520207 -0.424960 -0.000064 -0.000018
3.094412 0.698315 0.503363 0.000001 0.912674 -0.000003
1.701808 0.856105 0.772580 -0.038314 -0.006089 0.007093
3.236760 0.637119 0.635866 0.056595 0.000213 0.000712
3.236760 0.510642 0.524475 0.054106 -0.000763 -0.000147
3.017581 0.896665 0.799870 0.200673 0.001522 -0.003397
2.004607 0.606844 0.443350 0.000000 -0.025221 -0.000009
1.765798 0.524270 0.632075 0.060529 0.003742 0.004184
1.799503 0.607780 0.443334 0.000000 0.025221 -0.000019
1.101538 0.521554 0.493906 -0.000000 -0.867357 -0.000004
0.959190 0.646479 0.451315 0.000000 0.405973 -0.000067
1.900699 0.219187 0.202781 0.095449 -0.005153 0.005764
2.762267 0.555506 0.458242 0.000000 -0.539753 -0.000012
1.761237 1.076021 0.127180 -0.060485 0.005096 0.005247
1.761237 1.076021 0.956534 -0.060485 0.005096 -0.005247
1.960315 0.738040 0.425441 0.060531 -0.004009 -0.004482
0.294899 0.536212 0.609739 0.000000 -0.715465 0.000002
2.477570 0.546826 0.619382 0.000000 -0.618463 0.000005
2.762267 0.662488 0.460027 0.000000 0.560797 -0.000044
1.631609 0.790520 0.370269 -0.038315 -0.013884 -0.015398
3.094371 0.517547 0.637278 0.000000 -0.665931 -0.000449
3.145024 0.960997 0.226418 0.200674 0.001522 0.003397
2.868896 0.821611 0.732873 0.200672 0.001601 -0.003574
3.094371 0.517547 0.446436 0.000000 -0.665930 0.000224
1.882356 0.887199 0.302314 0.095449 0.003390 0.003795
1.693198 0.953288 0.240225 -0.060484 0.003422 0.003530
1.736417 0.489190 0.419654 -0.038314 0.005189 -0.006064
0.769393 0.654203 0.455044 -0.000000 0.474116 -0.000027
3.205672 0.755385 0.658743 0.000000 -0.665932 0.000257
1.960315 1.022607 0.912293 0.060529 -0.003742 0.004184
1.960315 1.022607 0.171421 0.060534 -0.007483 -0.008320
1.520317 0.482806 0.439385 -0.060484 -0.006240 0.006414
2.802572 0.695153 0.635003 0.000000 0.665930 -0.000399
1.841949 1.212319 1.081639 -0.038318 -0.014523 0.016020
1.841949 1.212319 0.002075 -0.038316 -0.014524 -0.016020
2.097975 0.521033 0.588848 -0.000000 -0.879796 0.000004
0.792352 0.706076 0.544820 0.000000 0.999682 0.000000
1.955627 0.613860 0.640179 -0.000000 0.062664 0.000029
1.828735 0.144533 0.138007 -0.060484 -0.004805 0.004949
1.800574 0.710088 0.437406 0.060534 -0.003742 -0.004184
3.157811 0.378526 0.731347 0.000001 0.665930 0.000869
3.157811 0.378526 0.352367 0.000000 0.665930 -0.000869
2.192874 0.638972 0.635258 0.000000 0.311381 0.000045
0.674494 0.611211 0.640293 -0.000000 0.025603 0.000289
0.437247 0.664766 0.622112 -0.000000 0.580800 0.000010
1.703337 0.871867 0.319881 -0.060486 0.004150 0.004278
1.859426 0.166361 0.943953 0.060535 0.006414 0.007146
3.145024 0.254251 0.857296 0.200674 -0.001522 -0.003397
3.145024 0.254251 0.226418 0.200674 -0.001522 0.003397
1.148988 0.690144 0.488032 0.000001 0.840813 -0.000010
1.839936 0.444127 0.386125 0.060534 0.003368 -0.003767
1.623481 0.547875 0.620193 0.000000 -0.601880 0.000020
2.572469 0.558115 0.456678 -0.000000 -0.496008 -0.000013
0.769393 0.511280 0.521262 -0.000000 -0.976543 -0.000003
2.477570 0.693461 0.493500 -0.000001 0.859010 -0.000002
3.182326 0.454974 0.663106 0.000001 0.665931 0.000869
0.484696 0.655575 0.455787 0.000000 0.495003 -0.000006
1.054089 0.681609 0.606913 -0.000001 0.750320 0.000026
0.247449 0.662908 0.460311 -0.000001 0.560657 -0.000087
1.825032 0.810358 0.733826 0.060534 -0.006307 0.007028
1.960315 0.135726 0.963097 0.060534 0.006628 0.007381
0.627044 0.546765 0.464381 0.000000 -0.622065 -0.000075
0.389798 0.558996 0.456175 0.000000 -0.496345 -0.000026
1.765830 0.658674 0.626118 0.000000 0.519656 0.000003
1.889999 0.069264 0.070327 0.095449 -0.005966 0.006671
0.816842 0.544882 0.617817 0.000000 -0.641874 0.000009
1.860728 0.695518 0.586361 -0.000000 0.892586 0.000001
2.097975 0.701535 0.571649 0.000001 0.948917 0.000005
1.528583 0.706107 0.543572 -0.000000 0.999682 0.000000
0.389798 0.556574 0.626118 0.000000 -0.518255 0.000024
0.674494 0.661843 0.459590 0.000000 0.560857 -0.000011
1.243886 0.524683 0.595025 0.000000 -0.842022 0.000001
1.338785 0.552630 0.623599 -0.000000 -0.560734 0.000044
3.304149 0.596979 0.447380 0.048795 -0.000122 -0.000843
1.101538 0.585847 0.637942 0.000000 -0.213300 0.000034
3.197576 0.855547 0.748153 0.000000 -0.665929 0.000312
1.054089 0.632997 0.446660 -0.000000 0.262744 -0.000027
3.320997 0.595327 0.635263 0.048798 -0.000122 0.000843
3.126555 0.605908 0.640363 0.000000 -0.012991 0.000147
0.911741 0.547192 0.619673 -0.000000 -0.621773 0.000019
1.960315 0.738040 0.658273 0.060535 -0.004009 0.004481
2.382672 0.674018 0.614647 -0.000000 0.679577 0.000032
2.952064 0.669399 0.618605 0.000000 0.621896 0.000009
1.608709 0.395647 0.736950 -0.038316 0.006729 0.007818
1.243886 0.665496 0.462124 0.000001 0.581177 -0.000021
1.386235 0.666781 0.463075 0.000001 0.598854 -0.000010
1.792167 0.346320 0.753498 0.095449 -0.006780 -0.007576
3.144923 0.509124 0.544041 0.000000 -0.999925 0.000000
2.667368 0.561319 0.628818 0.000000 -0.474274 0.000027
1.492955 0.701916 0.452362 -0.038318 -0.006866 -0.007972
3.145024 0.960997 0.857296 0.200674 0.001522 -0.003397
1.858662 0.947044 0.230609 0.060534 -0.008980 -0.009951
1.858662 0.957640 0.841234 0.095448 0.005695 -0.006369
1.889999 1.145983 1.013387 -0.060482 0.006698 -0.006879
1.889999 1.145983 0.070327 -0.060482 0.006698 0.006879
2.287773 0.576053 0.635185 0.000000 -0.311409 0.000045
1.623481 0.513413 0.513034 -0.000000 -0.957863 -0.000009
2.952064 0.559605 0.455826 0.000000 -0.496313 -0.000052
2.292365 0.706147 0.542013 0.000000 0.999682 0.000000
0.579595 0.552113 0.623250 -0.000000 -0.560698 0.000011
3.021570 0.850224 0.340313 0.000000 -0.665930 -0.000224
2.948143 0.781793 0.371371 -0.000000 0.665930 0.000349
2.993036 0.692604 0.450985 -0.000000 0.665930 0.000698
3.191209 0.788486 0.365397 0.000000 0.665931 0.000869
0.457145 0.509191 0.545600 0.000000 -0.999672 0.000000
1.450521 0.509116 0.542637 0.000000 -0.999672 0.000000
3.320997 0.513702 0.549249 0.045488 -0.000912 0.000060
2.619918 0.694363 0.588574 -0.000000 0.880741 0.000002
1.698293 0.711515 0.609068 -0.060483 0.003536 -0.003648
0.674494 0.510038 0.528328 -0.000000 -0.990255 -0.000004
2.999513 0.533201 0.606415 0.000000 -0.750437 0.000026
1.960315 0.363381 0.323833 0.060534 0.011758 -0.012932
0.067950 0.578262 0.594757 -0.509076 -0.000022 0.000037
1.338785 0.692047 0.592640 0.000000 0.855464 0.000001
2.572469 0.644893 0.450658 0.000000 0.382724 -0.000036
3.320997 0.701320 0.532009 0.050446 0.000820 -0.000075
2.809716 0.556207 0.625896 0.000001 -0.517949 0.000049
2.857165 0.528208 0.483541 -0.000000 -0.813393 -0.000011
1.791939 0.274037 0.823474 -0.060486 -0.003422 -0.003530
1.960315 0.287496 0.827620 0.060534 0.010048 0.011105
1.870126 0.381652 0.731979 0.095448 -0.007322 -0.008179
2.635249 0.703669 0.456122 0.200674 0.001601 0.003574
0.959190 0.702842 0.516559 0.000000 0.963894 -0.000001
2.477570 0.532465 0.478158 -0.000000 -0.749063 -0.000002
1.828089 0.828821 0.333656 0.060532 -0.005773 -0.006438
3.054982 0.837483 0.732028 0.000003 -0.665860 0.000224
2.829924 0.730456 0.447224 -0.000000 -0.665930 -0.000399
3.082133 0.369938 0.769041 0.000000 -0.665930 -0.000869
3.082133 0.369938 0.314673 -0.000000 -0.665930 0.000869
1.433684 0.563398 0.629892 0.000001 -0.451469 0.000029
2.145425 0.683408 0.478905 0.000001 0.766453 -0.000025
1.977056 0.509108 0.541389 0.000000 -0.999682 -0.000000
1.665634 0.427461 0.370876 -0.038316 0.006943 -0.008058
1.712134 0.243559 0.212618 -0.038316 0.004807 -0.005625
1.751849 0.991980 0.193418 -0.038316 -0.017512 -0.018789
1.623481 0.652615 0.454209 -0.000000 0.451670 -0.000029
2.572469 0.541058 0.614488 0.000000 -0.679865 0.000008
0.721943 0.674848 0.613879 0.000000 0.679577 0.000016
1.723366 0.190050 0.917028 -0.038315 0.008331 0.009603
1.918278 0.870360 0.770986 0.095448 0.003390 -0.003795
1.757963 1.009933 0.905825 -0.038316 -0.017512 0.018789
1.841812 1.088752 0.976866 -0.038311 -0.006196 0.007214
1.841812 1.088752 0.106848 -0.038316 -0.012389 -0.013905
1.883502 0.464714 0.659552 0.095450 -0.005288 -0.005915
0.167383 0.523594 0.495217 -0.121368 -0.000289 -0.000151
0.061044 0.627113 0.489235 -0.536124 0.000014 -0.000034
1.386235 0.563955 0.453540 -0.000001 -0.450335 -0.000029
2.667368 0.643736 0.633523 -0.000000 0.358569 0.000010
1.584637 0.414192 0.378403 -0.060484 -0.006864 0.007048
1.860728 0.698569 0.503975 -0.000001 0.921709 -0.000006
1.552626 0.776292 0.697412 -0.038316 -0.010070 0.011488
1.522761 0.765070 0.397318 -0.038317 -0.009155 -0.010503
1.855605 0.277180 0.238374 0.060533 0.004490 -0.005016
0.247449 0.509381 0.549338 0.000000 -0.997996 0.000008
3.087668 0.720635 0.425964 0.000000 0.665930 0.000224
1.651530 0.287284 0.830977 -0.038317 0.002724 0.003205
1.446171 0.680849 0.607780 -0.000001 -0.745927 -0.000059
1.861719 0.259227 0.860869 0.060534 0.004597 0.005135
0.294899 0.691196 0.594040 0.000000 0.842022 0.000002
3.236760 0.555506 0.458242 0.050928 -0.000446 -0.000695
2.240323 0.604817 0.443401 0.000000 -0.025412 -0.000291
1.243886 0.678110 0.610689 -0.000001 0.715311 0.000014
2.119404 0.606454 0.640355 0.000000 -0.025221 0.000038
0.061044 0.659191 0.563986 -0.536125 0.000034 0.000014
2.891786 0.448744 0.385019 0.000000 -0.665930 0.000599
1.812185 0.068215 1.024790 -0.038315 0.005341 0.006239
2.382672 0.534051 0.476333 0.000001 -0.749829 -0.000013
1.778027 0.726884 0.663133 0.060532 -0.003742 0.004184
1.576032 0.649077 0.631235 0.000000 0.428773 0.000016
0.191821 0.675356 0.613112 -0.030353 0.000949 0.000949
2.904615 0.538150 0.611717 -0.000000 -0.693417 0.000004
3.189311 0.677237 0.472133 0.000000 0.698207 -0.000002
2.050526 0.566488 0.631386 0.000000 -0.405943 0.000033
3.250211 0.931445 0.252797 -0.350561 0.001255 0.001649
0.959190 0.514602 0.509402 0.000000 -0.942070 -0.000011
3.239536 0.759511 0.421288 0.000001 -0.665930 -0.000419
2.097975 0.560632 0.455266 0.000000 -0.474279 -0.000014
3.026719 0.479323 0.671399 -0.000000 -0.665930 -0.000399
3.026719 0.479323 0.412315 0.000000 -0.665930 0.000200
1.627220 0.855740 0.329070 -0.060483 0.004296 0.004427
1.472066 0.536767 0.473281 -0.038315 0.013731 -0.015248
2.741452 0.457968 0.408267 0.200675 -0.001601 0.003574
3.094412 0.642789 0.449827 0.000000 0.359065 -0.000038
0.159298 0.579228 0.632362 -0.152791 -0.000082 0.000241
3.265379 0.338132 0.782419 -0.350565 -0.001255 -0.001649
3.265379 0.338132 0.301295 -0.350564 -0.001255 0.001649
2.477570 0.621307 0.639421 0.000000 0.139068 0.000026
1.870126 0.381652 0.351735 0.095448 -0.001831 0.002050
0.911741 0.635961 0.636213 0.000002 0.286803 0.000099
1.755480 0.450216 0.656040 0.095450 -0.002373 -0.002658
1.960315 0.059842 1.030835 0.060537 0.008124 0.009021
1.960315 0.344409 0.776816 0.060533 0.010904 0.012022
1.960315 0.889809 0.289964 0.060534 -0.010903 -0.012022
1.960315 0.458236 0.675208 0.060532 0.006735 0.007499
1.243886 0.574507 0.449070 0.000000 -0.335424 -0.000042
1.955627 0.695025 0.496378 -0.000001 0.886549 -0.000004
2.891786 0.433826 0.681984 0.000000 0.665930 0.000599
1.338785 0.701147 0.510879 0.000000 0.950276 -0.000010
1.535590 0.868606 0.774823 -0.038317 -0.003258 0.003829
1.633068 0.977969 0.872447 -0.038315 -0.010040 0.011456
1.196437 0.704740 0.558431 0.000000 0.986326 0.000005
2.904615 0.695131 0.496587 -0.000001 0.891342 -0.000008
0.749494 0.604661 0.640309 0.000000 -0.025593 0.000037
2.988900 0.756311 0.689596 0.000000 0.665930 -0.000798
1.793381 0.509100 0.541701 0.000000 -0.999682 -0.000000
2.826415 0.415080 0.369983 0.200675 -0.001601 0.003574
1.196437 0.568913 0.632459 0.000002 -0.373304 0.000018
0.627044 0.686852 0.600422 -0.000000 0.798439 0.000003
0.532146 0.686875 0.600391 0.000000 0.794304 0.000003
2.879494 0.682225 0.608450 0.000002 0.746010 0.000521
3.270436 0.859006 0.317460 -0.350564 0.001255 0.001649
3.245155 0.265692 0.847083 -0.350560 -0.001255 -0.001649
3.245155 0.265692 0.236631 -0.350561 -0.001255 0.001649
1.700280 0.363631 0.315016 -0.038317 0.003044 -0.003579
1.718380 0.541573 0.468748 0.000000 -0.679730 -0.000064
1.528583 0.637119 0.447848 0.000000 0.311522 -0.000011
0.294899 0.586724 0.445580 -0.000000 -0.213701 -0.000135
0.175504 0.674522 0.471480 -0.089826 0.000318 -0.000318
1.860728 0.567913 0.451695 0.000000 -0.405943 -0.000067
0.294899 0.698674 0.504227 0.000000 0.923817 -0.000012
3.046963 0.702170 0.569559 0.000000 0.957868 0.000002
2.952064 0.632168 0.446438 0.000000 0.238398 -0.000030
1.960315 1.155406 0.052879 0.060535 -0.008124 -0.009021
1.960315 1.155406 1.030835 0.060534 -0.008125 0.009021
1.960315 0.059842 0.052879 0.060533 0.008125 -0.009021
1.731809 0.256844 0.860821 -0.038316 0.019219 0.020267
1.960315 0.477208 0.425441 0.060534 0.004009 -0.004481
1.577366 0.299771 0.267052 -0.060485 -0.008008 0.008203
1.101538 0.577832 0.447945 0.000000 -0.311409 -0.000045
0.512248 0.611522 0.640285 0.000000 0.025603 0.000019
2.749153 0.525564 0.600094 0.000001 -0.746013 0.000521
3.009835 0.525564 0.483620 0.000000 -0.746015 -0.000261
3.270436 0.859006 0.766254 -0.350565 0.001255 -0.001649
1.497962 0.528892 0.601611 -0.060485 -0.009360 -0.009558
2.619918 0.520293 0.496239 0.000000 -0.892200 -0.000004
2.958239 0.428358 0.716893 -0.000002 -0.665916 -0.000349
1.671689 0.348173 0.761864 -0.060483 -0.002148 -0.002218
0.389798 0.686758 0.483167 0.000000 0.798439 -0.000006
3.126960 0.327987 0.806489 -0.000000 -0.665929 -0.000234
3.126960 0.327987 0.277225 -0.000001 -0.665926 0.000468
1.718380 0.578128 0.635866 0.000000 -0.287629 0.000006
2.958239 0.428358 0.366821 0.000002 -0.665923 0.000349
2.430121 0.655096 0.455525 -0.000000 0.473957 -0.000028
0.532146 0.693596 0.493737 -0.000001 0.859010 -0.000002
3.134540 0.901371 0.264629 0.000001 0.665931 0.000624
3.061229 0.781421 0.681984 0.000000 -0.665930 0.000898
2.762693 0.447246 0.685018 0.200675 -0.001601 -0.003574
3.236760 0.629896 0.445880 0.050928 0.000176 -0.000807
1.664105 0.783298 0.708956 -0.038315 -0.003472 0.004078
2.952064 0.584973 0.637741 0.000000 -0.238350 0.000030
2.714817 0.519606 0.497596 -0.000000 -0.891962 -0.000007
3.123702 0.801426 0.383872 -0.000001 -0.665930 -0.000869
1.633068 0.977969 0.211267 -0.038315 -0.010040 -0.011456
1.960315 0.192640 0.171421 0.060533 0.003742 -0.004184
2.848462 0.751214 0.685047 0.000000 0.665930 -0.000499
3.244569 0.488682 0.663044 0.000000 -0.665930 -0.000338
2.382672 0.525356 0.596076 0.000000 -0.827913 0.000005
1.521664 0.362265 0.322837 -0.060485 -0.009173 0.009371
1.908178 0.562563 0.629470 -0.000000 -0.451733 0.000058
2.723085 0.682225 0.608450 0.000002 0.746010 0.000521
2.826415 0.415080 0.713731 0.200675 -0.001601 -0.003574
1.790411 0.278366 0.264301 -0.060485 -0.001784 0.001842
3.166352 0.706030 0.537101 -0.000000 0.433368 -0.000000
2.097975 0.640961 0.449149 0.000000 0.326837 -0.000005
1.889616 0.801049 0.705431 0.095448 0.001966 -0.002202
2.667368 0.556174 0.457838 -0.000000 -0.518066 -0.000024
1.754274 0.147038 0.134153 -0.060485 -0.010192 0.010385
2.745844 0.725732 0.662300 -0.000001 0.665930 -0.000798
1.662577 0.436438 0.705074 -0.038316 0.006943 0.008058
3.166244 0.540481 0.466908 0.000000 -0.746015 -0.000521
3.140045 0.735544 0.671059 -0.000001 0.665931 -0.000869
1.054089 0.540772 0.614223 -0.000000 -0.679736 0.000032
1.567160 0.507271 0.616701 -0.060488 -0.003120 -0.003220
0.200000 0.582928 0.446475 -0.026498 -0.000203 -0.000743
1.908178 0.661843 0.624124 -0.000000 0.560698 0.000022
1.791929 0.150537 0.942999 -0.060484 -0.005096 -0.005247
1.878916 0.719576 0.435306 0.060533 -0.008338 -0.009254
1.101538 0.704084 0.561919 -0.000000 0.976830 0.000001
2.996340 0.329305 0.293415 0.200675 -0.001601 0.003574
2.996340 0.329305 0.790299 0.200674 -0.001601 -0.003574
0.432655 0.611834 0.443436 0.000000 0.025603 -0.000005
1.396335 0.502874 0.635362 -0.060485 -0.012479 -0.012629
1.767057 0.338548 0.320577 -0.060483 -0.002002 0.002068
0.627044 0.695324 0.496970 0.000001 0.891435 -0.000015
1.892674 0.823935 0.357460 0.095448 0.004000 0.004477
1.775925 0.433815 0.410406 0.095447 -0.002373 0.002658
2.335222 0.511488 0.520309 0.000000 -0.976779 -0.000003
0.816842 0.533072 0.477445 0.000000 -0.750395 -0.000007
1.291336 0.509317 0.548326 0.000001 -0.994428 0.000001
0.532146 0.515099 0.508005 0.000000 -0.941834 -0.000005
1.780331 0.969358 0.851694 -0.060486 0.006552 -0.006731
2.809716 0.627610 0.638334 -0.000000 0.213682 0.000068
0.861230 0.706143 0.542481 -0.000000 0.999925 0.000000
0.532146 0.586190 0.445697 -0.000000 -0.213650 -0.000135
0.532146 0.517525 0.581710 0.000001 -0.913212 0.000007
1.689298 0.706149 0.541779 0.000000 0.999682 -0.000000
1.749394 0.838584 0.727738 -0.060483 0.002148 -0.002218
3.191209 0.788486 0.718317 -0.000001 0.665931 -0.000869
1.483917 0.768623 0.682416 -0.060487 0.004680 -0.004821
2.780634 0.706064 0.538426 0.000000 0.999672 -0.000000
1.670931 0.517968 0.582708 0.000000 -0.913898 0.000007
3.253608 0.565249 0.629849 0.060227 -0.001482 0.002681
2.312263 0.605674 0.443379 0.000000 -0.025221 -0.000005
1.006639 0.703508 0.564508 0.000000 0.971168 0.000004
1.878916 0.495672 0.435306 0.060533 0.008338 -0.009254
1.812185 0.066382 0.060976 -0.060486 -0.006698 0.006879
1.927450 0.981705 0.871557 0.095450 0.002576 -0.002885
1.549515 0.884230 0.294944 -0.038317 -0.012602 -0.014121
0.864291 0.589629 0.638721 0.000000 -0.188911 0.000077
2.871593 0.771228 0.410829 0.000002 -0.665922 -0.000499
0.437247 0.600726 0.640137 0.000000 -0.063324 0.000467
1.787199 0.771859 0.417503 0.095449 0.002373 0.002658
1.754404 0.830527 0.330176 -0.038316 -0.006089 -0.007092
3.218421 0.706950 0.615507 0.000000 -0.665932 0.000676
1.338785 0.528584 0.483043 0.000000 -0.798456 -0.000022
1.481133 0.632884 0.637085 -0.000000 0.262729 0.000027
2.145425 0.677783 0.611024 -0.000000 0.715699 0.000014
2.015321 0.706131 0.542637 0.000000 0.441390 0.000000
0.640820 0.607624 0.443330 0.000001 0.010898 -0.000175
3.081302 0.928831 0.828583 0.200676 0.001601 -0.003574
1.196437 0.509164 0.544508 0.000000 -0.999682 0.000000
1.708507 0.746744 0.403518 -0.038316 -0.010070 -0.011488
1.908178 0.509780 0.530339 -0.000001 -0.989984 -0.000001
3.174866 0.839451 0.319902 -0.000001 0.665930 0.000869
1.902228 0.034632 1.045873 0.095447 -0.004882 -0.005462
1.479888 0.806113 0.364675 -0.038314 -0.009156 -0.010503
0.294899 0.595176 0.639595 0.000000 -0.113115 0.000016
3.270678 0.471415 0.405257 0.000000 -0.665930 0.000338
3.270678 0.743832 0.678457 -0.350565 0.000625 -0.000821
1.900699 0.989846 0.195819 0.060534 -0.008338 -0.009254
2.857165 0.666438 0.462817 0.000000 0.601475 -0.000010
1.912928 1.068635 0.136426 0.095448 0.004068 0.004553
1.912928 1.068635 0.947288 0.095448 0.004068 -0.004553
1.573634 0.507010 0.467306 -0.060486 -0.003900 0.004022
2.525020 0.704539 0.559584 0.000000 0.981682 0.000003
2.003077 0.545788 0.465157 0.000000 -0.621815 -0.000019
1.847197 0.202267 0.170819 0.060534 0.007269 -0.008086
2.240323 0.694418 0.495243 0.000000 0.879796 -0.000004
3.195089 0.890797 0.809646 -0.000001 0.665929 -0.000312
2.988799 0.509199 0.545912 0.000000 -0.999682 0.000000
2.486754 0.509152 0.544040 0.000000 -0.999682 0.000000
2.240323 0.694326 0.588642 -0.000001 0.877963 0.000004
2.900970 0.509902 0.439612 0.000000 -0.665931 0.000599
1.656175 0.325753 0.285119 -0.038315 0.002938 -0.003455
3.224060 0.386960 0.753846 0.000002 -0.665861 -0.000156
3.224060 0.386960 0.329868 -0.000001 -0.665921 0.000312
2.192874 0.554653 0.458790 -0.000000 -0.539305 -0.000012
1.593055 0.709022 0.615529 -0.060483 0.001950 -0.002014
1.765830 0.660299 0.458600 0.000000 0.539636 -0.000046
2.996340 0.885943 0.293415 0.200675 0.001601 0.003574
2.335222 0.626155 0.638618 0.000000 0.188762 0.000039
0.809189 0.605285 0.443389 0.000002 -0.009546 -0.000100
0.911741 0.537247 0.472914 0.000001 -0.714950 -0.000014
2.786230 0.746118 0.403217 0.000000 0.665930 0.000599
3.215311 0.957061 0.838769 -0.000001 -0.665929 0.000624
1.669677 0.916443 0.809813 -0.060484 0.003859 -0.003979
3.174155 0.444409 0.381150 0.000001 -0.665930 0.000869
1.554160 0.366977 0.753577 -0.060485 -0.004587 -0.004726
2.003077 0.679884 0.608824 -0.000000 0.733337 0.000002
1.659450 0.523443 0.452565 -0.038315 0.020134 -0.021027
1.503828 0.438290 0.688803 -0.060485 -0.006240 -0.006414
2.728593 0.607780 0.443332 0.000000 0.012609 -0.000038
2.697016 0.689684 0.483620 0.000001 0.746013 -0.000521
2.851771 0.500081 0.622841 0.000000 0.665929 0.000499
2.137771 0.509124 0.540765 0.000000 -0.999682 -0.000000
0.342348 0.527618 0.484366 0.000001 -0.811570 -0.000011
2.430121 0.568270 0.451536 0.000000 -0.405973 -0.000067
1.870891 0.204004 0.890655 0.095449 -0.002305 -0.002582
1.063273 0.509132 0.543261 -0.000010 -0.048984 0.000000
1.006639 0.680520 0.475577 0.000000 0.733484 -0.000014
3.046963 0.665940 0.621273 0.000000 0.602076 0.000039
0.721943 0.691007 0.489378 -0.000000 0.841848 -0.000009
1.549753 0.688447 0.484446 0.000000 -0.746014 0.000474
0.627044 0.523443 0.593040 -0.000001 -0.855249 0.000036
1.054089 0.626998 0.638456 0.000000 0.188762 0.000039
2.935109 0.796711 0.695632 0.000000 -0.665931 0.000349
3.253608 0.519631 0.584232 0.059769 -0.002852 0.001180
1.641146 0.871363 0.768590 -0.060485 0.002148 -0.002218
1.682193 0.817457 0.344887 -0.038315 -0.003258 -0.003829
3.132585 0.844556 0.738342 -0.000001 -0.665930 0.000869
0.111984 0.535892 0.581671 -0.337015 -0.000087 0.000045
3.094412 0.580407 0.447165 0.000001 -0.281204 -0.000013
2.442366 0.706100 0.543884 0.000000 0.999682 0.000000
2.976237 0.725359 0.631940 -0.000002 -0.665928 0.000698
3.300772 0.750347 0.414455 -0.350564 0.001255 0.001649
1.452037 0.440381 0.392568 -0.060484 -0.006240 0.006414
2.994133 0.750842 0.429027 0.000000 -0.665930 -0.000399
0.143266 0.691789 0.577975 -0.215142 0.000163 0.000065
1.804013 0.376798 0.355900 0.095448 -0.001831 0.002050
3.189311 0.597734 0.639886 0.000000 -0.088447 0.000021
2.791348 0.610587 0.443405 0.000000 0.025221 -0.000038
1.666620 0.907785 0.282022 -0.060482 0.002002 0.002068
1.806689 0.487206 0.661837 0.060533 0.007483 0.008320
1.777274 0.960700 0.240142 -0.060484 0.006552 0.006731
3.073962 0.870792 0.791788 0.000001 0.665930 -0.000869
1.196437 0.630312 0.637732 0.000000 0.238203 0.000015
1.692502 0.738098 0.672061 -0.038315 -0.010071 0.011488
0.389798 0.691481 0.593574 -0.000000 0.855156 0.000004
2.525020 0.582288 0.637065 0.000000 -0.262533 0.000014
2.525020 0.658140 0.626442 0.000001 0.518018 0.000049
0.959190 0.670366 0.617817 0.000000 0.638282 0.000004
1.847926 0.108542 0.091319 -0.038315 0.006195 -0.007214
1.196437 0.541229 0.469067 -0.000000 -0.679762 -0.000008
2.802572 0.505178 0.465422 0.000000 0.665930 -0.000399
2.887193 0.797083 0.357722 0.000000 0.665930 0.000599
3.216435 0.434597 0.711323 -0.000001 -0.665929 -0.000869
1.623481 0.695624 0.497561 -0.000001 0.888212 -0.000004
1.936239 0.781314 0.389907 0.095448 0.004272 0.004780
0.816842 0.688688 0.597852 -0.000001 0.825812 0.000005
3.018362 0.415988 0.697907 -0.000000 0.665928 0.000200
2.335222 0.696617 0.584120 -0.000000 0.903263 0.000004
3.287302 0.694061 0.583483 0.051077 0.003249 0.001343
2.335222 0.691400 0.490007 0.000001 0.854161 -0.000009
2.003077 0.664861 0.461670 0.000000 0.581608 -0.000021
1.321948 0.608403 0.640364 0.000000 0.025221 0.000019
3.320997 0.654730 0.623447 0.049972 0.000425 0.000715
1.748062 0.889278 0.803031 -0.038317 -0.005661 0.006606
0.914802 0.605908 0.443373 -0.000000 -0.025412 -0.000038
1.422231 0.713419 0.449524 -0.060483 0.012479 0.012629
2.652061 0.706078 0.538972 0.000005 0.192513 -0.000000
1.921335 0.326743 0.296139 0.095448 -0.003458 0.003871
1.773823 0.398268 0.704769 0.095449 -0.007865 -0.008781
3.018362 0.430906 0.369096 0.000000 -0.665930 0.000200
3.148928 0.436574 0.709559 -0.000001 -0.665929 -0.000869
3.114819 0.456951 0.661341 0.000001 0.665931 0.000869
3.114819 0.456951 0.422372 -0.000000 0.665931 -0.000869
0.816842 0.512447 0.567306 -0.000001 -0.963484 0.000004
3.046963 0.677946 0.472858 -0.000000 0.715797 -0.000014
1.826179 0.702269 0.637246 0.060535 -0.003742 0.004184
2.619918 0.519115 0.585142 0.000001 -0.881336 0.000002
2.192874 0.655164 0.455562 0.000000 0.474208 -0.000027
0.307144 0.509211 0.546379 0.000000 -0.999682 0.000000
1.902992 0.722729 0.637238 0.095450 0.005288 -0.005915
1.791785 0.794332 0.686861 0.095449 0.002136 -0.002392
1.944913 0.607234 0.443340 0.000000 -0.025221 -0.000019
1.813279 0.559808 0.628004 0.000000 -0.474134 0.000055
1.101538 0.665464 0.462101 -0.000000 0.581674 -0.000010
2.809716 0.690775 0.489017 -0.000000 0.841518 -0.000009
1.912164 0.433621 0.701095 0.060532 0.003368 0.003767
3.094371 0.697701 0.637278 0.000000 0.665929 -0.000224
1.644487 0.712160 0.436058 -0.038315 -0.010071 -0.011488
3.132421 0.687907 0.455179 -0.000000 0.665931 0.000257
1.617359 0.607702 0.640382 0.000000 0.025221 0.000019
2.751552 0.509107 0.542715 0.000010 -0.049335 0.000000
3.225318 0.838698 0.350602 -0.000000 -0.665931 -0.000869
3.150733 0.499283 0.623554 -0.000000 0.665931 0.000129
1.905116 0.706143 0.542169 0.000000 0.999672 0.000000
1.520317 0.490062 0.652457 -0.038314 0.004578 0.005362
2.619918 0.590511 0.444830 -0.000000 -0.163840 -0.000089
2.904615 0.704399 0.560312 -0.000001 0.981136 0.000003
0.041210 0.572261 0.519815 -0.613924 -0.000021 -0.000013
0.721943 0.621578 0.444331 0.000000 0.138873 -0.000106
1.724482 0.903729 0.269616 -0.038316 -0.002831 -0.003330
3.073250 0.802180 0.353173 -0.000001 0.665929 0.000224
2.866349 0.509179 0.538582 -0.000000 -0.999672 -0.000000
1.882356 0.898044 0.807438 0.060533 -0.010904 0.012022
0.864291 0.634352 0.447029 0.000000 0.262875 -0.000027
2.757595 0.720263 0.456323 0.000000 -0.665930 -0.001197
2.050526 0.510309 0.557238 0.000000 -0.986476 0.000002
0.247449 0.662844 0.623446 0.000000 0.560806 0.000087
1.002048 0.607780 0.443332 0.000001 0.010918 -0.000175
1.528583 0.545849 0.465109 0.000000 -0.622047 -0.000037
2.525020 0.672797 0.467975 -0.000001 0.644958 -0.000004
3.244529 0.491031 0.452794 0.000000 0.665931 -0.000676
1.850254 0.515800 0.632770 0.060534 0.008338 0.009254
3.094412 0.516649 0.579667 -0.000001 -0.921708 0.000006
0.437247 0.522135 0.492890 -0.000000 -0.868120 -0.000034
1.765798 0.503994 0.474353 0.095448 -0.004746 0.005310
2.953859 0.864499 0.771157 0.200677 0.001601 -0.003574
2.145425 0.530366 0.480723 0.000000 -0.782958 -0.000006
2.335222 0.547439 0.619864 0.000000 -0.602076 0.000010
0.089454 0.579104 0.475398 -0.424961 -0.000027 -0.000058
1.743251 0.707773 0.434813 0.060534 -0.003742 -0.004184
2.525020 0.521162 0.589089 -0.000001 -0.843673 0.000002
1.908342 0.017316 0.021598 0.095448 -0.004882 0.005462
1.908342 1.197932 0.021598 -0.060484 0.009901 0.010096
1.908342 1.197932 1.062116 -0.060485 0.009901 -0.010096
0.674494 0.555707 0.625593 0.000001 -0.488578 0.000003
3.195118 0.946868 0.254044 0.000000 -0.665931 -0.000624
0.437247 0.525706 0.596592 0.000000 -0.828033 0.000003
1.834204 0.856260 0.774054 0.060534 -0.005880 0.006556
2.240323 0.607468 0.640380 0.000000 -0.025212 0.000152
3.287302 0.521186 0.500231 0.051077 -0.003078 -0.001698
1.698293 0.524436 0.632261 -0.038315 0.005188 0.006064
1.730329 1.036117 0.163193 -0.060486 0.005679 0.005842
2.192874 0.512112 0.566023 -0.000000 -0.971118 0.000004
0.111984 0.654491 0.474522 -0.337012 0.000054 -0.000082
1.386235 0.703776 0.563329 -0.000001 0.962253 0.000002
0.721943 0.522445 0.492349 -0.000001 -0.863984 -0.000009
0.864291 0.667248 0.620287 0.000000 0.602156 0.000020
2.619918 0.590396 0.638864 0.000000 -0.163903 0.000045
3.046963 0.556707 0.626199 -0.000000 -0.517999 0.000024
1.860728 0.624006 0.444709 0.000000 0.163903 -0.000089
1.731928 0.347247 0.757681 -0.060484 -0.004150 -0.004278
1.785728 0.607780 0.640380 0.000000 0.025221 0.000038
1.291336 0.687221 0.483795 -0.000001 0.809986 -0.000011
3.218461 0.709299 0.436083 -0.000000 0.665930 0.000338
3.073962 0.885709 0.308637 -0.000000 -0.665930 -0.000869
3.094412 0.517224 0.502681 0.000000 -0.913866 -0.000007
2.783663 0.509902 0.644102 0.000000 -0.665930 -0.001197
1.291336 0.654031 0.628762 0.000001 0.473649 0.000028
3.236760 0.694954 0.496239 0.056595 0.000654 -0.000352
1.841812 0.119405 0.968923 -0.060485 -0.004223 -0.004353
0.959190 0.526756 0.598142 0.000000 -0.813527 0.000001
1.927450 0.243028 0.863089 0.095448 -0.005831 -0.006520
2.430121 0.649253 0.631152 -0.000001 0.428768 0.000062
0.414288 0.706052 0.545756 0.000000 0.999672 0.000000
2.947772 0.387585 0.330426 -0.000000 -0.665930 0.000698
2.947772 0.387585 0.753288 0.000000 -0.665930 -0.000698
2.003077 0.521292 0.589329 -0.000000 -0.879796 0.000004
2.097975 0.702596 0.515656 0.000001 0.964657 -0.000008
2.999513 0.690060 0.595813 0.000000 0.841810 0.000019
0.627044 0.582476 0.637116 0.000000 -0.262839 0.000109
0.864291 0.525400 0.596140 0.000000 -0.827793 0.000003
1.291336 0.548934 0.462723 -0.000001 -0.601108 -0.000020
2.240323 0.509207 0.537490 0.000000 -0.999672 -0.000000
3.295716 0.446791 0.685425 -0.350564 -0.001255 -0.001649
1.614562 0.764612 0.416197 -0.060485 0.006864 0.007047
0.247449 0.558725 0.627384 0.000000 -0.496339 0.000104
1.729098 0.446393 0.383737 -0.038315 0.006943 -0.008058
1.804396 0.327941 0.804191 0.060534 0.005452 0.006083
1.576078 0.479502 0.419501 -0.038314 0.002861 -0.003366
1.765830 0.565114 0.452981 0.000001 -0.428479 -0.000031
1.765798 0.711253 0.609361 0.095448 0.004746 -0.005310
2.952064 0.520774 0.495346 0.000000 -0.880282 -0.000008
2.010730 0.607156 0.640372 0.000000 -0.025212 0.000019
1.576078 0.745989 0.652738 -0.060483 0.003900 -0.004022
1.806689 0.487206 0.421877 0.060530 0.001871 -0.002095
1.771889 0.189691 0.163942 -0.038314 0.007905 -0.009131
1.481133 0.701756 0.570941 0.000001 0.955047 0.000004
1.591291 0.284148 0.830608 -0.060485 -0.007426 -0.007616
0.342348 0.520349 0.587578 0.000000 -0.880569 0.000002
1.433684 0.523241 0.592707 -0.000000 -0.855156 0.000004
1.692458 0.988400 0.877534 -0.060484 0.006261 -0.006435
1.481133 0.699261 0.505672 0.000000 0.933269 -0.000011
0.579595 0.527845 0.484049 -0.000001 -0.809840 -0.000005
3.189311 0.661580 0.624293 0.000000 0.539666 0.000023
3.320997 0.648183 0.456822 0.051390 0.000358 -0.000725
1.730627 0.441904 0.703860 -0.038315 0.006943 0.008058
2.240323 0.524178 0.594237 0.000000 -0.842022 0.000005
2.240323 0.526938 0.485318 0.000000 -0.813501 -0.000005
1.816625 0.923213 0.835249 0.060533 -0.005025 0.005610
3.046963 0.555907 0.458000 -0.000000 -0.517898 -0.000012
1.688612 0.281041 0.245579 -0.038315 0.005234 -0.006117
2.904615 0.584481 0.446094 0.000000 -0.238352 -0.000121
1.568632 0.791875 0.385939 -0.060485 0.006864 0.007047
2.572469 0.678763 0.610018 0.000000 0.716215 0.000007
1.692502 0.459537 0.431384 -0.060484 -0.013727 0.013833
1.121436 0.509120 0.542793 0.000000 -0.999682 0.000000
0.721943 0.509924 0.554575 0.000001 -0.976590 0.000001
3.169833 0.357768 0.779905 -0.000003 -0.665745 -0.000156
3.169833 0.357768 0.303809 0.000000 -0.665930 0.000312
1.815860 0.783428 0.373182 0.060534 -0.003368 -0.003767
2.973198 0.817469 0.339525 0.000000 0.665930 0.000200
1.886177 0.158956 0.135327 0.060534 0.006414 -0.007146
1.623481 0.599754 0.443649 0.000001 -0.088298 -0.000084
1.792167 0.868928 0.330216 -0.060481 0.002002 0.002068
1.933564 0.168799 0.930136 0.095449 -0.004746 -0.005310
0.175504 0.702735 0.522311 -0.089829 0.000439 -0.000079
0.959190 0.575756 0.448626 0.000000 -0.335417 -0.000010
2.660257 0.508378 0.622942 0.200673 0.001602 0.000948
0.524493 0.706060 0.545444 0.000000 0.999682 0.000000
2.382672 0.675506 0.470445 0.000000 0.698120 -0.000030
1.653335 0.682387 0.606057 0.000001 -0.746013 -0.000296
1.386235 0.616698 0.443756 -0.000000 0.088665 -0.000042
3.141862 0.556641 0.626159 -0.000000 -0.518157 0.000049
3.221468 0.437708 0.405195 -0.000002 0.665899 -0.000298
3.320997 0.550271 0.467113 0.051545 -0.000499 -0.000633
0.245919 0.609964 0.443359 0.000000 0.008790 -0.000027
2.145425 0.561216 0.628762 -0.000001 -0.473649 0.000028
2.952064 0.519553 0.586013 0.000001 -0.892003 0.000015
1.006639 0.560289 0.628263 0.000001 -0.470955 0.000014
0.816842 0.696182 0.498678 -0.000000 0.903258 -0.000007
2.143894 0.706143 0.542169 -0.000000 0.999682 0.000000
1.860728 0.515496 0.506946 0.000000 -0.932323 -0.000003
0.135335 0.518164 0.537320 -0.253681 -0.000071 -0.000002
2.809716 0.697596 0.581995 -0.000000 0.913856 0.000026
3.195118 0.268380 0.829670 0.000001 0.665930 0.000624
3.195118 0.268380 0.254044 0.000000 0.665931 -0.000624
1.670931 0.672211 0.467460 -0.000000 0.660918 -0.000034
1.813279 0.687039 0.483541 0.000000 0.813501 -0.000005
2.805139 0.750842 0.654687 0.000000 -0.665930 0.000399
1.731022 0.519480 0.591067 0.095448 -0.004746 -0.005310
2.058179 0.606688 0.443353 -0.000005 -0.002485 -0.000192
1.823993 0.706147 0.542013 -0.000000 0.999682 0.000000
1.054089 0.535098 0.475176 0.000000 -0.733337 -0.000007
0.383675 0.607000 0.640376 0.000000 -0.012609 0.000303
0.579595 0.680096 0.475119 -0.000000 0.733173 -0.000007
0.911741 0.666407 0.462793 0.000001 0.593329 -0.000005
1.629524 0.482732 0.664162 -0.038315 0.020134 0.021027
1.006639 0.651258 0.630192 -0.000000 0.451713 0.000029
2.670948 0.689684 0.600094 -0.000000 0.746010 0.000261
1.382410 0.696750 0.621415 -0.038316 -0.009155 0.010503
1.148988 0.608092 0.640372 0.000000 0.025593 0.000019
1.682193 0.829846 0.724948 -0.060486 0.002221 -0.002293
0.627044 0.515650 0.506546 -0.000000 -0.933269 -0.000011
3.189311 0.513627 0.571389 -0.000000 -0.929643 0.000001
0.167383 0.631713 0.634895 -0.121369 0.000090 0.000313
1.838123 1.147905 0.064093 -0.060486 0.006698 0.006879
1.838123 1.147905 1.019621 -0.060489 0.006697 -0.006878
1.420275 0.532029 0.478588 -0.060485 -0.012479 0.012629
3.043703 0.505178 0.618292 0.000000 0.665930 0.000200
1.902992 0.511490 0.620303 0.095449 -0.001271 -0.001424
0.911741 0.515454 0.576658 0.000000 -0.933346 0.000001
1.576032 0.566417 0.631353 -0.000000 -0.428593 0.000016
2.050526 0.692803 0.591365 -0.000001 0.867957 0.000017
3.038469 0.730456 0.447224 -0.000000 -0.665930 -0.000200
3.044886 0.397778 0.744189 -0.000002 -0.665924 -0.000449
1.101538 0.647441 0.631972 0.000000 0.405772 0.000033
3.202890 0.490650 0.631260 0.000000 0.665930 0.000419
3.304149 0.548345 0.616190 0.042349 -0.002826 0.003156
1.849490 0.922181 0.275312 0.095449 0.003119 0.003492
1.148988 0.558318 0.456562 0.000000 -0.495619 -0.000003
1.651649 0.381113 0.352039 -0.060485 -0.009173 0.009371
2.525020 0.520608 0.495655 0.000000 -0.879944 -0.000002
3.094412 0.646010 0.632593 0.000001 0.380493 0.000018
1.462052 0.485159 0.436749 -0.060484 -0.006240 0.006414
1.452037 0.440381 0.691146 -0.060484 -0.006240 -0.006414
0.769393 0.520011 0.586918 0.000000 -0.892075 0.000007
1.148988 0.706040 0.537490 0.000000 0.999682 -0.000000
1.859426 1.048887 0.139761 0.060535 -0.006414 -0.007146
0.437247 0.672650 0.467846 0.000000 0.660916 -0.000067
1.196437 0.699612 0.506582 0.000000 0.933102 -0.000006
0.200000 0.634728 0.447131 -0.026499 0.000221 -0.000738
1.936239 0.781314 0.693807 0.095449 0.002136 -0.002392
2.988900 0.444019 0.410829 0.000000 0.665930 -0.000200
3.023410 0.786890 0.716893 0.000010 0.664947 -0.000200
1.918278 0.377726 0.750493 0.060534 0.005880 0.006556
1.859426 1.059404 0.932171 -0.060485 0.009609 -0.009807
3.044886 0.397778 0.339525 -0.000000 -0.665930 0.000449
0.342348 0.575168 0.634879 0.000000 -0.335382 0.000166
1.522761 0.445055 0.403055 -0.060484 -0.006240 0.006414
0.380614 0.609340 0.443352 0.000000 0.012609 -0.000076
0.135335 0.556453 0.468337 -0.246017 -0.000087 -0.000118
2.430121 0.563989 0.630192 0.000001 -0.451056 0.000029
1.736417 0.747193 0.640382 -0.060486 0.003536 -0.003648
0.864291 0.521477 0.494042 0.000000 -0.880453 -0.000004
1.433684 0.649464 0.452663 0.000001 0.409931 -0.000004
0.769393 0.658807 0.626037 0.000000 0.517999 0.000024
2.192874 0.587486 0.638301 0.000000 -0.213754 0.000068
1.291336 0.537138 0.610689 -0.000001 -0.704799 0.000007
2.097975 0.662359 0.623774 0.000000 0.560223 0.000011
1.386235 0.582025 0.636993 0.000000 -0.262826 0.000054
3.237265 0.799694 0.385419 -0.000004 -0.665857 -0.000298
3.187505 0.232807 0.876438 0.200674 -0.001522 -0.003397
3.187505 0.982441 0.876438 0.200674 0.001522 -0.003397
2.677730 0.725113 0.436980 0.200676 0.001601 0.003574
3.187505 0.232807 0.207276 0.200675 -0.001522 0.003397
3.187505 0.982441 0.207276 0.200675 0.001522 0.003397
2.911377 0.843055 0.752015 0.200677 0.001601 -0.003574
2.783934 0.436524 0.389125 0.200677 -0.001601 0.003574
3.102543 0.939553 0.245560 0.200675 0.001522 0.003397
3.102543 0.275695 0.838154 0.200672 -0.001522 -0.003397
3.102543 0.275695 0.245560 0.200676 -0.001522 0.003397
2.826415 0.800167 0.713731 0.200675 0.001601 -0.003574
1.433684 0.613626 0.640194 -0.000000 0.063192 0.000234
0.769393 0.547315 0.463944 0.000000 -0.621896 -0.000009
2.335222 0.561216 0.454952 0.000000 -0.473773 -0.000014
2.942639 0.761035 0.419928 -0.000000 -0.665930 -0.000698
1.888088 0.442242 0.403512 0.095449 -0.002136 0.002392
1.813279 0.523039 0.592373 0.000000 -0.855294 0.000018
1.623481 0.511665 0.564205 0.000000 -0.971168 0.000001
0.484696 0.605908 0.443352 -0.000000 -0.012604 -0.000038
0.579595 0.567913 0.451695 0.000000 -0.405867 -0.000017
3.144607 0.880232 0.313527 -0.000000 -0.665922 -0.000117
1.876241 0.354128 0.774974 0.060533 0.005880 0.006556
2.999513 0.649605 0.630984 -0.000001 0.428924 0.000125
2.904615 0.650239 0.453031 -0.000000 0.428973 -0.000062
2.952064 0.684857 0.480693 -0.000000 0.782915 -0.000024
0.639289 0.706062 0.545366 0.000010 0.048993 0.000000
1.148988 0.649182 0.452529 0.000000 0.429011 -0.000031
0.911741 0.705913 0.535115 -0.000000 0.997943 -0.000001
1.742569 0.277359 0.239745 -0.038315 0.005234 -0.006117
3.189311 0.516112 0.505345 -0.000000 -0.933278 -0.000046
0.674494 0.660069 0.625261 -0.000000 0.539608 0.000023
0.674494 0.533329 0.477152 0.000000 -0.744384 -0.000003
1.576032 0.704721 0.525167 0.000001 0.986260 -0.000005
1.731022 0.695768 0.492647 -0.000002 -0.746013 0.000830
1.960315 0.889809 0.793750 0.060532 -0.010904 0.012022
1.960315 0.249553 0.222225 0.060534 0.009193 -0.010183
1.960315 0.984665 0.205290 0.060534 -0.008338 -0.009254
1.960315 0.097784 0.086748 0.060533 0.009835 -0.010875
1.960315 0.097784 0.996966 0.060535 0.009834 0.010875
2.335222 0.649993 0.452914 0.000000 0.428915 -0.000031
1.723470 0.488860 0.663689 -0.038315 0.020134 0.021027
2.762267 0.656252 0.627539 -0.000000 0.496242 0.000052
2.540326 0.605596 0.443381 0.000000 -0.025403 -0.000009
0.484696 0.696115 0.585177 -0.000000 0.901894 0.000004
2.619918 0.659641 0.625532 -0.000000 0.519656 0.000003
0.741841 0.706076 0.538894 0.000000 0.999672 -0.000000
3.148217 0.505186 0.435402 -0.000000 -0.665931 0.000869
1.549753 0.688447 0.599268 0.000000 -0.746014 -0.000474
0.111984 0.595201 0.622951 -0.337013 -0.000017 0.000094
0.769393 0.559808 0.628004 0.000000 -0.473599 0.000007
1.900699 1.008817 0.904829 0.060533 -0.008338 0.009254
0.200000 0.509602 0.531889 -0.026498 -0.000767 -0.000068
0.034915 0.616758 0.577137 -0.638664 0.000005 0.000017
2.430121 0.522677 0.491942 0.000001 -0.812059 -0.000002
1.895349 0.115769 0.111152 0.095448 -0.003526 0.003947
1.758397 1.118579 0.085752 -0.038316 -0.006195 -0.007214
1.758397 1.118579 0.997962 -0.038316 -0.006195 0.007214
1.702695 1.056086 0.942177 -0.038316 -0.007904 0.009131
1.716620 0.143538 0.956124 -0.060485 -0.010192 -0.010385
1.549515 0.331018 0.294944 -0.060484 -0.008591 0.008788
1.646993 0.221655 0.197321 -0.060485 -0.003131 0.003230
1.619142 0.252901 0.858500 -0.060484 -0.006844 -0.007026
1.814098 1.181073 1.053747 -0.038315 -0.017939 0.019166
1.814098 1.181073 0.029967 -0.038316 -0.017939 -0.019166
3.046963 0.703526 0.519282 -0.000000 0.970969 -0.000002
0.294899 0.519099 0.498607 0.000001 -0.900621 -0.000004
1.915221 0.828545 0.742729 0.060534 -0.006307 0.007028
0.342348 0.681274 0.607293 -0.000000 0.750300 0.000026
0.074992 0.667051 0.516355 -0.481512 0.000045 -0.000018
1.338785 0.519306 0.585526 -0.000001 -0.889562 0.000008
1.101538 0.529617 0.602042 -0.000001 -0.791386 0.000006
3.094412 0.705503 0.553065 0.000000 0.993498 0.000002
0.674494 0.516126 0.578406 0.000000 -0.923956 0.000003
1.338785 0.652963 0.454385 -0.000000 0.451793 -0.000029
0.532146 0.566206 0.631252 -0.000001 -0.428802 0.000062
1.799523 1.011801 0.192561 -0.060484 0.005679 0.005842
1.148988 0.554718 0.624966 0.000000 -0.539493 0.000023
