1.656486 -0.176282 -0.145022 0.143733 -0.677626 0.721224
-0.162822 0.172014 -0.162526 -0.042682 -0.632023 -0.773773
1.527810 0.080371 -0.025517 -0.000006 0.961506 -0.270389
-1.477889 0.008612 0.083884 0.000004 0.068123 0.996510
-0.242676 0.157865 -0.119787 -0.056262 0.673266 0.737257
-0.064905 -0.017140 0.082564 -0.000002 -0.169603 0.984331
1.192933 0.061159 -0.058054 0.000545 0.750344 -0.659265
1.294819 0.120113 0.111253 -0.081837 -0.547400 0.832860
1.381148 0.128973 0.093991 0.000000 0.650839 -0.759216
-1.637666 0.019741 0.081982 -0.000028 0.239700 0.969666
1.511276 -0.164050 0.124062 0.000000 -0.650839 -0.759216
1.445141 -0.094318 0.064283 0.000000 -0.650839 -0.759216
-1.814828 0.021911 -0.026142 -0.582758 0.426390 -0.685545
-0.833945 -0.050009 0.067896 -0.001066 -0.556344 0.829155
-0.823759 0.077340 -0.033604 0.000016 0.929135 -0.366573
1.632173 -0.091503 -0.095011 0.048048 0.638162 -0.767575
0.014313 -0.607839 0.516776 0.074176 -0.649046 -0.757124
1.688321 -0.148092 0.124881 0.143733 -0.677626 -0.721224
1.492848 0.082495 0.017471 -0.000207 0.959709 0.276424
1.596625 -0.147785 -0.110118 -0.000000 -0.650839 0.759216
-0.257466 -0.097610 -0.096532 -0.042682 0.632023 -0.773773
-0.133202 0.233619 -0.214480 -0.012045 -0.638076 -0.769551
-0.045561 0.649025 0.553274 -0.056262 0.673266 -0.737257
-0.156401 0.499083 -0.424805 -0.056262 0.673266 0.737257
1.223220 0.033583 -0.077349 -0.000013 0.334455 -0.941175
-1.163338 -0.048603 0.068909 -0.000472 -0.547924 0.835105
0.208161 0.066993 0.051211 0.000015 0.773113 0.632463
1.138329 0.055358 -0.063609 -0.000032 0.629639 -0.775393
-0.049501 0.659411 -0.566887 -0.042682 -0.632023 -0.773773
-0.279594 -0.073510 -0.041316 -0.000006 -0.886930 -0.459379
1.373006 0.157514 -0.143517 -0.081837 -0.547400 -0.832860
-0.888705 0.041316 -0.073510 0.000017 0.459262 -0.886987
0.058150 -0.636149 0.545340 0.056289 0.649807 0.758012
0.013792 -0.679952 0.578544 0.074176 -0.649046 -0.757124
0.419682 0.055025 -0.063897 -0.000036 0.678222 -0.733317
1.572092 0.016442 0.082706 0.000003 0.259605 0.964661
1.234616 0.077127 0.034090 -0.000062 0.939807 0.337865
1.119630 0.041614 0.073341 0.000375 0.464100 0.884590
1.580528 -0.069208 -0.075899 0.024106 0.758995 0.650650
-0.038927 -0.655089 -0.563939 -0.042682 0.632023 -0.773773
-0.867445 0.063002 0.056048 -0.000626 0.721161 0.690778
-0.270126 0.230641 -0.188342 -0.056262 0.673266 0.737257
-0.191487 -0.143425 0.102694 -0.056262 -0.673266 -0.737257
0.020064 -0.237521 0.199884 0.074176 -0.649046 -0.757124
-1.637616 0.055452 -0.063527 0.000212 0.631020 -0.774240
1.401533 0.183501 0.149711 -0.081837 0.739425 -0.668247
-0.118780 -0.171929 0.130052 0.074176 -0.649046 -0.757124
0.863749 -0.077333 -0.033619 0.000030 -0.929054 -0.366769
-1.422913 -0.056451 0.062641 0.001156 -0.702841 0.709405
-0.303759 0.278101 0.234248 -0.056262 0.673266 -0.737257
1.018499 -0.025512 -0.080373 -0.000022 -0.269478 -0.961796
1.525697 -0.242708 0.214515 -0.081837 0.547400 0.832860
0.026927 -0.614665 -0.523863 0.074176 -0.649046 0.757124
0.803855 0.017173 -0.082557 0.000014 0.169811 -0.984294
-0.778824 0.034876 0.076774 -0.000844 0.484357 0.873305
-0.384440 0.084325 -0.000000 0.000032 0.998249 0.034097
0.968625 0.008620 -0.083883 -0.000010 0.068175 -0.996505
-1.013636 -0.048588 0.068920 -0.000003 -0.547372 0.835497
0.863786 -0.048720 -0.068826 -0.000236 -0.548991 -0.834409
-1.143331 0.082568 -0.017123 -0.000145 0.984333 -0.169571
0.669025 -0.008615 -0.083884 0.000016 -0.034069 -0.998254
1.103400 -0.033595 -0.077344 0.000001 -0.366358 -0.929221
1.623566 0.193990 0.176655 0.143733 -0.609199 0.779883
-1.168297 -0.083884 -0.008615 0.000001 -0.998253 -0.034081
0.913665 -0.082560 -0.017160 0.000229 -0.989441 -0.136468
0.000006 -0.008640 0.083881 0.000021 -0.068215 0.996501
-1.208306 -0.073510 0.041315 -0.000254 -0.886691 0.459806
0.018809 -0.460599 0.397771 0.056289 0.649807 0.758012
-0.224650 0.082564 0.017142 0.000001 0.989543 0.135932
1.483522 0.107447 -0.108679 0.000000 -0.650839 -0.759216
0.783887 0.082562 -0.017151 -0.000009 0.989528 -0.136035
-1.377985 0.055278 0.063679 0.000074 0.680734 0.730954
-1.597677 -0.083881 -0.008640 -0.000027 -0.996501 -0.068209
-0.061048 -0.170506 -0.155018 0.056289 0.649807 -0.758012
-1.013425 -0.061612 -0.057572 0.000013 -0.681592 -0.730140
1.688251 0.173431 0.148674 0.143733 -0.609199 0.779883
-0.003612 0.266045 -0.222016 0.074176 0.649046 0.757124
0.624183 0.061527 0.057663 -0.000059 0.705398 0.707179
-0.080410 0.378043 0.334367 0.056289 -0.649807 0.758012
1.293066 -0.061596 0.057590 0.000028 -0.705988 0.706580
-0.169775 -0.321512 -0.263667 -0.056262 -0.673266 0.737257
1.494372 -0.092521 -0.062744 0.000000 -0.650839 0.759216
0.614105 0.084325 -0.000000 0.000460 0.998174 0.034838
1.547754 0.201506 0.156171 0.000000 0.650839 -0.759216
-0.365262 -0.215198 -0.186633 -0.042682 0.632023 -0.773773
-1.652591 -0.081871 -0.020192 0.008848 -0.980971 -0.187869
0.365814 -0.061998 -0.057156 -0.000552 -0.769718 -0.636484
-0.225869 -0.237140 -0.190899 -0.056262 -0.673266 0.737257
1.038481 0.041305 0.073516 0.000052 0.459265 0.886992
1.672748 -0.041271 -0.080056 -0.274780 -0.442907 -0.852544
1.577710 -0.025555 -0.080359 -0.000003 -0.269769 -0.961712
1.516518 -0.262153 -0.222660 -0.081837 -0.739425 0.668247
-0.086431 -0.066770 -0.067975 0.056289 0.649807 -0.758012
1.627556 0.039235 0.074641 -0.000363 0.484847 0.873247
0.674018 -0.000000 0.084325 0.000015 0.034091 0.998252
1.368006 -0.008615 -0.083884 0.000016 -0.034069 -0.998254
-0.114428 0.034112 -0.077117 0.000252 0.432350 -0.900438
-0.469307 0.080365 -0.025538 -0.000120 0.961464 -0.270518
0.713913 -0.033599 0.077342 -0.000445 -0.367225 0.928851
-1.083454 -0.033626 0.077330 -0.000001 -0.366442 0.929191
-1.368012 -0.083881 0.008640 -0.000014 -0.996505 0.068179
-0.289595 -0.083881 0.008639 -0.000003 -0.996498 0.068239
-1.213733 0.056577 -0.062528 0.000186 0.621276 -0.782255
0.998502 -0.083884 0.008612 0.000001 -0.996516 0.068067
-0.584147 -0.033570 0.077355 -0.000350 -0.367768 0.928598
-0.138878 -0.323239 0.287369 -0.042682 0.632023 0.773773
-0.983652 0.017133 0.082566 -0.000000 0.169495 0.984351
1.318005 -0.094306 -0.064273 0.000000 -0.650839 0.759216
-1.698076 0.021774 -0.078964 -0.137533 0.322498 -0.934670
0.014854 -0.076233 0.036045 0.001531 -0.923767 0.378876
-0.539257 -0.008612 0.083884 0.000000 -0.068082 0.996514
1.481442 -0.177062 -0.135216 0.000000 -0.650839 0.759216
-1.303398 0.033504 -0.077383 -0.000193 0.458416 -0.887455
1.108331 -0.073577 0.041196 -0.000300 -0.887697 0.457954
-0.549194 -0.008640 -0.083881 0.000027 -0.068205 -0.996502
1.438551 0.149303 0.144561 -0.052681 -0.585482 0.808058
0.839061 0.076048 -0.036433 -0.000185 0.870059 -0.490396
1.399891 -0.169159 -0.153812 -0.081837 0.547400 -0.832860
1.661868 0.000000 0.086968 -0.275767 0.031575 0.959634
1.541839 0.143623 0.106550 -0.000000 0.650839 -0.759216
-0.118745 0.352280 0.287870 -0.056262 0.673266 -0.737257
-0.183269 0.068766 0.049347 -0.000000 -0.759216 -0.650839
-0.555790 0.066675 -0.051624 0.001573 0.770422 -0.635443
1.540891 0.231690 -0.185967 -0.081837 0.739425 0.668247
-0.255082 -0.296189 -0.247052 -0.056262 -0.673266 0.737257
-1.148769 0.067165 0.050986 0.001002 0.837979 0.543369
-0.093825 0.143085 -0.107770 0.074176 0.649046 0.757124
0.007597 -0.312775 0.263174 0.074176 -0.649046 -0.757124
-0.132541 0.289353 0.260040 -0.042682 -0.632023 0.773773
-0.167382 -0.066032 -0.052444 0.000356 -0.765266 -0.642053
1.726804 0.056038 0.047364 1.000000 0.000000 0.000000
-0.249618 0.323862 0.281769 -0.042682 -0.632023 0.773773
-0.022936 0.360841 -0.315352 0.056289 -0.649807 -0.758012
0.010110 0.424605 -0.367560 0.056289 -0.649807 -0.758012
1.605251 -0.198239 -0.155441 0.143733 -0.677626 0.721224
1.118370 -0.008615 0.083884 -0.000065 -0.033400 0.998322
-0.131629 -0.269447 -0.243831 -0.042682 0.632023 -0.773773
1.529864 -0.194166 -0.183019 -0.054636 0.583024 -0.809832
-0.076349 -0.143024 -0.109430 0.074176 -0.649046 0.757124
0.016732 0.685095 -0.583240 0.074176 0.649046 0.757124
1.726804 -0.103672 -0.019387 1.000000 -0.000000 0.000000
-0.064459 0.233710 -0.188336 0.074176 0.649046 0.757124
1.355538 -0.124894 -0.090495 -0.054636 -0.711224 0.699933
-0.064639 0.520950 0.452955 -0.042682 -0.632023 0.773773
-0.630665 0.061002 -0.058219 -0.000106 0.673581 -0.737534
1.003593 0.079286 0.028714 0.000887 0.913038 0.405194
-0.090679 -0.336457 0.273847 0.074176 -0.649046 -0.757124
1.227434 -0.079690 0.078063 -0.081837 0.547400 0.832860
0.058150 -0.437811 0.375314 0.056289 0.649807 0.758012
0.058150 -0.338642 -0.290302 0.074176 -0.649046 0.757124
-0.455862 0.066196 0.052344 0.000000 -0.759216 -0.650839
-0.133202 0.233619 0.214480 -0.012045 -0.638076 0.769551
-0.160687 0.359481 0.297647 -0.056262 0.673266 -0.737257
1.401098 -0.067734 -0.074635 0.000000 0.650839 -0.759216
0.544235 0.082563 0.017148 -0.000013 0.989534 0.135993
0.032450 0.157378 0.136821 0.056289 -0.649807 0.758012
1.643892 0.082701 -0.016470 -0.000743 0.984897 -0.166303
-0.574189 -0.068866 0.048663 0.000012 -0.835034 0.548085
-0.098953 -0.393119 0.323655 -0.056262 -0.673266 -0.737257
-0.060538 -0.141375 0.109566 0.074176 -0.649046 -0.757124
1.579495 0.252824 -0.204625 -0.081837 0.739425 0.668247
-0.149367 -0.085046 0.088316 0.056289 0.649807 0.758012
-0.111549 -0.241873 -0.190720 0.074176 -0.649046 0.757124
0.286228 0.060903 -0.058323 -0.000132 0.740195 -0.670851
-0.406450 -0.068010 0.050229 -0.056262 -0.673266 -0.737257
1.487188 0.098509 0.101018 -0.000000 -0.650839 0.759216
-0.063875 -0.381347 -0.335971 0.056289 0.649807 -0.758012
-0.335893 0.016653 -0.082664 0.000529 0.159569 -0.986234
-0.066270 -0.676239 0.579706 -0.056262 -0.673266 -0.737257
-0.105285 0.322953 -0.288988 -0.010630 -0.638319 -0.769313
-0.046880 -0.272446 -0.223265 0.074176 -0.649046 0.757124
-0.156744 0.149751 0.107321 0.074176 0.649046 -0.757124
1.413599 0.196195 -0.162280 -0.081837 0.739425 0.668247
1.372141 -0.116675 0.116590 -0.054636 0.583024 0.809832
-0.044473 0.148503 0.117251 0.074176 0.649046 -0.757124
-0.768905 -0.080378 0.025495 0.000867 -0.969735 0.238911
-0.276877 -0.236667 0.194360 -0.056262 -0.673266 -0.737257
-0.123928 0.183770 -0.171058 0.056289 -0.649807 -0.758012
-0.270668 0.171042 0.133957 -0.056262 0.673266 -0.737257
1.561395 0.101532 -0.070467 0.000000 0.650839 0.759216
0.538947 0.067349 -0.050742 -0.000681 0.815624 -0.576999
-0.415323 0.047475 -0.069691 0.000403 0.535968 -0.842850
-1.821140 -0.022675 -0.018557 -0.633484 -0.552405 -0.530472
1.507784 0.055359 -0.063608 -0.000023 0.602919 -0.796347
-0.330507 0.177906 -0.158089 -0.042682 -0.632023 -0.773773
0.016635 0.371270 -0.321354 0.056289 -0.649807 -0.758012
-0.189011 -0.151593 0.144402 -0.042682 0.632023 0.773773
1.193259 -0.082555 0.017185 0.000215 -0.984208 0.170223
-1.775749 -0.043710 0.037978 -0.462488 -0.703029 0.533524
-0.185069 0.242258 -0.192459 -0.056262 0.673266 0.737257
-0.019967 0.041296 -0.073521 -0.000004 0.459299 -0.886970
-0.123936 -0.049397 -0.068342 -0.000331 -0.554485 -0.830919
-0.169823 0.106470 0.068937 0.074176 0.649046 -0.757124
1.673846 -0.084331 0.081729 0.143733 0.609199 0.779883
-0.193517 -0.252277 -0.226393 -0.042682 0.632023 -0.773773
1.726804 -0.018332 -0.007926 1.000000 -0.000000 0.000000
-0.193924 0.331599 0.274721 -0.056262 0.673266 -0.737257
-0.949290 -0.051873 0.066482 0.002619 -0.665068 0.745899
-0.256977 0.068964 -0.048525 0.000109 0.834188 -0.549331
1.688181 0.041792 -0.084717 -0.275729 0.437556 -0.854929
1.557632 0.158088 0.152091 -0.000000 -0.650839 0.759216
-1.223349 -0.056405 -0.062683 -0.001158 -0.694182 -0.717816
-0.029965 0.502942 0.437691 0.056289 -0.649807 0.758012
0.017582 -0.534898 0.454568 0.074176 -0.649046 -0.757124
-0.405808 -0.082413 -0.017856 -0.000005 -0.983087 -0.175831
-0.671127 -0.076958 -0.034470 -0.000486 -0.897033 -0.438879
-0.176620 -0.221591 0.202260 -0.042682 0.632023 0.773773
0.843776 -0.017150 0.082562 -0.000013 -0.135988 0.989534
0.823683 -0.057523 0.061659 0.000024 -0.729522 0.682254
0.128385 0.073367 0.041569 -0.000035 0.835376 0.547728
-0.106417 0.480894 0.417933 -0.042682 -0.632023 0.773773
0.019851 -0.396747 0.336360 0.074176 -0.649046 -0.757124
1.559152 0.155819 -0.117006 0.000000 0.650839 0.759216
-0.313608 0.156196 0.141289 -0.042682 -0.632023 0.773773
0.022204 -0.238385 -0.200834 0.074176 -0.649046 0.757124
1.575965 -0.170184 0.129320 0.000000 -0.650839 -0.759216
1.338517 -0.076766 0.034895 -0.000369 -0.873880 0.482856
1.498596 -0.026306 -0.080116 0.000265 -0.240001 -0.969403
0.047594 -0.354155 0.304384 0.056289 0.649807 0.758012
-0.247074 0.370766 -0.320221 -0.042682 -0.632023 -0.773773
-0.012026 -0.212351 -0.187249 0.056289 0.649807 -0.758012
0.058150 -0.186075 -0.159513 0.074176 -0.649046 0.757124
1.480057 -0.186071 0.142939 -0.054636 -0.711224 -0.699933
1.430213 -0.138391 0.135207 0.000000 0.650839 0.759216
0.359496 0.073499 -0.041335 0.000030 0.901958 -0.429116
0.654081 0.082563 -0.017146 -0.001309 0.981851 -0.181493
-0.080741 -0.083910 0.058324 0.074176 -0.649046 -0.757124
1.570837 -0.224706 0.207118 -0.081837 0.547400 0.832860
-1.679785 -0.082120 0.016964 -0.083962 -0.962119 0.254738
1.441596 -0.191940 -0.172884 -0.081837 0.547400 -0.832860
-0.096157 0.247061 -0.223252 0.056289 -0.649807 -0.758012
-0.042761 0.421954 -0.351834 0.074176 0.649046 0.757124
0.375946 -0.052476 0.066007 0.000247 -0.643475 0.764076
0.037644 0.266806 0.226710 0.074176 0.649046 -0.757124
-0.159750 0.008639 -0.083881 0.000001 0.068253 -0.996497
1.428742 -0.098322 0.100857 -0.000000 0.650839 0.759216
-0.027889 -0.511831 0.430338 0.074176 -0.649046 -0.757124
-0.175392 -0.390679 -0.340440 -0.042682 0.632023 -0.773773
-1.768622 0.021561 -0.057366 -0.399875 0.375041 -0.833827
-0.299623 0.080438 -0.025304 -0.000515 0.963400 -0.264187
0.058150 0.613264 -0.525721 0.074176 0.649046 0.757124
0.058150 -0.285244 -0.244525 0.074176 -0.649046 0.757124
0.058150 0.292872 -0.251065 0.074176 0.649046 0.757124
0.058150 -0.506467 0.434169 0.056289 0.649807 0.758012
0.058150 0.331014 0.283762 0.074176 0.649046 -0.757124
0.058150 -0.567494 0.486485 0.056289 0.649807 0.758012
-0.247705 0.373603 0.317184 -0.056262 0.673266 -0.737257
0.184328 -0.028585 0.079332 0.001096 -0.402602 0.914041
-0.181262 -0.067358 0.050730 0.000635 -0.775985 0.628716
-0.058882 -0.251711 0.204314 0.074176 -0.649046 -0.757124
1.424660 0.115146 0.115279 -0.000000 -0.650839 0.759216
1.145823 -0.088337 -0.075727 -0.081837 -0.739425 0.668247
1.449075 -0.237328 0.203449 -0.081837 -0.739425 -0.668247
1.280602 0.154555 -0.132493 -0.081837 -0.547400 -0.832860
1.263754 -0.146278 -0.125397 -0.081837 -0.739425 0.668247
-0.319988 0.330203 0.283066 -0.042682 -0.632023 0.773773
-0.319988 0.330203 -0.283066 -0.056262 0.673266 0.737257
-0.139458 -0.576421 0.494137 -0.056262 -0.673266 -0.737257
-0.251679 0.423366 -0.362931 -0.056262 0.673266 0.737257
-0.432210 -0.177148 0.151860 -0.056262 -0.673266 -0.737257
-0.427331 -0.183803 -0.157565 -0.042682 0.632023 -0.773773
-0.412693 0.203766 0.174679 -0.042682 -0.632023 0.773773
-0.154095 0.556457 -0.477023 -0.056262 0.673266 0.737257
0.029870 0.067265 -0.050854 0.000031 0.775479 -0.629528
-0.313430 -0.184671 0.164557 -0.042682 0.632023 0.773773
-1.213365 0.082185 0.018878 0.000396 0.981652 0.182529
-0.416615 -0.129452 0.107114 -0.056262 -0.673266 -0.737257
0.904782 -0.048531 0.068960 0.000045 -0.604795 0.794936
-0.948627 0.080369 -0.025523 0.001102 0.960508 -0.273583
0.109764 0.063524 -0.055456 0.000014 0.795464 -0.604076
-1.437898 0.083881 -0.008640 0.000023 0.996503 -0.068198
-0.696934 0.069230 -0.048144 0.002299 0.830886 -0.553853
-0.259475 -0.157540 0.145373 -0.042682 0.632023 0.773773
1.288115 -0.025499 -0.080377 -0.000011 -0.269381 -0.961824
-1.575318 0.074073 0.040296 0.000356 0.906431 0.419789
-1.098434 -0.073496 -0.041340 0.000027 -0.853248 -0.519266
-0.099242 -0.195474 -0.152150 0.074176 -0.649046 0.757124
-0.344515 0.033569 0.077355 0.000011 0.366216 0.929274
-1.238217 0.041327 0.073503 0.000018 0.518931 0.853451
0.753860 -0.033588 0.077347 0.000097 -0.334608 0.941108
-0.294571 0.000000 -0.084325 0.000880 0.035070 -0.998149
1.318079 0.083884 -0.008615 -0.000001 0.998253 -0.034080
0.174744 0.017179 -0.082556 0.000018 0.169867 -0.984283
0.289561 -0.083881 -0.008639 -0.000009 -0.996497 -0.068251
0.089852 -0.083881 0.008639 -0.000009 -0.996497 0.068251
-0.319475 0.063530 0.055449 -0.000463 0.774125 0.631145
0.783756 -0.057603 0.061583 -0.000012 -0.706800 0.705775
1.063425 -0.017194 0.082553 0.000018 -0.169812 0.984295
0.064906 0.033600 0.077341 -0.000003 0.366616 0.929117
0.039942 -0.008615 0.083884 0.000001 -0.034080 0.998253
0.983562 -0.034302 0.077033 0.000189 -0.432086 0.900529
0.463511 -0.034865 -0.076780 0.002017 -0.362838 -0.930572
-0.079935 0.468312 0.390869 -0.056262 0.673266 -0.737257
0.633960 -0.061755 0.057419 -0.000247 -0.706793 0.705818
-0.294789 -0.207943 -0.169495 -0.056262 -0.673266 0.737257
-0.297162 -0.049591 -0.068201 -0.000716 -0.620950 -0.782133
1.642130 0.236164 -0.206177 0.143733 -0.609199 -0.779883
-0.203843 0.140311 0.134369 -0.042682 -0.632023 0.773773
1.618234 0.107725 0.075777 -0.000000 0.650839 -0.759216
-0.115062 -0.609693 0.522660 -0.056262 -0.673266 -0.737257
0.813789 0.017194 0.082553 0.000006 0.169926 0.984271
-0.165018 0.082005 -0.048435 0.074176 0.649046 0.757124
1.183300 -0.017150 -0.082562 -0.000001 -0.169661 -0.984320
0.424322 0.033603 0.077340 -0.000076 0.366484 0.929173
1.003547 0.017186 0.082555 0.000021 0.169965 0.984264
-0.139400 -0.173064 -0.129005 0.074176 -0.649046 0.757124
-0.192911 -0.161653 -0.119448 -0.056262 -0.673266 0.737257
0.699308 -0.063576 0.055396 -0.000313 -0.728448 0.683365
0.893710 0.017167 -0.082559 -0.000005 0.169771 -0.984300
1.530198 0.084662 0.056006 0.024106 -0.758995 -0.650650
1.273123 0.017169 0.082558 0.000018 0.169723 0.984309
-0.226878 0.109492 -0.074407 -0.056262 0.673266 0.737257
-0.953538 -0.072028 -0.043847 -0.000298 -0.836149 -0.546266
1.207292 0.085524 0.065087 -0.081837 0.739425 -0.668247
-0.722946 -0.033407 -0.077425 0.000030 -0.427839 -0.902567
-1.318087 0.041335 0.073499 0.000008 0.459249 0.886998
-0.200743 -0.177571 -0.164974 -0.042682 0.632023 -0.773773
1.447729 0.146933 -0.142529 -0.000000 -0.650839 -0.759216
1.637835 0.295513 -0.253329 0.143733 -0.609199 -0.779883
1.661560 -0.238063 -0.204079 0.143733 -0.677626 0.721224
1.637835 -0.295513 -0.253329 0.143733 -0.677626 0.721224
1.637835 -0.295513 0.253329 0.143733 0.609199 0.779883
1.637835 0.295513 0.253329 0.143733 -0.609199 0.779883
0.226036 -0.059847 0.059406 0.000055 -0.677996 0.733568
-0.734009 0.033575 0.077352 -0.000132 0.367882 0.928553
-0.953621 -0.017087 -0.082575 -0.000015 -0.236120 -0.970525
1.387761 0.066990 -0.051216 0.000302 0.814563 -0.578068
0.058150 -0.224217 -0.192210 0.074176 -0.649046 0.757124
-0.010472 0.051322 0.066908 0.000147 0.632635 0.772911
-1.328241 0.066970 -0.051242 -0.000076 0.750078 -0.659596
-0.169614 0.467843 0.403787 -0.042682 -0.632023 0.773773
-0.219234 -0.347691 0.302909 -0.042682 0.632023 0.773773
-0.004905 -0.314400 -0.263342 0.074176 -0.649046 0.757124
0.429496 -0.079891 -0.026983 -0.002257 -0.961554 -0.269817
-0.276075 -0.390093 0.334408 -0.056262 -0.673266 -0.737257
1.651827 -0.164440 0.132967 0.143733 -0.677626 -0.721224
1.453841 -0.134076 -0.131508 -0.000000 0.650839 -0.759216
-0.316250 -0.142256 -0.129757 -0.042682 0.632023 -0.773773
-0.959007 0.067088 0.051087 -0.000151 0.773780 0.631623
1.563411 -0.100510 -0.102733 0.000000 0.650839 -0.759216
0.194657 0.033603 0.077340 -0.000076 0.366484 0.929173
1.508086 -0.211648 0.192370 -0.081837 0.547400 0.832860
1.529864 0.194166 -0.183019 -0.027357 -0.617503 -0.785284
-0.039775 0.583383 0.505323 -0.042682 -0.632023 0.773773
-0.396105 0.076552 0.071684 -0.042682 -0.632023 0.773773
1.605251 -0.198239 0.155441 0.143733 -0.677626 -0.721224
-0.292274 0.106297 -0.101708 -0.042682 -0.632023 -0.773773
-0.193032 0.049652 -0.068157 0.000748 0.560341 -0.827018
0.209677 0.080373 -0.025512 -0.000390 0.961838 -0.269320
-1.009438 0.080245 0.025913 0.000603 0.969752 0.238749
1.624663 0.073331 0.041632 -0.000159 0.852803 0.520289
0.016468 0.108369 -0.088815 0.074176 0.649046 0.757124
-0.814866 -0.069498 -0.047756 -0.000114 -0.836072 -0.546554
-0.098816 0.072562 -0.073860 0.056289 -0.649807 -0.758012
1.582994 0.153090 -0.147807 0.000000 -0.650839 -0.759216
1.566797 -0.171700 -0.130620 0.000000 -0.650839 0.759216
1.615339 -0.103037 0.104900 0.000000 0.650839 0.759216
-0.257104 -0.144373 -0.134749 -0.042682 0.632023 -0.773773
-0.158042 -0.232599 -0.181576 -0.056262 -0.673266 0.737257
-0.093652 -0.373094 -0.304963 0.030710 -0.658114 0.751626
-0.091912 0.323488 0.288454 0.056289 -0.649807 0.758012
-1.688379 0.082422 -0.010633 -0.117324 0.970487 -0.202471
-0.373775 -0.189597 -0.158769 -0.056262 -0.673266 0.737257
-0.040038 0.098440 -0.074768 0.074176 0.649046 0.757124
1.726804 -0.009677 -0.105024 1.000000 0.000000 -0.000000
1.726804 0.101440 -0.028873 -0.271487 0.911616 -0.306642
0.459322 0.080792 -0.024151 -0.001461 0.963833 -0.262542
-0.379441 -0.134901 -0.109254 -0.056262 -0.673266 0.737257
1.638007 0.093752 -0.063799 0.056046 0.662458 0.745771
-0.394425 0.000000 -0.084325 0.000004 0.034076 -0.998254
1.308081 -0.056534 -0.062567 -0.001298 -0.636051 -0.769806
-0.459134 -0.121366 0.104812 -0.042682 0.632023 0.773773
-1.705597 -0.059851 -0.054173 -0.151832 -0.676359 -0.717920
-0.197675 0.096272 0.098738 -0.042682 -0.632023 0.773773
1.673003 0.079292 0.067562 0.024106 -0.758995 -0.650650
-0.229567 -0.199185 -0.181039 -0.042682 0.632023 -0.773773
-0.231360 -0.389341 -0.336260 -0.042682 0.632023 -0.773773
-0.012350 0.152757 -0.136187 0.056289 -0.649807 -0.758012
-0.055341 -0.386731 0.339953 0.056289 0.649807 0.758012
-0.031322 0.324842 -0.285115 0.056289 -0.649807 -0.758012
-1.249973 0.065965 -0.052528 0.000184 0.803351 -0.593840
-0.145581 0.282324 -0.253579 -0.042682 -0.632023 -0.773773
-0.081169 0.284023 -0.229830 0.074176 0.649046 0.757124
-0.126180 -0.137863 0.100124 0.074176 -0.649046 -0.757124
1.555363 -0.076935 0.065953 0.024106 0.758995 -0.650650
0.034004 0.240414 -0.203730 0.074176 0.649046 0.757124
0.144860 -0.056430 0.062661 -0.000034 -0.685837 0.726161
-0.139630 -0.243746 0.222397 -0.042682 0.632023 0.773773
1.481260 0.219901 0.180225 -0.081837 0.739425 -0.668247
1.530260 -0.145506 -0.108164 -0.000000 -0.650839 0.759216
-0.383468 -0.185306 0.155590 -0.056262 -0.673266 -0.737257
1.557735 -0.216395 -0.168934 0.000000 -0.650839 0.759216
-0.215759 -0.260532 0.211489 -0.056262 -0.673266 -0.737257
-0.217706 0.055019 0.063903 -0.001152 0.607506 0.793281
1.364788 0.092650 0.062854 -0.000000 0.650839 -0.759216
1.517065 0.161924 -0.122239 0.000000 0.650839 0.759216
-0.151814 0.191931 0.143963 0.030710 0.658114 -0.751626
-0.124818 -0.084325 0.000000 -0.000186 -0.998245 0.032943
0.294437 -0.029095 0.079146 0.001522 -0.408533 0.911379
-0.123696 -0.454406 0.395344 -0.042682 0.632023 0.773773
0.059707 -0.041454 0.073432 -0.000048 -0.520007 0.852788
-0.465394 -0.021974 -0.081411 0.001674 -0.317711 -0.947224
-1.473076 -0.050974 0.067173 -0.000864 -0.561508 0.825575
-0.474304 0.033562 0.077358 0.000010 0.366097 0.929324
0.566450 -0.048319 0.069108 -0.000401 -0.569172 0.820600
-0.046472 0.333149 0.293361 0.056289 -0.649807 0.758012
0.058150 0.140305 -0.120276 0.074176 0.649046 0.757124
1.558066 -0.109418 0.110370 0.000000 0.650839 0.759216
-0.057300 -0.632261 -0.538861 -0.056262 -0.673266 0.737257
0.804235 0.073165 0.041923 -0.000972 0.841091 0.538112
0.058150 0.399669 0.342617 0.074176 0.649046 -0.757124
1.452039 0.108078 -0.076080 -0.000000 0.650839 0.759216
-0.173205 -0.410864 0.345525 -0.056262 -0.673266 -0.737257
-0.166810 -0.193031 0.179473 -0.042682 0.632023 0.773773
0.330759 -0.051601 -0.066693 -0.001059 -0.633429 -0.772347
0.500795 0.080238 0.025934 -0.000030 0.969421 0.239967
-0.047330 0.361881 0.318056 0.056289 -0.649807 0.758012
1.236744 -0.066791 -0.051474 -0.001596 -0.815837 -0.575644
-0.095536 0.170384 0.157474 0.056289 -0.649807 0.758012
-0.288035 -0.085345 0.084828 -0.042682 0.632023 0.773773
1.635579 -0.212274 -0.188723 0.143733 0.609199 -0.779883
0.029687 -0.137515 0.115096 0.074176 -0.649046 -0.757124
-1.350562 0.082211 0.018763 -0.000059 0.981408 0.184375
1.498396 0.163454 0.156691 0.000000 -0.650839 0.759216
1.188057 -0.086928 0.068996 -0.081837 -0.739425 -0.668247
-0.333969 -0.263254 -0.227611 -0.042682 0.632023 -0.773773
1.318005 0.077930 0.083376 -0.000000 -0.650839 0.759216
0.010724 -0.160735 0.141312 0.056289 0.649807 0.758012
-0.251679 0.423366 0.362931 -0.042682 -0.632023 0.773773
-0.324607 -0.057644 0.061546 -0.000871 -0.705244 0.707202
1.388727 -0.200895 -0.170526 -0.081837 -0.739425 0.668247
-0.250625 -0.050544 0.067498 0.000550 -0.653974 0.754831
1.502167 -0.230173 -0.189030 -0.081837 -0.739425 0.668247
-0.023352 0.190228 0.169125 0.056289 -0.649807 0.758012
-0.243074 0.034913 -0.076758 -0.000280 0.443664 -0.894904
0.038237 0.662241 0.565756 0.074176 0.649046 -0.757124
-0.042002 0.283984 0.233634 0.074176 0.649046 -0.757124
-0.046590 -0.203412 0.182153 0.056289 0.649807 0.758012
-0.039368 -0.329398 -0.289618 0.056289 0.649807 -0.758012
-0.043649 0.578459 -0.501087 -0.042682 -0.632023 -0.773773
-1.058477 -0.080374 -0.025510 0.000264 -0.961476 -0.270478
1.378003 -0.052267 0.066172 0.001979 -0.584863 0.809649
-0.827228 0.050639 -0.067427 0.000570 0.628773 -0.775985
-0.110827 -0.126709 -0.121170 0.056289 0.649807 -0.758012
-0.058433 0.087912 0.084020 0.056289 -0.649807 0.758012
-0.165773 -0.129396 -0.127553 -0.009686 0.638505 -0.769182
1.568050 -0.252706 -0.205895 -0.081837 -0.739425 0.668247
-0.117048 -0.579655 -0.498015 -0.042682 0.632023 -0.773773
-0.157575 -0.108422 -0.071810 0.074176 -0.649046 0.757124
0.038012 -0.661437 -0.568513 0.056289 0.649807 -0.758012
-0.045554 -0.244112 -0.199105 0.074176 -0.649046 0.757124
-0.047002 -0.577509 -0.488076 -0.056262 -0.673266 0.737257
-0.122852 -0.417963 0.365624 -0.042682 0.632023 0.773773
-0.099902 -0.195333 0.151965 0.074176 -0.649046 -0.757124
-0.060597 0.083652 -0.010633 0.001055 0.995045 -0.082203
-0.036283 -0.351816 0.292343 0.074176 -0.649046 -0.757124
1.700426 0.092354 0.032644 -0.274298 0.921840 0.271213
-1.076625 0.056640 -0.062470 -0.000660 0.641333 -0.765281
-1.517823 -0.073496 0.041340 0.000192 -0.853082 0.519506
-1.597841 -0.063608 0.055360 0.000034 -0.775074 0.630030
1.339385 -0.108533 0.076470 0.000000 -0.650839 -0.759216
1.618760 -0.246542 0.218591 0.143733 0.609199 0.779883
0.114805 0.017148 0.082563 0.000013 0.135993 0.989534
1.619866 0.148521 0.141819 0.143733 -0.609199 0.779883
1.285586 -0.123765 0.097812 -0.081837 -0.739425 -0.668247
0.052618 -0.077505 -0.033222 -0.000528 -0.941647 -0.333317
-0.447632 0.088871 -0.072423 -0.056262 0.673266 0.737257
-0.007128 0.495381 -0.418271 0.074176 0.649046 0.757124
0.012180 0.638507 0.542857 0.074176 0.649046 -0.757124
-1.077237 0.068638 0.048984 0.000270 0.851194 0.522358
-0.404239 -0.061939 -0.057221 0.000131 -0.755225 -0.653711
-0.102578 0.553191 0.470109 -0.056262 0.673266 -0.737257
-0.309660 -0.330159 0.282239 -0.056262 -0.673266 -0.737257
-0.259302 -0.199826 -0.159375 -0.056262 -0.673266 0.737257
-0.569128 0.083884 -0.008612 0.000001 0.996514 -0.068089
0.294665 -0.057590 -0.061596 0.000043 -0.706382 -0.706190
1.191473 -0.072101 -0.069541 -0.081837 0.547400 -0.832860
-0.738212 0.073469 -0.041388 -0.000514 0.887635 -0.458089
-0.469322 -0.083881 0.008640 -0.000027 -0.996501 0.068209
-0.029533 0.182899 -0.148200 0.074176 0.649046 0.757124
-0.258557 0.287381 0.239274 -0.056262 0.673266 -0.737257
-0.119176 -0.552204 0.475476 -0.042682 0.632023 0.773773
0.364468 0.017167 -0.082559 -0.000006 0.169839 -0.984288
-1.682645 -0.011308 -0.082869 -0.108081 -0.158406 -0.980076
-1.736383 -0.072910 -0.008823 -0.269386 -0.948417 -0.156668
1.612886 -0.115172 -0.115302 -0.000000 0.650839 -0.759216
-1.003550 -0.082553 0.017194 0.000017 -0.984261 0.169985
-0.108350 -0.472903 -0.411299 -0.042682 0.632023 -0.773773
-0.170426 0.114507 -0.115135 -0.009686 -0.638505 -0.769182
-0.149315 0.091987 -0.094262 0.056289 -0.649807 -0.758012
1.503894 -0.092505 0.062729 0.000000 -0.650839 -0.759216
1.451059 -0.227239 -0.197014 -0.081837 0.547400 -0.832860
-0.788851 0.073507 0.041321 0.000009 0.902039 0.428951
-0.243961 -0.133144 0.097310 -0.056262 -0.673266 -0.737257
0.058150 0.605636 0.519182 0.074176 0.649046 -0.757124
-0.197270 0.088077 -0.092066 -0.042682 -0.632023 -0.773773
-1.283130 0.084325 -0.000000 0.001504 0.998116 0.031304
-0.005034 -0.061603 -0.057583 -0.000004 -0.681512 -0.730216
1.459468 0.214459 -0.176872 -0.081837 0.739425 0.668247
0.962299 -0.076876 0.034653 0.001463 -0.938581 0.341033
1.319665 0.115564 0.084564 -0.081837 0.739425 -0.668247
1.726804 -0.023438 0.072531 1.000000 0.000000 0.000000
-0.119825 0.072637 0.044831 0.074176 0.649046 -0.757124
-0.554927 -0.042817 -0.072645 -0.000470 -0.522402 -0.851603
-1.522108 0.034330 0.077020 0.000798 0.368713 0.928231
0.325071 0.082671 0.016617 0.000929 0.989924 0.133775
1.665066 0.147926 0.133024 0.143733 -0.609199 0.779883
1.263212 0.048642 -0.068881 -0.000059 0.548250 -0.834915
1.411385 0.111299 -0.078841 0.000000 0.650839 0.759216
1.622414 0.061491 -0.057702 0.000110 0.750935 -0.658755
-0.045996 0.255257 0.208616 0.074176 0.649046 -0.757124
-0.019240 0.688511 0.592325 -0.042682 -0.632023 0.773773
-0.019240 -0.688511 -0.592325 -0.000000 -0.759216 -0.650839
1.726804 -0.065139 0.029533 1.000000 0.000000 0.000000
1.289014 0.072964 0.042272 -0.000428 0.858072 0.511610
1.567746 0.080370 -0.025520 -0.000948 0.959780 -0.275868
-0.139182 -0.294813 0.264134 -0.042682 0.632023 0.773773
-0.051139 0.383670 -0.318194 0.074176 0.649046 0.757124
-0.442004 -0.055404 0.063569 -0.000081 -0.633633 0.772118
-1.758560 -0.024486 -0.060872 -0.399875 -0.375042 -0.833827
1.623084 -0.239867 -0.212580 0.143733 0.609199 -0.779883
-1.624179 0.080411 0.025393 -0.000179 0.942791 0.330008
-0.027984 -0.120078 0.094499 0.074176 -0.649046 -0.757124
-0.085189 -0.209430 -0.190178 0.056289 0.649807 -0.758012
-0.190526 0.190205 -0.145340 -0.056262 0.673266 0.737257
-1.141647 0.066924 -0.051302 -0.000098 0.749092 -0.660648
-0.179531 -0.290458 0.236053 -0.056262 -0.673266 -0.737257
0.574163 -0.084325 0.000000 0.000227 -0.998249 0.033748
1.359428 0.098120 -0.100684 -0.000000 -0.650839 -0.759216
-0.707929 -0.080095 -0.026372 -0.000227 -0.959716 -0.276295
-0.001631 0.290620 0.253574 0.056289 -0.649807 0.758012
0.838699 0.041365 -0.073482 0.000083 0.519168 -0.853313
-0.122879 0.102123 0.069810 0.074176 0.649046 -0.757124
-0.595647 0.054586 -0.064273 0.000155 0.593771 -0.803199
0.833364 0.048687 0.068850 0.000103 0.604256 0.795338
-0.803828 0.000000 -0.084325 -0.000005 0.034135 -0.998248
1.182387 -0.018598 0.082248 0.000473 -0.177201 0.982742
-0.244668 -0.077320 0.033650 0.000034 -0.929105 0.366655
1.446852 -0.169757 0.128954 -0.054636 -0.711224 -0.699933
-0.913754 0.017133 0.082566 0.000000 0.169495 0.984351
-1.218267 0.008612 0.083884 -0.000007 0.068125 0.996510
-1.567758 -0.008612 0.083884 0.000000 -0.068082 0.996514
-0.843773 0.033561 0.077358 0.000169 0.366667 0.929078
0.058150 0.506467 -0.434169 0.074176 0.649046 0.757124
1.542335 0.210649 0.195079 -0.081837 -0.547400 0.832860
1.497809 -0.025539 0.080364 0.000094 -0.269846 0.961688
0.464348 -0.077355 0.033569 0.000046 -0.929289 0.366198
1.675126 -0.123646 -0.112203 0.143733 0.609199 -0.779883
0.858748 0.083884 0.008615 -0.000001 0.998253 0.034080
-0.221573 0.233649 0.209630 -0.042682 -0.632023 0.773773
0.584149 -0.000000 0.084325 0.000008 0.034148 0.998246
1.594256 0.183322 -0.173723 0.048048 -0.638162 -0.767575
0.047292 -0.662741 0.567071 0.074176 -0.649046 -0.757124
-0.509257 0.080374 0.025509 0.000014 0.970421 0.236549
-1.178289 -0.008640 -0.083881 -0.000016 -0.068229 -0.996499
-0.339506 0.080375 0.025507 0.000004 0.961771 0.269558
-1.243227 -0.077312 -0.033667 0.000029 -0.929042 -0.366810
0.828775 -0.083881 -0.008639 -0.000001 -0.996497 -0.068253
-0.181861 0.502676 0.430029 -0.056262 0.673266 -0.737257
0.049221 0.212985 0.181706 0.074176 0.649046 -0.757124
-1.542800 -0.057568 -0.061617 -0.000076 -0.706015 -0.706527
1.193274 0.082553 -0.017194 -0.000017 0.984261 -0.169985
0.254629 -0.000000 0.084325 -0.000331 0.033617 0.998248
-1.343042 0.000000 -0.084325 0.000090 0.034229 -0.998238
-1.128355 -0.083884 0.008615 0.000001 -0.998253 0.034080
-1.273144 0.000000 -0.084325 -0.000157 0.034372 -0.998223
0.848768 -0.073481 0.041366 0.000005 -0.886680 0.459859
-0.010091 0.076134 -0.036253 -0.001791 0.891064 -0.450615
1.542747 -0.082560 -0.017163 -0.000003 -0.989513 -0.136134
1.338034 0.025512 -0.080373 -0.000022 0.269478 -0.961796
1.606129 -0.278981 0.246258 0.068693 0.591401 0.801448
-1.008504 0.025495 -0.080378 -0.000001 0.236427 -0.970451
0.687871 0.080111 0.026322 0.001198 0.960493 0.273726
-0.079878 0.008640 -0.083881 0.000075 0.068288 -0.996493
-0.370867 -0.026080 0.080190 0.000681 -0.274043 0.960365
-0.164760 -0.000000 0.084325 -0.000000 0.034044 0.998257
1.643445 -0.017893 -0.082405 0.000089 -0.174417 -0.983446
-0.037397 -0.154722 0.139731 0.056289 0.649807 0.758012
-1.442940 0.017136 0.082565 0.000001 0.135879 0.989550
-0.127130 -0.173834 -0.162778 0.056289 0.649807 -0.758012
1.432953 -0.048717 -0.068828 -0.001246 -0.548670 -0.834629
0.888692 -0.025522 -0.080370 -0.000004 -0.269618 -0.961756
0.968619 0.080370 -0.025520 -0.000069 0.961321 -0.270966
-0.668982 0.083884 0.008612 -0.000000 0.996514 0.068085
1.602664 -0.084325 0.000000 -0.000001 -0.998249 0.034117
0.349485 -0.083881 -0.008640 -0.000022 -0.996504 -0.068188
0.224623 -0.077339 -0.033606 -0.000003 -0.941132 -0.334578
-0.539220 -0.083881 -0.008640 -0.000014 -0.996505 -0.068176
-0.076480 -0.542716 -0.458552 -0.056262 -0.673266 0.737257
1.462863 -0.082560 -0.017163 0.000157 -0.989140 -0.138485
-0.028523 -0.080194 -0.026069 0.000009 -0.969553 -0.239491
1.497599 -0.129771 -0.094676 -0.000000 -0.650839 0.759216
0.733930 0.000000 -0.084325 0.000014 0.034070 -0.998254
-0.938674 0.025480 -0.080383 0.000007 0.269217 -0.961871
1.038526 0.008617 -0.083883 -0.000007 0.068148 -0.996508
0.114833 0.000000 -0.084325 -0.000002 0.034114 -0.998250
-0.110602 0.134383 0.127731 0.056289 -0.649807 0.758012
0.883698 0.048602 0.068910 0.000238 0.548007 0.835053
1.143334 -0.017124 -0.082568 -0.000007 -0.236434 -0.970446
-0.624090 0.084325 -0.000000 0.000000 0.998257 0.034041
1.353006 0.048676 0.068857 0.000065 0.548076 0.835040
-0.948660 0.008612 0.083884 0.000000 0.068082 0.996514
0.887575 -0.073265 0.041747 0.000582 -0.899566 0.434002
-0.439343 0.083881 0.008639 0.000009 0.996497 0.068255
-0.509232 -0.067157 0.050996 -0.000683 -0.774752 0.630397
0.629077 -0.008640 0.083881 -0.000028 -0.068202 0.996502
-0.090568 -0.280052 0.225505 0.074176 -0.649046 -0.757124
-0.211152 0.424674 -0.366235 -0.042682 -0.632023 -0.773773
-0.848794 -0.080371 0.025520 -0.000040 -0.961787 0.269505
0.129785 -0.083882 -0.008632 0.000005 -0.996496 -0.068259
-0.231660 0.167452 0.127701 -0.056262 0.673266 -0.737257
1.412973 -0.077352 0.033576 0.000003 -0.941205 0.334377
-0.659082 -0.025476 0.080384 -0.000004 -0.269175 0.961883
0.883715 -0.017129 0.082567 -0.000002 -0.169501 0.984350
1.532755 0.033610 -0.077337 -0.000070 0.366432 -0.929191
1.158462 0.055364 0.063605 -0.000004 0.602958 0.796317
-1.389515 -0.041765 0.073255 0.000014 -0.464368 0.884154
1.263160 -0.082745 0.016246 0.001006 -0.985444 0.163728
-0.888348 -0.075420 -0.037715 0.001456 -0.881909 -0.468433
1.078471 -0.080385 -0.025475 0.000002 -0.961881 -0.269180
-0.059147 -0.536761 0.466173 -0.042682 0.632023 0.773773
0.943677 -0.048642 -0.068881 0.000006 -0.548157 -0.834981
-0.903737 0.048634 0.068887 -0.000013 0.547732 0.835259
-0.504297 -0.082563 -0.017147 -0.000122 -0.983880 -0.171766
-1.472853 0.084325 -0.000000 -0.000686 0.998231 0.034287
1.538370 -0.184021 0.141181 -0.000000 -0.650839 -0.759216
0.025891 0.563345 -0.479768 0.074176 0.649046 0.757124
0.204692 -0.017171 -0.082558 0.000210 -0.172021 -0.983831
-0.269601 0.080375 0.025506 0.000008 0.970404 0.236601
-0.878677 0.008612 -0.083884 -0.000001 0.068075 -0.996515
-0.119796 0.041307 0.073515 -0.000992 0.461627 0.885680
0.639069 -0.083884 -0.008615 0.000003 -0.998250 -0.034112
-0.913696 -0.057502 0.061678 -0.001261 -0.700497 0.711705
0.159743 0.025518 0.080371 0.000001 0.269491 0.961791
0.349465 -0.008632 0.083882 -0.000338 -0.069010 0.996417
-0.389437 0.041330 0.073502 -0.000444 0.459921 0.886622
-1.208227 0.067166 0.050984 -0.000001 0.774481 0.630756
-0.273330 -0.339460 0.287960 -0.056262 -0.673266 -0.737257
-0.015020 -0.033590 -0.077346 -0.000010 -0.366369 -0.929218
-0.205832 -0.330513 0.274638 -0.056262 -0.673266 -0.737257
-0.172753 -0.107062 0.108926 -0.009686 0.638505 0.769182
1.440376 -0.199468 0.162623 -0.081837 -0.739425 -0.668247
-0.100360 0.284724 0.228550 0.074176 0.649046 -0.757124
1.373019 0.165444 0.133224 -0.081837 0.739425 -0.668247
0.575346 0.062199 -0.056939 -0.000460 0.710643 -0.701706
-0.153302 -0.367169 0.322455 -0.042682 0.632023 0.773773
0.399367 -0.037846 -0.075355 0.000093 -0.429869 -0.901740
0.634024 0.048593 -0.068916 -0.000080 0.547386 -0.835496
0.499031 0.067124 -0.051039 0.000006 0.752104 -0.657284
1.088363 0.055490 0.063495 0.000187 0.630634 0.774575
-0.103033 0.569501 -0.490495 -0.042682 -0.632023 -0.773773
-0.085715 0.196949 -0.154740 0.074176 0.649046 0.757124
1.542423 0.126995 -0.092296 -0.000000 0.650839 0.759216
-0.129713 -0.057127 0.062923 -0.000000 0.759216 -0.650839
0.562703 -0.074432 -0.039631 -0.000164 -0.866024 -0.497794
-0.106500 -0.096244 -0.066374 0.074176 -0.649046 0.757124
0.559074 0.056610 0.062497 0.000365 0.632120 0.773204
-0.446848 0.157184 -0.134746 -0.056262 0.673266 0.737257
-0.245248 -0.211667 0.169116 -0.056262 -0.673266 -0.737257
-0.309486 -0.114124 0.107151 -0.042682 0.632023 0.773773
-0.024940 -0.033596 0.077343 -0.000346 -0.335388 0.940854
-1.537742 0.083881 -0.008639 -0.000007 0.996495 -0.068274
-0.702882 -0.072387 0.043253 -0.001787 -0.817514 0.573680
1.348505 0.181552 -0.154049 -0.081837 0.739425 0.668247
-0.428618 0.094777 0.076365 -0.056262 0.673266 -0.737257
-0.363901 0.270312 -0.231725 -0.056262 0.673266 0.737257
1.667785 0.197820 0.167510 0.143733 0.677626 -0.721224
0.445563 0.071782 0.044250 0.000221 0.838002 0.543238
-0.106950 -0.269348 -0.214724 0.074176 -0.649046 0.757124
-0.212769 0.268112 -0.218183 -0.056262 0.673266 0.737257
-0.354143 -0.283621 0.243134 -0.056262 -0.673266 -0.737257
-0.147161 0.206424 -0.156843 -0.012769 0.666187 0.745004
-0.043391 -0.489541 -0.427200 0.056289 0.649807 -0.758012
0.528313 -0.069139 -0.048274 -0.000009 -0.801765 -0.595706
-0.308059 0.219920 0.181446 -0.056262 0.673266 -0.737257
-0.004275 0.234619 0.205763 0.056289 -0.649807 0.758012
1.248640 -0.055399 0.063574 0.000105 -0.682816 0.729019
-0.056928 -0.093010 -0.068459 0.074176 -0.649046 0.757124
-0.208182 -0.293143 -0.240692 -0.056262 -0.673266 0.737257
1.644869 -0.072137 0.043669 -0.046375 -0.821583 0.563016
0.444349 0.033618 -0.077334 0.000055 0.366561 -0.929138
0.004544 -0.643359 -0.546268 0.074176 -0.649046 0.757124
0.164730 0.077338 0.033609 -0.000004 0.941085 0.334708
-1.696525 -0.035702 0.073962 -0.109051 -0.426520 0.895607
-0.199824 0.091326 -0.055753 -0.056262 0.673266 0.737257
-0.135557 0.522032 -0.444172 -0.056262 0.673266 0.737257
1.327798 0.119740 -0.088189 -0.081837 0.739425 0.668247
1.726804 -0.049922 -0.055373 1.000000 0.000000 0.000000
-0.048994 0.537734 -0.467528 -0.042682 -0.632023 -0.773773
-1.427479 0.066994 0.051210 -0.000172 0.814305 0.578472
0.310291 -0.064571 0.054233 -0.001192 -0.792777 0.607753
0.021393 0.208918 -0.181825 0.056289 -0.649807 -0.758012
-0.012226 -0.620733 0.537350 -0.009686 0.638505 0.769182
1.590616 0.233885 0.186016 0.143733 0.677626 -0.721224
-0.141895 0.433404 -0.377186 -0.042682 -0.632023 -0.773773
-0.189083 -0.449900 0.388057 -0.042682 0.632023 0.773773
-0.119852 -0.025495 0.080378 0.000009 -0.269305 0.961844
0.503140 -0.080126 -0.026278 -0.000143 -0.939301 -0.339727
-1.451924 0.048745 0.068808 0.000832 0.631333 0.774077
1.307045 -0.136477 0.123209 -0.081837 0.547400 0.832860
-0.261541 0.090483 -0.090486 -0.042682 -0.632023 -0.773773
-0.219448 -0.080190 -0.026081 0.000717 -0.940107 -0.337390
-0.220762 0.274256 0.224404 -0.056262 0.673266 -0.737257
-0.184718 0.082559 0.017167 -0.000005 0.984300 0.169770
0.229659 0.083881 0.008640 -0.000007 0.996499 0.068232
-0.140597 0.519938 0.447939 -0.042682 -0.632023 0.773773
-0.742083 -0.077396 -0.033474 -0.000074 -0.939227 -0.339686
-0.019534 -0.563946 0.489212 0.056289 0.649807 0.758012
-0.687730 -0.026298 -0.080119 0.000077 -0.374348 -0.925982
1.515295 0.043571 0.072196 0.000238 0.546004 0.836421
-0.112864 -0.217283 0.198966 0.056289 0.649807 0.758012
-0.215090 -0.094817 -0.096588 -0.042682 0.632023 -0.773773
-0.013290 0.600065 -0.507408 0.074176 0.649046 0.757124
1.422908 -0.034964 0.076735 -0.000925 -0.383512 0.921767
-0.189206 -0.083158 0.088493 -0.042682 0.632023 0.773773
-1.827410 0.007424 0.023040 -0.634684 0.300760 0.703362
1.678732 0.120977 0.097493 0.143733 0.677626 -0.721224
0.939809 0.041041 0.073663 -0.000644 0.515939 0.855276
-0.290129 0.184803 -0.165950 -0.042682 -0.632023 -0.773773
1.597609 0.102833 0.104724 0.000000 -0.650839 0.759216
0.329514 -0.008640 -0.083881 0.000868 -0.072497 -0.996087
-0.315403 -0.119130 -0.089964 -0.056262 -0.673266 0.737257
-0.070281 0.410977 0.339728 0.074176 0.649046 -0.757124
0.640200 -0.073248 -0.041777 0.000263 -0.831149 -0.553864
0.058150 -0.392041 -0.336078 0.074176 -0.649046 0.757124
0.464452 -0.071555 -0.044615 -0.000460 -0.833573 -0.550396
-0.391894 0.216648 -0.186348 -0.042682 -0.632023 -0.773773
0.599026 -0.067103 0.051068 0.000048 -0.774233 0.631065
-1.512909 0.068278 0.049486 -0.000173 0.828769 0.557700
1.513356 0.244772 -0.203815 -0.081837 0.739425 0.668247
0.027211 0.348753 0.295938 0.074176 0.649046 -0.757124
0.094832 0.077338 0.033609 -0.000004 0.941085 0.334708
1.585505 -0.220887 0.172785 0.048048 -0.661036 -0.747966
-0.110724 -0.550703 -0.474716 -0.042682 0.632023 -0.773773
0.008938 -0.368497 0.319549 0.056289 0.649807 0.758012
0.393759 0.070895 -0.045657 -0.000082 0.801972 -0.595641
-0.853774 0.082562 -0.017152 -0.000001 0.989514 -0.136112
-0.271137 0.041664 0.073313 -0.000027 0.463371 0.884708
0.374504 0.077348 0.033585 -0.000002 0.941148 0.334514
1.607694 -0.008620 -0.083883 -0.000010 -0.068175 -0.996505
-0.391586 -0.091648 0.070681 -0.056262 -0.673266 -0.737257
0.159761 0.083881 -0.008640 -0.000007 0.996499 -0.068232
1.567715 -0.083884 0.008615 -0.000002 -0.998250 0.034115
-0.071671 -0.309186 0.252332 0.074176 -0.649046 -0.757124
-0.237178 -0.391576 0.332794 -0.056262 -0.673266 -0.737257
0.743940 -0.033660 -0.077315 -0.001113 -0.368060 -0.928493
-1.397979 -0.083881 -0.008639 -0.000457 -0.996272 -0.070395
1.442942 0.077337 -0.033610 -0.000017 0.941105 -0.334665
-0.255680 0.166105 -0.152578 -0.042682 -0.632023 -0.773773
1.397988 0.008632 -0.083882 -0.000006 0.068264 -0.996496
1.008518 -0.055358 -0.063609 -0.000032 -0.629642 -0.775390
-1.058426 -0.025520 -0.080371 0.000014 -0.269444 -0.961806
1.378002 -0.041393 -0.073466 -0.000789 -0.461788 -0.885596
-0.354483 -0.084325 0.000000 -0.000003 -0.998249 0.034125
-0.833788 -0.017187 -0.082555 0.000024 -0.169823 -0.984291
-0.833750 0.077339 0.033605 0.000005 0.941087 0.334703
-0.090308 -0.301506 -0.269491 0.056289 0.649807 -0.758012
1.407962 0.041356 -0.073487 0.000018 0.459708 -0.886757
0.748914 0.083881 -0.008640 0.000014 0.996505 -0.068179
-1.388012 0.025471 0.080386 -0.000004 0.269153 0.961890
-0.174730 -0.082556 0.017180 0.000015 -0.984277 0.169900
-1.023594 0.033559 0.077359 -0.000008 0.366062 0.929339
-0.113831 -0.336372 -0.299478 -0.042682 0.632023 -0.773773
-0.609137 -0.080379 0.025494 -0.000017 -0.970448 0.236431
1.258191 0.080379 -0.025494 -0.000153 0.969991 -0.237862
-0.230618 0.079856 -0.027086 -0.000074 0.934344 -0.352960
-0.012226 0.626723 -0.530364 -0.015882 0.666755 0.744518
-0.094862 -0.000000 0.084325 0.000001 0.034046 0.998257
-1.198254 -0.083884 0.008615 0.000001 -0.998253 0.034080
0.688996 0.083884 -0.008615 0.000649 0.998138 -0.035173
1.550330 -0.085031 -0.056322 0.024106 0.758995 0.650650
-0.350951 0.128312 -0.116453 -0.042682 -0.632023 -0.773773
-1.083421 0.084325 -0.000000 -0.000000 0.998257 0.034041
-1.118406 0.025482 0.080382 -0.000013 0.269330 0.961837
-0.049943 -0.080376 0.025503 0.001701 -0.960284 0.274380
-0.164160 0.267762 0.240660 -0.042682 -0.632023 0.773773
-0.549230 -0.080370 0.025520 -0.000349 -0.961474 0.270485
1.213232 0.000000 -0.084325 -0.000013 0.034124 -0.998249
-1.043567 -0.033568 0.077356 0.000001 -0.366131 0.929311
-0.464289 0.017146 -0.082563 -0.000102 0.168481 -0.984565
1.571227 0.070277 0.046603 -0.000170 0.792587 0.607853
-0.359470 -0.008640 -0.083881 0.000027 -0.068205 -0.996502
1.694438 -0.095860 0.008628 -0.274395 -0.960361 0.028348
-0.728976 0.080381 0.025487 0.000001 0.961847 0.269299
1.296530 -0.088474 -0.090626 -0.081837 0.547400 -0.832860
0.524237 0.033600 0.077341 0.000003 0.366606 0.929122
-1.502895 -0.017133 0.082566 0.000000 -0.169524 0.984345
-1.422896 0.033537 -0.077369 0.000047 0.366085 -0.929328
-1.397171 0.082050 -0.019456 -0.000184 0.981347 -0.184876
-0.308363 0.282152 -0.244459 -0.042682 -0.632023 -0.773773
1.457825 -0.063495 0.055490 0.000056 -0.774344 0.630923
1.571370 -0.214558 -0.200501 -0.030696 0.584088 -0.809323
1.078471 -0.080385 0.025475 0.000002 -0.961881 0.269180
1.278266 0.118246 -0.092602 -0.081837 0.739425 0.668247
-0.280368 0.105706 0.101882 -0.042682 -0.632023 0.773773
0.059912 0.041369 -0.073480 0.000022 0.459940 -0.886633
-0.157626 -0.374510 -0.311138 -0.056262 -0.673266 0.737257
-0.663229 0.016978 -0.082598 0.000132 0.168592 -0.984537
1.253197 -0.033660 -0.077315 -0.000038 -0.366830 -0.929034
-0.386133 0.178190 -0.149295 -0.056262 0.673266 0.737257
1.719256 -0.085134 0.058540 -0.270772 -0.793254 0.544186
-0.898700 0.067215 -0.050919 0.000224 0.775131 -0.629939
0.299596 0.008625 -0.083883 -0.000008 0.068181 -0.996504
1.615759 -0.078041 -0.066901 0.024106 0.758995 0.650650
-0.375101 0.122944 0.110737 -0.042682 -0.632023 0.773773
-0.616237 -0.043818 -0.072046 -0.000633 -0.575136 -0.816575
1.377992 -0.083884 -0.008615 -0.000002 -0.998250 -0.034115
-0.215565 0.383678 0.323931 -0.056262 0.673266 -0.737257
-1.562722 -0.084325 0.000000 0.000001 -0.998253 0.034081
1.561395 0.085156 0.089570 -0.000000 -0.650839 0.759216
0.189707 -0.083881 0.008639 -0.000009 -0.996497 0.068251
-0.788893 -0.008612 0.083884 0.000000 -0.068113 0.996511
1.511402 0.121989 0.088004 0.000000 0.650839 -0.759216
1.582749 0.048642 -0.068881 -0.000031 0.548222 -0.834936
-0.098953 0.393119 -0.323655 -0.056262 0.673266 0.737257
-1.674114 0.045029 -0.071135 -0.052662 0.594254 -0.800479
-1.472868 -0.068908 -0.048604 -0.000021 -0.835308 -0.547662
-0.304556 -0.000000 0.084325 0.000000 0.034039 0.998257
-0.244643 -0.017133 0.082566 -0.000000 -0.169493 0.984352
0.504212 -0.057604 0.061583 -0.000016 -0.730475 0.681235
0.348450 -0.068587 0.049056 -0.000295 -0.794034 0.606001
-0.193249 -0.088523 -0.052692 -0.056262 -0.673266 0.737257
0.018600 0.688097 0.592809 -0.000000 0.759216 0.650839
0.018600 -0.688097 -0.592809 -0.000000 -0.759216 -0.650839
-0.022030 0.204255 -0.181052 0.056289 -0.649807 -0.758012
1.343057 -0.033646 0.077322 0.000019 -0.366885 0.929001
0.046566 -0.411583 0.351695 0.074176 -0.649046 -0.757124
-1.173933 -0.068743 -0.048837 0.000426 -0.835075 -0.548041
-1.597682 -0.080355 0.025568 0.000018 -0.961669 0.269920
-0.371121 0.099878 0.076635 -0.056262 0.673266 -0.737257
-0.116996 0.140924 -0.133813 0.056289 -0.649807 -0.758012
1.488750 0.150948 -0.145971 -0.000000 -0.650839 -0.759216
1.023504 -0.048514 0.068971 0.000020 -0.546875 0.835834
1.292370 -0.135408 -0.109864 -0.081837 -0.739425 0.668247
1.460967 -0.097947 -0.067395 -0.000000 -0.650839 0.759216
-0.030596 -0.252899 0.223388 0.056289 0.649807 0.758012
0.736754 0.075847 0.036850 -0.000379 0.918330 0.391919
-0.204650 -0.096068 0.060452 -0.056262 -0.673266 -0.737257
-0.043146 0.560685 0.472418 -0.056262 0.673266 -0.737257
1.694003 -0.051564 0.081123 -0.274463 -0.508845 0.815011
1.430769 -0.084110 -0.055532 0.000000 -0.650839 0.759216
