1.236068 0.077504 0.064087 -0.000000 -0.698646 -0.715468
1.007298 -0.093438 -0.066646 -0.000095 -0.869407 -0.487883
-0.887948 -0.094643 -0.064923 0.000232 -0.873666 -0.480980
-0.748186 0.034066 0.109598 -0.000384 0.249915 0.965543
0.309375 -0.034130 0.109578 -0.000093 -0.247590 0.966274
0.638453 -0.017237 -0.113469 -0.000059 -0.099765 -0.992493
1.827922 -0.000000 0.103429 0.144104 -0.114293 0.979273
1.827922 0.101435 0.020210 1.000000 -0.000000 -0.000000
1.626191 0.034013 0.109615 0.000041 0.247296 0.966357
-0.129825 0.132496 0.144740 0.050290 -0.714563 0.697762
0.768236 -0.034077 0.109595 -0.000264 -0.345132 0.935647
-0.059730 0.078237 0.083972 -0.000025 0.642934 0.762639
-0.073626 0.354839 0.353109 0.102862 0.711673 -0.694940
1.194670 0.131309 -0.134471 -0.172632 0.902992 0.393451
-0.526583 -0.170774 -0.174886 -0.024508 0.702374 -0.711386
-0.429960 -0.261363 -0.267656 -0.024508 0.702374 -0.711386
-0.466194 0.227392 -0.232867 -0.050255 0.740225 0.670478
1.398487 0.077504 -0.064087 0.000000 -0.698646 0.715468
-0.004212 -0.150528 -0.154153 0.102862 -0.711673 0.694940
1.686060 -0.067537 -0.092796 -0.000570 -0.492377 -0.866661
-0.114894 -0.465506 0.469419 -0.050255 -0.740225 -0.670478
0.658305 0.078440 0.083782 -0.000300 0.645671 0.760172
-0.568751 0.109591 0.034089 0.000048 0.966322 0.247417
0.788304 -0.094592 -0.064997 0.000336 -0.842959 -0.532265
0.269377 0.064894 0.094663 -0.000007 0.522747 0.849523
-0.379150 0.052327 0.102148 -0.000740 0.405422 0.910631
-1.727431 -0.035717 -0.109072 -0.000083 -0.255863 -0.963917
-0.179569 -0.017126 0.113486 -0.000001 -0.049832 0.996254
-0.096829 -0.462104 -0.464309 -0.050255 -0.740225 0.670478
1.195462 -0.062225 -0.079007 0.000000 0.715468 -0.698646
-0.110931 0.263526 -0.254076 0.102862 0.711673 0.694940
-0.063831 0.494247 0.497323 0.000839 0.732219 -0.680053
1.407222 -0.126751 -0.114519 -0.000000 -0.715468 0.698646
0.917843 0.017243 0.113468 -0.000073 0.103421 0.991929
1.408255 0.205043 -0.209980 -0.172632 0.902992 0.393451
1.711621 -0.138320 0.126366 -0.000000 -0.715468 -0.698646
0.019856 -0.078311 -0.083903 -0.000058 -0.643393 -0.762270
-1.875790 0.000000 0.070716 -0.531109 -0.074438 0.836770
1.621840 -0.278776 0.285488 -0.172632 -0.902992 -0.393451
-1.516471 -0.049947 0.103333 0.000631 -0.389572 0.918217
0.548580 -0.064827 -0.094709 0.000785 -0.606866 -0.791405
0.997605 -0.049944 0.103334 0.001316 -0.399399 0.913515
-1.386669 0.033911 -0.109646 0.000612 0.249384 -0.965682
1.675968 0.083820 -0.078400 -0.000948 0.757937 -0.648013
0.129573 -0.064911 -0.094651 -0.000000 -0.522196 -0.849899
0.398993 0.113468 0.017243 0.000023 0.992448 0.100063
-0.345681 -0.075315 0.086869 -0.024508 0.702374 0.711386
1.256370 -0.062225 0.079007 0.000000 0.715468 0.698646
-0.107196 0.545206 -0.556833 -0.050255 0.740225 0.670478
-0.107196 -0.545206 -0.556833 -0.050255 -0.740225 0.670478
1.443852 -0.217331 0.222564 -0.172632 -0.902992 -0.393451
1.443852 -0.217331 -0.222564 -0.172632 0.414821 -0.893377
-0.574895 -0.125479 0.128500 -0.024508 0.702374 0.711386
-1.733553 0.079202 0.083063 0.002072 0.650896 0.755414
-0.004212 0.220872 0.226191 0.050290 -0.714563 0.697762
-0.324172 0.120025 -0.103687 -0.050255 0.740225 0.670478
-0.917840 0.080675 -0.081632 -0.000100 0.745798 -0.661317
-0.169593 -0.000000 -0.114771 0.000001 -0.049832 -0.996254
-0.432593 -0.124520 0.132456 -0.024508 0.702374 0.711386
-0.279495 -0.101952 -0.052707 0.000295 -0.910571 -0.405668
-0.068811 -0.265645 -0.276697 0.050290 0.714563 -0.697762
-0.004212 -0.234941 0.240598 0.102862 -0.711673 -0.694940
-0.186378 -0.251372 0.266183 -0.024508 0.702374 0.711386
1.531631 -0.091012 -0.108488 -0.000000 0.715468 -0.698646
-0.181242 -0.427665 -0.440420 -0.024508 0.702374 -0.711386
-1.576401 0.078287 -0.083925 0.000176 0.605942 -0.792081
-1.635965 -0.113475 0.017197 -0.000024 -0.992474 0.099893
1.827922 -0.019953 -0.101486 1.000000 -0.000000 0.000000
-0.967713 0.067117 0.093100 0.002211 0.530756 0.844059
-0.100966 -0.337494 0.331299 0.102862 -0.711673 -0.694940
-0.817954 -0.113471 0.017221 -0.000137 -0.991682 0.104981
-1.296780 0.017197 0.113475 -0.000023 0.099895 0.992473
1.640341 -0.053930 0.070513 -0.000000 0.715468 0.698646
0.459140 0.082095 0.080204 -0.000351 0.749536 0.657273
-0.518730 -0.050149 0.103235 0.000594 -0.392537 0.916835
-1.396502 -0.113482 0.017148 -0.000012 -0.992519 0.099594
0.409154 -0.033904 0.109649 -0.000013 -0.247012 0.966426
1.586295 0.094635 -0.064935 0.000262 0.849642 -0.522545
0.458898 0.017126 -0.113486 -0.000013 0.049970 -0.996233
1.760634 0.046821 0.063233 -0.084292 -0.696159 -0.712922
-0.259419 0.103183 0.050256 -0.000059 0.916271 0.393727
-1.247004 0.114771 -0.000000 0.000001 0.996254 0.049832
1.319096 -0.119312 -0.137469 -0.000000 0.715468 -0.698646
0.079661 0.099283 -0.057578 0.000139 0.844442 -0.530309
-1.037555 0.017243 -0.113468 -0.000043 0.100031 -0.992453
0.329209 -0.000000 -0.114771 0.000007 -0.049830 -0.996254
-0.099773 0.113469 -0.017237 0.000181 0.991808 -0.102703
0.558670 0.017237 0.113469 0.000080 0.099797 0.992488
-1.157232 0.017237 -0.113469 -0.000036 0.099720 -0.992500
-1.883004 0.046451 -0.046376 -0.608016 0.603457 -0.504660
-1.426373 -0.070798 0.090333 0.000361 -0.686694 0.722874
-0.109736 -0.114771 -0.000000 -0.000501 -0.995942 -0.050853
0.718628 0.078696 -0.083542 0.001084 0.653409 -0.753126
1.717940 -0.164922 -0.153609 0.000000 -0.715468 0.698646
1.424464 -0.121985 0.109639 -0.000000 -0.715468 -0.698646
-0.004212 0.080184 -0.082115 0.000000 -0.698646 0.715468
1.304546 -0.126970 0.145311 0.000000 0.715468 0.698646
-1.087388 -0.109647 -0.033910 0.000002 -0.966492 -0.246786
0.080305 0.102444 0.051746 -0.000600 0.933490 0.350231
1.727912 -0.246267 0.244554 0.371601 -0.740900 -0.559446
-0.215194 0.110862 0.126461 -0.024508 -0.702374 0.711386
0.588719 -0.067390 0.092903 0.000091 -0.490511 0.867785
-0.413792 -0.100468 -0.109356 -0.024508 0.702374 -0.711386
-0.738118 -0.100795 0.054887 -0.000550 -0.848086 0.523997
-1.137493 -0.082342 0.079951 -0.000068 -0.786836 0.612132
-0.668406 -0.067453 -0.092857 0.000307 -0.539444 -0.838151
1.586247 -0.184674 -0.204404 -0.000000 0.715468 -0.698646
-1.227651 0.067011 0.093176 0.001344 0.538392 0.838889
-0.448688 -0.108989 0.035967 0.000890 -0.975207 0.207466
-1.486852 -0.092846 -0.067468 -0.000682 -0.839598 -0.537293
-0.004212 -0.361561 0.370267 0.102862 -0.711673 -0.694940
1.526318 0.091481 0.069308 0.000077 0.760065 0.645106
-0.251741 -0.267697 -0.280050 -0.024508 0.702374 -0.711386
-0.000009 -0.049947 0.103332 -0.000007 -0.388950 0.918535
-1.247027 -0.094714 0.064819 -0.000018 -0.850285 0.521545
1.097376 0.017237 0.113469 0.000095 0.099808 0.992486
1.356598 0.113482 0.017148 -0.000004 0.992512 0.099639
-1.695913 -0.017237 0.113469 -0.000076 -0.100479 0.992384
1.565159 -0.200254 0.189792 -0.000000 -0.715468 -0.698646
-1.760178 0.110817 -0.024722 -0.145311 0.947933 -0.269113
1.277074 -0.049912 -0.103349 0.000009 -0.388479 -0.918742
-0.496978 0.112486 -0.108316 -0.050255 0.740225 0.670478
-0.022000 -0.487251 0.496350 0.102862 -0.711673 -0.694940
1.167395 -0.094656 0.064905 -0.000252 -0.873612 0.481032
0.618372 0.113482 0.017149 -0.000007 0.992513 0.099634
-1.657918 -0.084501 -0.077665 0.000716 -0.686048 -0.723085
1.780683 0.060916 -0.047099 0.147263 0.734708 0.652428
1.670683 0.189932 0.209790 0.000000 -0.715468 0.698646
1.328109 0.091936 -0.109434 0.000000 -0.715468 -0.698646
-0.224655 -0.387549 0.399316 -0.024508 0.702374 0.711386
1.760634 -0.062101 0.048312 0.000000 -0.715468 -0.698646
-0.289273 -0.109600 0.034061 -0.002087 -0.961573 0.263142
0.189599 -0.091414 0.069396 0.000017 -0.759722 0.645518
1.680439 0.066840 0.053166 -0.000000 0.715468 -0.698646
1.542009 0.192626 0.212548 0.000000 -0.715468 0.698646
-0.132087 0.456697 0.460983 -0.050255 0.740225 -0.670478
1.760634 -0.046821 -0.063233 0.000000 0.715468 -0.698646
1.123475 -0.106731 -0.109301 -0.172632 0.414821 -0.893377
-1.316894 -0.052526 -0.102046 -0.000177 -0.405968 -0.910412
-0.108248 -0.171194 0.182814 0.050290 0.714563 0.697762
-0.429960 0.261363 0.267656 -0.050255 0.740225 -0.670478
-0.321258 -0.363276 -0.372024 -0.024508 0.702374 -0.711386
-0.295278 -0.321686 0.324159 -0.050255 -0.740225 -0.670478
0.778257 0.103312 0.049989 -0.000168 0.918383 0.389292
1.303826 0.128190 0.115993 0.000000 0.715468 -0.698646
-0.004212 -0.375630 -0.384674 0.102862 -0.711673 0.694940
-0.004212 -0.488180 -0.499935 0.102862 -0.711673 0.694940
-0.103605 -0.324978 -0.318092 0.102862 -0.711673 0.694940
-0.379582 0.147112 0.156588 -0.024508 -0.702374 0.711386
0.738377 0.049896 0.103357 0.000519 0.343077 0.936544
-0.369240 -0.033925 -0.109642 0.000054 -0.198444 -0.977562
-0.088721 0.289361 0.302419 0.050290 -0.714563 0.697762
-0.180343 0.278309 0.267655 -0.050255 0.740225 -0.670478
1.628537 0.173769 -0.193237 0.000000 -0.715468 -0.698646
-0.345901 -0.215116 0.224891 -0.024508 0.702374 0.711386
-0.668257 0.033904 0.109649 -0.000006 0.246944 0.966448
0.269465 -0.092279 0.068242 -0.000037 -0.764971 0.639039
-0.867915 0.114771 -0.000000 -0.000004 0.996256 0.049820
-0.598571 -0.049947 0.103332 -0.000007 -0.388950 0.918535
-0.488722 0.033922 0.109643 0.000444 0.199276 0.977298
-0.159222 -0.211150 -0.227406 0.000431 0.706788 -0.707193
1.639638 0.284920 0.291781 -0.172632 -0.414821 0.893377
-0.588591 -0.109596 -0.034075 0.000093 -0.966313 -0.247445
1.627854 0.114904 -0.132954 -0.000000 -0.715468 -0.698646
1.127292 0.033910 -0.109647 -0.000001 0.246781 -0.966494
0.399041 -0.113486 -0.017126 -0.000001 -0.996254 -0.049832
-0.272591 -0.182886 0.169221 -0.050255 -0.740225 -0.670478
-0.039559 -0.117025 0.122391 0.050290 0.714563 0.697762
-0.139547 0.050002 0.103306 -0.000158 0.389409 0.918304
-1.137405 0.049938 0.103337 0.000678 0.391011 0.917516
-0.004212 0.445974 -0.456712 0.102862 0.711673 0.694940
1.586242 0.266487 -0.272904 -0.172632 0.902992 0.393451
1.481949 0.171982 -0.191407 0.000000 -0.715468 -0.698646
1.316884 -0.017243 0.113468 0.000007 -0.099987 0.992459
-0.758303 0.050158 -0.103230 -0.001084 0.392145 -0.917027
-1.799411 -0.078995 -0.070620 -0.276386 -0.773117 -0.564787
1.516306 0.050002 -0.103306 0.001561 0.397012 -0.914704
-0.004212 0.361561 -0.370267 0.102862 0.711673 0.694940
0.798267 0.083743 -0.078482 -0.000464 0.758323 -0.647597
-0.488324 -0.122675 -0.128714 -0.024508 0.702374 -0.711386
-0.165371 -0.148974 -0.128707 0.102862 -0.711673 0.694940
1.737638 0.159216 0.147765 0.000000 0.715468 -0.698646
-0.414705 -0.183930 0.181025 -0.050255 -0.740225 -0.670478
-0.281894 0.179775 0.192202 -0.024508 -0.702374 0.711386
-0.075432 0.129694 -0.137950 0.050290 -0.714563 -0.697762
-0.269417 0.319024 0.330118 -0.024508 -0.702374 0.711386
-0.748284 -0.034077 -0.109595 0.000054 -0.343324 -0.936531
1.707996 0.264873 0.255966 0.126390 0.733834 -0.660788
-1.276808 0.083928 -0.078284 0.000017 0.792655 -0.605341
0.019952 -0.113486 -0.017126 0.000977 -0.995648 -0.054620
1.187170 0.093023 -0.067224 -0.000627 0.838828 -0.538379
-0.207835 0.214114 -0.198843 -0.050255 0.740225 0.670478
-0.054321 0.213617 -0.211343 0.102862 0.711673 0.694940
-0.303201 -0.193706 -0.183461 -0.050255 -0.740225 0.670478
1.601107 0.178492 0.167506 0.000000 0.715468 -0.698646
1.418790 -0.062225 -0.079007 0.000000 0.715468 -0.698646
1.639638 -0.284920 -0.291781 -0.172632 0.414821 -0.893377
-0.167132 0.283351 -0.298420 -0.024508 -0.702374 -0.711386
-0.236712 0.442542 -0.453198 -0.050255 0.740225 0.670478
-0.528722 -0.068449 -0.092125 0.000120 -0.637337 -0.766167
0.179453 -0.101863 -0.052879 -0.000204 -0.910829 -0.405138
0.209533 0.108129 0.038477 -0.000026 0.896467 0.435499
-1.117316 0.113486 -0.017126 0.000001 0.996254 -0.049832
-0.204311 -0.138762 0.154382 -0.024508 0.702374 0.711386
1.596418 -0.052870 -0.101868 0.000060 -0.404932 -0.910937
-0.126432 0.183987 0.197226 0.050290 -0.714563 0.697762
-1.822789 0.058313 0.079150 -0.395375 0.550753 0.727512
-0.611129 0.091508 0.093711 -0.050255 0.740225 -0.670478
-0.997667 0.078217 -0.083990 -0.000148 0.717826 -0.692394
-0.004212 0.460043 0.471120 0.050290 -0.714563 0.697762
1.266166 0.130125 -0.117974 -0.000000 0.715468 0.698646
0.558497 0.102658 -0.051320 -0.000554 0.914922 -0.396581
-0.429191 0.094722 0.064808 0.000002 0.850292 0.521543
-1.636160 0.103321 -0.049971 0.000849 0.918070 -0.389875
-1.396717 0.082292 0.080002 -0.000555 0.755221 0.650961
-0.004212 0.375630 0.384674 0.050290 -0.714563 0.697762
1.652274 -0.173004 0.161885 -0.000000 -0.715468 -0.698646
-1.017587 -0.052048 -0.102290 0.000182 -0.402134 -0.912293
-1.585889 0.093286 0.066858 -0.000842 0.840611 0.536000
0.618644 -0.080646 -0.081661 -0.000604 -0.619026 -0.781341
1.707996 -0.249593 -0.270887 0.126390 0.678058 -0.717907
1.707996 0.249593 -0.270887 0.126390 -0.678058 -0.717907
-1.556259 -0.101957 0.052698 0.000452 -0.931801 0.353907
0.429135 -0.093155 0.067041 -0.000979 -0.843819 0.531220
0.019827 0.078249 0.083960 0.000087 0.643461 0.762157
0.249428 -0.091602 -0.069148 -0.001703 -0.756023 -0.650277
-0.341557 0.262972 0.272290 -0.024508 -0.702374 0.711386
-0.503958 0.169627 0.171924 -0.050255 0.740225 -0.670478
-0.187840 0.128189 -0.144510 0.000431 -0.706788 -0.707193
1.576199 -0.049925 0.103343 0.000771 -0.397898 0.914228
0.937849 -0.103358 -0.049895 0.000258 -0.936834 -0.342451
1.547159 -0.122693 0.140932 0.000000 0.715468 0.698646
-1.017682 -0.049933 0.103339 0.000984 -0.397814 0.914286
-0.878098 -0.083358 0.078891 -0.001021 -0.629756 0.772507
0.867984 0.094511 0.065115 0.000024 0.849294 0.523167
-0.179082 -0.083228 0.079142 -0.000000 0.698646 -0.715468
1.296897 -0.113469 0.017237 0.000067 -0.992491 0.099780
0.129688 -0.000000 0.114771 -0.000001 0.049832 0.996254
-0.169584 0.109635 -0.033949 0.000019 0.965072 -0.251359
0.917653 0.017148 -0.113482 -0.000007 0.099627 -0.992514
-0.628528 0.066888 -0.093265 0.000296 0.488334 -0.869121
-0.219496 0.050149 -0.103235 -0.000066 0.389697 -0.918222
1.659137 -0.178979 -0.198573 -0.000000 0.715468 -0.698646
-0.339349 0.049980 -0.103317 -0.000645 0.391300 -0.917387
-0.748202 0.114771 -0.000000 0.000249 0.996190 0.050254
-1.586189 -0.000000 0.114771 -0.000011 0.049846 0.996252
-1.496418 0.113469 -0.017237 -0.000049 0.992503 -0.099701
1.047600 -0.109591 0.034089 -0.000048 -0.966322 0.247417
0.309257 -0.114771 -0.000000 -0.000268 -0.995317 -0.057689
-1.466477 -0.000000 0.114771 -0.000001 0.049798 0.996259
0.219430 0.101038 -0.054439 -0.000137 0.849323 -0.521973
1.386669 -0.114771 -0.000000 -0.000001 -0.996254 -0.049832
0.458978 0.017221 0.113471 -0.000045 0.100024 0.992454
1.636069 -0.113486 0.017126 0.000004 -0.996256 0.049820
-0.618537 -0.103350 0.049911 -0.000038 -0.936000 0.344200
-0.225890 0.397863 0.403060 -0.050255 0.740225 -0.670478
-1.778494 -0.108291 0.023386 -0.219987 -0.921128 0.305724
0.498824 -0.101927 -0.052755 0.000062 -0.931494 -0.354851
-0.618527 0.113469 -0.017237 -0.000049 0.992503 -0.099701
-1.896248 0.050056 0.023497 -0.621043 0.645904 0.427279
1.587048 0.114819 0.102300 -0.000000 0.715468 -0.698646
1.553995 -0.158307 -0.146835 0.000000 -0.715468 0.698646
-1.426657 0.109615 -0.034012 0.000124 0.936550 -0.343280
-0.574895 0.125479 -0.128500 -0.050255 0.740225 0.670478
-1.516469 0.103305 0.050004 -0.000050 0.918620 0.388756
-0.828011 -0.000000 0.114771 0.000058 0.050005 0.996228
1.655941 0.113471 -0.017221 -0.000012 0.992467 -0.099937
-1.376705 0.113469 0.017237 -0.000049 0.992503 0.099701
0.039846 -0.103259 0.050099 -0.000155 -0.916533 0.393155
1.436699 0.049985 0.103314 -0.000038 0.388849 0.918580
1.566353 -0.109644 0.033918 0.000077 -0.966403 0.247088
1.481976 0.130031 -0.117878 0.000000 0.715468 0.698646
1.734342 0.105275 0.092525 -0.000000 0.715468 -0.698646
-0.329419 0.094720 0.064811 0.001074 0.873815 0.480710
-0.069215 -0.417358 -0.417786 0.102862 -0.711673 0.694940
-0.266363 -0.119063 -0.132794 -0.024508 0.702374 -0.711386
-0.312687 0.169863 -0.181355 -0.024508 -0.702374 -0.711386
0.708806 -0.066986 0.093194 0.000107 -0.489641 0.868218
1.532846 0.248054 0.254026 -0.172632 -0.414821 0.893377
-0.391161 0.231595 -0.239602 -0.024508 -0.702374 -0.711386
-0.456970 0.174956 -0.174286 -0.050255 0.740225 0.670478
-0.348754 -0.092657 -0.067727 0.000260 -0.835901 -0.542918
-0.231093 0.318863 -0.316232 -0.050255 0.740225 0.670478
1.573751 0.214960 -0.204851 -0.000000 0.715468 0.698646
1.073647 0.077504 0.064087 -0.000000 -0.698646 -0.715468
-0.828362 -0.066080 -0.093839 -0.000134 -0.486048 -0.870504
-0.228346 -0.235136 -0.223590 -0.050255 -0.740225 0.670478
0.538743 -0.103196 0.050229 0.000201 -0.873291 0.481567
0.378971 -0.050002 -0.103306 -0.000126 -0.388976 -0.918514
0.827938 -0.034096 -0.109589 0.000056 -0.247626 -0.966268
0.708298 -0.114771 -0.000000 0.000070 -0.996237 -0.049948
1.257028 0.017243 0.113468 -0.000039 0.103619 0.991898
-1.576364 -0.049980 -0.103317 0.000013 -0.388926 -0.918546
-0.000048 -0.017243 -0.113468 -0.000004 -0.099992 -0.992459
1.426557 0.033922 -0.109643 0.000004 0.246852 -0.966472
-1.117187 -0.017167 0.113480 0.000030 -0.099651 0.992510
1.546285 0.114771 0.000000 0.000004 0.996256 0.049818
-0.317457 0.272671 -0.271708 -0.050255 0.740225 0.670478
-1.147245 -0.094731 -0.064795 -0.000370 -0.849014 -0.523387
-1.446525 0.000000 -0.114771 -0.000000 -0.049805 -0.996258
1.286908 0.033911 -0.109647 -0.000000 0.246779 -0.966494
1.167313 -0.109591 -0.034089 -0.000048 -0.966322 -0.247417
-0.019952 0.017126 0.113486 0.000013 0.049970 0.996233
-0.089716 -0.089931 0.071308 0.000071 -0.716844 0.693432
1.227052 0.114771 0.000000 -0.000082 0.996233 0.049971
-0.508905 0.033925 -0.109642 0.001425 0.201263 -0.976823
-0.135375 -0.294714 0.282396 0.051877 -0.722701 -0.688207
-0.508999 0.094722 0.064808 -0.001026 0.848003 0.524857
-0.436589 0.180988 0.179417 -0.050255 0.740225 -0.670478
1.386253 0.109031 0.096372 0.000000 0.715468 -0.698646
1.827922 -0.050484 0.051700 0.371601 0.576912 0.727382
-1.810794 -0.061921 0.081737 -0.274058 -0.601687 0.746145
1.764947 0.156701 -0.168117 0.250257 -0.631873 -0.727486
1.733516 0.095579 -0.113165 -0.000000 -0.715468 -0.698646
-0.748186 -0.034066 0.109598 0.000078 -0.247480 0.966304
-0.259657 0.103748 -0.117905 -0.024508 -0.702374 -0.711386
-1.825237 0.081506 -0.053261 -0.386844 0.807725 -0.434714
1.017669 0.103333 -0.049946 -0.000717 0.914380 -0.397600
-0.997461 -0.113482 0.017148 -0.000001 -0.992518 0.099599
1.436407 0.113482 -0.017148 -0.000001 0.992516 -0.099611
-1.306860 -0.109647 0.033911 0.000000 -0.966494 0.246779
-0.076028 -0.512955 0.528255 -0.024508 0.702374 0.711386
1.296952 0.103344 0.049924 0.000012 0.918763 0.388452
-0.198471 -0.387251 -0.389289 -0.050255 -0.740225 0.670478
1.693495 0.202479 -0.192071 0.000000 0.715468 0.698646
-0.049900 -0.108205 -0.038262 0.000224 -0.921841 -0.379202
-0.508302 -0.118172 0.123580 -0.024508 0.702374 0.711386
-0.109840 -0.033922 -0.109643 0.000028 -0.198447 -0.977556
0.917653 0.113482 -0.017148 -0.000007 0.992514 -0.099627
1.354041 0.147841 -0.136117 -0.000000 0.715468 0.698646
-1.901939 -0.050403 0.000000 -0.681649 -0.721165 -0.070414
-0.106757 0.374527 -0.368367 0.000839 0.732219 0.680053
1.522679 -0.201372 -0.190936 -0.000000 -0.715468 0.698646
-0.200975 0.222874 0.237543 -0.024508 -0.702374 0.711386
-0.062888 -0.385890 0.399410 0.050290 0.714563 0.697762
1.137419 -0.049896 0.103357 -0.000745 -0.343643 0.936282
-0.432593 0.124520 -0.132456 -0.024508 -0.702374 -0.711386
-0.210999 0.381718 -0.384119 -0.050255 0.740225 0.670478
-0.069909 0.089945 -0.071290 0.000166 0.752147 -0.654950
-0.908016 0.094592 0.064997 -0.000114 0.849847 0.522229
0.339243 0.103259 0.050099 -0.000622 0.917549 0.391077
1.418598 -0.150158 0.169057 0.000000 0.715468 0.698646
-0.478272 -0.216068 -0.221271 -0.024508 0.702374 -0.711386
1.649864 0.274798 -0.289057 -0.172632 -0.414821 -0.893377
1.706123 -0.094722 0.064808 0.000483 -0.848750 0.523784
-0.080698 -0.499975 -0.515278 -0.024508 0.702374 -0.711386
-0.395762 -0.152426 -0.144824 -0.050255 -0.740225 0.670478
-0.103327 0.430194 -0.445601 -0.024508 -0.702374 -0.711386
1.485613 0.190335 0.179634 -0.000000 0.715468 -0.698646
1.439093 -0.077504 0.064087 -0.000000 -0.715468 -0.698646
-0.359125 -0.017237 0.113469 0.000058 -0.099757 0.992494
-0.219449 0.050149 0.103235 0.000295 0.390171 0.917992
-0.244475 -0.288383 0.300724 -0.024508 0.702374 0.711386
-0.159863 -0.100376 -0.055650 0.000181 -0.846798 -0.526171
1.263257 -0.117059 -0.104593 0.000000 -0.715468 0.698646
-0.063533 0.200580 0.209685 0.050290 -0.714563 0.697762
-1.216954 0.049972 -0.103320 -0.000097 0.392525 -0.916796
-0.098311 -0.232628 -0.224301 0.102862 -0.711673 0.694940
-0.295052 -0.324604 -0.327364 -0.050255 -0.740225 0.670478
1.175160 0.062225 0.079007 -0.000000 -0.698646 -0.715468
-1.237170 -0.103349 -0.049912 -0.000004 -0.918762 -0.388439
1.469824 -0.107087 -0.124950 0.000000 0.715468 -0.698646
0.319084 0.100555 -0.055326 -0.000690 0.844598 -0.529964
-0.332472 -0.282940 -0.284171 -0.050255 -0.740225 0.670478
0.159697 -0.113471 0.017221 -0.000027 -0.992459 0.099986
0.847963 -0.000000 0.114771 0.000007 0.052159 0.995894
1.827922 0.051244 0.065424 1.000000 -0.000000 -0.000000
1.729082 -0.108472 -0.126368 0.000000 0.715468 -0.698646
1.073647 -0.077504 -0.064087 -0.079013 -0.809571 0.567038
-0.365434 -0.262616 0.271116 -0.024508 0.702374 0.711386
1.479697 -0.077504 -0.064087 0.000000 -0.715468 0.698646
1.502568 -0.194653 0.214624 0.000000 0.715468 0.698646
1.656123 -0.103358 -0.049895 0.000056 -0.936984 -0.342141
1.134103 0.096748 -0.106719 -0.112056 -0.529931 -0.834433
0.877976 0.081556 -0.080752 0.001931 0.752645 -0.653848
-0.157758 -0.334557 -0.349301 -0.024508 0.702374 -0.711386
-1.097514 0.049985 -0.103314 0.000184 0.388817 -0.918595
1.685950 -0.000000 -0.114771 0.000235 -0.050118 -0.996208
0.937803 -0.080894 0.081416 0.001261 -0.655612 0.750915
-0.381052 -0.222982 -0.221617 -0.050255 -0.740225 0.670478
1.469824 0.122367 0.110029 0.000000 0.715468 -0.698646
1.087388 0.109645 -0.033915 -0.000001 0.966484 -0.246815
1.580195 0.057485 0.074153 -0.084292 -0.696159 -0.712922
1.429714 -0.183178 -0.172305 0.000000 -0.715468 0.698646
1.283664 -0.162031 -0.165933 -0.172632 0.414821 -0.893377
-1.376584 -0.103409 -0.049788 0.000066 -0.937264 -0.341405
0.458861 0.078427 -0.083795 -0.000016 0.643606 -0.762095
-1.077559 0.081746 0.080560 -0.000218 0.750443 0.656228
-0.887948 0.034077 -0.109595 0.000323 0.345053 -0.935686
1.047485 0.033909 -0.109647 -0.000005 0.246803 -0.966487
-0.074452 -0.140773 -0.133766 0.102862 -0.711673 0.694940
-0.409133 0.109644 -0.033918 0.000001 0.966448 -0.246944
-0.405151 -0.088040 0.074444 -0.000000 0.698646 -0.715468
-1.782104 0.099353 0.047407 -0.217698 0.918212 0.315322
-0.050721 0.252463 0.251658 0.102862 0.711673 -0.694940
0.798233 -0.082034 0.080267 0.000032 -0.748570 0.658251
1.257360 0.081824 -0.080480 -0.000663 0.749138 -0.657514
-1.695926 0.017126 -0.113486 -0.000119 0.049597 -0.996254
-0.738214 -0.113469 -0.017237 0.000082 -0.992492 -0.099767
-0.168153 -0.435487 0.448594 -0.024508 0.702374 0.711386
-0.373585 -0.127427 0.115562 -0.050255 -0.740225 -0.670478
-0.065567 0.546705 0.555369 0.009366 0.730544 -0.681337
1.815597 -0.077749 -0.079621 0.371601 -0.740900 0.559446
1.778621 -0.159543 -0.163384 0.371601 -0.740900 0.559446
1.784784 -0.145910 0.149424 0.371601 0.576912 0.727382
-0.074760 -0.351673 -0.365225 0.050290 0.714563 -0.697762
0.488811 0.109596 0.034073 0.000045 0.966251 0.247678
1.827922 0.057326 -0.086089 0.140986 0.559702 -0.812950
-0.153792 -0.349293 0.363987 -0.024508 0.702374 0.711386
1.368075 0.151890 0.140263 0.000000 0.715468 -0.698646
-0.165998 -0.484673 0.497232 -0.024508 0.702374 0.711386
1.778811 -0.036578 0.103965 0.139007 -0.334895 0.929252
0.658419 0.049939 -0.103337 0.000044 0.388675 -0.918659
-0.054292 0.515341 -0.531359 0.000431 -0.706788 -0.707193
-0.072951 -0.286973 0.283708 0.102862 -0.711673 -0.694940
-0.174339 0.250733 -0.236760 -0.050255 0.740225 0.670478
-0.321258 0.363276 -0.372024 -0.050255 0.740225 0.670478
-0.176323 0.499161 0.511180 -0.050255 0.740225 -0.670478
-0.345414 0.340629 0.348831 -0.050255 0.740225 -0.670478
-0.212557 -0.465190 -0.476391 -0.024508 0.702374 -0.711386
-0.369570 0.317982 -0.325638 -0.050255 0.740225 0.670478
-0.004212 0.305285 -0.312636 0.102862 0.711673 0.694940
-0.251998 -0.354223 0.356837 -0.050255 -0.740225 -0.670478
-1.810599 -0.018426 -0.100939 -0.263295 -0.224454 -0.933551
-0.131324 0.468776 -0.482730 -0.024508 -0.702374 -0.711386
-0.004212 0.488180 -0.499935 0.102862 0.711673 0.694940
-0.004212 -0.277148 -0.283821 0.102862 -0.711673 0.694940
-0.004212 0.333423 0.341451 0.050290 -0.714563 0.697762
-0.004212 0.502249 0.514342 0.050290 -0.714563 0.697762
1.357908 -0.086764 -0.104137 -0.000000 0.715468 -0.698646
1.596522 -0.151392 0.170321 -0.000000 0.715468 0.698646
1.476604 -0.049896 0.103357 -0.000136 -0.342402 0.936883
-0.464621 -0.077402 0.084831 -0.024508 0.702374 0.711386
-0.299387 0.103355 -0.049901 0.000121 0.936112 -0.343943
-1.695913 -0.113469 0.017237 -0.000092 -0.992359 0.100645
0.778050 0.113471 -0.017221 -0.000014 0.992468 -0.099933
1.539661 0.115791 -0.103295 -0.000000 0.715468 0.698646
0.399029 0.017237 -0.113469 -0.000047 0.099718 -0.992500
-0.997461 0.017148 0.113482 -0.000001 0.099605 0.992517
1.536169 -0.017151 -0.113482 0.000002 -0.099631 -0.992513
1.147244 -0.033911 -0.109647 -0.000000 -0.246780 -0.966494
0.049880 0.114771 0.000000 -0.000008 0.996236 0.049951
-1.306860 0.114771 -0.000000 -0.000070 0.996237 0.049948
1.516357 -0.113486 -0.017126 0.000004 -0.996256 -0.049820
0.638466 -0.113486 -0.017126 -0.000001 -0.996254 -0.049832
-0.233837 0.357357 0.358936 -0.050255 0.740225 -0.670478
1.587048 -0.114819 -0.102300 -0.000000 -0.715468 0.698646
-0.259482 -0.050363 -0.103131 -0.000006 -0.480502 -0.874111
0.718316 -0.050256 -0.103183 0.000087 -0.482124 -0.872983
1.141274 -0.112876 0.115594 -0.172632 -0.902992 -0.393451
1.354859 0.186609 -0.191102 -0.172632 0.902992 0.393451
1.283664 0.162031 0.165933 -0.172632 -0.414821 0.893377
1.176871 0.125165 0.128178 -0.172632 -0.414821 0.893377
1.586242 -0.266487 -0.272904 -0.172632 0.414821 -0.893377
1.390456 0.198898 0.203687 -0.172632 -0.414821 0.893377
-0.419028 -0.103221 -0.050176 0.000083 -0.918262 -0.389601
-1.187148 0.114771 -0.000000 -0.000004 0.996256 0.049820
-0.598726 -0.049980 -0.103317 0.000365 -0.393178 -0.916465
0.947795 0.065000 0.094590 0.001159 0.521981 0.850035
-0.538718 0.113469 -0.017237 -0.000067 0.992491 -0.099780
0.339185 0.017126 0.113486 -0.000007 0.049830 0.996254
-0.145011 -0.203070 0.218108 0.050290 0.714563 0.697762
0.159604 -0.017237 -0.113469 -0.000059 -0.099765 -0.992493
-1.017636 0.113471 -0.017221 0.000536 0.991787 -0.104320
-0.467724 -0.203598 0.206713 -0.050255 -0.740225 -0.670478
-1.456359 -0.113482 -0.017148 0.000001 -0.992515 -0.099621
-0.957580 -0.083885 0.078330 -0.000109 -0.759927 0.645872
0.957732 -0.049979 -0.103317 -0.000456 -0.389994 -0.918008
0.488826 -0.033976 -0.109626 -0.000063 -0.198638 -0.977517
-0.249401 -0.033976 0.109626 0.000063 -0.198638 0.977517
1.686081 0.033904 0.109649 -0.000010 0.246947 0.966445
0.628622 0.033904 0.109649 -0.000010 0.246979 0.966435
-0.399054 0.017237 -0.113469 -0.000667 0.100751 -0.992341
-1.266954 -0.033948 0.109635 -0.000087 -0.200560 0.976905
1.067559 -0.033914 0.109645 -0.000178 -0.199955 0.977082
0.299278 -0.049920 -0.103346 -0.000018 -0.342285 -0.936941
-0.097218 0.401131 0.397024 0.000839 0.732219 -0.680053
0.578597 -0.017237 -0.113469 -0.000013 -0.099937 -0.992467
1.007581 0.094697 0.064844 0.000047 0.847629 0.525414
1.359637 -0.138853 0.126912 0.000000 -0.715468 -0.698646
-1.546311 0.033943 -0.109637 -0.000012 0.246999 -0.966431
-1.516216 -0.113482 -0.017150 -0.000001 -0.992515 -0.099622
-1.117173 -0.113482 0.017148 -0.000000 -0.992517 0.099606
1.665169 -0.097860 0.115501 0.000000 0.715468 0.698646
-0.260564 0.353566 -0.356753 -0.050255 0.740225 0.670478
-0.131365 0.348359 0.363838 -0.024508 -0.702374 0.711386
-0.967793 0.034130 -0.109578 0.000042 0.247565 -0.966282
1.827922 0.095531 -0.039641 0.144545 0.869595 -0.465675
-0.887881 -0.033933 0.109640 -0.000259 -0.198900 0.977413
-0.345414 -0.340629 0.348831 -0.024508 0.702374 0.711386
-0.309732 -0.134872 0.118995 -0.050255 -0.740225 -0.670478
1.588852 -0.229945 0.250766 -0.000000 0.715468 0.698646
-0.378809 0.117921 0.105459 -0.050255 0.740225 -0.670478
1.263257 -0.117059 0.104593 -0.000000 -0.715468 -0.698646
0.850954 -0.096663 -0.061875 -0.000827 -0.884999 -0.461666
1.656102 -0.017221 0.113471 -0.000031 -0.100000 0.992457
-0.046542 -0.177296 -0.184616 0.050290 0.714563 -0.697762
-0.071333 0.117812 0.125487 0.050290 -0.714563 0.697762
1.713107 -0.194328 0.214292 0.000000 0.715468 0.698646
-0.205034 -0.291772 -0.305429 -0.024508 0.702374 -0.711386
-0.173531 -0.169669 -0.185958 0.000431 0.706788 -0.707193
1.675107 -0.127623 -0.115412 0.000000 -0.715468 0.698646
-0.226851 0.290134 0.303060 -0.024508 -0.702374 0.711386
-1.366692 -0.034021 0.109612 -0.002107 -0.348529 0.933892
-0.130339 0.147547 -0.132431 0.102862 0.711673 0.694940
1.277050 -0.103306 -0.050002 -0.001276 -0.919556 -0.386799
-0.130575 -0.104490 -0.116113 0.050290 0.714563 -0.697762
1.720536 0.049191 -0.065659 -0.000000 -0.715468 -0.698646
1.017670 -0.049945 -0.103333 -0.000017 -0.388629 -0.918675
-0.046784 0.279938 -0.280378 0.102862 0.711673 0.694940
1.733478 -0.103591 -0.049409 -0.000931 -0.921182 -0.381780
-0.300341 0.226882 0.219873 -0.050255 0.740225 -0.670478
0.089824 0.065079 0.094536 0.000014 0.523198 0.849273
-0.242064 -0.210815 0.224221 -0.024508 0.702374 0.711386
-0.125836 0.321318 -0.311053 -0.002819 0.732885 0.679454
-1.217178 0.103358 0.049895 -0.000056 0.936984 0.342141
-0.260868 -0.419895 0.430005 -0.024508 0.702374 0.711386
-0.554239 0.095931 0.100038 -0.024508 -0.702374 0.711386
-0.115240 0.100200 0.086179 0.102862 0.711673 -0.694940
1.456482 0.078248 -0.083962 0.000212 0.605306 -0.792637
1.747991 -0.090713 0.108181 0.000000 0.715468 0.698646
1.641531 0.096004 0.083031 0.000000 0.715468 -0.698646
-1.127222 0.091789 -0.068899 0.000089 0.763501 -0.640532
0.518744 0.078258 -0.083952 0.000406 0.643524 -0.762105
-0.977689 0.103196 0.050229 -0.001170 0.868701 0.488900
-0.245789 0.157196 0.138849 -0.050255 0.740225 -0.670478
0.598653 -0.103321 0.049971 -0.000011 -0.918665 0.388653
-1.663316 0.089095 0.072349 -0.003478 0.711828 0.699496
-0.738098 0.101173 0.054188 0.000224 0.850507 0.519912
1.683417 -0.256705 0.278170 0.000000 0.715468 0.698646
-0.063533 -0.200580 0.209685 0.050290 0.714563 0.697762
-1.847586 0.021351 -0.084691 -0.423317 0.333713 -0.835986
-0.947722 -0.068626 -0.091993 0.000691 -0.641065 -0.763228
-0.260505 0.204289 -0.217143 -0.024508 -0.702374 -0.711386
0.429306 0.109404 -0.034684 -0.000562 0.962035 -0.261520
-1.847902 -0.082475 -0.028256 -0.417357 -0.829643 -0.359399
-0.272934 0.089010 0.102896 -0.024508 -0.702374 0.711386
-0.354876 -0.171812 -0.181826 -0.024508 0.702374 -0.711386
-0.004212 0.403767 -0.413489 0.102862 0.711673 0.694940
-0.678373 -0.101516 0.053543 -0.001557 -0.911649 0.403458
-0.004212 0.192735 -0.197375 0.102862 0.711673 0.694940
-0.067110 0.169986 -0.178612 0.050290 -0.714563 -0.697762
0.598458 0.078160 0.084044 0.000086 0.645625 0.760137
-1.666049 -0.092919 0.067367 -0.000425 -0.838515 0.538925
-0.265731 -0.366693 -0.377310 -0.024508 0.702374 -0.711386
-0.708393 -0.094601 -0.064984 -0.000670 -0.847772 -0.525302
1.730056 -0.036839 -0.108698 0.001444 -0.261273 -0.962195
1.827922 -0.051929 -0.024409 1.000000 0.000000 0.000000
1.180273 -0.114314 -0.101782 -0.058716 -0.788965 0.604329
0.897907 -0.103313 0.049987 -0.000261 -0.916563 0.392989
-0.391161 0.231595 0.239602 -0.024508 -0.702374 0.711386
-0.087679 -0.427736 0.425680 0.051877 -0.722701 -0.688207
-0.069612 0.108107 0.038539 -0.000378 0.957735 0.276401
-0.468568 -0.067434 -0.092870 0.000012 -0.541854 -0.836439
-0.807618 0.068677 0.091955 -0.000297 0.640850 0.763468
-1.907969 -0.012796 -0.043030 -0.698827 -0.241971 -0.667002
-1.346599 0.068927 -0.091768 0.000130 0.644601 -0.760467
-0.459121 0.083913 -0.078300 -0.000047 0.762781 -0.642786
-0.078140 0.446207 0.462279 0.037827 -0.712706 0.700206
-1.706005 0.109643 -0.033922 -0.000242 0.977150 -0.200608
-0.183070 0.142016 0.158326 0.025364 -0.710850 0.702651
-1.057489 -0.082422 -0.079869 0.000277 -0.753876 -0.652463
1.368075 -0.136610 -0.155183 -0.000000 0.715468 -0.698646
-1.745806 -0.039302 0.107832 -0.083559 -0.267282 0.955411
-1.728454 0.110061 0.032542 0.000634 0.967792 0.241716
1.134555 -0.077504 -0.064087 -0.025154 -0.747547 0.658821
-1.336835 0.052708 0.101952 0.000503 0.405461 0.910709
0.149864 0.108832 0.036440 0.001372 0.961025 0.264828
1.625777 0.067485 -0.092833 -0.001083 0.538349 -0.838880
0.708428 0.092790 0.067545 -0.001348 0.840056 0.536669
-1.356882 -0.017149 -0.113482 0.000001 -0.099613 -0.992516
1.388807 0.116432 -0.103951 0.000000 0.715468 0.698646
-1.456696 0.052143 0.102242 -0.000727 0.400383 0.913063
-1.217180 -0.017197 -0.113475 0.000024 -0.099893 -0.992474
0.838105 -0.103306 0.050002 -0.001187 -0.919735 0.386428
-0.229449 0.114771 0.000000 -0.000013 0.996233 0.049970
-0.327358 0.303765 0.313056 -0.024508 -0.702374 0.711386
-0.209935 -0.108967 -0.036033 -0.000738 -0.961198 -0.264076
-0.868126 0.094679 -0.064871 -0.000012 0.847507 -0.525647
0.997603 -0.113486 -0.017126 -0.000001 -0.996254 -0.049832
-0.028996 -0.113687 -0.112756 0.102862 -0.711673 0.694940
-0.149201 -0.107285 0.040771 0.001759 -0.957567 0.277245
1.486546 -0.109591 0.034089 -0.000048 -0.966322 0.247417
-0.558268 -0.080409 0.081894 0.000308 -0.662801 0.744272
-1.067852 -0.067327 0.092949 0.000375 -0.537099 0.839761
1.701236 -0.217800 -0.207761 0.000000 -0.715468 0.698646
0.229544 -0.065025 0.094573 0.000105 -0.522890 0.849467
-0.417882 -0.272687 0.279253 -0.024508 0.702374 0.711386
0.648829 -0.066434 0.093589 0.000617 -0.486999 0.869907
1.667602 0.239948 0.230441 0.000000 0.715468 -0.698646
-0.123416 0.510113 -0.519306 -0.050255 0.740225 0.670478
-0.439088 0.053168 0.101713 0.000998 0.407637 0.909576
0.877910 0.055269 0.100587 0.000130 0.570671 0.817516
0.678328 0.102131 -0.052360 -0.000069 0.910905 -0.404989
-1.187199 -0.066781 0.093341 -0.000027 -0.535961 0.840587
-0.957768 0.101991 -0.052632 -0.000251 0.909675 -0.407547
-1.745806 0.088001 -0.073676 -0.083991 0.813841 -0.568422
0.369022 0.108528 -0.037335 -0.000830 0.960100 -0.267738
-1.266813 -0.068849 -0.091827 0.001404 -0.683181 -0.725838
0.548682 0.114771 0.000000 -0.000025 0.996230 0.049992
-0.449118 0.035891 -0.109014 0.000002 0.208715 -0.974819
-0.016918 0.120672 0.121697 0.102862 0.711673 -0.694940
-1.027611 0.067096 0.093115 -0.000493 0.536409 0.840230
0.319574 -0.079950 0.082342 0.000832 -0.610995 0.787878
0.508716 0.066958 0.093215 -0.000146 0.489388 0.868493
-0.312149 -0.281351 0.291450 -0.024508 0.702374 0.711386
-1.643987 0.063418 -0.095658 -0.000605 0.516957 -0.853278
-0.149491 -0.457847 -0.471313 -0.024508 0.702374 -0.711386
0.149770 -0.064955 0.094621 -0.000069 -0.521907 0.850066
-0.092132 0.168535 0.159580 0.102862 0.711673 -0.694940
-1.426895 0.067561 -0.092778 0.000794 0.539663 -0.837948
-0.120961 0.497511 0.511458 -0.024508 -0.702374 0.711386
-1.157292 -0.049872 -0.103369 0.000150 -0.343828 -0.936161
-0.878055 -0.049980 -0.103317 -0.000233 -0.390824 -0.917618
-0.818061 -0.103281 -0.050054 0.000490 -0.918071 -0.389964
0.059867 -0.050048 0.103283 0.000041 -0.389127 0.918468
1.576083 0.051655 -0.102490 -0.000381 0.401062 -0.912779
-0.173531 0.188297 -0.167769 0.000839 0.732219 0.680053
-0.191504 0.463294 -0.475244 -0.024508 -0.702374 -0.711386
1.745806 0.099471 -0.057253 0.092396 0.815265 -0.566408
0.408975 0.094201 0.065563 -0.000232 0.845918 0.528076
0.738290 -0.103313 -0.049987 -0.000523 -0.918154 -0.389732
0.109641 0.065025 -0.094573 -0.000092 0.522920 -0.849450
0.598539 0.050149 -0.103235 -0.000064 0.389818 -0.918163
0.259364 -0.017237 0.113469 -0.000012 -0.099963 0.992463
-0.249324 -0.093113 0.067100 -0.000271 -0.868603 0.489190
1.590050 -0.233666 -0.224008 -0.000000 -0.715468 0.698646
1.496263 0.113482 0.017149 0.000001 0.992516 0.099614
0.967675 0.114771 0.000000 0.000001 0.996259 0.049797
-1.566237 -0.114771 0.000000 -0.000007 -0.996255 -0.049829
0.448993 -0.108834 -0.036436 -0.000372 -0.963516 -0.256717
0.219379 0.049995 -0.103309 0.000043 0.388772 -0.918612
-0.309164 -0.034132 0.109578 -0.000096 -0.247444 0.966314
1.777784 0.104036 0.036804 0.135613 0.931159 0.329319
-0.867915 -0.114771 0.000000 -0.000012 -0.996239 -0.049930
-1.616198 0.113471 0.017221 0.000031 0.992457 0.100000
-0.947737 -0.109650 -0.033899 0.000004 -0.966491 -0.246788
-1.666116 -0.034130 -0.109578 -0.000012 -0.248523 -0.965984
-0.848162 0.094656 0.064905 0.000075 0.874692 0.479469
1.117428 -0.103305 0.050004 0.000026 -0.918669 0.388653
-0.309586 -0.064880 -0.094672 -0.000049 -0.522482 -0.849708
-0.109840 0.033922 -0.109643 0.000028 0.198447 -0.977556
-0.185907 0.430304 0.435879 -0.050255 0.740225 -0.670478
-0.748414 0.094679 -0.064871 0.000332 0.849333 -0.523008
-0.927785 0.033899 0.109650 0.000093 0.249477 0.965653
-0.319185 -0.113468 -0.017243 -0.000094 -0.992442 -0.098071
-0.618562 0.017243 -0.113468 -0.000043 0.100031 -0.992453
1.236886 -0.017148 -0.113482 0.000000 -0.099606 -0.992517
0.209612 0.064911 0.094651 0.000000 0.522196 0.849899
0.718322 -0.017243 0.113468 0.000007 -0.099987 0.992459
-0.538682 -0.103236 -0.050146 -0.000015 -0.918086 -0.389985
-1.526488 0.093119 -0.067090 -0.000422 0.868910 -0.488615
-0.329198 0.034075 0.109596 -0.000458 0.248471 0.965998
-0.378846 0.117803 -0.105331 -0.050255 0.740225 0.670478
-0.498802 -0.113486 0.017126 0.000008 -0.996236 0.049951
0.109736 0.114771 0.000000 -0.000044 0.996223 0.050038
0.688346 -0.000000 -0.114771 -0.000016 -0.049965 -0.996234
0.079716 -0.078464 -0.083760 0.000655 -0.717979 -0.692363
1.376584 0.049788 -0.103409 -0.000288 0.343038 -0.936471
1.117455 0.103345 0.049922 -0.000036 0.916909 0.392253
-0.349383 0.094722 -0.064808 0.000712 0.848319 -0.524404
-0.139547 -0.050002 0.103306 0.000126 -0.388976 0.918514
-1.436534 -0.103302 0.050010 -0.000001 -0.918594 0.388803
0.818047 -0.113469 -0.017237 0.000047 -0.992500 -0.099718
0.109736 -0.000000 -0.114771 -0.000013 -0.049970 -0.996233
-0.299294 0.113469 0.017237 -0.000047 0.992500 0.099718
-0.668394 0.114771 -0.000000 -0.000615 0.996100 0.050835
0.598642 -0.017221 0.113471 -0.000045 -0.100024 0.992454
0.688483 0.033904 0.109649 -0.000047 0.247083 0.966405
-0.638502 -0.103307 -0.049999 0.000005 -0.918581 -0.388838
1.576333 0.017179 0.113478 -0.000043 0.099842 0.992481
1.606340 -0.094656 0.064905 -0.000069 -0.874698 0.479461
1.386785 0.034089 0.109591 -0.000076 0.247429 0.966318
0.189415 -0.064955 -0.094621 0.000069 -0.521907 -0.850066
0.359301 -0.049980 0.103317 -0.000055 -0.388842 0.918584
-0.219473 -0.017126 -0.113486 -0.000013 -0.049970 -0.996233
1.366798 -0.034077 0.109595 -0.000264 -0.345132 0.935647
0.967675 -0.000000 0.114771 -0.000026 0.049969 0.996233
-1.725913 0.034256 0.109539 0.000231 0.345633 0.935810
-0.106757 -0.374527 0.368367 0.051877 -0.722701 -0.688207
-0.708298 -0.000000 0.114771 0.000081 0.050018 0.996226
-1.566282 -0.064859 0.094687 0.000003 -0.521820 0.850109
-0.543928 -0.136718 -0.138588 -0.050255 -0.740225 0.670478
-0.209377 0.094645 0.064921 -0.000832 0.843918 0.530994
1.336643 0.103327 -0.049959 -0.000028 0.918606 -0.388789
0.269353 -0.000000 -0.114771 -0.000013 -0.049970 -0.996233
-0.389169 0.109643 0.033922 -0.000047 0.977597 0.198275
0.329229 0.064865 -0.094683 0.000024 0.521567 -0.850271
-1.237028 0.017126 0.113486 -0.000018 0.049914 0.996242
-0.210683 -0.124681 -0.140260 -0.024508 0.702374 -0.711386
-0.249401 -0.114771 -0.000000 0.000707 -0.996058 -0.051111
0.409154 0.033904 0.109649 -0.000013 0.247012 0.966426
0.797979 0.017197 -0.113475 0.000052 0.099942 -0.992466
1.037402 -0.083525 0.078714 -0.000230 -0.759391 0.646603
1.646052 -0.033980 -0.109625 -0.000555 -0.249535 -0.965653
-0.289621 0.064957 -0.094620 0.000386 0.480470 -0.874051
1.007576 0.064837 -0.094702 0.000508 0.523392 -0.849025
-1.476499 -0.082756 0.079522 -0.000820 -0.755818 0.650301
-0.708105 0.064874 0.094677 -0.000021 0.479127 0.874902
-0.618514 0.017126 0.113486 0.000013 0.049970 0.996233
-1.476588 -0.049928 -0.103342 0.000721 -0.390066 -0.917974
1.187140 0.109639 0.033936 0.000062 0.966498 0.246780
1.396502 -0.017148 -0.113482 0.000012 -0.099594 -0.992519
-1.486434 0.033918 -0.109644 -0.000002 0.246842 -0.966476
-1.346764 -0.114771 0.000000 0.000038 -0.996268 -0.049737
-1.266956 -0.114771 0.000000 -0.000000 -0.996258 -0.049803
0.388712 -0.090266 -0.070883 -0.000018 -0.755624 -0.650658
0.668404 0.109648 0.033905 -0.000094 0.965409 0.250256
-1.366871 -0.094681 0.064868 -0.000515 -0.850149 0.521714
-0.040012 -0.078329 0.083886 0.000006 -0.604649 0.793362
0.428866 -0.033922 -0.109643 0.000034 -0.198457 -0.977553
-0.907923 0.109643 -0.033922 -0.000052 0.977599 -0.198264
1.486375 0.064797 0.094730 -0.000021 0.521689 0.850203
0.778219 -0.049881 -0.103364 0.000001 -0.388681 -0.918657
-0.020091 0.100984 0.054539 -0.000051 0.819385 0.567630
-0.039907 -0.049920 -0.103346 -0.000018 -0.342285 -0.936941
-1.536551 -0.078248 -0.083962 0.000126 -0.644970 -0.760737
0.528730 -0.114771 -0.000000 -0.000001 -0.996254 -0.049832
0.877891 0.113486 0.017126 -0.000012 0.996233 0.049972
-0.498908 0.103355 -0.049901 0.000002 0.936997 -0.342126
-1.037365 -0.113482 -0.017148 -0.000000 -0.992517 -0.099603
1.212837 -0.093921 0.111467 0.000000 0.715468 0.698646
0.009858 0.034130 -0.109578 0.000068 0.247441 -0.966320
-0.838117 0.050167 -0.103226 -0.000002 0.392874 -0.916673
1.586242 0.266487 0.272904 -0.172632 -0.414821 0.893377
-0.528730 -0.000000 0.114771 0.000013 0.049970 0.996233
0.778179 0.017243 0.113468 0.000495 0.100715 0.992348
0.718350 -0.103248 0.050121 -0.000068 -0.918255 0.389617
0.049717 0.065025 -0.094573 0.000255 0.605635 -0.792559
-1.187138 0.034019 0.109613 0.000007 0.247248 0.966374
0.877891 -0.017126 -0.113486 0.000012 -0.049930 -0.996239
-0.511231 0.129664 0.134825 -0.024508 -0.702374 0.711386
-0.124937 -0.431437 -0.432560 -0.050255 -0.740225 0.670478
0.907937 -0.033996 0.109620 0.000009 -0.247174 0.966393
1.526368 -0.033958 0.109632 0.000035 -0.342888 0.936704
1.283366 0.082777 0.100054 -0.000000 -0.715468 0.698646
1.346619 0.094658 0.064901 0.000668 0.849339 0.522946
0.089816 -0.109600 0.034061 0.000079 -0.966269 0.247602
-0.324560 0.154040 0.165324 -0.024508 -0.702374 0.711386
1.237141 -0.103305 0.050004 0.000050 -0.918620 0.388756
1.396757 -0.103305 -0.050004 0.000978 -0.919764 -0.386361
0.049776 -0.033922 -0.109643 -0.000047 -0.198275 -0.977597
-0.628594 0.109643 0.033922 -0.000052 0.977599 0.198264
-1.087388 -0.000000 -0.114771 -0.000004 -0.049820 -0.996256
-0.558796 0.050020 -0.103297 0.000378 0.391614 -0.917240
-1.007576 -0.094702 0.064837 -0.000481 -0.849230 0.523095
-0.808059 0.114771 -0.000000 0.000001 0.996254 0.049832
-1.237141 0.103305 -0.050004 -0.000050 0.918620 -0.388756
0.758261 0.049967 -0.103323 0.000434 0.343341 -0.936460
-0.129688 -0.000000 0.114771 -0.000001 0.049832 0.996254
-0.159734 -0.050002 -0.103306 -0.000046 -0.388766 -0.918616
-1.626096 -0.109633 -0.033954 0.000377 -0.965508 -0.249978
1.596036 0.113480 -0.017167 0.000011 0.992499 -0.099722
1.157268 -0.113468 0.017243 0.000040 -0.992459 0.099988
0.149481 0.089922 -0.071318 0.000080 0.751191 -0.656097
0.169708 0.033918 0.109644 0.000005 0.246966 0.966441
-0.688310 0.064925 -0.094642 -0.000271 0.481508 -0.873327
0.548819 -0.033904 0.109649 -0.000047 -0.247070 0.966409
0.488995 -0.094731 0.064794 -0.000460 -0.874919 0.478930
0.508778 -0.000000 0.114771 0.000099 0.049987 0.996231
1.027531 -0.000000 0.114771 0.000072 0.049946 0.996237
-1.197266 -0.103349 0.049912 -0.000001 -0.918770 0.388422
-1.646045 -0.000000 0.114771 -0.000060 0.049885 0.996246
-0.184512 0.370506 0.369755 -0.050255 0.740225 -0.670478
-1.526333 -0.000000 0.114771 -0.000003 0.049809 0.996258
1.466477 -0.000000 0.114771 -0.000007 0.049830 0.996254
0.827895 0.109644 0.033918 0.000087 0.966404 0.247086
0.927771 -0.114771 -0.000000 0.000004 -0.996256 -0.049820
-0.069696 0.033904 0.109649 -0.000006 0.246944 0.966448
1.137407 0.103342 -0.049928 0.000168 0.916913 -0.392251
-1.576349 0.049926 0.103342 0.000711 0.391043 0.917501
-1.107443 0.109643 0.033922 -0.000047 0.977597 0.198275
-0.478850 -0.017126 0.113486 -0.000001 -0.049832 0.996254
-0.518754 -0.017126 -0.113486 0.000007 -0.049830 -0.996254
1.230502 0.100312 0.118011 -0.000000 -0.715468 0.698646
1.217178 -0.103358 -0.049895 0.000013 -0.936035 -0.344088
-0.058889 0.353995 -0.366459 0.050290 -0.714563 -0.697762
1.699789 -0.156846 0.175907 0.000000 0.715468 0.698646
-0.154155 -0.176829 0.158893 0.102862 -0.711673 -0.694940
-1.728079 -0.080222 -0.082078 -0.014353 -0.633090 -0.770523
-0.293977 0.149570 -0.134042 -0.050255 0.740225 0.670478
1.394957 -0.076221 0.093340 0.000000 0.715468 0.698646
1.763653 -0.109070 0.026763 0.114844 -0.933642 0.328803
-0.028996 0.113687 -0.112756 0.102862 0.711673 0.694940
1.652274 0.173004 0.161885 -0.000000 0.715468 -0.698646
1.560146 -0.073950 -0.060446 -0.000000 -0.715468 0.698646
1.300307 -0.081742 0.098995 0.000000 0.715468 0.698646
0.957732 0.049979 -0.103317 0.000045 0.388519 -0.918723
1.500151 0.224741 0.214869 -0.116260 0.851473 -0.502598
1.525719 0.202282 -0.191868 -0.000000 0.715468 0.698646
-0.508635 -0.094690 0.064854 -0.000309 -0.847807 0.525238
-0.458354 -0.163280 -0.161498 -0.050255 -0.740225 0.670478
1.715967 0.197780 0.187259 0.000000 0.715468 -0.698646
1.396757 -0.103305 0.050004 0.000452 -0.918312 0.389390
-0.048669 -0.474160 -0.478997 0.102862 -0.711673 0.694940
0.259942 0.105096 0.046120 -0.003382 0.942452 0.330090
1.047600 -0.109591 -0.034089 -0.000048 -0.966322 -0.247417
-0.419117 -0.050158 -0.103230 -0.000270 -0.393354 -0.916437
1.227184 -0.033904 0.109649 -0.000010 -0.246979 0.966435
-0.409214 0.196834 -0.194860 -0.050255 0.740225 0.670478
-0.269351 0.275984 -0.287625 -0.024508 -0.702374 -0.711386
1.635076 -0.085675 -0.103022 0.000000 0.715468 -0.698646
-0.272946 0.408571 0.418409 -0.050255 0.740225 -0.670478
-0.040147 -0.336303 0.339081 0.102862 -0.711673 -0.694940
-0.217374 0.119582 -0.095192 -0.050255 0.740225 0.670478
-0.231574 -0.430180 -0.439165 -0.050255 -0.740225 0.670478
1.265865 -0.155887 0.159640 -0.172632 -0.902992 -0.393451
1.673230 0.127726 -0.115517 -0.000000 0.715468 0.698646
1.540098 0.075135 -0.061660 -0.000000 0.715468 0.698646
-1.883005 -0.046450 0.046375 -0.608020 -0.603454 0.504658
-0.071656 -0.142848 0.151149 0.050290 0.714563 0.697762
-0.382552 -0.280488 -0.285217 -0.050255 -0.740225 0.670478
1.469824 -0.107087 0.124950 0.000000 0.715468 0.698646
1.147380 0.033904 0.109649 -0.000047 0.247070 0.966409
-0.217374 -0.119582 0.095192 -0.050255 -0.740225 -0.670478
-0.135375 0.294714 0.282396 -0.002819 0.732885 -0.679454
1.560794 -0.100788 0.087931 -0.000000 -0.715468 -0.698646
1.763857 0.026857 0.109018 0.114904 0.330094 0.933132
-0.250658 0.231978 0.221775 -0.050255 0.740225 -0.670478
-1.745806 0.019955 -0.113023 -0.085481 0.263587 -0.956778
1.596193 0.166232 -0.154950 0.000000 0.715468 0.698646
1.690290 0.083091 0.100376 -0.000000 -0.715468 0.698646
-0.159222 0.228203 0.210754 0.000839 0.732219 -0.680053
-0.118880 0.219362 -0.232908 0.050290 -0.714563 -0.697762
-0.049523 -0.534153 -0.540308 0.060404 -0.721026 0.689490
1.812773 -0.100066 0.033491 0.137458 -0.934069 0.321360
1.308596 0.124359 -0.142637 0.000000 -0.715468 -0.698646
-0.055141 -0.458699 0.473415 0.050290 0.714563 0.697762
1.553464 0.227866 -0.248637 -0.116260 -0.522711 -0.839276
1.827922 0.018043 -0.056317 1.000000 0.000000 0.000000
-0.130426 0.405128 -0.403925 -0.050255 0.740225 0.670478
-0.321254 -0.195680 0.186992 -0.050255 -0.740225 -0.670478
1.620293 -0.070395 -0.056806 0.000000 -0.715468 0.698646
1.415434 0.164265 -0.183505 0.000000 -0.715468 -0.698646
-0.175022 0.123615 0.101309 0.102862 0.711673 -0.694940
1.772857 0.109632 -0.017592 0.138927 0.961941 -0.223533
1.666010 0.109614 0.034016 -0.000560 0.966041 0.248322
-0.365434 0.262616 -0.271116 -0.024508 -0.702374 -0.711386
1.429714 0.183178 0.172305 0.000000 0.715468 -0.698646
-0.120961 -0.497511 0.511458 -0.024508 0.702374 0.711386
