0.987700 0.053391 -0.104806 -0.000837 0.363230 -0.929084
0.443642 0.084230 0.082099 0.000022 0.641586 0.763988
-0.521905 -0.040257 -0.110519 -0.000206 -0.381064 -0.921920
-0.044843 -0.195111 0.158371 0.063826 -0.662387 -0.746438
-1.420207 0.115859 -0.020288 -0.001032 0.959904 -0.269997
-1.208530 -0.051689 0.105656 -0.000434 -0.481501 0.873740
0.043857 0.204060 0.187760 0.059328 -0.662572 0.746645
-0.069179 -0.044326 -0.108950 -0.000181 -0.464488 -0.882928
1.441621 0.076445 -0.064516 -0.000000 -0.747963 0.663741
-0.144548 -0.256169 0.242490 -0.055117 0.638120 0.767962
0.032288 -0.149763 0.124724 0.063826 -0.662387 -0.746438
0.251397 0.021836 0.115577 -0.000129 0.226871 0.971082
0.038471 0.355424 0.307756 0.063826 0.662387 -0.746438
1.306470 0.032667 0.112995 -0.000528 0.235829 0.969396
-0.002515 0.473324 0.430389 0.059328 -0.662572 0.746645
-1.155165 0.092396 -0.072787 -0.000319 0.756130 -0.651299
-0.442955 -0.113202 0.031941 -0.000295 -0.946039 0.317202
-0.789639 -0.050052 0.106442 0.000228 -0.485659 0.871461
-0.528267 -0.030675 0.113552 0.000869 -0.309043 0.948703
0.048908 0.544040 -0.489056 0.059328 -0.662572 -0.746645
0.641547 -0.019799 -0.115944 0.000246 -0.269069 -0.960215
-0.452333 -0.115936 -0.101744 -0.059292 -0.688268 0.723029
0.067313 0.674984 -0.593800 0.063826 0.662387 0.746438
-0.327627 -0.210463 -0.181500 -0.059292 -0.688268 0.723029
-1.051543 -0.042193 0.109794 -0.000094 -0.333869 0.940260
-0.247683 -0.310149 -0.279942 -0.055117 0.638120 -0.767962
1.269508 0.185001 0.159904 -0.017536 0.681129 -0.731953
-0.116034 -0.560974 -0.497807 -0.059292 -0.688268 0.723029
-0.279068 0.112559 -0.084320 -0.059292 0.688268 0.723029
0.177158 -0.101252 -0.059859 -0.000033 -0.830339 -0.553406
-1.589182 -0.045803 0.046722 -0.587072 -0.641440 0.482521
-1.260683 -0.078019 -0.088023 0.000255 -0.589426 -0.804926
-1.363479 -0.055022 0.103960 -0.001473 -0.525503 0.848125
-0.311125 0.173845 0.145289 -0.059292 0.688268 -0.723029
1.261297 -0.125347 -0.104588 -0.017536 -0.681129 0.731953
-0.139720 0.313235 0.290255 -0.055117 -0.638120 0.767962
-0.191790 -0.156995 0.156693 -0.055117 0.638120 0.767962
1.027546 -0.107898 0.046829 -0.000069 -0.877472 0.475257
0.085998 0.532635 0.475988 0.059328 -0.662572 0.746645
-0.266022 -0.109991 0.041678 -0.001245 -0.895201 0.440042
-0.238219 -0.251273 0.231699 -0.055117 0.638120 0.767962
-0.218706 0.345412 -0.301028 -0.059292 0.688268 0.723029
0.369913 -0.000000 0.117622 -0.000357 0.059005 0.994736
0.529876 -0.000000 0.117622 0.000202 0.060251 0.994509
1.358240 -0.265980 0.233134 -0.017536 -0.681129 -0.731953
-0.178191 -0.370748 0.321824 -0.059292 -0.688268 -0.723029
0.244501 -0.091976 0.073317 -0.002063 -0.722475 0.688471
0.127891 0.281863 0.250125 0.063826 0.662387 -0.746438
0.127891 0.654721 0.580998 0.063826 0.662387 -0.746438
0.127891 -0.654721 -0.580998 0.063826 -0.662387 0.746438
1.478634 0.209071 0.185529 0.028321 -0.657473 0.752946
1.446153 -0.295128 -0.261896 0.028321 -0.669433 0.742332
0.589862 -0.117622 -0.000000 -0.000016 -0.991024 0.105880
1.350603 -0.140277 0.118606 0.028321 -0.669433 -0.742332
1.226989 -0.070906 0.070758 -0.000000 0.747963 -0.663741
-0.397679 0.203030 -0.180169 -0.055117 -0.638120 -0.767962
-0.196504 0.458704 -0.407053 -0.055117 -0.638120 -0.767962
1.163431 -0.116059 0.019113 0.000394 -0.962217 0.262108
1.240824 0.176671 -0.152839 -0.017536 0.681129 0.731953
1.112482 0.126811 0.109517 -0.017536 0.681129 -0.731953
-0.447973 -0.139112 0.123448 -0.059292 -0.688268 -0.723029
0.047300 0.191922 -0.176715 0.059328 -0.662572 -0.746645
0.404270 -0.102348 -0.057964 0.000330 -0.815626 -0.574438
1.117877 -0.031405 0.113352 0.000023 -0.313219 0.947380
0.688618 -0.110257 -0.040967 0.001920 -0.951902 -0.297810
1.207338 -0.071135 -0.070500 -0.017536 0.645777 -0.763324
-0.427492 0.064729 -0.098210 -0.001049 0.580780 -0.811007
-0.338283 -0.215251 0.194586 -0.055117 0.638120 0.767962
1.344324 0.078275 0.062454 0.000000 -0.747963 -0.663741
-1.129736 -0.000000 0.117622 0.001315 0.057176 0.995059
0.437800 -0.017546 -0.116306 -0.000723 -0.201788 -0.976832
-1.486861 0.046962 0.102188 -0.224870 0.298218 0.922572
0.343356 0.113311 -0.031554 -0.001856 0.979384 -0.193634
0.283387 -0.086670 -0.079519 -0.000414 -0.712268 -0.698457
-0.129298 0.098895 -0.065768 0.000000 -0.747963 0.663741
1.527355 0.000000 0.042775 1.000000 -0.000000 -0.000000
1.066516 -0.110645 -0.095574 -0.017536 -0.681129 0.731953
-0.107308 -0.136449 0.139773 0.059328 0.662572 0.746645
0.037083 -0.335185 -0.304658 0.059328 0.662572 -0.746645
0.090145 0.107748 0.047174 -0.000746 0.933971 0.351390
-0.357532 -0.021014 -0.115730 -0.000036 -0.232966 -0.969138
-1.269703 0.117622 -0.000000 -0.001973 0.996950 0.047389
1.096617 0.144708 -0.130200 -0.017536 -0.645777 -0.763324
-0.076522 -0.114167 0.028301 -0.001118 -0.953936 0.292289
1.408417 0.310070 0.276363 0.028321 -0.657473 0.752946
0.090430 0.448801 -0.401242 0.059328 -0.662572 -0.746645
1.177181 -0.160766 0.145636 -0.017536 0.645777 0.763324
-0.482441 0.105160 -0.052692 -0.000078 0.911461 -0.404999
-1.396157 0.069570 0.094842 0.000347 0.615641 0.785549
-1.200381 -0.109568 0.042775 -0.000842 -0.958195 0.278978
-1.269703 -0.000000 0.117622 0.002003 0.090418 0.993819
-0.649848 -0.000000 0.117622 0.004013 0.099569 0.992455
1.291200 -0.182809 -0.157344 -0.017536 -0.681129 0.731953
-0.408495 -0.110787 -0.039512 0.000264 -0.922077 -0.380969
1.317244 0.018946 -0.116086 -0.001696 0.216455 -0.973346
0.007470 0.600298 -0.525113 -0.059292 0.688268 0.723029
1.258299 0.086669 0.084813 -0.017536 -0.645777 0.763324
-0.110406 -0.342330 -0.289214 -0.059292 -0.688268 0.723029
1.195859 0.242944 -0.215588 -0.017536 0.681129 0.731953
-0.057622 -0.477676 -0.432785 -0.055117 0.638120 -0.767962
-0.009598 -0.583421 -0.524098 -0.055117 0.638120 -0.767962
-0.281169 -0.098235 -0.101454 -0.055117 0.638120 -0.767962
-0.248379 -0.139013 0.106985 -0.059292 -0.688268 -0.723029
0.696907 0.106666 -0.049572 -0.000097 0.895778 -0.439057
-0.012661 0.013028 -0.116898 0.000326 0.180058 -0.982164
-0.055784 0.122064 -0.122914 0.059328 -0.662572 -0.746645
1.406184 -0.190915 -0.172400 0.028321 0.657473 -0.752946
0.127891 -0.177463 0.157480 0.063826 -0.662387 -0.746438
0.929669 0.110170 0.041201 0.000928 0.898207 0.434060
-1.600478 0.051823 -0.022023 -0.619772 0.726128 -0.282689
0.868511 0.027407 -0.114385 -0.003020 0.325237 -0.942731
-0.610971 0.098706 0.063970 -0.000025 0.782555 0.618739
0.113390 0.246083 -0.217133 0.063826 0.662387 0.746438
-0.658064 -0.065947 -0.097396 -0.001360 -0.600363 -0.797192
-0.039798 -0.050306 0.106322 -0.000065 -0.381323 0.921860
-0.987660 0.107895 -0.046837 0.000191 0.896398 -0.438414
0.801732 -0.058306 -0.102154 0.000134 -0.535023 -0.841998
0.479279 0.115964 0.019683 -0.000019 0.973068 0.217927
-0.769820 -0.000000 -0.117622 0.003511 -0.093471 -0.992932
0.512152 -0.072429 0.092677 -0.000058 -0.569978 0.818727
0.309927 -0.000000 -0.117622 0.003175 -0.028483 -0.998094
0.529943 -0.107768 -0.047127 -0.000186 -0.931235 -0.358906
0.245092 0.046055 -0.108231 0.000894 0.377271 -0.923517
-0.049832 0.034182 0.112546 -0.000124 0.336262 0.939222
0.039861 -0.135377 -0.112606 0.063826 -0.662387 0.746438
1.198714 0.113955 -0.029142 -0.003719 0.959228 -0.270011
-1.486609 0.047645 -0.101931 -0.223558 0.301477 -0.921623
1.435040 -0.217340 0.191323 0.028321 -0.669433 -0.742332
-0.869442 -0.065167 -0.097920 -0.000044 -0.469339 -0.880321
-0.200198 0.357482 0.311001 -0.059292 0.688268 -0.723029
1.251972 -0.226231 -0.198691 -0.017536 -0.681129 0.731953
1.015155 -0.109246 -0.043593 -0.000043 -0.910438 -0.407026
-0.389498 -0.089553 0.076258 -0.000801 -0.713754 0.696992
-0.268660 0.096638 0.068311 -0.000000 -0.747963 -0.663741
-0.890169 0.064466 -0.098382 -0.000345 0.588392 -0.805512
0.062470 -0.201743 -0.173432 0.063826 -0.662387 0.746438
-0.343794 -0.159639 -0.134445 -0.059292 -0.688268 0.723029
-1.100474 -0.017329 -0.116339 0.002680 -0.086196 -0.992997
1.362025 0.239718 -0.216676 0.013036 -0.653702 -0.756553
-0.184498 -0.442646 0.394571 -0.055117 0.638120 0.767962
-0.167991 0.397224 -0.346190 -0.059292 0.688268 0.723029
1.383243 -0.072049 0.069470 -0.000000 0.747963 -0.663741
0.900473 -0.104098 0.054759 -0.000165 -0.833040 0.549233
-0.961513 0.051311 0.105840 0.000202 0.500689 0.862896
-0.868081 0.113540 0.030720 0.001111 0.934710 0.348948
-0.367053 0.107332 -0.048112 -0.000241 0.866069 -0.495472
0.562767 -0.051897 -0.105554 0.000518 -0.484179 -0.872185
0.008031 0.168046 0.138874 0.063826 0.662387 -0.746438
0.040285 0.078603 0.087502 0.000487 0.628548 0.774661
-1.412833 -0.054016 -0.104486 0.000104 -0.426951 -0.900853
0.121709 0.051311 -0.105840 -0.000202 0.500689 -0.862896
0.127891 0.565235 -0.501589 0.059328 -0.662572 -0.746645
1.266293 0.079144 -0.061474 -0.000000 -0.747963 0.663741
-1.223947 0.083337 -0.083005 0.000013 0.670089 -0.739050
0.457300 0.107698 -0.047288 -0.001384 0.893864 -0.443523
-0.099623 0.087913 0.078142 -0.000000 -0.747963 -0.663741
1.527355 0.052683 -0.016387 1.000000 -0.000000 -0.000000
-0.447973 0.139112 0.123448 -0.055117 -0.638120 0.767962
-0.509508 -0.105643 0.051717 0.000745 -0.855042 0.514643
1.089427 -0.077085 0.063795 -0.000000 0.747963 -0.663741
0.182532 0.016149 -0.116508 -0.001393 0.228058 -0.971302
-0.249029 -0.068790 0.095410 -0.000556 -0.539727 0.839020
1.108202 -0.153726 0.138095 -0.017536 0.645777 0.763324
0.907412 -0.099177 -0.063236 0.000183 -0.785550 -0.614993
-0.048246 0.450634 -0.410988 -0.055117 -0.638120 -0.767962
-0.726440 0.015138 0.116644 -0.000877 0.158702 0.985492
0.820357 0.059943 0.101202 0.000337 0.464715 0.882868
-0.569867 -0.117622 0.000000 0.001220 -0.993163 0.101128
0.057748 0.498726 -0.436570 0.063826 0.662387 0.746438
-0.730383 0.108611 0.045151 0.000098 0.892583 0.445565
-0.938907 -0.073352 0.091948 -0.000135 -0.603457 0.794447
0.090145 -0.107748 0.047174 -0.000746 -0.933971 0.351390
1.057138 0.116577 -0.015643 0.001627 0.970574 -0.231246
-1.070028 -0.103392 0.056080 -0.000198 -0.866503 0.494449
1.082283 0.019764 -0.115950 0.000469 0.217540 -0.973066
1.309693 -0.117622 -0.000000 0.000894 -0.997401 0.041109
-1.066058 0.111080 0.038680 -0.000489 0.936228 0.344526
0.651610 -0.073167 0.092095 0.000149 -0.658730 0.749218
1.527355 -0.040736 -0.098876 1.000000 -0.000000 0.000000
-0.649543 -0.092663 0.072446 0.000467 -0.827529 0.556850
0.347884 0.107846 0.046948 -0.000384 0.900097 0.431907
-0.939829 -0.112305 0.034964 0.000875 -0.946988 0.314181
-0.150724 0.024350 -0.115074 0.001093 0.273133 -0.959376
-0.182004 -0.231206 0.189303 -0.059292 -0.688268 -0.723029
-0.399315 0.100428 0.061231 0.000423 0.820017 0.567732
0.771170 -0.073873 0.091530 0.000009 -0.663365 0.745169
-1.350878 0.111647 -0.037014 -0.000274 0.928372 -0.364852
-0.758954 -0.113542 -0.030710 -0.000319 -0.973961 -0.217769
0.516887 0.070858 -0.093884 0.000699 0.650587 -0.756298
1.493155 -0.126732 0.111830 0.028321 -0.669433 -0.742332
-0.829997 0.083602 0.082739 0.000551 0.773345 0.630423
-0.770216 0.065518 -0.097685 0.000065 0.595356 -0.800486
-0.127173 -0.435363 -0.392634 -0.055117 0.638120 -0.767962
-0.176801 0.135988 -0.098237 -0.059292 0.688268 0.723029
1.379420 0.179459 -0.163404 0.028321 -0.657473 -0.752946
-0.028880 0.228576 0.215295 0.059328 -0.662572 0.746645
-0.716369 -0.102456 0.057774 0.000061 -0.833175 0.548649
-0.074815 0.392191 0.360519 -0.055117 -0.638120 0.767962
0.751307 0.065840 -0.097468 -0.000246 0.634626 -0.769794
1.327374 -0.032013 0.113182 -0.000292 -0.319211 0.945324
-0.089786 0.502757 -0.440236 -0.059292 0.688268 0.723029
0.077782 -0.060047 -0.101140 0.000229 -0.462917 -0.884080
0.006490 -0.435878 -0.396444 0.059328 0.662572 -0.746645
0.063144 0.702890 0.618207 0.023964 0.671664 -0.739833
1.414159 0.223116 0.200219 0.028321 -0.657473 0.752946
-0.213252 0.194476 -0.186297 -0.055117 -0.638120 -0.767962
0.110232 -0.036351 0.111864 0.000413 -0.399940 0.913990
0.249098 0.100147 -0.061689 -0.000253 0.885692 -0.458841
-0.338283 0.215251 0.194586 -0.055117 -0.638120 0.767962
0.376583 0.035983 -0.111983 0.000331 0.394900 -0.916201
-0.900340 0.018129 0.116217 0.001803 0.249748 0.965592
-0.934183 0.116483 0.016328 -0.000533 0.976684 0.203925
1.302780 -0.237753 0.208196 -0.017536 -0.681129 -0.731953
0.729829 -0.000000 -0.117622 -0.001053 -0.023651 -0.998100
0.127891 0.639807 -0.567763 0.059328 -0.662572 -0.746645
-0.146434 -0.244027 -0.232266 -0.055117 0.638120 -0.767962
0.061397 0.081537 -0.084774 0.000125 0.678597 -0.731313
0.972633 0.119046 0.105641 -0.017536 0.681129 -0.731953
1.461081 -0.076079 0.064928 0.028321 -0.669433 -0.742332
-0.293459 0.276043 -0.248317 -0.055117 -0.638120 -0.767962
0.582276 0.058554 0.102012 0.000468 0.445019 0.892356
-0.073900 -0.299393 -0.248426 0.063826 -0.662387 0.746438
0.302013 -0.113713 0.030074 -0.000163 -0.950090 0.304972
-1.260619 -0.116545 0.015879 -0.000132 -0.994091 0.089207
0.108307 0.347697 -0.310101 0.059328 -0.662572 -0.746645
-0.495965 0.116241 0.017974 -0.000443 0.966521 0.247106
-0.469890 -0.000000 0.117622 0.001083 0.096180 0.993020
1.313401 0.115617 -0.021625 0.001898 0.966193 -0.244533
-1.212412 -0.032474 -0.113050 -0.000543 -0.351925 -0.934410
1.148382 0.077771 -0.063022 -0.000000 -0.747963 0.663741
-0.010596 0.082514 -0.084227 0.000000 -0.747963 0.663741
-0.204480 -0.168713 -0.165519 -0.055117 0.638120 -0.767962
-0.044475 -0.111225 -0.112397 0.059328 0.662572 -0.746645
1.197887 0.206992 0.185219 -0.017536 -0.645777 0.763324
-0.078069 -0.376227 -0.347021 -0.055117 0.638120 -0.767962
1.045143 0.018257 0.116197 -0.000252 0.252464 0.965003
1.106770 -0.053642 -0.104678 0.000053 -0.497059 -0.865125
1.300115 -0.182454 0.166809 -0.017536 0.645777 0.763324
-0.065693 0.526776 0.473004 -0.055117 -0.638120 0.767962
-1.342776 0.057706 -0.102494 -0.000183 0.438914 -0.895464
1.195859 -0.242944 0.215588 -0.017536 0.645777 0.763324
-0.142494 0.428508 0.385839 -0.055117 -0.638120 0.767962
0.353566 -0.093453 0.071425 0.001224 -0.733335 0.676564
-0.116371 0.291203 -0.241034 -0.059292 0.688268 0.723029
0.429899 -0.117622 -0.000000 0.004176 -0.998496 0.033078
0.073935 0.311440 0.271758 0.063826 0.662387 -0.746438
-0.122104 -0.095233 -0.104374 0.059328 0.662572 -0.746645
-1.149731 -0.117622 0.000000 0.000833 -0.997600 0.030473
-0.073614 -0.239824 0.195589 0.063826 -0.662387 -0.746438
-1.509624 -0.072342 -0.078153 -0.347178 -0.613855 -0.703234
-0.023568 0.648542 0.573582 -0.059292 0.688268 -0.723029
1.139892 -0.159231 -0.139029 -0.017536 -0.681129 0.731953
0.127891 0.162549 0.144245 0.063826 0.662387 -0.746438
0.252408 0.081197 0.085100 -0.001209 0.614119 0.786497
1.001258 0.100346 -0.061364 0.000328 0.800092 -0.595629
-0.338154 -0.059333 0.101561 0.000790 -0.536245 0.841626
-0.067825 0.151232 0.117468 0.063826 0.662387 -0.746438
-0.024640 0.116728 0.014474 0.000130 0.983706 0.168554
1.374705 0.271019 0.237429 -0.002250 0.677363 -0.735557
-1.087080 -0.093284 -0.071645 -0.000060 -0.727870 -0.682351
0.127891 -0.654721 0.580998 0.063826 -0.662387 -0.746438
-0.069291 0.232291 -0.221803 0.059328 -0.662572 -0.746645
-0.199319 -0.340760 -0.308849 -0.055117 0.638120 -0.767962
1.449661 -0.040057 -0.110591 0.047909 -0.424550 -0.900910
1.527355 -0.078960 -0.039421 1.000000 0.000000 -0.000000
-0.074551 -0.209721 -0.168796 0.063826 -0.662387 0.746438
-0.044768 -0.422743 0.360378 0.022790 -0.671939 -0.739641
1.350850 -0.049714 -0.106600 0.000622 -0.373218 -0.925426
-0.033543 0.332164 -0.307590 0.059328 -0.662572 -0.746645
-0.015918 -0.664675 -0.588313 -0.059292 -0.688268 0.723029
-0.012299 0.600732 0.527147 -0.059292 0.688268 -0.723029
1.401570 -0.256555 -0.225410 0.028321 -0.669433 0.742332
0.003236 -0.668094 0.589997 -0.059292 -0.688268 -0.723029
0.067881 -0.257761 0.223605 0.063826 -0.662387 -0.746438
-1.378551 -0.110539 -0.040202 0.000592 -0.928511 -0.366429
0.849945 0.102070 -0.058453 -0.000632 0.839311 -0.539205
0.868780 0.016602 0.116445 -0.001410 0.165710 0.984282
1.378556 0.119390 0.100837 0.028321 0.669433 -0.742332
0.063230 -0.459462 0.412864 0.059328 0.662572 0.746645
-0.273104 0.277339 0.240689 -0.059292 0.688268 -0.723029
-1.508676 0.106789 -0.000000 -0.249896 0.962622 -0.057287
-1.609091 -0.039675 -0.028075 -0.666636 -0.546929 -0.497376
0.681226 0.022333 0.115482 0.000125 0.305825 0.948313
-0.217656 -0.090997 -0.099997 -0.055117 0.638120 -0.767962
0.006315 0.300689 -0.256435 0.063826 0.662387 0.746438
-0.266774 0.054016 -0.104486 -0.000644 0.426957 -0.900872
-0.829806 -0.117622 0.000000 -0.002131 -0.996951 0.046797
-0.180549 0.122885 0.086071 -0.059292 0.688268 -0.723029
-0.275852 -0.295736 0.265944 -0.055117 0.638120 0.767962
-0.363841 -0.159313 0.135778 -0.059292 -0.688268 -0.723029
-0.206713 0.210942 0.200448 -0.055117 -0.638120 0.767962
0.935957 0.030654 0.113558 -0.000744 0.344877 0.936595
-0.328729 -0.111647 -0.037014 0.000274 -0.928372 -0.364852
-1.467466 0.094878 -0.066466 -0.179406 0.807812 -0.554432
-0.090630 0.190891 -0.150712 0.063826 0.662387 0.746438
0.004005 -0.499861 -0.453420 0.059328 0.662572 -0.746645
-1.317418 0.076376 0.089453 -0.000574 0.672797 0.736721
-0.358302 0.128576 -0.106065 -0.059292 0.688268 0.723029
0.063144 -0.702890 0.618207 0.022790 -0.671939 -0.739641
0.063144 -0.702890 -0.618207 0.025530 -0.671293 0.740085
-0.152407 0.193294 -0.150787 -0.059292 0.688268 0.723029
1.471978 0.120261 -0.108230 0.028321 -0.657473 -0.752946
-0.596765 -0.030580 0.113577 0.000782 -0.237919 0.968866
-0.209951 -0.000000 -0.117622 -0.000720 -0.123501 -0.988594
-1.191262 0.101630 0.059214 -0.000795 0.886208 0.457435
-0.279399 0.183670 -0.172570 -0.055117 -0.638120 -0.767962
0.601551 0.105089 0.052832 -0.000095 0.868972 0.490042
0.100026 0.112305 -0.034964 -0.000875 0.946988 -0.314181
-0.018637 0.297131 0.251144 0.063826 0.662387 -0.746438
1.252726 0.227207 -0.199581 -0.017536 0.681129 0.731953
0.218650 0.112974 0.032740 0.000673 0.941773 0.328290
0.053895 0.583087 0.523310 0.059328 -0.662572 0.746645
-0.099344 -0.512494 0.458722 -0.055117 0.638120 0.767962
-0.053043 0.446675 0.383838 -0.059292 0.688268 -0.723029
1.409430 -0.163775 0.142041 0.028321 -0.669433 -0.742332
1.160096 0.012140 0.116994 0.003562 0.172589 0.983480
0.069139 -0.342489 0.298900 0.063826 -0.662387 -0.746438
-0.132603 0.254721 0.207637 -0.059292 0.688268 -0.723029
-0.909787 -0.000000 -0.117622 -0.001282 -0.052825 -0.996312
0.056826 0.399085 -0.348070 0.063826 0.662387 0.746438
-0.019099 0.380497 0.325084 0.063826 0.662387 -0.746438
1.352036 0.172637 0.158477 0.028321 -0.657473 0.752946
0.869796 -0.117622 -0.000000 0.000394 -0.995492 0.056156
1.300868 0.264782 0.233394 -0.017536 0.681129 -0.731953
0.779121 -0.104890 -0.053226 -0.000017 -0.864680 -0.497574
-0.367503 -0.241381 -0.214201 -0.059292 -0.688268 0.723029
-1.519064 0.081793 0.063181 -0.333182 0.689978 0.638041
0.385344 0.056277 0.103285 0.000297 0.429562 0.900260
-0.307150 -0.318084 -0.282267 -0.059292 -0.688268 0.723029
1.337108 0.145891 -0.135683 0.028321 -0.657473 -0.752946
0.012859 -0.391491 0.356549 0.059328 0.662572 0.746645
-1.129736 0.117622 -0.000000 -0.002796 0.995611 0.068180
0.020931 0.642042 -0.574999 -0.055117 -0.638120 -0.767962
1.420055 -0.134377 -0.115935 0.028321 -0.669433 0.742332
1.266293 -0.079144 -0.061474 -0.017536 -0.681129 0.731953
-0.028304 -0.323203 0.273454 0.063826 -0.662387 -0.746438
0.671223 -0.069165 -0.095138 -0.000270 -0.661475 -0.746815
0.924112 0.114947 -0.024944 0.005390 0.981059 -0.186132
0.127891 -0.401178 0.356004 0.063826 -0.662387 -0.746438
0.127891 -0.281863 0.250125 0.063826 -0.662387 -0.746438
0.127891 -0.475749 -0.422179 0.063826 -0.662387 0.746438
1.435326 -0.323814 0.287352 0.028321 -0.669433 -0.742332
1.435326 0.323814 -0.287352 0.028321 -0.657473 -0.752946
-0.300059 0.056914 0.102936 0.000845 0.518844 0.852062
0.861310 -0.060423 -0.100916 0.000074 -0.553047 -0.830334
-0.185983 0.398239 0.357566 -0.055117 -0.638120 0.767962
0.501482 0.011275 -0.117081 0.002942 0.161208 -0.985571
1.371251 -0.340292 -0.301975 -0.017536 0.645777 -0.763324
1.371251 0.340292 -0.301975 -0.017536 0.681129 0.731953
1.195859 -0.242944 -0.215588 -0.017536 0.645777 -0.763324
1.020467 -0.145595 -0.129201 -0.017536 0.645777 -0.763324
1.084246 0.180995 0.160614 -0.017536 0.681129 -0.731953
-1.355267 -0.104967 0.053075 -0.000324 -0.913917 0.400108
-0.166328 0.497055 0.441086 -0.055117 -0.638120 0.767962
-0.025505 0.676027 -0.599905 -0.055117 -0.638120 -0.767962
-0.266915 0.369218 -0.327644 -0.055117 -0.638120 -0.767962
-0.005759 -0.251066 0.233415 0.059328 0.662572 0.746645
-0.651433 0.109405 -0.043192 -0.001074 0.907837 -0.413843
-1.611921 0.009419 0.044939 -0.684301 0.243903 0.681552
0.502973 0.057706 0.102494 0.000183 0.438914 0.895464
0.379165 0.091709 -0.073651 -0.000133 0.802833 -0.592336
0.345055 -0.104003 -0.054939 -0.000329 -0.865007 -0.496965
0.072274 -0.562737 0.503791 0.059328 0.662572 0.746645
1.307472 -0.304893 -0.270561 -0.017536 0.645777 -0.763324
1.307472 0.304893 -0.270561 -0.017536 0.681129 0.731953
1.069204 -0.116388 0.105611 -0.017536 0.645777 0.763324
-0.968974 -0.091662 -0.073709 -0.000083 -0.807299 -0.585819
0.971516 -0.073881 -0.067406 -0.017536 0.645777 -0.763324
-0.308374 -0.165433 0.155338 -0.055117 0.638120 0.767962
-1.292862 -0.107333 -0.048111 0.000430 -0.894463 -0.442009
-0.589749 0.037885 -0.111354 0.001192 0.363703 -0.928779
-0.091812 0.351034 0.295974 -0.059292 0.688268 -0.723029
0.127891 0.117806 0.104541 0.063826 0.662387 -0.746438
0.057664 -0.602234 -0.528417 0.063826 -0.662387 0.746438
-0.011495 -0.217442 -0.204033 0.059328 0.662572 -0.746645
0.749825 -0.000000 0.117622 -0.008760 0.098767 0.992035
-0.206942 0.314499 0.270637 -0.059292 0.688268 -0.723029
0.040043 0.510868 0.445831 0.063826 0.662387 -0.746438
-0.078069 -0.376227 0.347021 -0.055117 0.638120 0.767962
0.177355 0.020523 0.115818 0.000803 0.262758 0.962188
1.187145 -0.039727 0.110710 0.002679 -0.289385 0.953533
-0.175085 0.156183 0.157218 -0.055117 -0.638120 0.767962
0.569867 0.117622 0.000000 -0.002313 0.995503 0.053921
-0.520213 0.046638 0.107981 -0.000296 0.445414 0.892695
0.127891 -0.102891 -0.091306 0.063826 -0.662387 0.746438
-1.407306 0.109971 0.041728 -0.001023 0.952923 0.292133
1.527355 0.019861 -0.080255 1.000000 0.000000 0.000000
-0.034112 -0.549088 0.493811 -0.055117 0.638120 0.767962
1.431771 -0.115679 -0.021294 0.000993 -0.979207 -0.193004
-0.129748 -0.122429 0.086614 0.063826 -0.662387 -0.746438
-0.316643 0.219790 -0.199910 -0.055117 -0.638120 -0.767962
-1.429665 0.000000 -0.117622 -0.033068 -0.051749 -0.994489
0.183756 -0.089259 0.076602 0.000781 -0.792876 0.605617
1.192781 -0.134577 -0.114820 -0.017536 -0.681129 0.731953
-0.018986 -0.105209 -0.052594 0.000118 -0.870689 -0.487110
0.622158 0.045102 -0.108632 -0.000716 0.346867 -0.935402
0.858465 -0.058936 0.101792 0.000093 -0.582293 0.810187
0.979458 -0.019724 -0.115957 0.000404 -0.230624 -0.969722
-0.799410 -0.048528 -0.107145 0.000896 -0.463267 -0.883379
-0.012379 -0.386139 -0.330665 0.063826 -0.662387 0.746438
0.956688 0.110196 -0.097788 -0.017536 0.681129 0.731953
-0.541873 -0.093046 -0.071955 -0.000740 -0.759034 -0.648221
-1.469494 -0.061621 0.097759 -0.163282 -0.438930 0.879447
0.820447 0.068935 -0.095304 -0.000386 0.557301 -0.828035
0.073477 -0.256947 -0.223361 0.063826 -0.662387 0.746438
-0.829997 -0.083602 0.082739 0.000551 -0.773345 0.630423
-0.006648 0.558779 -0.486747 -0.059292 0.688268 0.723029
-0.235887 -0.361963 0.323842 -0.055117 0.638120 0.767962
-0.149647 0.066656 0.096912 -0.000040 0.604350 0.793752
0.927873 0.024341 -0.115076 -0.000107 0.248354 -0.966778
-0.486285 0.014843 -0.116682 0.000219 0.214450 -0.974750
1.202976 -0.020958 -0.115740 -0.000073 -0.224358 -0.971536
0.989768 -0.000000 0.117622 0.003916 0.099490 0.991713
-1.474928 -0.113727 0.015080 -0.186722 -0.958716 0.199029
-0.132276 -0.458555 0.411539 -0.055117 0.638120 0.767962
-0.105306 -0.304841 0.253109 -0.059292 -0.688268 -0.723029
0.047326 0.430652 0.388561 0.059328 -0.662572 0.746645
0.006990 -0.308953 -0.263826 0.063826 -0.662387 0.746438
0.241508 -0.039191 0.110901 -0.000920 -0.372209 0.925549
1.128730 0.077542 0.063280 -0.000000 -0.747963 -0.663741
-0.186349 0.233691 -0.220813 -0.055117 -0.638120 -0.767962
0.309927 -0.000000 0.117622 0.000164 0.119843 0.989140
1.174389 -0.109146 -0.043842 -0.000204 -0.885015 -0.460739
0.127891 0.505578 0.448649 0.063826 0.662387 -0.746438
1.187018 0.162560 -0.140997 -0.017536 0.681129 0.731953
-0.710186 -0.036797 -0.111718 -0.000215 -0.398650 -0.914590
-0.682683 -0.100986 -0.060306 0.000422 -0.828160 -0.556735
1.231819 0.114292 -0.107574 -0.017536 -0.645777 -0.763324
0.068540 0.712037 -0.636576 -0.013327 -0.647766 -0.761015
-0.552729 0.093797 -0.070973 0.000119 0.824659 -0.561569
0.069721 0.155181 -0.132733 0.063826 0.662387 0.746438
0.009188 -0.093016 0.072392 0.063826 -0.662387 -0.746438
-0.203493 -0.116663 0.014992 -0.002835 -0.985162 0.160779
0.972784 -0.056509 0.103159 0.000928 -0.527735 0.847023
1.527355 -0.050962 0.018928 1.000000 0.000000 0.000000
-0.234644 -0.273476 -0.233858 -0.059292 -0.688268 0.723029
-0.615580 -0.113018 0.032589 -0.002427 -0.946114 0.317268
-0.759462 0.116926 -0.012778 0.004363 0.982392 -0.178351
1.432299 -0.050958 0.106011 0.021923 -0.506377 0.858640
-0.273457 0.138273 0.108338 -0.059292 0.688268 -0.723029
0.860965 0.104639 0.053718 0.000062 0.868710 0.490744
1.209101 -0.121170 0.101953 -0.017536 -0.681129 -0.731953
-0.271640 -0.199124 -0.185968 -0.055117 0.638120 -0.767962
0.998306 0.102360 0.057943 0.000056 0.840149 0.538474
1.449661 0.040057 0.110591 0.045348 0.426758 0.899904
-0.092519 -0.516099 -0.453161 -0.059292 -0.688268 0.723029
1.307972 0.252371 -0.221674 -0.017536 0.681129 0.731953
-0.080341 0.116926 0.012778 -0.004363 0.982392 0.178351
-0.000049 0.390361 -0.335466 0.063826 0.662387 0.746438
-1.532229 0.015889 -0.096985 -0.358018 0.211380 -0.904854
-1.012422 0.078866 -0.087264 0.000016 0.733642 -0.676475
-0.126093 0.548190 -0.486463 -0.055117 -0.638120 -0.767962
0.127891 -0.490664 0.435414 0.063826 -0.662387 -0.746438
-0.293462 -0.250424 0.227029 -0.055117 0.638120 0.767962
-1.029759 0.000000 -0.117622 -0.000558 -0.053275 -0.995660
1.254811 -0.109570 0.042772 -0.000624 -0.911853 0.404522
1.358973 0.048761 0.107039 -0.000360 0.500393 0.862970
1.436591 0.114036 0.028824 0.000319 0.955167 0.289063
0.061270 -0.183625 0.157252 0.063826 -0.662387 -0.746438
-0.103742 0.199466 0.195411 0.059328 -0.662572 0.746645
1.164706 0.109322 0.101827 -0.017536 -0.645777 0.763324
-0.397388 -0.141381 -0.121459 -0.059292 -0.688268 0.723029
-0.061477 -0.576083 -0.507716 -0.059292 -0.688268 0.723029
1.100190 0.189845 -0.168468 -0.017536 0.681129 0.731953
1.480540 -0.073879 -0.067408 -0.000000 0.747963 0.663741
-1.561682 -0.057631 -0.060725 -0.491712 -0.481571 -0.717934
1.218798 0.054384 0.104295 -0.000738 0.423274 0.903109
0.103171 -0.391802 -0.349649 0.059328 0.662572 -0.746645
1.304965 -0.112594 0.107818 -0.002250 0.649803 0.760013
1.388548 0.061377 -0.100339 -0.000235 0.484562 -0.872229
-0.317209 0.305300 0.270923 -0.055117 -0.638120 0.767962
-0.087932 0.310685 0.257247 0.022790 0.671939 -0.739641
1.371251 0.340292 0.301975 -0.017536 0.681129 -0.731953
0.809811 0.117622 0.000000 0.000490 0.991418 0.106280
1.397326 0.105306 -0.052398 0.000543 0.868377 -0.491233
1.010815 -0.119141 0.104815 -0.017536 -0.681129 -0.731953
0.009846 0.117298 0.113470 0.059328 -0.662572 0.746645
-1.304435 -0.040908 0.110279 0.000335 -0.324121 0.943899
-0.316866 -0.057384 -0.102674 -0.000054 -0.441465 -0.894245
-1.028420 -0.115201 0.023743 -0.000372 -0.969968 0.231871
-0.365246 0.047013 0.107818 0.000385 0.348549 0.935197
-0.118722 -0.022584 -0.115434 0.000217 -0.249743 -0.964589
-1.111945 0.053855 0.104569 -0.000949 0.417644 0.906222
-0.085858 0.599325 -0.531840 -0.055117 -0.638120 -0.767962
1.166394 0.050983 -0.105999 0.001326 0.491915 -0.867861
0.127891 0.445921 0.395709 0.063826 0.662387 -0.746438
0.550993 -0.111767 0.036650 0.000240 -0.929699 0.361680
-0.626383 0.056839 0.102977 -0.000080 0.504600 0.860607
-0.827143 -0.013028 0.116898 -0.000326 -0.180058 0.982164
1.052690 0.112439 -0.101891 -0.017536 -0.645777 -0.763324
-0.940603 0.078971 -0.087170 0.000571 0.703746 -0.707143
0.127891 -0.192377 -0.170715 0.063826 -0.662387 0.746438
0.572344 -0.041193 0.110173 -0.000308 -0.294135 0.952281
-0.398728 0.016860 -0.116408 -0.000655 0.190412 -0.979141
-0.243703 0.291903 -0.265066 -0.055117 -0.638120 -0.767962
-0.212571 -0.405518 -0.357742 -0.059292 -0.688268 0.723029
-0.014193 0.166546 -0.135644 0.063826 0.662387 0.746438
1.318278 -0.264787 -0.236880 -0.017536 0.645777 -0.763324
-0.115972 0.387514 -0.332682 -0.059292 0.688268 0.723029
0.074834 0.661154 0.582170 0.063826 0.662387 -0.746438
-0.085858 -0.599325 0.531840 -0.059292 -0.688268 -0.723029
-1.208612 -0.086408 -0.079804 -0.002069 -0.668890 -0.740407
-0.240147 0.019189 0.116046 -0.000982 0.265890 0.961094
0.473624 -0.107832 -0.046981 -0.000633 -0.948126 -0.310751
0.080725 -0.602446 0.538358 0.059328 0.662572 0.746645
-0.308578 -0.095063 0.070085 -0.059292 -0.688268 -0.723029
-0.406828 -0.071771 -0.093188 0.000577 -0.562801 -0.823714
0.670710 0.112129 0.035524 0.000005 0.934081 0.350329
1.251972 0.226231 0.198691 -0.017536 0.681129 -0.731953
0.711205 -0.096990 0.066543 -0.000068 -0.764085 0.641437
-0.453059 0.107333 0.048111 0.000430 0.894463 0.442009
-0.173874 0.326442 -0.279294 -0.059292 0.688268 0.723029
1.278167 -0.050716 0.106127 -0.000075 -0.390987 0.917767
-1.310190 -0.033984 -0.112606 -0.000934 -0.332419 -0.940640
0.025375 -0.540514 0.487797 0.059328 0.662572 0.746645
-0.062432 0.575466 0.507207 -0.059292 0.688268 -0.723029
-0.198504 -0.105391 -0.052228 -0.000015 -0.871279 -0.485892
0.069984 -0.000000 0.117622 0.005051 0.094340 0.992921
-0.745933 0.074634 0.090911 0.000033 0.702885 0.707956
0.820465 -0.116074 0.019021 0.000102 -0.975042 0.209819
-0.080582 -0.018160 0.116212 -0.000293 -0.201376 0.976991
-0.542110 0.012209 -0.116987 -0.000585 0.188239 -0.980543
-0.639609 0.020937 -0.115744 0.000484 0.218588 -0.973073
0.429522 -0.066105 -0.097289 -0.000154 -0.478527 -0.875375
-1.563629 0.082585 -0.000000 -0.548926 0.828346 -0.061511
1.387385 -0.296218 0.265058 -0.002250 0.649803 0.760013
-1.009764 0.117622 -0.000000 -0.002955 0.993130 0.095693
-0.990002 -0.035985 -0.111982 -0.000039 -0.396055 -0.915634
-0.949299 0.095553 0.068591 0.000122 0.753779 0.653452
-0.248379 -0.139013 -0.106985 -0.059292 -0.688268 0.723029
-0.680520 0.080292 -0.085955 0.000094 0.643318 -0.762484
0.064700 -0.432777 -0.378642 0.063826 -0.662387 0.746438
0.621315 -0.105389 0.052232 0.000171 -0.870351 0.487619
0.291813 0.107932 0.046751 -0.000725 0.898855 0.433691
-0.418951 0.100651 -0.060864 -0.000423 0.796496 -0.600539
0.218650 -0.112974 0.032740 0.000673 -0.941773 0.328290
-0.228832 0.098706 -0.063970 0.000025 0.782555 -0.618739
-0.023185 -0.478773 0.411944 0.043308 -0.667163 -0.743039
1.478753 0.105398 0.092042 0.028321 0.669433 -0.742332
0.294991 -0.112217 -0.035246 0.000089 -0.934129 -0.350083
-0.745933 -0.074634 0.090911 0.000033 -0.702885 0.707956
1.108864 -0.100307 -0.061428 -0.000108 -0.896774 -0.437515
0.109974 -0.000000 -0.117622 -0.001516 -0.019365 -0.998115
-1.284041 0.055997 -0.103438 -0.000082 0.433738 -0.898088
-0.346281 0.111588 0.037190 0.000343 0.960456 0.268169
-0.150199 -0.035985 0.111982 -0.000039 -0.396055 0.915634
-1.028582 -0.092499 -0.072656 0.000004 -0.751340 -0.656318
1.311305 -0.126719 -0.119913 -0.002250 0.649803 -0.760013
0.207350 0.112932 -0.032885 -0.001721 0.954650 -0.288349
0.010087 -0.033954 0.112615 0.000015 -0.241005 0.968078
-0.830130 0.065072 -0.097983 -0.000046 0.511222 -0.856671
-1.417310 -0.065550 0.097663 0.000249 -0.634776 0.769635
0.462966 -0.104447 0.054090 0.000167 -0.834707 0.546242
-1.233813 0.040121 -0.110568 -0.000310 0.383847 -0.920642
-0.080031 0.085022 -0.081279 -0.000089 0.782789 -0.618473
0.414403 -0.040819 0.110312 0.000287 -0.284401 0.955408
1.207338 0.071135 -0.070500 -0.000000 -0.747963 0.663741
-1.128510 0.054385 -0.104294 -0.001353 0.421191 -0.904630
-0.645702 -0.052376 0.105317 -0.000073 -0.526264 0.847533
0.711205 0.096990 0.066543 -0.000068 0.764085 0.641437
0.030723 -0.111269 -0.038134 -0.002231 -0.958769 -0.272600
1.310737 -0.285493 0.254224 -0.017536 0.645777 0.763324
-0.403198 -0.049199 0.106838 0.000974 -0.445115 0.892494
-0.119406 0.173979 0.133243 0.063826 0.662387 -0.746438
-1.234614 0.110610 -0.040005 0.002043 0.921002 -0.383654
-0.208001 0.109039 0.044107 -0.001395 0.942568 0.328079
0.143703 0.099617 -0.062542 0.000150 0.791948 -0.606686
-1.040088 0.088434 0.077553 -0.000211 0.736625 0.672940
0.463539 -0.057252 0.102748 0.000259 -0.434900 0.897479
-0.604098 0.116561 0.015761 -0.001613 0.971322 0.228206
1.139892 0.156974 0.141572 -0.017536 -0.645777 0.763324
0.637144 -0.115701 -0.021175 0.003290 -0.963874 -0.254668
0.031111 0.108260 0.045986 0.000185 0.898051 0.434561
0.092139 0.248714 0.223550 0.059328 -0.662572 0.746645
1.120761 0.113401 -0.096840 -0.017536 0.681129 0.731953
-0.259780 0.116938 0.012669 0.001326 0.996320 0.067066
1.305598 0.113718 0.030054 0.000130 0.951281 0.300865
0.038957 -0.028663 -0.114076 -0.000363 -0.333005 -0.940901
1.183099 0.115924 0.019918 0.001070 0.973948 0.214319
1.025966 -0.080378 -0.085874 -0.000450 -0.716317 -0.694422
-0.176526 -0.117876 0.125284 -0.055117 0.638120 0.767962
0.051177 -0.425251 0.370807 0.063826 -0.662387 -0.746438
-0.014193 -0.154910 0.148757 0.059328 0.662572 0.746645
-1.247266 0.049931 0.106498 -0.000077 0.475196 0.877089
-0.141888 -0.170611 -0.128332 0.043308 -0.667163 0.743039
1.495280 -0.051143 0.098909 0.136378 -0.397963 0.904218
-1.409670 -0.117622 0.000000 -0.000091 -0.994425 0.066012
-0.488208 -0.087977 -0.078071 -0.000000 0.747963 0.663741
-0.387936 0.118767 0.110851 -0.055117 -0.638120 0.767962
1.164901 -0.053418 -0.104792 0.000250 -0.499952 -0.863389
-1.297103 0.107698 0.047288 0.001384 0.893864 0.443523
0.224733 -0.090404 -0.075247 0.000696 -0.700915 -0.710049
-0.167160 0.113656 -0.030288 0.000163 0.935162 -0.347829
-0.835091 0.116717 -0.014563 -0.000039 0.974832 -0.213885
-1.542166 -0.061430 0.070996 -0.455598 -0.537737 0.702426
0.013517 -0.632342 0.555121 -0.059292 -0.688268 -0.723029
0.139985 -0.116420 -0.016773 -0.000563 -0.983486 -0.170013
0.288063 -0.045063 -0.108648 0.000703 -0.436406 -0.897223
-0.136492 -0.184619 0.141223 0.022790 -0.671939 -0.739641
-0.468091 0.113544 -0.100759 -0.055117 -0.638120 -0.767962
-0.191790 0.156995 -0.156693 -0.055117 -0.638120 -0.767962
0.168184 0.108059 0.046457 0.000332 0.896985 0.437350
-1.098713 0.100504 -0.061106 -0.001839 0.895609 -0.440120
-0.579111 -0.068157 -0.095862 -0.001537 -0.498915 -0.864338
1.428999 -0.109202 0.043703 0.000750 -0.904200 0.421658
0.039280 0.392883 0.355685 0.059328 -0.662572 0.746645
0.365467 -0.056020 0.103425 0.000192 -0.428650 0.900749
0.656452 0.083187 -0.083156 0.000438 0.627448 -0.775177
1.060868 0.065210 0.097891 -0.000255 0.517485 0.852953
-1.004256 0.021741 0.115595 -0.000820 0.255919 0.964249
-0.311536 0.030675 -0.113552 -0.000869 0.309043 -0.948703
0.191005 -0.052484 -0.105264 -0.000043 -0.408294 -0.910301
0.392791 0.094088 0.070586 -0.001469 0.741281 0.667487
-1.156262 -0.103915 -0.055106 -0.000346 -0.856251 -0.512288
-0.193511 -0.274757 0.231705 -0.059292 -0.688268 -0.723029
-0.077141 0.338699 -0.283029 -0.018250 0.680566 0.731838
1.022804 0.018952 -0.116085 0.000215 0.210948 -0.974837
0.096460 -0.550946 -0.491406 0.059328 0.662572 -0.746645
-0.009673 0.065072 0.097983 0.000046 0.511222 0.856671
0.965184 -0.107298 0.048188 0.000764 -0.905853 0.419453
1.076293 -0.113345 0.031432 0.000201 -0.946990 0.314057
0.301852 0.100203 -0.061598 0.000726 0.886923 -0.457037
-0.024471 0.250997 -0.234841 0.059328 -0.662572 -0.746645
-0.139152 0.270618 0.254884 -0.055117 -0.638120 0.767962
0.026384 0.665449 0.594840 -0.055117 -0.638120 0.767962
-0.149578 -0.295845 0.275097 -0.055117 0.638120 0.767962
0.836328 -0.013729 -0.116818 0.000310 -0.164333 -0.984462
0.055157 0.281522 -0.255602 0.059328 -0.662572 -0.746645
1.224929 -0.175004 0.151669 -0.017536 -0.681129 -0.731953
-0.721393 -0.117189 0.010081 0.000273 -0.986940 0.150124
0.100799 0.078971 0.087170 -0.000571 0.703746 0.707143
0.100799 -0.078971 0.087170 -0.000571 -0.703746 0.707143
1.186726 -0.198154 0.177486 -0.017536 0.645777 0.763324
-1.396412 0.014509 0.116724 -0.002089 0.176830 0.982806
0.127891 -0.535406 0.475119 0.063826 -0.662387 -0.746438
-1.230388 0.113527 0.030766 -0.000834 0.983108 0.171860
-0.709834 0.117622 -0.000000 0.003185 0.994194 0.080055
1.380687 -0.112413 -0.034615 -0.001713 -0.923759 -0.376265
-0.120306 -0.206314 -0.202804 0.021182 0.655190 -0.754646
0.951864 0.074110 0.067148 -0.000000 -0.747963 -0.663741
1.527355 0.088613 0.019912 1.000000 -0.000000 0.000000
-1.161630 -0.027248 -0.114423 -0.000158 -0.326237 -0.943045
-0.051692 0.527301 -0.460477 -0.059292 0.688268 0.723029
-0.055179 -0.164324 -0.160368 0.059328 0.662572 -0.746645
-0.004119 0.111025 -0.038837 0.001063 0.934227 -0.350042
-0.522024 -0.076190 0.089611 -0.000382 -0.608829 0.790356
0.194672 -0.116646 -0.015122 0.000325 -0.973145 -0.221283
-0.889792 -0.117622 0.000000 -0.000837 -0.991679 0.107916
1.433985 0.131402 0.113784 0.028321 0.669433 -0.742332
-0.042485 0.502006 0.435643 -0.059292 0.688268 -0.723029
-1.118928 -0.111260 0.038159 0.000333 -0.937505 0.341046
-0.387620 0.215814 0.191513 -0.055117 -0.638120 0.767962
1.362442 0.111338 -0.092961 0.028321 0.669433 0.742332
-0.141950 0.476199 -0.419233 -0.059292 0.688268 0.723029
0.083153 0.187702 0.162741 0.063826 0.662387 -0.746438
-0.117714 -0.273842 -0.259101 -0.055117 0.638120 -0.767962
-1.498922 -0.101908 -0.040276 -0.203713 -0.901542 -0.371547
-1.159319 0.067981 0.095987 0.000682 0.614166 0.786117
0.661137 -0.022490 0.115452 0.000772 -0.242434 0.966644
-0.491669 0.088653 0.077302 0.000236 0.724445 0.686092
-1.100628 -0.042234 0.109778 0.000977 -0.290147 0.953771
1.107108 0.109558 -0.042803 -0.000841 0.913404 -0.400396
-0.857057 0.050206 0.106369 -0.000373 0.504827 0.860616
1.159469 0.058771 0.101887 0.000063 0.461613 0.884535
1.279545 0.056793 -0.103002 -0.000080 0.564238 -0.822767
-0.028728 -0.108440 0.045561 -0.000076 -0.899965 0.430589
1.021382 0.115542 0.103797 -0.017536 -0.645777 0.763324
-0.027256 0.413899 -0.379621 0.059328 -0.662572 -0.746645
0.021506 -0.332764 0.303748 0.059328 0.662572 0.746645
-0.182658 -0.405794 0.355551 -0.059292 -0.688268 -0.723029
-0.132495 -0.371324 0.339040 -0.055117 0.638120 0.767962
-0.039550 -0.272141 -0.227180 0.063826 -0.662387 0.746438
1.125780 -0.106440 0.050055 -0.000460 -0.856978 0.510655
-0.663718 0.100670 0.060831 0.000498 0.841397 0.535748
1.426731 0.175099 -0.152913 0.028321 0.669433 0.742332
-0.289932 -0.117622 0.000000 0.000053 -0.994977 0.058020
1.287329 0.165349 -0.141189 -0.017536 0.681129 0.731953
-0.189605 -0.067400 0.096396 0.000018 -0.609561 0.789709
0.066741 -0.369199 -0.322398 0.063826 -0.662387 0.746438
1.417696 -0.324141 -0.288300 0.028321 0.657473 -0.752946
1.351177 -0.107786 0.047086 0.000139 -0.892881 0.445381
-0.148563 -0.109154 0.043823 0.001064 -0.886804 0.456336
-0.220842 0.194215 0.157276 -0.059292 0.688268 -0.723029
-1.449661 0.075506 0.090188 -0.017459 0.617258 0.783501
-1.559510 0.028999 0.079854 -0.522942 0.306759 0.789521
-0.096675 0.134966 -0.100566 0.063826 0.662387 0.746438
1.249708 -0.000000 -0.117622 -0.006372 -0.096632 -0.992916
0.064448 0.232178 -0.200610 0.063826 0.662387 0.746438
-0.213252 -0.194476 0.186297 -0.055117 0.638120 0.767962
-0.320945 0.097871 -0.065241 -0.000266 0.803910 -0.591255
-0.091320 0.407441 -0.372006 -0.055117 -0.638120 -0.767962
0.907758 -0.072589 0.092552 -0.000451 -0.541395 0.838258
1.362442 -0.111338 -0.092961 0.028321 -0.669433 0.742332
0.038864 -0.502377 0.452882 0.059328 0.662572 0.746645
-0.304349 0.132768 -0.128484 -0.055117 -0.638120 -0.767962
-1.619916 0.009079 -0.036753 -0.736801 0.221993 -0.632977
-0.149082 -0.099735 -0.064821 -0.000000 0.747963 0.663741
-0.347487 0.143369 0.119260 -0.059292 0.688268 -0.723029
0.017254 0.050206 -0.106369 0.000373 0.504827 -0.860616
-1.489007 -0.000000 0.111994 -0.181330 -0.075356 0.975718
1.168034 -0.078000 0.062764 -0.000000 0.747963 -0.663741
-0.114434 0.514981 0.453894 -0.059292 0.688268 -0.723029
-0.405943 -0.120035 0.110612 -0.055117 0.638120 0.767962
0.087124 0.369916 0.324777 0.063826 0.662387 -0.746438
-0.104119 -0.268663 0.218572 0.022790 -0.671939 -0.739641
-0.995580 -0.058034 0.102308 -0.000230 -0.473508 0.878128
-0.036883 0.582768 -0.521597 -0.055117 -0.638120 -0.767962
-0.125701 0.191864 -0.190411 -0.016966 -0.647039 -0.761752
-0.032727 -0.212386 0.201233 0.059328 0.662572 0.746645
0.012734 0.469523 -0.406807 0.063826 0.662387 0.746438
0.085793 -0.502106 -0.448913 0.059328 0.662572 -0.746645
1.485581 0.064677 -0.092273 0.136863 0.482468 -0.862152
0.759161 0.116805 -0.013844 -0.001134 0.982766 -0.173332
0.082428 -0.667124 -0.588118 0.063826 -0.662387 0.746438
0.951864 0.075483 -0.065600 -0.000000 -0.747963 0.663741
-1.417353 -0.093807 -0.070960 0.000223 -0.757832 -0.648651
-0.189577 -0.260843 -0.243142 -0.055117 0.638120 -0.767962
1.471978 -0.120261 -0.108230 0.028321 0.657473 -0.752946
1.359627 -0.189655 -0.163480 0.028321 -0.669433 0.742332
1.385658 -0.333034 0.294875 -0.017536 -0.681129 -0.731953
0.108378 -0.364093 0.324646 0.059328 0.662572 0.746645
-0.084030 -0.106539 0.111382 0.059328 0.662572 0.746645
-0.662449 -0.020523 -0.115818 0.000803 -0.262758 -0.962188
0.147294 -0.066895 0.096747 -0.000110 -0.604666 0.793616
1.434315 0.033590 -0.112724 0.000638 0.367578 -0.926770
-0.182004 -0.231206 -0.189303 -0.059292 -0.688268 0.723029
0.127891 0.550321 0.488354 0.063826 0.662387 -0.746438
0.017610 0.317070 0.290130 0.059328 -0.662572 0.746645
0.058151 -0.161729 -0.149060 0.059328 0.662572 -0.746645
-0.276974 0.356435 0.316299 -0.055117 -0.638120 0.767962
1.197887 -0.206992 -0.185219 -0.017536 0.645777 -0.763324
-0.373715 -0.202204 -0.177417 -0.059292 -0.688268 0.723029
-0.270872 -0.343534 -0.303519 -0.059292 -0.688268 0.723029
-0.169564 -0.329212 0.301388 -0.055117 0.638120 0.767962
-0.060167 -0.146328 0.144794 0.059328 0.662572 0.746645
0.297931 -0.093046 0.071955 -0.000740 -0.759034 0.648221
-1.157391 -0.037292 0.111554 0.000528 -0.361507 0.929794
-0.196992 0.125194 0.129896 -0.055117 -0.638120 0.767962
-1.542059 -0.089169 0.029535 -0.455791 -0.850231 0.252376
1.029759 -0.117622 -0.000000 0.000495 -0.997371 0.029180
0.709834 -0.117622 -0.000000 -0.000201 -0.991635 0.103742
-0.613504 -0.116450 -0.016566 -0.000098 -0.979858 -0.187533
1.402663 -0.043995 -0.109085 0.000374 -0.390625 -0.917911
-0.227724 0.118544 -0.122164 -0.055117 -0.638120 -0.767962
-1.069750 -0.000000 0.117622 -0.002009 0.042043 0.997335
1.069775 -0.072737 -0.068695 -0.017536 0.645777 -0.763324
-0.172645 0.426555 -0.382052 -0.055117 -0.638120 -0.767962
-0.071745 -0.352707 0.295921 0.022790 -0.671939 -0.739641
-0.029993 -0.117622 -0.000000 0.000106 -0.997374 0.034530
1.139892 0.159231 -0.139029 -0.017536 0.681129 0.731953
-0.334442 0.013308 0.116867 -0.000593 0.165386 0.984354
-0.265614 0.183671 0.150910 -0.059292 0.688268 -0.723029
1.496785 0.049860 0.099331 0.136961 0.392179 0.906835
-0.136152 -0.535406 0.475119 -0.059292 -0.688268 -0.723029
0.069984 -0.117622 -0.000000 0.000400 -0.994492 0.087821
1.033427 0.066842 -0.096784 -0.000916 0.487535 -0.870636
1.246434 0.148755 0.137065 -0.017536 -0.645777 0.763324
-0.006122 -0.140121 -0.112884 0.063826 -0.662387 0.746438
-0.742530 -0.028032 0.114233 -0.000919 -0.327749 0.942366
0.026153 -0.675909 -0.603514 -0.055117 0.638120 -0.767962
-0.156131 -0.336648 -0.287555 -0.059292 -0.688268 0.723029
-0.318654 -0.120048 -0.116888 -0.055117 0.638120 -0.767962
1.203312 0.208185 -0.186353 -0.017536 -0.645777 -0.763324
1.096222 0.113411 0.031192 -0.000263 0.929996 0.361107
-0.040023 -0.595973 0.532344 -0.055117 0.638120 0.767962
0.070588 -0.117173 0.099079 0.063826 -0.662387 -0.746438
-0.116216 -0.476034 -0.416965 -0.059292 -0.688268 0.723029
-0.054078 -0.526079 0.459509 -0.059292 -0.688268 -0.723029
-0.228743 -0.098212 0.066536 -0.059292 -0.688268 -0.723029
0.390585 0.113527 -0.030766 0.000834 0.983108 -0.171860
-0.227620 -0.041585 -0.110026 0.000211 -0.293797 -0.952384
1.389413 0.108714 0.044903 0.000783 0.898195 0.434492
-0.137509 -0.240467 0.194470 -0.059292 -0.688268 -0.723029
0.000758 0.191134 0.179714 0.059328 -0.662572 0.746645
0.071537 0.326078 -0.293839 0.059328 -0.662572 -0.746645
-0.012968 -0.628211 -0.561073 -0.055117 0.638120 -0.767962
-0.478149 -0.100761 0.089415 -0.059292 -0.688268 -0.723029
-0.169833 -0.418522 -0.366616 -0.059292 -0.688268 0.723029
-0.028581 -0.464765 -0.399053 0.022790 -0.671939 0.739641
0.003793 -0.538646 -0.487854 0.021182 0.655190 -0.754646
1.250307 -0.102495 0.098018 -0.017536 0.645777 0.763324
-0.262184 0.113041 -0.032506 -0.000667 0.936226 -0.342992
-0.089408 0.350717 -0.325010 -0.055117 -0.638120 -0.767962
1.478634 0.209071 -0.185529 0.028321 -0.657473 -0.752946
-0.055179 0.164324 -0.160368 0.059328 -0.662572 -0.746645
-0.235963 0.260092 0.221225 -0.059292 0.688268 -0.723029
-0.020986 -0.404787 -0.371037 0.059328 0.662572 -0.746645
-0.132870 0.249183 -0.237524 -0.055117 -0.638120 -0.767962
0.095143 0.527613 -0.470805 0.059328 -0.662572 -0.746645
1.235566 0.121850 0.101951 -0.017536 0.681129 -0.731953
0.090322 -0.339274 -0.297858 0.063826 -0.662387 0.746438
-0.169512 0.232195 0.220778 -0.055117 -0.638120 0.767962
0.086525 -0.225431 0.196510 0.063826 -0.662387 -0.746438
1.401570 -0.254314 0.227934 0.028321 0.657473 0.752946
-0.073544 0.232452 0.189053 0.063826 0.662387 -0.746438
-0.114467 -0.401584 -0.365479 -0.055117 0.638120 -0.767962
-0.081809 -0.424844 0.387150 -0.055117 0.638120 0.767962
0.048756 -0.091336 -0.074285 0.000000 0.747963 0.663741
1.148382 -0.077771 -0.063022 -0.017536 -0.681129 0.731953
-0.180211 0.019287 0.116030 -0.000161 0.208976 0.975336
1.452929 -0.153517 0.137986 0.028321 0.657473 0.752946
0.411696 -0.110472 0.040385 -0.000904 -0.901964 0.426557
-0.352125 0.204058 -0.177411 -0.059292 0.688268 0.723029
-0.105452 0.303958 -0.285005 -0.055117 -0.638120 -0.767962
-0.089731 -0.097215 0.067660 0.063826 -0.662387 -0.746438
-0.208474 0.381817 -0.334844 -0.059292 0.688268 0.723029
0.047958 0.548706 0.493272 0.059328 -0.662572 0.746645
1.341051 -0.077329 0.088629 -0.000485 -0.694980 0.715630
1.527355 -0.104877 0.020896 1.000000 0.000000 -0.000000
1.319211 0.100631 -0.096836 0.028321 -0.657473 -0.752946
1.363783 -0.071683 -0.069882 0.000000 0.747963 0.663741
-0.034036 -0.291930 -0.271924 0.059328 0.662572 -0.746645
-0.114100 0.114530 -0.026792 -0.000773 0.946006 -0.317022
1.392108 0.266930 -0.239306 0.028321 -0.657473 -0.752946
0.486452 -0.030617 -0.113567 0.000323 -0.316009 -0.946306
-1.527089 -0.034565 -0.094218 -0.415594 -0.337320 -0.838870
0.006127 0.206058 -0.192531 0.059328 -0.662572 -0.746645
0.433347 0.040770 0.110330 0.000278 0.386900 0.919224
1.527355 -0.020630 0.104930 1.000000 -0.000000 -0.000000
1.309672 0.169844 0.144837 -0.017536 0.681129 -0.731953
1.495280 0.098902 0.051156 0.136367 0.904156 0.398106
-0.369913 0.117622 -0.000000 0.001341 0.996980 0.044277
-0.149082 0.099735 0.064821 0.015937 0.673328 -0.738282
1.104461 0.056179 -0.103339 -0.000449 0.558384 -0.826701
1.224341 0.102719 0.057304 -0.000232 0.852452 0.518212
-0.289367 -0.222275 0.189606 -0.059292 -0.688268 -0.723029
-0.157369 0.345160 0.315515 -0.055117 -0.638120 0.767962
-0.384131 0.158765 -0.136921 -0.059292 0.688268 0.723029
-0.069984 -0.000000 -0.117622 -0.002553 -0.033164 -0.998022
-1.187687 0.107846 -0.046948 0.000384 0.900097 -0.431907
1.444459 0.187263 0.167772 0.028321 -0.657473 0.752946
0.127891 0.386263 0.342769 0.063826 0.662387 -0.746438
0.009188 0.452824 0.391685 0.063826 0.662387 -0.746438
0.079195 0.623228 0.556921 0.059328 -0.662572 0.746645
-0.436442 0.104399 0.089458 -0.059292 0.688268 -0.723029
-1.322075 0.021014 -0.115730 0.000036 0.232966 -0.969138
-0.083645 -0.123603 -0.091597 0.063826 -0.662387 0.746438
-0.426183 0.024943 0.114947 0.000791 0.221543 0.972964
0.991168 -0.075940 0.065085 -0.000000 0.747963 -0.663741
-0.227535 -0.179231 0.143561 -0.059292 -0.688268 -0.723029
-0.109974 -0.117622 -0.000000 -0.001744 -0.988607 0.124597
