0.481042 -0.053259 -0.069357 -0.000831 -0.655167 -0.749205
0.618395 0.061224 -0.062438 -0.000436 0.743932 -0.662034
1.516325 -0.033573 -0.080745 -0.000685 -0.438540 -0.894047
1.394038 -0.125389 -0.146828 0.000000 -0.793663 0.608358
0.080482 -0.080854 -0.033309 0.000047 -0.892916 -0.440684
0.718226 0.087447 -0.000000 -0.000458 0.994092 -0.058145
-0.228344 -0.255587 -0.339988 0.074572 0.791453 -0.606664
-0.899466 0.036713 0.079367 0.002078 0.345111 0.934492
-0.158529 -0.021889 -0.084663 0.003263 -0.272454 -0.957289
-1.501095 -0.056053 0.067119 0.000931 -0.542367 0.835536
1.367017 -0.106925 0.122741 0.000000 -0.793663 -0.608358
1.204076 0.120333 0.156987 -0.198406 -0.593322 0.780131
-1.792289 -0.000000 0.062879 -0.396031 -0.079325 0.907233
-0.335512 0.090323 0.101419 0.062126 0.792130 -0.607183
1.127521 0.017152 -0.085748 -0.000333 0.319545 -0.943146
-1.017487 -0.087447 0.000000 0.001639 -0.995090 0.053471
1.087314 -0.016990 0.085780 0.000819 -0.061888 0.993589
1.538183 -0.276514 -0.360740 -0.198406 0.593322 -0.780131
1.741641 -0.016415 0.022486 1.000000 -0.000000 0.000000
-0.460313 -0.076945 0.041549 0.001467 -0.899191 0.431200
-1.675860 -0.000000 0.087447 -0.005650 -0.123504 0.987695
-0.339162 0.000000 -0.087447 -0.000170 0.063684 -0.993784
0.272879 -0.071969 -0.049672 -0.000428 -0.862478 -0.497968
1.577180 -0.133880 -0.191413 -0.000000 0.793663 -0.608358
1.621596 0.171290 -0.240219 -0.000000 -0.793663 -0.608358
-0.009239 -0.073502 -0.047375 -0.000219 -0.868663 -0.486552
1.027438 -0.085644 -0.017666 0.000198 -0.959691 -0.264921
1.017946 0.034419 -0.080388 0.000271 0.507743 -0.856550
0.605966 0.016812 0.085815 0.004721 0.315872 0.943854
-0.415172 0.287330 0.381770 -0.089379 -0.761246 0.642274
-0.777055 -0.080236 0.034771 -0.000710 -0.884679 0.456908
1.299506 0.079673 0.036044 -0.001929 0.904215 0.417763
0.359113 0.000000 -0.087447 -0.000319 0.065413 -0.993519
-1.259801 0.063096 -0.060546 -0.000188 0.793525 -0.602750
-0.233268 0.214702 0.287253 0.074572 -0.791453 0.606664
1.456644 0.163823 -0.230477 -0.000000 -0.793663 -0.608358
-0.330506 -0.174167 -0.246324 0.074572 0.791453 -0.606664
1.675860 -0.087447 0.000000 0.003909 -0.992987 0.062947
-1.566426 -0.085609 0.017831 -0.004724 -0.950841 0.293966
-0.404713 0.075636 -0.126902 0.074572 -0.791453 -0.606664
-0.579559 0.079901 0.035535 0.000728 0.938281 0.332832
-0.954795 0.036551 -0.079441 -0.001016 0.476102 -0.874657
-1.675860 0.085309 -0.019217 0.000351 0.992679 -0.071513
1.571764 -0.193225 0.268834 -0.000000 0.793663 0.608358
-0.463102 0.065225 -0.060185 -0.000000 -0.608358 0.793663
-0.229651 -0.468475 0.605588 0.062126 -0.792130 -0.607183
-0.416883 -0.250690 -0.338106 -0.089379 0.761246 -0.642274
1.606543 -0.016290 -0.085916 0.000638 -0.316132 -0.943421
-1.426601 -0.085658 0.017596 0.000091 -0.960325 0.262989
1.553331 0.010617 0.086800 0.001248 0.216770 0.972913
0.736312 -0.060448 0.063189 -0.001740 -0.649027 0.755586
1.707024 0.037533 0.078411 0.017422 0.425767 0.899285
0.550365 0.085386 -0.018873 0.000319 0.937825 -0.334177
-0.199507 -0.000000 0.087447 0.000001 -0.064981 0.993605
1.193462 -0.080388 -0.034419 0.000567 -0.942180 -0.322264
1.276655 -0.033794 0.080653 0.001150 -0.335356 0.936676
-0.255092 0.301505 -0.403180 0.074572 -0.791453 -0.606664
-0.405491 0.241924 0.302875 -0.074515 0.814510 -0.575345
-1.069618 0.017870 0.085601 0.001674 0.128497 0.987864
-0.398898 0.158128 0.183392 0.016569 0.800946 -0.597568
1.661609 -0.117527 0.136572 0.000000 -0.793663 -0.608358
0.777688 -0.033811 -0.080646 -0.000233 -0.319064 -0.943303
-1.076805 -0.062483 -0.061178 -0.000243 -0.755034 -0.649076
-0.392862 -0.304463 0.405182 -0.089379 0.761246 0.642274
-0.422241 0.065410 0.060043 0.008961 0.802117 -0.595740
-0.552189 -0.071969 0.049672 0.000428 -0.862478 0.497968
-0.267293 -0.219420 -0.276819 0.062126 -0.792130 0.607183
-1.337386 0.080776 -0.033499 0.000086 0.862487 -0.497606
-0.249265 0.291094 0.372169 0.062126 0.792130 -0.607183
0.815197 -0.085845 0.016658 -0.001521 -0.960240 0.263150
-0.794457 0.073972 -0.046638 -0.000388 0.768068 -0.633698
-0.340651 -0.181948 0.220428 0.062126 -0.792130 -0.607183
1.234723 0.078432 -0.085569 -0.000000 0.793663 0.608358
-0.062194 -0.080537 0.034069 0.002206 -0.883587 0.459608
1.392616 0.065339 0.101996 0.000000 -0.793663 0.608358
-0.360449 0.218205 -0.307458 -0.034747 -0.773205 -0.631925
-0.258491 -0.105837 0.148328 0.074572 0.791453 0.606664
-0.065848 -0.018753 -0.085412 -0.000140 -0.267543 -0.959130
-1.175827 -0.077977 -0.039579 -0.001627 -0.856219 -0.503808
-0.543865 -0.014664 -0.086208 0.002060 -0.268388 -0.958296
-0.468818 0.170345 -0.235651 -0.089379 -0.761246 -0.642274
-0.013262 -0.019054 0.085345 0.001074 -0.280713 0.954628
-0.366661 -0.401864 0.524271 -0.074515 -0.814510 -0.575345
-0.525540 0.216636 0.282623 -0.074515 0.814510 -0.575345
-0.527590 -0.147705 0.200639 -0.089379 0.761246 0.642274
-0.647036 0.074990 -0.097832 -0.089379 -0.761246 -0.642274
1.741641 0.022480 -0.057561 1.000000 -0.000000 0.000000
1.267716 0.150082 0.195797 -0.198406 -0.593322 0.780131
1.475032 -0.173816 -0.210007 0.000000 -0.793663 0.608358
-0.252596 0.120614 0.166882 0.074572 -0.791453 0.606664
1.695175 -0.137613 -0.179530 0.314569 -0.801607 0.508402
1.715826 0.090657 -0.118271 0.314569 0.801607 0.508402
-0.356818 -0.086340 0.094043 0.062126 -0.792130 -0.607183
1.371635 0.111987 -0.162852 0.000000 -0.793663 -0.608358
1.545295 0.092583 0.104030 -0.000000 0.793663 -0.608358
1.136546 0.082185 0.029876 0.000443 0.935588 0.341602
-0.209530 0.468833 -0.608113 0.062126 0.792130 0.607183
-1.606637 0.068531 -0.054318 0.000230 0.780371 -0.618535
-1.695544 -0.050311 -0.071204 -0.094127 -0.593639 -0.790344
-0.486720 0.149999 0.183258 -0.074515 0.814510 -0.575345
-0.239540 0.455197 0.601774 0.074572 -0.791453 0.606664
-1.178358 0.077977 0.039579 0.001627 0.856219 0.503808
-0.175071 -0.354267 -0.462176 0.062126 -0.792130 0.607183
-0.175071 0.306096 0.399332 0.062126 0.792130 -0.607183
-0.175071 -0.161583 -0.210801 0.062126 -0.792130 0.607183
-1.412475 -0.065764 -0.057636 -0.004052 -0.784613 -0.612810
-0.250596 -0.467617 -0.602326 -0.028979 -0.808406 0.586956
-0.381729 0.303346 -0.386752 -0.074515 0.814510 0.575345
-0.687601 0.072726 0.048557 0.000020 0.749483 0.655563
-0.358938 -0.126086 -0.187093 0.074572 0.791453 -0.606664
1.568841 -0.091861 -0.103088 0.000000 -0.793663 0.608358
-1.336899 -0.062127 0.061540 0.000230 -0.751401 0.653341
0.309973 0.073502 -0.047375 -0.000219 0.868663 -0.486552
1.639213 0.092845 -0.137880 -0.000000 -0.793663 -0.608358
1.444320 -0.074932 -0.114510 0.000000 0.793663 -0.608358
-1.337225 0.061840 0.061828 -0.000109 0.657687 0.747594
0.649887 -0.085806 -0.016857 0.000239 -0.962509 -0.255112
-1.641588 -0.079060 0.037368 -0.000540 -0.847077 0.523109
-0.462201 -0.227584 0.289920 -0.074515 -0.814510 -0.575345
-0.516194 0.227531 -0.296837 -0.089379 -0.761246 -0.642274
-1.415167 0.061090 -0.062569 0.000184 0.599037 -0.795512
-0.289885 -0.085584 -0.017951 0.000368 -0.961235 -0.260644
1.368132 0.050221 -0.071587 0.000431 0.617752 -0.780973
-0.175071 -0.149540 0.195090 0.062126 -0.792130 -0.607183
-1.005296 0.085507 -0.018317 0.002618 0.954752 -0.280265
-0.353888 0.204555 0.248566 0.062126 0.792130 -0.607183
0.688468 -0.048649 -0.072665 0.000032 -0.497563 -0.862506
-0.368815 -0.251060 0.345234 -0.089379 0.761246 0.642274
1.198424 0.080033 0.087657 0.000000 0.793663 -0.608358
-0.272566 0.411164 -0.548389 -0.034747 -0.773205 -0.631925
-0.600307 0.129469 0.168906 -0.074515 0.814510 -0.575345
-0.370070 -0.286101 -0.386590 -0.089379 0.761246 -0.642274
0.345097 0.085338 0.019086 0.003111 0.987570 0.126765
-0.248791 -0.318978 0.408596 0.062126 -0.792130 -0.607183
0.570441 -0.085579 -0.017975 -0.001161 -0.987753 -0.122777
1.296797 0.000000 -0.087447 -0.000844 0.142682 -0.984550
0.220723 0.077977 -0.039579 -0.001627 0.856219 -0.503808
-0.535643 0.121337 -0.168265 -0.089379 -0.761246 -0.642274
0.435825 0.035585 0.079879 0.002808 0.460440 0.882281
0.897782 0.000000 -0.087447 -0.002906 0.063915 -0.994746
0.447886 0.013735 -0.086361 0.003617 0.250502 -0.964720
-0.175071 0.366309 0.477887 0.062126 0.792130 -0.607183
0.219458 -0.087447 0.000000 -0.002014 -0.987667 0.126833
-0.598523 -0.086786 -0.010727 -0.002188 -0.965099 -0.247614
-0.241199 0.093928 -0.130667 0.074572 -0.791453 -0.606664
-0.325474 -0.345942 0.439769 -0.074515 -0.814510 -0.575345
-0.724160 0.085338 -0.019086 -0.002820 0.987571 -0.126765
0.795554 0.058799 0.064726 -0.000332 0.660657 0.745135
-0.250364 -0.414494 0.550003 0.074572 0.791453 0.606664
-0.307016 0.017813 0.085613 0.000799 0.267766 0.958868
1.537247 -0.077162 0.041145 0.000755 -0.899235 0.430708
0.334886 -0.033316 0.080852 0.000343 -0.434106 0.896522
1.215954 -0.078842 0.086104 -0.000000 -0.793663 -0.608358
-0.812589 0.035711 0.079823 -0.001301 0.334529 0.937662
-1.222143 0.033765 0.080665 -0.000633 0.449626 0.888588
-0.323420 -0.353644 -0.473137 -0.089379 0.761246 -0.642274
-1.820053 -0.047629 0.000000 -0.500860 -0.851440 0.089874
1.495880 -0.164686 0.231603 -0.000000 0.793663 0.608358
-0.410810 -0.089041 -0.092042 0.062126 -0.792130 0.607183
1.715826 -0.090657 -0.118271 0.314569 -0.801607 0.508402
1.525258 0.147741 -0.209496 -0.000000 -0.793663 -0.608358
1.675860 -0.037755 -0.078876 0.005522 -0.315344 -0.943879
-0.849818 0.083596 0.025664 0.004022 0.939920 0.324699
-0.422736 0.336489 -0.438984 -0.089379 -0.761246 -0.642274
1.652223 -0.034557 0.061837 -0.192738 0.596951 -0.778782
1.166851 0.071803 -0.049912 -0.000970 0.783173 -0.614947
1.524143 0.099674 -0.146788 0.000000 -0.793663 -0.608358
0.997536 0.087447 -0.000000 -0.000285 0.994236 -0.062075
0.159414 0.033794 0.080653 0.000166 0.321529 0.942358
-0.557418 0.081021 -0.032901 -0.000103 0.866129 -0.491220
1.219986 -0.127770 0.166689 -0.198406 0.593322 0.780131
-1.203651 0.020026 -0.085123 0.000395 0.371812 -0.922354
-0.243181 -0.103150 -0.127600 0.062126 -0.792130 0.607183
0.887798 -0.017187 0.085741 0.000152 -0.139567 0.986940
-0.907685 -0.017327 -0.085713 -0.001227 -0.126980 -0.987370
-0.404390 -0.146665 0.167876 -0.028979 -0.808406 -0.586956
-0.328419 0.085577 0.017984 -0.000420 0.959452 0.265898
1.605780 0.279308 -0.347631 0.262870 0.803982 0.527650
-0.808292 -0.017187 -0.085741 0.000505 -0.256788 -0.962145
1.507943 0.135408 0.193407 -0.000000 -0.793663 0.608358
1.452224 0.073778 0.046944 0.000897 0.896250 0.434145
0.079820 -0.051556 0.070632 -0.001152 -0.481822 0.871290
-0.479682 0.088191 0.094846 -0.074515 0.814510 -0.575345
-0.079803 0.087447 -0.000000 0.000002 0.985773 -0.137026
0.965748 -0.085765 0.017068 0.001391 -0.987534 0.126588
1.621596 0.171290 0.240219 0.000000 -0.793663 0.608358
1.317593 -0.079632 -0.036135 -0.003895 -0.833591 -0.541616
-0.385352 0.380072 -0.495842 -0.089379 -0.761246 -0.642274
-0.175071 0.378352 -0.493598 0.062126 0.792130 0.607183
0.540054 -0.044265 0.075416 0.000562 -0.460793 0.883430
-0.240180 0.387773 0.499226 0.062126 0.792130 -0.607183
1.605780 0.263130 0.360032 0.174026 -0.718210 0.663254
1.649480 0.114592 0.166250 -0.000000 -0.793663 0.608358
1.394797 0.194090 0.261587 -0.198406 -0.593322 0.780131
0.917225 -0.079246 -0.036972 -0.000084 -0.934019 -0.343162
-0.196186 -0.372396 0.488423 0.074572 0.791453 0.606664
-0.243711 0.248803 -0.333026 0.074572 -0.791453 -0.606664
-0.537005 -0.081820 0.121239 -0.089379 0.761246 0.642274
-0.239588 0.033425 -0.080806 0.000112 0.258009 -0.961728
-0.932975 -0.080933 -0.033116 0.000254 -0.893444 -0.440235
-0.456525 -0.080537 -0.034069 -0.002206 -0.883587 -0.459608
0.366465 -0.085578 0.017981 0.000215 -0.958303 0.269534
-0.248560 -0.420791 -0.541444 0.062126 -0.792130 0.607183
0.010606 0.047459 -0.073448 -0.000365 0.600230 -0.794608
1.413786 -0.062679 0.060978 -0.000940 -0.797534 0.596350
-0.130310 0.047459 0.073448 0.000365 0.600230 0.794608
-0.344373 0.346970 0.443672 -0.074515 0.814510 -0.575345
-0.844663 -0.085558 0.018076 0.000349 -0.959462 0.266196
1.525905 -0.222570 -0.307119 -0.000000 0.793663 -0.608358
-1.326195 -0.049298 -0.072226 -0.000206 -0.613440 -0.784279
-1.122282 0.048872 -0.072515 0.000053 0.660648 -0.745221
1.315503 0.030499 0.081956 0.001478 0.448667 0.889196
-1.100644 -0.043156 0.076056 0.000595 -0.412776 0.903400
-1.276846 -0.087447 0.000000 -0.000085 -0.986914 0.131764
1.298062 0.077977 -0.039579 -0.001627 0.856219 -0.503808
1.547021 -0.106077 0.121634 0.000000 -0.793663 -0.608358
0.070034 0.072359 0.049102 -0.000357 0.785461 0.612072
-0.493715 -0.139408 -0.169171 -0.074515 -0.814510 0.575345
-1.515796 -0.034419 -0.080388 0.000276 -0.507573 -0.856666
1.605780 -0.279308 0.347631 0.228780 -0.806385 -0.540984
0.917354 0.086744 0.011064 -0.000028 0.970093 0.229097
1.617766 -0.176267 0.213205 0.000000 -0.793663 -0.608358
-0.130443 -0.073235 0.047787 0.000154 -0.794718 0.599887
1.178707 -0.063854 -0.100058 -0.000000 0.793663 -0.608358
0.556173 0.061986 0.061681 -0.001964 0.754785 0.649676
1.509235 0.231589 0.285376 -0.000000 0.793663 -0.608358
0.438916 -0.087447 0.000000 0.000376 -0.983565 0.146902
1.147207 -0.047771 0.073245 0.000205 -0.600052 0.794632
-0.598856 0.032678 0.081111 0.000281 0.434839 0.896007
1.068516 -0.072263 0.049244 0.001388 -0.784154 0.614544
-0.119731 0.036853 -0.079301 -0.001127 0.464349 -0.881022
0.764711 0.073148 -0.047920 -0.000309 0.895666 -0.435384
0.139655 -0.087447 0.000000 -0.001258 -0.979563 0.166106
-1.434820 0.055560 0.067528 -0.000197 0.714253 0.693477
0.109018 0.072941 -0.048234 -0.000020 0.791862 -0.603648
-0.698443 -0.033778 -0.080660 0.000304 -0.444047 -0.891171
1.741641 -0.084184 0.019256 0.015856 -0.992925 0.066764
-1.572233 0.037937 0.078789 -0.000133 0.529439 0.843097
-0.317877 0.061090 -0.062569 0.000184 0.599037 -0.795512
0.208746 0.073502 0.047375 0.000219 0.868663 0.486552
-0.294816 0.154591 -0.216398 0.074572 -0.791453 -0.606664
-1.688321 -0.086410 -0.013482 -0.045494 -0.969601 -0.224946
-1.476353 0.087447 -0.000000 0.002241 0.985649 -0.140469
1.574601 0.238636 -0.294570 0.000000 0.793663 0.608358
1.612531 -0.196878 -0.273601 0.000000 0.793663 -0.608358
1.496948 0.080513 -0.034126 0.000468 0.941537 -0.323812
-0.361708 0.113812 -0.171421 0.074572 -0.791453 -0.606664
-0.453636 -0.014647 0.086211 -0.001997 -0.268352 0.958298
0.543819 -0.033765 -0.080665 0.000633 -0.449626 -0.888588
-0.240898 0.171358 0.216819 0.062126 0.792130 -0.607183
1.492555 -0.139728 0.165535 0.000000 -0.793663 -0.608358
-0.376007 0.390968 0.510057 -0.074515 0.814510 -0.575345
0.957635 -0.000000 0.087447 0.002335 -0.147480 0.984327
0.668349 -0.016990 0.085780 0.001714 -0.053644 0.993465
1.574601 0.238636 0.294570 0.000000 0.793663 -0.608358
0.474483 0.074020 -0.046561 -0.001182 0.798771 -0.595135
-0.358573 -0.061974 -0.061694 -0.000107 -0.608522 -0.788150
1.381012 -0.175335 0.211989 -0.000000 -0.793663 -0.608358
-0.945491 -0.015991 0.085972 -0.000691 -0.253784 0.963036
-0.718303 -0.061224 0.062438 -0.000436 -0.743932 0.662034
-0.240645 -0.322167 -0.428359 0.074572 0.791453 -0.606664
1.037367 -0.033573 -0.080745 0.000685 -0.438540 -0.894047
1.252098 -0.128166 -0.150451 -0.067055 -0.839493 0.533533
-0.597977 0.034921 -0.080171 -0.000179 0.452699 -0.886873
1.675860 0.078751 0.038016 0.007208 0.939684 0.328695
0.119774 -0.033573 -0.080745 -0.000607 -0.438078 -0.894237
-0.584279 -0.080151 -0.097010 -0.074515 -0.814510 0.575345
0.293697 0.035837 0.079766 0.004048 0.468751 0.877893
-1.162789 -0.060541 0.063100 0.000241 -0.600732 0.795044
-0.394755 0.181395 -0.259054 -0.089379 -0.761246 -0.642274
-0.190044 -0.073960 -0.046657 -0.000889 -0.771149 -0.630464
1.409238 0.098271 -0.111451 -0.000000 0.793663 0.608358
-0.220277 -0.067794 0.094000 0.074572 0.791453 0.606664
-0.175071 0.462651 0.603574 0.062126 0.792130 -0.607183
-0.175071 0.161583 -0.210801 0.062126 0.792130 0.607183
1.489716 0.239242 -0.295361 -0.133191 0.877435 0.454170
-0.236778 -0.176255 -0.237527 0.074572 0.791453 -0.606664
-1.476353 -0.000000 0.087447 0.000188 -0.052679 0.995265
1.446436 -0.017187 -0.085741 -0.000222 -0.130394 -0.987123
-0.310785 0.378980 -0.504925 -0.089379 -0.761246 -0.642274
-1.559613 -0.073741 -0.047002 -0.000190 -0.869815 -0.486216
-0.653945 -0.074775 -0.045338 0.000407 -0.902374 -0.424524
-1.537601 0.085315 0.019190 -0.002816 0.940366 0.326879
-1.641333 -0.019029 -0.085351 -0.000621 -0.328558 -0.940221
1.560259 -0.245649 0.303720 -0.000000 -0.793663 -0.608358
1.320952 -0.115845 -0.167885 -0.000000 0.793663 -0.608358
1.084687 0.057952 0.065486 -0.000385 0.651516 0.753688
-0.637690 -0.085886 0.112047 -0.074515 -0.814510 -0.575345
1.417060 0.135845 0.193977 0.000000 -0.793663 0.608358
-0.272566 0.411164 0.548389 -0.034747 -0.773205 0.631925
1.394669 0.178633 -0.249798 -0.133191 -0.666534 -0.729311
1.250031 -0.065158 -0.058321 -0.000199 -0.793508 -0.598803
1.249564 0.034235 0.080467 -0.000489 0.479971 0.872369
1.108617 0.075710 -0.098771 -0.198406 -0.593322 -0.780131
-0.393335 -0.325202 -0.429697 -0.089379 0.761246 -0.642274
1.630693 -0.165482 -0.199134 0.000000 -0.793663 0.608358
0.237822 -0.058397 0.065090 0.000092 -0.720584 0.688521
1.440070 -0.118661 0.138052 -0.000000 -0.793663 -0.608358
-0.414643 0.261552 -0.331847 -0.074515 0.814510 0.575345
1.508387 -0.037188 0.079145 0.000901 -0.352585 0.930234
0.471138 -0.030866 0.081818 -0.000140 -0.297075 0.950950
-1.740586 0.078411 -0.019698 -0.191595 0.899868 -0.369577
1.320959 -0.132021 0.155480 -0.000000 -0.793663 -0.608358
-0.326949 0.127124 0.150306 0.062126 0.792130 -0.607183
0.225022 -0.035837 -0.079766 -0.004048 -0.468751 -0.877893
1.236094 -0.077903 -0.118386 -0.000000 0.793663 -0.608358
-0.483187 0.075015 -0.120663 -0.089379 -0.761246 -0.642274
1.607017 0.068127 -0.072124 -0.000000 0.793663 0.608358
-0.337577 0.205819 -0.251884 0.062126 0.792130 0.607183
-0.301037 -0.267788 -0.364840 0.074572 0.791453 -0.606664
-0.410810 -0.063404 0.111693 0.074572 0.791453 0.606664
-0.322000 0.318604 -0.400617 0.016569 0.800946 0.597568
-0.535139 0.069803 0.075996 -0.074515 0.814510 -0.575345
1.653099 -0.194410 0.262004 0.314569 0.699203 0.641998
1.448593 -0.188572 -0.262765 -0.000000 0.793663 -0.608358
1.321106 -0.082651 0.091072 -0.000000 -0.793663 -0.608358
-0.488157 0.260219 -0.339481 -0.089379 -0.761246 -0.642274
-0.478811 -0.271115 -0.353696 -0.074515 -0.814510 0.575345
-0.319932 0.456343 -0.595345 -0.089379 -0.761246 -0.642274
-0.581615 0.151261 -0.197335 -0.089379 -0.761246 -0.642274
-0.581615 -0.151261 -0.197335 -0.074515 -0.814510 0.575345
-0.366661 -0.401864 -0.524271 -0.074515 -0.814510 0.575345
1.481043 0.089912 -0.100546 0.000000 0.793663 0.608358
-0.664964 0.018589 -0.085448 -0.001429 0.343181 -0.934129
-0.777688 -0.033811 0.080646 0.000233 -0.319064 0.943303
1.337129 0.091895 0.103132 -0.000000 0.793663 -0.608358
-0.442861 -0.150591 -0.215850 -0.089379 0.761246 -0.642274
1.605582 -0.106729 0.155992 -0.000000 0.793663 0.608358
-0.300248 -0.391088 -0.520742 -0.089379 0.761246 -0.642274
1.331355 -0.179831 -0.234607 -0.198406 0.593322 -0.780131
1.490453 -0.254203 0.331633 -0.198406 0.593322 0.780131
-0.476061 -0.193541 -0.262136 -0.089379 0.761246 -0.642274
-0.483364 -0.040196 -0.079370 -0.000000 0.608358 0.793663
1.417060 0.135845 -0.193977 0.000000 -0.793663 -0.608358
1.362319 -0.078253 -0.118843 -0.000000 0.793663 -0.608358
-0.397743 0.033438 -0.080801 -0.000073 0.445482 -0.890577
1.679686 0.172831 -0.225475 0.314569 0.801607 0.508402
1.576111 0.059830 0.061301 -0.192738 -0.596951 -0.778782
-0.462201 0.227584 0.289920 -0.074515 0.814510 -0.575345
-0.361049 0.278959 0.349550 -0.074515 0.814510 -0.575345
-0.413677 0.146073 -0.214556 -0.089379 -0.761246 -0.642274
-0.019951 0.087447 -0.000000 -0.001423 0.992841 -0.069383
-1.065849 0.085939 -0.016169 0.000264 0.963542 -0.251369
0.875850 0.076915 -0.041605 0.000899 0.899095 -0.431420
-1.735640 -0.000000 0.081944 -0.249905 -0.074743 0.959187
-1.658540 0.061732 0.061936 -0.002269 0.704742 0.703717
-0.227934 0.085836 0.016707 0.000148 0.944429 0.315666
1.501639 -0.088449 -0.098636 0.000000 -0.793663 0.608358
-0.401648 -0.169235 0.243683 -0.089379 0.761246 0.642274
-0.236778 0.182966 -0.232383 0.062126 0.792130 0.607183
0.329398 -0.049234 -0.072270 -0.000067 -0.611718 -0.785615
0.638423 0.000000 -0.087447 -0.000143 0.065043 -0.993572
-1.077339 0.000000 -0.087447 -0.000714 0.135693 -0.986043
-0.175071 0.209754 0.273645 0.062126 0.792130 -0.607183
-0.175071 0.077284 0.100825 0.062126 0.792130 -0.607183
-0.175071 0.113412 -0.147958 0.062126 0.792130 0.607183
-0.175071 -0.450608 0.587863 0.062126 -0.792130 -0.607183
-0.175071 -0.450608 -0.587863 0.062126 -0.792130 0.607183
0.402530 0.080920 0.033150 -0.000007 0.888514 0.448643
-0.282179 0.204189 0.255425 0.062126 0.792130 -0.607183
1.148100 0.037472 0.079011 -0.000266 0.523032 0.847367
1.307197 0.110930 -0.161473 0.000000 -0.793663 -0.608358
-1.017487 0.000000 -0.087447 0.000961 0.066649 -0.993454
-0.855779 0.080920 -0.033150 0.000106 0.896271 -0.433800
-0.178722 0.081144 -0.032596 -0.000046 0.897002 -0.432319
1.397775 -0.081290 -0.032230 -0.000215 -0.897774 -0.430610
0.687601 0.072726 -0.048557 -0.000020 0.749483 -0.655563
-1.286813 0.017187 -0.085741 -0.001146 0.129564 -0.987281
-0.365942 -0.226903 -0.276488 -0.028979 -0.808406 0.586956
-1.821878 0.000000 -0.046465 -0.504162 0.100444 -0.845831
0.864200 0.070449 0.051806 -0.000255 0.798030 0.595554
-0.658203 0.033422 0.080808 -0.000003 0.320080 0.942867
1.526304 -0.084494 -0.022532 -0.000393 -0.953604 -0.286487
1.582719 0.104037 -0.118972 0.000000 0.793663 0.608358
-1.766679 0.020455 -0.070410 -0.299377 0.327778 -0.887910
1.394994 -0.209579 -0.273417 -0.198406 0.593322 -0.780131
-0.487359 0.017756 -0.085625 0.003213 0.238129 -0.967559
-0.291834 -0.182499 0.252441 0.074572 0.791453 0.606664
-0.234118 0.495584 -0.653796 -0.031092 -0.773735 -0.631016
-1.832661 0.034297 0.018836 -0.584257 0.633564 0.497105
1.555168 0.079901 -0.035535 0.000282 0.938962 -0.331264
1.636925 0.152984 -0.182830 0.000000 0.793663 0.608358
0.680538 -0.081246 0.032342 0.001004 -0.949476 0.300985
-0.256737 0.254006 0.323020 0.062126 0.792130 -0.607183
1.448458 -0.122857 -0.177033 0.000000 0.793663 -0.608358
1.306801 0.126894 0.148792 -0.000000 0.793663 -0.608358
0.033451 0.030418 0.081986 -0.001894 0.369256 0.921342
1.675860 0.085309 -0.019217 0.000299 0.992234 -0.071316
1.017487 -0.000000 0.087447 0.000101 -0.078548 0.991744
-0.175071 -0.245882 -0.320778 0.062126 -0.792130 0.607183
-0.285930 0.326462 0.414559 0.062126 0.792130 -0.607183
-0.281009 0.129979 -0.158731 0.062126 0.792130 0.607183
-0.746800 0.049523 0.072072 0.000462 0.666425 0.739870
-1.761881 -0.073485 -0.014648 -0.327954 -0.894247 -0.283313
-0.474685 0.101501 0.153239 -0.089379 -0.761246 0.642274
-0.382319 -0.118369 -0.133219 0.062126 -0.792130 0.607183
1.096601 -0.080776 -0.033499 0.000086 -0.862487 -0.497606
0.951639 0.018753 -0.085412 -0.000178 0.267973 -0.959038
-0.534886 -0.205740 -0.268408 -0.074515 -0.814510 0.575345
-0.304139 -0.403583 0.535010 -0.089379 0.761246 0.642274
1.417703 0.081021 -0.032901 -0.000103 0.866129 -0.491220
1.386770 -0.139273 0.164942 0.000000 -0.793663 -0.608358
-0.685833 0.066735 -0.056510 0.001626 0.807371 -0.580446
1.741641 -0.018978 0.084247 0.016524 -0.062614 0.993006
-0.285611 0.329333 -0.443235 0.074572 -0.791453 -0.606664
1.259490 0.092398 -0.137296 0.000000 -0.793663 -0.608358
-0.493522 -0.053983 0.094297 -0.089379 0.761246 0.642274
1.525258 -0.147741 -0.209496 -0.000000 0.793663 -0.608358
-1.695603 -0.050430 0.071116 -0.095124 -0.594820 0.789236
1.322543 -0.052747 -0.085567 -0.000000 0.608358 0.793663
1.448593 -0.188572 0.262765 0.000000 0.793663 0.608358
-0.437642 -0.217376 -0.295732 -0.089379 0.761246 -0.642274
1.442724 -0.231891 0.302525 -0.198406 0.593322 0.780131
-0.175071 -0.077284 -0.100825 0.062126 -0.792130 0.607183
1.616008 -0.000000 0.087447 -0.000293 -0.049723 0.996479
1.669361 0.196309 0.256104 0.314569 -0.699203 0.641998
-0.438916 0.087447 -0.000000 0.001603 0.987044 -0.130723
-1.229966 0.085897 -0.016390 -0.000894 0.968915 -0.236410
-0.301240 -0.478134 -0.623774 -0.074515 -0.814510 0.575345
-0.335123 -0.080659 0.033779 0.000266 -0.888000 0.450632
-1.278226 -0.061251 0.062411 -0.000444 -0.746965 0.658737
-0.637690 -0.085886 -0.112047 -0.074515 -0.814510 0.575345
-1.125248 0.085695 -0.017415 -0.001304 0.961056 -0.260368
-0.366621 0.066735 0.056510 0.001626 0.807371 0.580446
1.054697 0.085802 0.016880 -0.003269 0.949131 0.302278
-0.221645 0.488347 0.642822 0.074572 -0.791453 0.606664
-0.393405 -0.169590 -0.198908 -0.028979 -0.808406 0.586956
-0.010239 -0.018397 -0.085489 -0.000303 -0.266812 -0.959171
-0.437038 -0.257684 0.329273 -0.074515 -0.814510 -0.575345
1.629114 -0.066327 -0.069777 -0.000000 -0.793663 0.608358
-0.452711 -0.123439 0.182298 -0.089379 0.761246 0.642274
1.654156 -0.082099 0.090352 0.000000 -0.793663 -0.608358
1.652223 0.034557 0.061837 -0.192738 -0.596951 -0.778782
-0.201044 0.298135 -0.392140 0.074572 -0.791453 -0.606664
1.207149 -0.085403 0.018795 0.000211 -0.956242 0.276077
-0.577474 0.081330 0.115026 -0.089379 -0.761246 0.642274
-0.339391 -0.242396 0.299417 0.062126 -0.792130 -0.607183
-0.309690 -0.103131 0.120770 0.062126 -0.792130 -0.607183
1.490424 0.079000 0.086310 0.000000 0.793663 -0.608358
-0.216229 -0.140710 -0.179359 0.062126 -0.792130 0.607183
0.795727 -0.080324 -0.034568 -0.000262 -0.855166 -0.510028
-0.211256 -0.183938 0.244414 0.074572 0.791453 0.606664
-0.341620 -0.367886 0.487484 -0.089379 0.761246 0.642274
-0.403147 -0.073518 0.047350 -0.001666 -0.869178 0.485717
-1.511624 -0.084857 0.021123 -0.000311 -0.920530 0.376584
-0.509936 0.184102 0.234545 -0.074515 0.814510 -0.575345
-0.205291 0.141290 0.188042 0.074572 -0.791453 0.606664
1.381012 0.175335 0.211989 -0.000000 0.793663 -0.608358
-0.280775 -0.475632 0.623655 -0.089379 0.761246 0.642274
-0.359108 0.088216 -0.096257 0.062126 0.792130 0.607183
0.174233 -0.014553 -0.086227 0.001975 -0.267189 -0.958642
-1.220468 -0.033340 0.080841 -0.000118 -0.446407 0.890146
-0.497502 -0.249323 0.325267 -0.074515 -0.814510 -0.575345
1.475508 -0.079632 0.036135 0.003895 -0.833591 0.541616
-1.050572 -0.076743 0.041921 -0.000214 -0.811161 0.578592
1.616912 -0.284780 -0.363147 0.314569 -0.801607 0.508402
-0.299362 0.263933 0.359605 0.074572 -0.791453 0.606664
-0.546343 0.138516 0.187137 -0.089379 -0.761246 0.642274
0.519564 -0.079632 -0.036135 -0.003895 -0.833591 -0.541616
-0.299416 -0.151605 0.185061 0.062126 -0.792130 -0.607183
-0.255688 -0.288550 -0.386351 0.074572 0.791453 -0.606664
-0.175071 -0.294053 0.383621 0.062126 -0.792130 -0.607183
-0.581615 -0.151261 0.197335 -0.074515 -0.814510 -0.575345
1.283108 0.052747 -0.085567 0.000000 -0.793663 -0.608358
-0.309432 -0.131054 -0.157226 0.062126 -0.792130 0.607183
1.108617 -0.075710 0.098771 -0.198406 0.593322 0.780131
-0.249408 -0.085644 0.017666 0.000198 -0.959691 0.264921
0.945155 -0.049981 0.071755 -0.000958 -0.671203 0.735608
-0.592366 0.084514 -0.116728 -0.089379 -0.761246 -0.642274
-1.141202 0.053036 0.069528 0.001739 0.700331 0.707307
-0.224129 0.394118 -0.509147 0.062126 0.792130 0.607183
-0.303577 -0.059416 -0.093310 0.074572 0.791453 -0.606664
1.623957 -0.082678 0.028482 0.004454 -0.942214 0.320710
-0.585222 -0.080569 0.097725 -0.074515 -0.814510 -0.575345
-0.478790 0.036853 0.079301 0.001124 0.464359 0.881018
1.354792 -0.159250 -0.191003 -0.000000 -0.793663 0.608358
-0.975596 -0.071311 0.050612 -0.000171 -0.773431 0.628431
-0.290360 0.088995 0.130274 0.074572 -0.791453 0.606664
-1.385418 -0.020023 -0.085123 -0.000251 -0.281743 -0.954708
1.334847 0.135554 0.193597 -0.000000 -0.793663 0.608358
-0.175071 -0.053199 0.069403 0.062126 -0.792130 -0.607183
1.659035 -0.219787 -0.286734 0.314569 -0.801607 0.508402
-0.337891 -0.033438 0.080801 -0.000073 -0.445482 0.890577
0.308973 0.018397 -0.085489 -0.000303 0.266812 -0.959171
-0.274900 0.078514 -0.092214 0.062126 0.792130 0.607183
-0.891332 -0.030418 0.081986 0.001782 -0.368716 0.921550
-0.210774 -0.508703 -0.668042 -0.000000 -0.608358 -0.793663
-0.256088 0.447344 -0.593563 -0.030829 -0.773908 -0.631058
-1.624383 0.013560 0.086389 -0.001029 0.125143 0.987723
-0.460582 -0.099082 -0.107791 -0.074515 -0.814510 0.575345
1.576111 -0.059830 -0.061301 -0.000000 -0.793663 0.608358
0.827882 -0.017327 -0.085713 0.000888 -0.127052 -0.987371
-0.249672 -0.017187 0.085741 0.000505 -0.256788 0.962145
-1.536205 -0.000000 0.087447 -0.000364 -0.121750 0.988077
0.385144 -0.017174 0.085743 -0.000293 -0.253749 0.963088
0.845796 -0.050989 0.071042 0.000705 -0.619688 0.778947
-0.949125 0.073867 0.046803 -0.000623 0.870495 0.483456
0.310808 -0.086065 -0.015483 0.000172 -0.964771 -0.247209
-1.779991 0.058724 0.034865 -0.353593 0.845737 0.383355
-0.509821 -0.114350 0.163578 -0.089379 0.761246 0.642274
0.570758 -0.077613 0.040287 -0.000796 -0.851005 0.516034
1.416501 -0.000000 0.087447 0.000004 -0.149581 0.985525
1.077518 0.033425 -0.080806 -0.000112 0.258009 -0.961728
1.496508 0.033396 -0.080818 -0.000011 0.440054 -0.893213
1.574601 -0.238636 -0.294570 0.000000 -0.793663 0.608358
0.189541 -0.017187 0.085741 0.000007 -0.129406 0.987122
-0.409883 0.135203 -0.152360 0.016569 0.800946 0.597568
0.129680 -0.016990 0.085780 0.000619 -0.063811 0.993786
-1.447127 -0.047422 0.073471 0.000167 -0.477750 0.873500
-1.308271 0.085836 0.016707 -0.000148 0.944429 0.315666
0.588540 0.016613 -0.085854 -0.000276 0.254384 -0.962879
0.040441 -0.061974 -0.061694 -0.000107 -0.608522 -0.788150
-0.896716 0.062873 -0.060777 -0.000278 0.758266 -0.645286
1.556156 0.000000 -0.087447 -0.001971 0.074005 -0.992008
-0.280185 -0.272112 0.344242 0.062126 -0.792130 -0.607183
-0.289590 0.017152 -0.085748 0.000333 0.319545 -0.943146
-0.637779 0.080513 0.034126 0.000468 0.941537 0.323812
-0.080193 0.033811 0.080646 -0.000233 0.319064 0.943303
-1.287033 0.049234 0.072270 0.000067 0.611718 0.785615
1.350775 0.062947 0.060701 0.000116 0.629051 0.772035
0.420904 -0.030981 -0.081775 0.000301 -0.344736 -0.935084
-0.668526 -0.048486 0.072773 0.000055 -0.440105 0.893209
-1.508640 0.017198 -0.085739 -0.000079 0.273881 -0.957183
-1.641353 0.037896 -0.078808 -0.000522 0.529021 -0.843365
-0.278106 0.081410 0.031928 0.000471 0.946736 0.308849
-0.789312 -0.085584 -0.017953 -0.000461 -0.960214 -0.263123
-1.376905 -0.080799 0.033444 0.000075 -0.892153 0.442203
-1.376804 0.033396 0.080818 0.000011 0.440054 0.893213
0.758127 -0.000000 0.087447 0.000039 -0.122145 0.987241
-0.609260 -0.073235 0.047787 0.000154 -0.794718 0.599887
0.728490 -0.017187 -0.085741 -0.000505 -0.256788 -0.962145
-1.224800 -0.084425 -0.022788 -0.003755 -0.983491 -0.146595
0.038825 -0.021889 0.084663 -0.003263 -0.272454 0.957289
-1.641220 -0.038016 0.078751 -0.000044 -0.433802 0.896434
0.109753 0.017361 -0.085706 0.000178 0.259416 -0.961255
1.178707 0.063854 -0.100058 0.000000 -0.793663 -0.608358
0.349379 0.048964 -0.072453 -0.000156 0.500635 -0.860704
-0.226301 0.335179 -0.443571 0.074572 -0.791453 -0.606664
1.136633 -0.062368 -0.061296 0.000221 -0.660458 -0.745131
-0.709749 -0.085836 -0.016707 -0.000148 -0.944429 -0.315666
-0.188842 0.072730 0.048551 0.000137 0.790236 0.605762
-1.346488 -0.017045 0.085769 -0.000004 -0.129747 0.987238
-0.215623 -0.126178 0.169596 0.074572 0.791453 0.606664
0.516563 0.081493 0.031715 -0.000190 0.899423 0.427374
-0.987537 0.017361 0.085706 -0.000527 0.262338 0.960376
0.608473 0.085644 -0.017666 0.000198 0.959691 -0.264921
-0.290979 0.469837 0.610699 -0.074515 0.814510 -0.575345
1.406227 0.017814 -0.085613 -0.000111 0.327659 -0.940157
-1.464395 0.071777 -0.049950 -0.001134 0.778920 -0.620338
0.119188 0.061700 0.061968 0.000113 0.656218 0.748876
1.741641 0.067441 0.053939 0.022846 0.843349 0.528776
-0.241237 -0.342069 0.454396 0.074572 0.791453 0.606664
0.728605 0.071738 0.050005 0.000340 0.816259 0.570251
0.978608 -0.080236 -0.034771 -0.000710 -0.884679 -0.456908
0.059335 0.061700 -0.061968 0.000113 0.656218 -0.748876
-1.466191 -0.048654 -0.072662 0.000320 -0.500998 -0.860376
-0.381063 0.117015 0.131581 0.062126 0.792130 -0.607183
1.028225 0.073235 -0.047787 -0.000154 0.794718 -0.599887
0.399185 0.033422 -0.080808 0.000050 0.320387 -0.942740
-0.758298 -0.033422 -0.080808 0.000003 -0.320080 -0.942867
1.316040 -0.079443 0.036547 0.000336 -0.920380 0.375312
0.031425 -0.085836 -0.016707 0.000148 -0.944429 -0.315666
0.075009 -0.082362 0.029383 0.000539 -0.927536 0.361326
1.436991 -0.061974 -0.061694 -0.000107 -0.608522 -0.788150
-0.506656 -0.085323 0.019153 -0.001390 -0.924954 0.363459
1.087314 -0.016990 -0.085780 0.000001 -0.064981 -0.993605
0.965572 0.052962 0.069584 -0.000544 0.594503 0.798692
-0.569707 -0.018186 0.085535 -0.000204 -0.332703 0.938298
0.766991 0.018186 -0.085535 -0.000204 0.332703 -0.938298
-1.026763 -0.072726 -0.048557 0.000472 -0.748710 -0.656334
1.576283 0.195880 -0.238790 -0.000000 0.793663 0.608358
1.362319 0.078253 -0.118843 -0.000000 -0.793663 -0.608358
-0.301274 0.231057 -0.316950 0.074572 -0.791453 -0.606664
-0.793705 0.034884 -0.080187 -0.002731 0.319645 -0.943161
-0.368084 -0.140505 0.207029 0.074572 0.791453 0.606664
-0.415376 -0.097606 0.156876 -0.034747 0.773205 0.631925
0.660127 0.043264 0.075994 0.000363 0.494792 0.864070
1.710664 -0.102396 0.133586 0.314569 -0.801607 -0.508402
0.560348 0.060153 -0.063471 -0.001122 0.738633 -0.668089
1.267793 -0.134721 0.184134 -0.198406 0.593322 0.780131
0.430199 0.085584 -0.017953 -0.000357 0.960930 -0.260924
0.462143 -0.070952 0.051115 -0.000146 -0.721806 0.685826
1.299544 0.149563 -0.203497 -0.198406 -0.593322 -0.780131
0.099754 0.087447 -0.000000 -0.000396 0.987503 -0.127639
-0.376478 0.306190 0.409509 -0.089379 -0.761246 0.642274
1.563577 0.173428 0.209500 0.000000 0.793663 -0.608358
1.724332 0.073309 -0.046184 0.023691 0.842373 -0.530497
-1.065849 -0.085939 -0.016169 0.000264 -0.963542 -0.251369
-0.998364 0.060161 -0.063463 -0.001435 0.647703 -0.756843
-0.798106 -0.061224 -0.062438 -0.000436 -0.743932 -0.662034
0.846539 0.014646 0.086211 -0.000462 0.260698 0.961467
1.693187 -0.073899 0.046215 0.010956 -0.844970 0.526647
1.552037 -0.126275 -0.147985 0.000000 -0.793663 0.608358
-0.284525 -0.249297 -0.314034 0.062126 -0.792130 0.607183
-0.895726 -0.061693 -0.061974 0.000113 -0.650335 -0.754160
-0.139655 -0.087447 0.000000 -0.002610 -0.994095 0.065069
1.490453 0.254203 0.331633 -0.198406 -0.593322 0.780131
-0.897559 0.075104 0.044792 0.000089 0.820058 0.564786
0.865149 -0.085799 -0.016894 -0.000403 -0.945114 -0.314141
0.678949 0.076966 0.041511 0.000818 0.815851 0.571203
-0.314248 0.061842 0.061826 -0.000237 0.749449 0.656145
-1.555008 -0.062401 0.061262 0.000078 -0.709037 0.699079
0.477756 0.062048 0.061619 0.000367 0.614352 0.783885
-0.019951 -0.087447 0.000000 -0.006050 -0.989228 0.114119
-0.605105 0.073148 -0.047920 0.000309 0.895666 -0.435384
-0.225029 0.216377 -0.277174 0.062126 0.792130 0.607183
-0.360449 0.218205 0.307458 -0.030829 -0.773908 0.631058
1.234716 0.071630 0.050160 0.000403 0.813306 0.574594
-0.278867 0.364338 0.464695 0.062126 0.792130 -0.607183
0.736842 -0.061090 -0.062569 -0.000184 -0.599037 -0.795512
-1.132227 -0.061842 -0.061826 -0.000237 -0.749449 -0.656145
-0.955922 0.081313 -0.032174 0.001150 0.942600 -0.321293
-0.241909 -0.244625 0.312299 0.062126 -0.792130 -0.607183
-0.175071 -0.245882 0.320778 0.062126 -0.792130 -0.607183
1.356109 -0.061974 0.061694 0.000107 -0.608522 0.788150
0.244450 0.048872 0.072515 -0.000053 0.660648 0.745221
1.678224 0.080321 0.088032 0.000000 0.793663 -0.608358
-0.443429 0.107757 -0.117849 -0.074515 0.814510 0.575345
-0.368275 -0.268659 -0.335904 -0.074515 -0.814510 0.575345
1.140437 -0.090585 -0.118176 -0.198406 0.593322 -0.780131
0.158402 0.081410 -0.031928 0.000850 0.944637 -0.314979
1.432187 0.095426 0.107739 0.000000 0.793663 -0.608358
-1.554931 0.046213 -0.074238 -0.001066 0.529282 -0.843321
-0.387912 0.157906 0.232167 -0.034747 -0.773205 0.631925
-0.534946 -0.069899 -0.076108 -0.074515 -0.814510 0.575345
-1.189175 -0.037188 -0.079145 -0.000901 -0.352585 -0.930234
-0.441427 -0.314698 0.410554 -0.074515 -0.814510 -0.575345
1.424631 -0.085579 0.017975 0.001326 -0.987779 0.127397
-0.192574 0.239047 -0.310070 0.062126 0.792130 0.607183
-0.055598 -0.049177 0.072308 -0.000532 -0.610954 0.786759
0.286933 -0.015092 0.086134 -0.000160 -0.240116 0.966806
-0.529160 0.160372 -0.203440 -0.074515 0.814510 0.575345
-1.729338 -0.015223 -0.081791 -0.206900 -0.268446 -0.934959
1.570003 0.291389 -0.380145 -0.198406 -0.593322 -0.780131
1.570003 0.291389 0.380145 -0.198406 -0.593322 0.780131
-0.885736 -0.085554 -0.018095 0.000301 -0.958481 -0.269342
-0.329339 0.410024 0.539137 -0.089379 -0.761246 0.642274
-0.189532 0.016990 -0.085780 -0.001104 0.065735 -0.993434
1.220167 0.120547 -0.148889 -0.133191 0.877435 0.454170
-0.124039 0.074020 -0.046561 -0.001182 0.798771 -0.595135
-1.624610 0.086662 -0.011686 0.000351 0.970711 -0.226857
-0.857491 -0.033811 -0.080646 0.000233 -0.319064 -0.943303
-0.090262 0.071677 0.050093 0.000155 0.853695 0.512741
1.531491 0.128062 0.150316 0.000000 0.793663 -0.608358
-0.371778 -0.071013 -0.116823 0.074572 0.791453 -0.606664
1.689990 -0.013523 0.086158 0.005028 -0.124960 0.987994
-0.430664 0.120090 0.181397 -0.089379 -0.761246 0.642274
1.237446 0.106979 0.122811 0.000000 0.793663 -0.608358
1.460657 -0.049177 0.072308 -0.000532 -0.610954 0.786759
-1.047979 0.064951 0.058551 0.001275 0.679489 0.727539
-0.361819 0.264922 -0.362637 -0.089379 -0.761246 -0.642274
1.557084 -0.045925 0.076668 -0.192738 0.596951 -0.778782
-1.834609 -0.015219 0.034510 -0.580037 -0.335968 0.737033
1.625888 -0.135238 -0.159678 0.000000 -0.793663 0.608358
-0.543609 -0.120107 -0.148308 -0.074515 -0.814510 0.575345
0.558620 -0.000000 0.087447 -0.002789 -0.044897 0.995609
1.415415 0.105438 0.154308 0.000000 -0.793663 0.608358
1.724332 -0.028404 -0.081856 0.017894 -0.315669 -0.943618
-0.111836 -0.037188 -0.079145 -0.000901 -0.352585 -0.930234
0.794621 -0.060026 0.063591 0.001548 -0.734238 0.673557
1.693187 -0.073745 -0.046459 0.010162 -0.842719 -0.530270
0.207375 0.037188 -0.079145 -0.000901 0.352585 -0.930234
1.358555 0.080638 -0.033830 -0.000755 0.943847 -0.317812
-1.285594 -0.072780 -0.048476 0.000121 -0.792321 -0.603075
1.204574 -0.089772 0.133870 -0.133191 0.666534 0.729311
0.264323 0.061842 -0.061826 -0.000237 0.749449 -0.656145
-0.054888 -0.061842 -0.061826 -0.000237 -0.749449 -0.656145
1.623900 0.073988 0.046612 0.000387 0.843262 0.529219
0.764627 0.085961 0.016049 0.000006 0.959534 0.266823
0.282389 -0.034736 -0.080251 0.000400 -0.508770 -0.855963
1.602381 0.103504 0.118277 0.000000 0.793663 -0.608358
1.456402 0.087447 -0.000000 0.001281 0.987167 -0.132294
1.167381 -0.018397 -0.085489 0.000303 -0.266812 -0.959171
1.644304 -0.126361 0.181605 -0.000000 0.793663 0.608358
-0.383799 0.086404 0.013461 0.000944 0.977200 0.197835
1.541977 -0.175177 0.211781 0.000000 -0.793663 -0.608358
-1.779997 -0.058722 0.034863 -0.353617 -0.845730 0.383350
1.492372 -0.209252 -0.256236 -0.000000 -0.793663 0.608358
-0.193151 -0.385822 -0.505566 0.074572 0.791453 -0.606664
-0.221187 0.105449 0.132850 0.062126 0.792130 -0.607183
-1.589275 -0.046283 -0.074194 0.000104 -0.526889 -0.844727
-0.220401 -0.217882 -0.289821 0.074572 0.791453 -0.606664
1.128474 0.085584 -0.017953 0.000461 0.960214 -0.263123
1.484856 0.152658 -0.182404 0.000000 0.793663 0.608358
1.459095 0.212898 0.260992 -0.000000 0.793663 -0.608358
1.185603 0.077254 0.040972 0.000412 0.822174 0.561894
-0.314234 -0.144125 -0.205132 0.074572 0.791453 -0.606664
-0.367000 0.121771 0.182454 0.074572 -0.791453 0.606664
-0.432862 -0.207221 0.257291 -0.074515 -0.814510 -0.575345
1.406157 -0.078727 0.119461 0.000000 0.793663 0.608358
-0.376927 -0.182026 -0.262283 -0.034747 0.773205 -0.631925
1.400452 0.068534 0.054314 -0.000137 0.777409 0.622244
1.347265 -0.187268 0.244310 -0.198406 0.593322 0.780131
0.754015 -0.084350 0.023066 0.001342 -0.947363 0.305187
-1.055403 -0.028159 0.082789 0.000517 -0.275098 0.958129
0.896712 -0.047909 -0.073155 -0.003434 -0.475097 -0.874767
1.572268 0.085247 0.019488 0.000343 0.938997 0.331770
1.493050 0.178059 0.249050 -0.000000 -0.793663 0.608358
1.493050 0.194238 -0.236648 0.000000 0.793663 0.608358
-0.190410 0.337864 0.442663 0.074572 -0.791453 0.606664
-0.745517 0.062547 -0.061113 0.003565 0.679760 -0.727364
-0.855656 0.053259 0.069357 -0.000600 0.653659 0.750679
-0.270910 -0.352184 -0.449652 0.062126 -0.792130 0.607183
-0.414746 0.077777 -0.076944 0.062126 0.792130 0.607183
-0.441427 0.314698 0.410554 -0.074515 0.814510 -0.575345
-0.442861 0.150591 0.215850 -0.089379 -0.761246 0.642274
1.611601 0.212915 0.261015 0.000000 0.793663 -0.608358
0.980461 0.062648 -0.061009 0.000988 0.755336 -0.648972
-0.319287 -0.207499 -0.288430 0.074572 0.791453 -0.606664
-0.349130 -0.193842 0.274281 0.074572 0.791453 0.606664
1.172540 0.090194 0.126044 -0.198406 -0.593322 0.780131
-0.408253 -0.073502 -0.047375 -0.000219 -0.868663 -0.486552
0.014318 0.081357 0.032060 0.000751 0.898458 0.429972
1.583682 0.154069 -0.217752 -0.000000 -0.793663 -0.608358
-0.509936 -0.184102 0.234545 -0.074515 -0.814510 -0.575345
-1.727792 0.057944 -0.060092 -0.201521 0.729467 -0.644038
0.326157 0.065874 0.057511 0.000616 0.837245 0.537321
-0.508054 0.072730 -0.048551 0.000782 0.789324 -0.606740
1.653099 0.202499 -0.255804 0.314569 0.801607 0.508402
-0.573833 -0.071869 -0.049818 -0.000873 -0.793368 -0.602189
-0.397113 -0.284927 0.362670 -0.074515 -0.814510 -0.575345
-0.287506 -0.187868 -0.233589 0.062126 -0.792130 0.607183
1.459095 0.196719 -0.273394 0.000000 -0.793663 -0.608358
-1.164070 -0.084377 0.022966 -0.000946 -0.917062 0.386435
-0.443114 0.250040 0.333685 -0.089379 -0.761246 0.642274
1.397149 -0.137426 -0.196040 -0.000000 0.793663 -0.608358
-1.690491 0.082194 0.029702 -0.045544 0.969600 0.224939
-0.249395 -0.217137 0.275672 0.062126 -0.792130 -0.607183
-0.396580 0.053291 0.096752 0.074572 -0.791453 0.606664
1.572182 0.248173 -0.340520 0.000000 -0.793663 -0.608358
1.520615 0.046051 0.074339 -0.000187 0.523834 0.846858
0.614119 -0.086555 0.012454 -0.001895 -0.975169 0.206737
1.504982 -0.099453 0.146501 -0.000000 0.793663 0.608358
1.572182 -0.248173 -0.340520 -0.000000 0.793663 -0.608358
-1.616008 -0.087447 0.000000 0.000362 -0.996383 0.048906
-0.218444 -0.499043 0.656383 0.074572 0.791453 0.606664
1.579860 -0.166618 -0.234124 -0.000000 0.793663 -0.608358
-0.381427 -0.120110 0.135582 0.062126 -0.792130 -0.607183
-0.146519 -0.065158 -0.058321 -0.001480 -0.796927 -0.593408
0.199507 0.087447 -0.000000 0.003654 0.997160 -0.038404
1.705085 0.018398 -0.084995 0.021520 0.325370 -0.940468
-0.303234 -0.322308 0.407370 0.062126 -0.792130 -0.607183
-0.216204 -0.438897 -0.568376 0.062126 -0.792130 0.607183
-0.216204 -0.438897 0.568376 0.062126 -0.792130 -0.607183
-0.379847 -0.337417 0.434742 -0.074515 -0.814510 -0.575345
1.741641 -0.016638 -0.034178 1.000000 -0.000000 -0.000000
1.249527 -0.069686 0.052827 -0.000829 -0.755998 0.647586
-0.348388 -0.324794 -0.412798 -0.074515 -0.814510 0.575345
1.620339 0.143600 0.204094 0.000000 -0.793663 0.608358
-0.456162 -0.086085 0.088818 -0.074515 -0.814510 -0.575345
1.607709 0.208156 -0.288314 -0.000000 -0.793663 -0.608358
1.440848 0.052747 0.085567 -0.000000 -0.608358 -0.793663
-0.219611 -0.394656 0.520343 0.074572 0.791453 0.606664
1.595001 -0.099107 -0.146049 -0.000000 0.793663 -0.608358
1.665974 -0.090502 -0.101315 0.000000 -0.793663 0.608358
0.472489 -0.082141 -0.029997 -0.005169 -0.964904 -0.251957
1.741641 0.035206 0.022081 1.000000 -0.000000 -0.000000
1.531449 -0.210177 0.257444 -0.000000 -0.793663 -0.608358
-1.033398 0.084948 0.020755 0.002753 0.929088 0.353652
-0.482450 0.143523 -0.201964 -0.089379 -0.761246 -0.642274
-0.290360 -0.088995 -0.130274 0.074572 0.791453 -0.606664
1.611601 -0.212915 0.261015 0.000000 -0.793663 -0.608358
-0.220825 0.305409 0.404060 0.074572 -0.791453 0.606664
1.467836 0.152816 0.182610 0.000000 0.793663 -0.608358
1.678249 0.114532 -0.132665 0.211171 0.806356 0.546899
1.616133 0.239590 -0.329323 0.106315 -0.769099 -0.625369
1.616133 0.255769 0.316922 0.106315 0.803708 -0.580217
-0.499459 0.198120 -0.253033 -0.074515 0.814510 0.575345
0.129473 -0.072359 -0.049102 0.000257 -0.784030 -0.613969
-0.247483 -0.081488 -0.031727 0.002364 -0.937981 -0.333637
1.598746 -0.148822 0.177400 0.000000 -0.793663 -0.608358
-0.474685 -0.101501 -0.153239 -0.089379 0.761246 -0.642274
-0.192761 -0.275789 -0.357984 0.062126 -0.792130 0.607183
-0.476061 -0.193541 0.262136 -0.089379 0.761246 0.642274
1.437765 -0.149233 -0.211443 -0.000000 0.793663 -0.608358
1.447598 0.088286 -0.131932 0.000000 -0.793663 -0.608358
-0.324540 0.125936 -0.149003 0.062126 0.792130 0.607183
1.532025 -0.087693 -0.131158 0.000000 0.793663 -0.608358
-0.191111 -0.478055 0.625642 0.074572 0.791453 0.606664
1.624268 0.028536 -0.082660 0.000723 0.429422 -0.898488
-0.448240 0.059131 0.106700 -0.089379 -0.761246 0.642274
-0.533613 0.105785 -0.126738 -0.074515 0.814510 0.575345
1.661368 0.088593 0.132333 -0.000000 -0.793663 0.608358
1.579860 -0.166618 0.234124 -0.000000 0.793663 0.608358
1.456644 -0.180001 0.218076 -0.000000 -0.793663 -0.608358
-0.274241 -0.077799 0.113686 0.074572 0.791453 0.606664
1.253203 -0.069843 0.107871 0.000000 0.793663 0.608358
0.577880 0.086055 0.015540 -0.001314 0.973355 0.215494
-0.425619 0.187366 -0.228245 -0.074515 0.814510 0.575345
1.534342 0.138757 -0.164269 -0.000000 0.793663 0.608358
-0.397563 0.201262 0.244283 -0.074515 0.814510 -0.575345
-1.563332 0.085891 -0.016420 0.000665 0.963355 -0.253113
-0.175071 0.450608 -0.587863 0.062126 0.792130 0.607183
-0.329007 0.133499 -0.193085 0.074572 -0.791453 -0.606664
1.595139 -0.057556 0.058334 -0.192738 0.596951 -0.778782
-0.410095 -0.031656 0.081516 0.003238 -0.374740 0.919576
-0.476061 0.202072 0.255597 -0.074515 0.814510 -0.575345
-1.742863 -0.045159 0.066408 -0.198334 -0.526231 0.819444
-0.323679 -0.272617 0.340451 0.062126 -0.792130 -0.607183
-0.318918 0.178843 0.251001 0.074572 -0.791453 0.606664
-0.219957 0.193483 0.247825 0.062126 0.792130 -0.607183
-0.258692 0.272654 -0.365982 0.074572 -0.791453 -0.606664
-0.355363 -0.276691 0.377485 -0.089379 0.761246 0.642274
-1.690492 -0.082242 0.029569 -0.045613 -0.969865 0.223903
1.276846 0.087447 -0.000000 0.002347 0.997025 -0.028280
0.181054 -0.085176 -0.019797 -0.001987 -0.987796 -0.130665
-0.322466 0.207260 0.288509 0.074572 -0.791453 0.606664
-0.486720 -0.149999 0.183258 -0.074515 -0.814510 -0.575345
-0.216724 -0.349634 -0.451870 0.062126 -0.792130 0.607183
1.518498 0.177149 0.214355 -0.000000 0.793663 -0.608358
-0.489450 -0.168324 -0.209554 -0.074515 -0.814510 0.575345
1.654156 0.082099 -0.090352 0.000000 0.793663 0.608358
-0.870800 -0.062164 0.061503 -0.003314 -0.757630 0.645793
1.322138 0.035711 -0.079823 -0.001301 0.334529 -0.937662
1.514330 -0.173021 -0.242477 0.000000 0.793663 -0.608358
1.252098 0.111987 0.162852 -0.067055 -0.733314 0.672054
-1.406814 0.017187 -0.085741 0.000505 0.256788 -0.962145
-0.301514 0.283574 -0.385493 0.074572 -0.791453 -0.606664
1.655910 0.000000 -0.087447 0.001042 0.076821 -0.992070
-0.216979 0.438999 -0.577869 0.074572 -0.791453 -0.606664
1.383278 0.028259 0.082755 -0.000124 0.430312 0.898422
1.415415 0.105438 -0.154308 0.000000 -0.793663 -0.608358
-0.187571 0.394338 0.515989 0.074572 -0.791453 0.606664
1.268889 -0.061077 -0.096435 -0.000000 0.793663 -0.608358
-0.287304 0.438156 0.578329 -0.089379 -0.761246 0.642274
-0.373768 0.257197 -0.320388 -0.074515 0.814510 0.575345
0.658374 0.087447 -0.000000 -0.001305 0.986899 -0.131512
-0.300030 0.364454 -0.462681 0.016569 0.800946 0.597568
-0.395939 0.233039 -0.289060 -0.074515 0.814510 0.575345
0.892313 0.050919 -0.071092 0.001294 0.646556 -0.756360
-0.161881 0.047711 -0.073284 0.001919 0.470981 -0.876813
1.178707 -0.063854 0.100058 0.000000 0.793663 0.608358
-0.495747 -0.083273 -0.089964 -0.074515 -0.814510 0.575345
1.354791 -0.143071 0.203405 0.000000 0.793663 0.608358
1.621596 -0.171290 -0.240219 0.000000 0.793663 -0.608358
1.255631 0.077910 -0.039710 0.000228 0.904315 -0.420106
-0.217296 0.257040 0.340524 0.074572 -0.791453 0.606664
-0.209225 -0.060053 -0.082543 0.074572 0.791453 -0.606664
-0.350468 0.173231 0.208051 0.062126 0.792130 -0.607183
1.409238 -0.098271 -0.111451 0.000000 -0.793663 0.608358
