-0.880444 0.095789 0.049374 0.001194 0.887282 0.455461
0.526760 0.093360 -0.053826 0.000174 0.814769 -0.575434
0.320457 -0.147057 0.175737 0.111032 -0.762168 -0.637786
0.976849 0.082601 -0.069213 -0.000119 0.761732 -0.643565
-0.029807 -0.102128 -0.034397 0.000323 -0.905652 -0.417187
0.847721 -0.059385 -0.089926 -0.000101 -0.559392 -0.825492
0.190929 -0.142564 0.147818 0.111032 -0.762168 -0.637786
-0.072102 0.128027 -0.142397 -0.056057 0.789746 0.610868
0.214002 0.259032 0.318869 0.056098 -0.765703 0.640744
0.267104 0.200077 -0.229808 0.111032 0.762168 0.637786
1.243577 0.056334 0.083252 0.000000 -0.641754 -0.766910
-1.628590 0.033622 0.008518 -0.708781 0.660168 0.232499
1.226895 -0.151608 0.165243 -0.000000 -0.766910 -0.641754
0.081139 -0.193221 -0.239478 -0.028240 0.754065 -0.656192
1.344427 -0.158995 0.205934 -0.000000 0.766910 0.641754
1.234181 0.109326 -0.114715 0.000000 0.766910 0.641754
1.521567 -0.066917 -0.079968 0.265055 0.719112 -0.642358
1.062331 0.042785 -0.098908 -0.000019 0.478617 -0.874806
0.176381 0.248999 -0.307674 -0.028240 -0.754065 -0.656192
1.178664 -0.107765 -0.000000 -0.000464 -0.993456 -0.059522
0.102093 0.111650 -0.146642 -0.028240 -0.754065 -0.656192
1.402750 0.172731 0.222349 0.000000 -0.766910 0.641754
1.383191 0.119232 -0.158416 0.000000 -0.766910 -0.641754
0.100660 0.202378 0.250841 -0.028240 -0.754065 0.656192
0.184494 0.093445 0.123573 0.056098 -0.765703 0.640744
1.419412 -0.124291 -0.132599 0.000000 -0.766910 0.641754
1.017427 -0.095764 -0.098508 -0.000000 -0.766910 0.641754
1.243577 -0.072016 0.070130 -0.000000 0.641754 -0.766910
1.163138 -0.072016 0.070130 -0.000000 0.641754 -0.766910
1.182413 0.109422 0.114831 -0.000000 0.766910 -0.641754
0.619298 -0.000000 0.107765 0.000320 0.053479 0.996227
1.445914 -0.220876 -0.255986 -0.090693 -0.900172 0.425987
0.117478 -0.301242 -0.365175 -0.028240 0.754065 -0.656192
-0.133608 -0.090188 -0.058987 0.000618 -0.886193 -0.456174
0.198750 0.441522 -0.522836 -0.056057 0.789746 0.610868
-0.048542 -0.085896 -0.110564 -0.028240 0.754065 -0.656192
-0.173469 -0.091607 0.111751 -0.028240 0.754065 0.656192
1.062589 -0.056334 -0.083252 0.000000 0.766910 -0.641754
1.187051 -0.169525 0.202586 -0.090693 -0.900172 -0.425987
-0.765478 0.012124 0.107081 0.000722 0.184442 0.980894
1.505546 0.074394 0.039053 0.454086 0.805416 0.364090
1.227463 0.123841 0.132061 -0.000000 0.766910 -0.641754
-0.182045 0.055282 0.092505 -0.001068 0.460431 0.884299
0.172110 -0.320369 0.389506 -0.028240 0.754065 0.656192
0.117841 -0.245340 -0.300951 -0.028240 0.754065 -0.656192
0.199755 0.300191 0.367508 -0.028240 -0.754065 0.656192
0.236350 -0.132597 0.143814 0.111032 -0.762168 -0.637786
1.465837 -0.176123 0.194539 0.095523 -0.768739 -0.628652
-0.604744 -0.013682 -0.106893 0.000510 -0.196772 -0.978413
1.265671 0.096959 0.099936 0.000000 0.766910 -0.641754
1.118732 -0.000000 0.107765 0.001450 0.109236 0.991833
0.739006 0.012103 0.107083 -0.000193 0.199682 0.977412
1.290333 0.160441 0.207662 -0.030509 -0.708067 0.702611
-0.069167 -0.133468 -0.164344 -0.028240 0.754065 -0.656192
0.104330 0.252801 -0.308943 -0.028240 -0.754065 -0.656192
-0.000872 0.125312 -0.132350 -0.056057 0.789746 0.610868
0.000535 0.208568 0.239857 -0.056057 0.789746 -0.610868
1.362915 0.151045 0.164570 0.000000 0.766910 -0.641754
0.227204 -0.294425 0.335610 0.111032 -0.762168 -0.637786
0.299671 0.376998 0.446902 0.111032 0.762168 -0.637786
-0.599321 0.107765 -0.000000 -0.001586 0.996701 0.046462
1.063004 -0.097892 0.045061 -0.000993 -0.906854 0.414565
-1.567235 -0.058554 -0.053051 -0.466021 -0.548330 -0.686509
1.416291 0.065515 0.094223 0.000000 -0.766910 0.641754
0.229599 0.268803 -0.329180 0.056098 -0.765703 -0.640744
-0.022274 0.158646 0.177409 -0.056057 0.789746 -0.610868
-0.050443 0.077772 -0.075438 -0.000000 -0.641754 0.766910
1.228878 0.138167 -0.149181 0.000000 0.766910 0.641754
-0.035578 -0.110338 0.116177 -0.056057 -0.789746 -0.610868
0.006919 0.129536 0.163100 -0.028240 -0.754065 0.656192
0.101215 0.183249 -0.197885 -0.056057 0.789746 0.610868
0.186311 0.169046 -0.213759 0.056098 -0.765703 -0.640744
0.224037 -0.184522 -0.228949 0.056098 0.765703 -0.640744
-0.117921 0.149936 0.181170 -0.028240 -0.754065 0.656192
0.276639 -0.355000 -0.428069 0.056098 0.765703 -0.640744
1.033123 0.100935 0.104688 -0.000000 0.766910 -0.641754
1.482512 -0.085030 -0.085681 0.097588 -0.768414 0.628063
-0.953072 0.085682 -0.065360 -0.000323 0.793998 -0.603789
-0.869078 0.073247 -0.079046 0.000849 0.666923 -0.741048
0.216530 0.227274 -0.253505 0.111032 0.762168 0.637786
-0.008098 -0.218588 0.264789 -0.028240 0.754065 0.656192
1.324016 0.072016 0.070130 -0.000000 0.766910 -0.641754
1.493347 -0.090158 -0.000000 0.450258 -0.886948 0.059724
1.323265 0.110325 0.147772 0.000000 -0.766910 0.641754
0.181373 -0.371484 0.433884 -0.056057 -0.789746 -0.610868
1.298528 0.107765 -0.000000 0.004805 0.996210 0.045138
-1.227043 0.032227 0.102833 -0.000041 0.290646 0.954039
0.279243 0.095337 -0.106755 0.111032 0.762168 0.637786
-0.789106 0.017101 -0.106399 0.000017 0.054089 -0.995865
0.203917 -0.323762 -0.394774 -0.028240 0.754065 -0.656192
0.934913 -0.093705 0.096048 -0.033553 -0.820817 -0.565782
1.339872 -0.045052 0.097896 -0.000098 -0.496726 0.864706
0.751666 -0.068565 0.081937 -0.090693 -0.900172 -0.425987
-0.729578 0.022303 -0.105432 -0.002226 0.308962 -0.946663
-0.216085 0.101292 -0.121046 -0.028240 -0.754065 -0.656192
0.299660 0.000000 -0.107765 -0.000400 0.047348 -0.995713
0.152070 -0.205134 -0.221512 -0.056057 -0.789746 0.610868
0.897500 0.085030 -0.085681 -0.028327 0.813185 0.578253
0.195920 -0.162472 -0.172477 0.111032 -0.762168 0.637786
0.977304 0.092397 0.055462 -0.000162 0.899167 0.431240
-1.051664 -0.043185 0.098734 0.001523 -0.344780 0.936593
1.421992 -0.151542 0.165165 0.000000 -0.766910 -0.641754
0.228327 0.342417 0.417262 0.027994 -0.762298 0.646298
0.119135 0.288935 0.351104 -0.028240 -0.754065 0.656192
0.157968 0.373243 -0.438306 -0.056057 0.789746 0.610868
0.184494 0.093445 -0.123573 0.056098 -0.765703 -0.640744
1.486364 0.091165 -0.021524 0.450635 0.884584 -0.069271
1.523827 0.054572 -0.065214 0.265055 0.759078 0.594598
0.654303 -0.103772 -0.029062 0.000477 -0.959951 -0.266975
0.132168 -0.106658 -0.142200 -0.028240 0.754065 -0.656192
-0.143157 0.155333 -0.186286 -0.028240 -0.754065 -0.656192
0.041785 0.107074 -0.138788 -0.028240 -0.754065 -0.656192
0.104802 0.348127 0.410714 -0.056057 0.789746 -0.610868
0.086898 0.340594 -0.402618 -0.056057 0.789746 0.610868
0.841381 0.056334 -0.083252 -0.041128 -0.685262 -0.721847
-0.070812 -0.086668 -0.064047 -0.000502 -0.766486 -0.637904
0.881484 0.089992 0.099577 -0.060740 0.860860 -0.501181
-1.407756 0.088677 0.061235 -0.000066 0.761777 0.643751
1.073472 0.143188 0.171113 -0.090693 0.900172 -0.425987
0.953619 0.098043 -0.101232 -0.030509 0.816439 0.573104
0.043883 -0.256181 0.297435 -0.056057 -0.789746 -0.610868
-0.785724 -0.100816 0.038072 -0.000867 -0.944184 0.317484
0.187880 -0.244334 0.268905 -0.000293 -0.782465 -0.621379
1.244038 -0.132745 -0.142702 -0.000000 -0.766910 0.641754
0.236350 0.132597 -0.143814 0.111032 0.762168 0.637786
0.959445 -0.041569 0.099425 0.000768 -0.384776 0.919916
1.298528 -0.107765 -0.000000 0.001052 -0.997147 -0.042950
0.179200 -0.426914 0.512248 -0.028240 0.754065 0.656192
-0.131935 -0.079823 0.072399 0.000824 -0.762343 0.643129
1.186930 -0.014919 0.106727 -0.000273 -0.210914 0.974848
1.300884 -0.163675 0.179664 -0.000000 -0.766910 -0.641754
-0.113045 -0.096832 -0.105825 -0.056057 -0.789746 0.610868
0.199774 -0.107765 -0.000000 0.000790 -0.995969 -0.048383
-0.769025 -0.105890 -0.020014 0.001166 -0.979001 -0.193518
-0.711903 -0.101555 0.036054 -0.000282 -0.958718 0.274314
0.064821 0.164830 -0.177412 -0.056057 0.789746 0.610868
0.205856 -0.078978 0.074429 -0.000000 0.641754 -0.766910
0.308542 0.106671 0.015318 0.000593 0.996655 0.048029
1.444674 0.056334 -0.083252 -0.000000 -0.766910 -0.641754
0.101464 0.101014 0.091547 -0.056057 0.789746 -0.610868
-0.771091 -0.032578 0.102723 0.000316 -0.320325 0.944423
1.456190 -0.106030 -0.110777 0.000000 -0.766910 0.641754
-0.020807 -0.238724 -0.280801 -0.056057 -0.789746 0.610868
0.088319 0.284993 -0.330606 -0.056057 0.789746 0.610868
-0.902501 -0.089252 0.060394 0.001547 -0.851464 0.519126
-1.064453 -0.045957 -0.097474 0.000121 -0.505349 -0.859346
-0.333149 -0.105368 -0.022604 -0.000875 -0.971298 -0.225410
0.222631 -0.468873 0.556005 -0.056057 -0.789746 -0.610868
0.392812 0.043930 0.098404 0.000265 0.405154 0.911049
0.254168 -0.234645 -0.268866 0.111032 -0.762168 0.637786
0.066146 -0.056369 0.091847 -0.001258 -0.599818 0.796310
1.258574 -0.000000 0.107765 0.003019 0.110262 0.990604
0.256415 -0.238998 0.291215 0.056098 0.765703 0.640744
0.178892 -0.201673 -0.253397 -0.000119 0.758419 -0.651448
0.238439 -0.320896 0.390658 0.056098 0.765703 0.640744
1.075262 -0.093355 -0.053835 -0.002395 -0.823794 -0.563007
0.277227 0.238371 0.277333 0.111032 0.762168 -0.637786
0.039742 0.082793 0.110798 -0.028240 -0.754065 0.656192
0.608774 -0.041146 -0.099601 -0.000014 -0.291354 -0.952789
1.028444 0.115394 -0.121967 -0.028327 0.813185 0.578253
-0.084191 -0.180830 -0.211772 -0.056057 -0.789746 0.610868
-1.304516 -0.043843 -0.098443 0.001904 -0.415207 -0.906117
-0.084191 -0.177632 0.214449 -0.028240 0.754065 0.656192
-0.639343 -0.035955 0.101590 -0.000741 -0.382124 0.921003
0.320457 0.147057 0.175737 0.056098 -0.765703 0.640744
0.546648 -0.105323 0.022809 -0.002269 -0.940778 0.326115
0.221305 0.155673 -0.194713 0.056098 -0.765703 -0.640744
0.805166 0.058948 0.081065 -0.000000 -0.641754 -0.766910
1.050735 -0.121398 -0.153039 -0.075716 0.611560 -0.784992
1.370642 0.195581 0.241689 -0.090693 -0.578018 0.810969
0.043059 0.223229 -0.254909 -0.056057 0.789746 0.610868
-0.679160 0.035614 0.101710 0.000417 0.213772 0.973216
1.360222 -0.084481 -0.116889 0.000000 0.766910 -0.641754
0.121266 0.117125 -0.110557 -0.056057 0.789746 0.610868
0.507391 0.061807 -0.088279 -0.000700 0.653570 -0.753247
-0.652426 -0.103233 -0.030922 -0.000314 -0.925295 -0.371718
0.302855 0.322629 0.382484 0.111032 0.762168 -0.637786
-0.207300 0.020791 0.105740 0.001772 0.235394 0.968607
0.147515 0.422217 -0.505487 -0.028240 -0.754065 -0.656192
1.024823 -0.083946 0.116249 -0.000000 0.766910 0.641754
0.132687 0.119423 0.156891 -0.028240 -0.754065 0.656192
0.273268 0.470366 0.566229 0.027994 -0.762298 0.646298
0.019406 -0.288907 -0.346779 -0.028240 0.754065 -0.656192
1.203357 -0.072016 -0.070130 0.000000 0.641754 0.766910
1.196802 0.154434 -0.168620 -0.030509 0.816439 0.573104
-0.223441 0.106450 0.016781 -0.000677 0.978150 0.196442
1.370068 0.069059 -0.098459 0.000000 -0.766910 -0.641754
-0.038804 0.173509 0.211664 -0.028240 -0.754065 0.656192
-1.165396 -0.105196 0.023390 -0.002587 -0.969355 0.232770
1.490495 -0.139038 -0.158187 0.177516 -0.766364 0.614105
1.238916 -0.172876 -0.198625 -0.090693 -0.900172 0.425987
-1.237444 -0.023984 0.105062 -0.000133 -0.229240 0.970658
0.218424 -0.213358 0.263900 0.056098 0.765703 0.640744
0.192936 -0.123997 -0.159344 0.056098 0.765703 -0.640744
0.100660 -0.202378 0.250841 -0.028240 0.754065 0.656192
-1.481190 0.103600 0.021842 -0.159093 0.939135 0.285569
-0.915828 0.041800 0.099328 -0.000411 0.386225 0.919362
0.248343 0.447004 -0.525373 -0.056057 0.789746 0.610868
-0.794292 0.105817 0.020396 -0.000642 0.953371 0.289350
0.277277 0.399180 -0.469511 0.111032 0.762168 0.637786
0.100969 0.379584 -0.451734 -0.056057 0.789746 0.610868
0.156021 0.199484 0.249898 -0.028240 -0.754065 0.656192
1.097495 0.121590 -0.129371 0.000000 0.766910 0.641754
-0.704203 -0.045562 0.097660 -0.000632 -0.509125 0.857796
0.179200 0.426914 0.512248 -0.028240 -0.754065 0.656192
1.372121 0.022923 -0.105299 0.001351 0.310955 -0.946210
1.505747 -0.153338 0.183242 0.265055 0.719112 0.642358
0.679230 0.000000 -0.107765 -0.000217 0.030499 -0.997526
0.320457 0.432686 -0.517070 0.111032 0.762168 0.637786
0.320457 -0.432686 -0.517070 0.111032 -0.762168 0.637786
0.320457 0.224956 -0.268828 0.111032 0.762168 0.637786
0.320457 0.341804 -0.408464 0.111032 0.762168 0.637786
0.320457 0.263906 0.315373 0.056098 -0.765703 0.640744
0.320457 -0.328821 -0.392949 0.111032 -0.762168 0.637786
0.320457 -0.380754 -0.455009 0.111032 -0.762168 0.637786
0.320457 -0.289872 0.346403 0.111032 -0.762168 -0.637786
0.320457 0.289872 -0.346403 0.111032 0.762168 0.637786
0.320457 0.471636 -0.563615 0.111032 0.762168 0.637786
0.320457 0.173024 -0.206767 0.111032 0.762168 0.637786
0.320457 0.082142 -0.098161 0.111032 0.762168 0.637786
0.320457 -0.276889 -0.330888 0.111032 -0.762168 0.637786
0.320457 -0.471636 -0.563615 0.111032 -0.762168 0.637786
0.320457 0.211973 0.253312 0.056098 -0.765703 0.640744
0.861491 -0.072016 0.070130 -0.000000 0.641754 -0.766910
-0.067680 0.240536 0.287446 -0.056057 0.789746 -0.610868
-0.159006 0.154847 0.185046 -0.056057 0.789746 -0.610868
-0.044848 -0.261958 0.313046 -0.028240 0.754065 0.656192
-0.044848 0.261958 -0.313046 -0.028240 -0.754065 -0.656192
-0.044848 -0.261958 -0.313046 -0.056057 -0.789746 0.610868
0.103557 -0.401202 -0.479445 -0.056057 -0.789746 0.610868
-0.113343 0.197692 0.236246 -0.056057 0.789746 -0.610868
-0.136174 -0.176269 0.210646 -0.028240 0.754065 0.656192
-0.136174 -0.176269 -0.210646 -0.056057 -0.789746 0.610868
0.137804 0.433335 0.517845 -0.056057 0.789746 -0.610868
0.183467 0.476180 0.569045 -0.056057 0.789746 -0.610868
0.160636 -0.454758 0.543445 -0.028240 0.754065 0.656192
0.183467 0.476180 -0.569045 -0.028240 -0.754065 -0.656192
0.183467 -0.476180 -0.569045 -0.056057 -0.789746 0.610868
-0.227500 0.090581 0.108246 -0.056057 0.789746 -0.610868
-0.204669 -0.112003 -0.133846 -0.056057 -0.789746 0.610868
0.000815 -0.304802 0.364246 -0.028240 0.754065 0.656192
0.035062 -0.336936 -0.402646 -0.056057 -0.789746 0.610868
-0.159006 -0.154847 0.185046 -0.028240 0.754065 0.656192
-0.159006 -0.154847 -0.185046 -0.056057 -0.789746 0.610868
0.092141 0.390491 0.466645 -0.056057 0.789746 -0.610868
-0.090511 -0.219114 0.261846 -0.028240 0.754065 0.656192
-0.090511 -0.219114 -0.261846 -0.056057 -0.789746 0.610868
0.035062 0.336936 -0.402646 -0.028240 -0.754065 -0.656192
-0.150819 -0.054618 -0.092899 0.000300 -0.522087 -0.849535
-1.269319 0.027603 -0.104170 0.000518 0.252911 -0.964194
1.247202 -0.094343 -0.096810 -0.000000 -0.766910 0.641754
0.583920 0.105640 0.021292 0.000636 0.977082 0.202524
0.259153 0.261722 -0.302091 0.111032 0.762168 0.637786
-0.033052 0.222523 -0.268236 -0.028240 -0.754065 -0.656192
1.433138 0.226590 -0.270780 -0.090693 0.900172 0.425987
1.149191 -0.160746 0.192095 -0.090693 -0.900172 -0.425987
0.808455 0.081734 -0.097674 -0.090693 0.900172 0.425987
1.130262 -0.156356 -0.186849 -0.090693 -0.900172 0.425987
1.205981 0.173915 -0.207832 -0.090693 0.900172 0.425987
1.357419 -0.209031 -0.249797 -0.090693 -0.900172 0.425987
0.903104 -0.103682 0.123902 -0.090693 -0.900172 -0.425987
1.054543 -0.138798 0.165867 -0.090693 -0.900172 -0.425987
1.300629 0.195863 -0.234060 -0.090693 0.900172 0.425987
0.997753 0.125629 -0.150130 -0.090693 0.900172 0.425987
1.319559 -0.200252 -0.239306 -0.090693 -0.900172 0.425987
1.472983 0.137083 -0.147886 0.089164 0.768975 0.629824
0.109467 -0.084662 -0.069672 -0.037492 -0.787536 0.614537
0.072661 0.138847 -0.143101 -0.056057 0.789746 0.610868
1.062589 0.056334 0.083252 0.000000 -0.641754 -0.766910
1.423707 -0.036700 -0.101323 0.000172 -0.334037 -0.939369
1.284079 0.105881 -0.110599 -0.000000 0.766910 0.641754
1.469103 -0.223361 0.256301 -0.039416 -0.886210 -0.453750
-0.077403 0.089011 -0.112901 -0.028240 -0.754065 -0.656192
1.324016 0.072016 -0.070130 0.000000 0.766910 0.641754
-1.291366 -0.017385 0.106353 0.001633 -0.181165 0.981269
0.161150 0.034049 0.102245 0.000549 0.367055 0.927301
1.130157 0.103098 0.139136 -0.000000 -0.766910 0.641754
-0.163037 0.107755 0.124533 -0.056057 0.789746 -0.610868
0.054219 0.071836 -0.080330 0.000816 0.684278 -0.725281
1.403711 0.135186 0.145619 0.000000 0.766910 -0.641754
-0.928947 -0.017101 0.106399 -0.002453 -0.046034 0.995814
1.303034 0.082590 0.114629 0.000000 -0.766910 0.641754
-1.588442 -0.000000 0.066703 -0.508279 0.078252 0.849623
1.424565 -0.072016 0.070130 -0.000000 0.641754 -0.766910
-1.236082 -0.089430 0.060130 -0.001734 -0.827901 0.555576
-0.994259 -0.076770 -0.075629 0.000047 -0.712646 -0.697483
-1.001292 0.100109 -0.039894 0.000141 0.889882 -0.450149
-1.167714 -0.080064 -0.072132 0.000072 -0.738848 -0.669610
1.338483 0.107765 -0.000000 0.001938 0.995962 0.059956
-0.719185 0.107765 -0.000000 -0.001538 0.991157 0.108931
0.799094 0.107765 -0.000000 -0.001137 0.992421 0.097645
0.339615 0.000000 -0.107765 -0.000317 0.109303 -0.990897
-0.619298 -0.000000 0.107765 0.000704 0.050630 0.995795
1.118732 0.107765 -0.000000 -0.000244 0.997837 0.028902
0.879004 0.107765 -0.000000 0.000422 0.992037 0.100693
1.318506 0.000000 -0.107765 0.000600 0.117441 -0.989709
1.358460 -0.000000 0.107765 0.003666 0.116616 0.989386
1.198641 0.107765 -0.000000 0.001794 0.997678 0.024897
1.038823 -0.107765 -0.000000 0.003914 -0.996308 -0.044734
0.019977 0.000000 -0.107765 -0.003258 0.118423 -0.989613
0.199774 0.000000 -0.107765 0.001145 0.034426 -0.996390
1.096045 -0.098533 0.101818 0.000000 -0.766910 -0.641754
-0.843437 -0.043539 0.098578 0.000779 -0.488874 0.869080
-1.202845 -0.043013 0.098809 -0.000265 -0.400258 0.913197
0.907350 -0.093008 0.054431 -0.000120 -0.861308 0.502166
0.282405 0.302419 0.354772 0.111032 0.762168 -0.637786
1.121976 -0.121401 -0.161008 -0.030509 0.708067 -0.702611
0.279048 0.421200 0.506968 0.056098 -0.765703 0.640744
0.909865 -0.100656 -0.038493 0.000035 -0.897632 -0.434120
0.043883 0.256181 -0.297435 -0.056057 0.789746 0.610868
0.669587 0.094036 0.052635 0.000140 0.869189 0.488266
1.518898 -0.039760 -0.050667 0.265055 0.719112 -0.642358
-1.133628 -0.040787 0.099748 -0.000765 -0.282178 0.955565
-0.924051 -0.098255 -0.044262 0.000976 -0.910971 -0.405482
-0.435936 0.081220 0.070828 0.000028 0.809835 0.581816
1.389851 -0.101943 -0.034942 0.001264 -0.946210 -0.310871
0.112993 0.013148 -0.106960 0.000420 0.224458 -0.972123
0.631384 -0.092535 0.055231 0.000036 -0.857351 0.509214
-0.439245 -0.068796 0.082948 0.000211 -0.713487 0.696652
-0.365478 0.100464 0.038990 -0.000086 0.930850 0.357844
-0.945633 0.104977 0.024354 0.001720 0.942410 0.322069
1.379521 0.095874 0.098640 0.000000 0.766910 -0.641754
-0.504928 0.082716 0.069075 0.000189 0.767141 0.636927
-1.079907 -0.095461 -0.050005 -0.000090 -0.837795 -0.540794
0.192936 0.123997 0.159344 0.056098 -0.765703 0.640744
1.140683 -0.125739 0.166192 -0.030509 0.708067 0.702611
-0.833319 -0.083529 0.068090 -0.000337 -0.784355 0.615804
0.340615 0.087734 -0.062578 0.001307 0.839433 -0.538337
0.689538 0.077016 -0.075378 0.000292 0.718506 -0.691822
1.461073 -0.186467 0.238764 0.053050 0.704812 0.701719
0.267409 -0.086281 -0.064567 -0.000247 -0.733572 -0.675515
-0.084406 0.053572 0.093506 -0.000263 0.541755 0.837148
0.476814 -0.104064 0.027999 -0.000368 -0.934812 0.347375
-0.063509 0.079900 0.072314 -0.000172 0.774238 0.628442
0.411894 0.102204 0.034171 0.000485 0.948323 0.304590
0.205856 0.078978 -0.074429 0.111032 0.762168 0.637786
-0.042187 -0.047577 -0.096694 -0.000082 -0.488095 -0.869915
-1.270944 -0.077137 0.075254 -0.000032 -0.647268 0.758552
0.738645 0.092637 0.055061 -0.000437 0.854466 0.514077
-0.620217 0.064188 0.086563 -0.001426 0.556524 0.826960
-1.554261 0.085285 -0.000000 -0.372209 0.921668 0.060434
-0.959731 -0.088308 0.061765 -0.000073 -0.786209 0.613373
-1.186124 0.085208 -0.065976 0.000673 0.842675 -0.533302
-0.595692 0.034220 -0.102187 -0.002419 0.319858 -0.944487
-0.495528 -0.094233 0.052283 -0.000248 -0.839378 0.538355
-1.132235 -0.074046 0.078297 0.000017 -0.616860 0.783457
0.807984 0.091467 0.056984 0.000251 0.893608 0.442512
0.359586 -0.049663 0.095639 0.000439 -0.461824 0.883803
-1.305059 -0.092456 -0.055364 0.000264 -0.846133 -0.527993
0.174138 0.046208 -0.097355 -0.000335 0.378896 -0.922580
-0.890036 -0.087970 -0.062246 -0.000023 -0.815666 -0.573608
-0.762745 0.062792 0.087581 -0.000433 0.585045 0.807597
1.217600 0.101110 0.037283 -0.000056 0.939024 0.334159
-1.166145 -0.087839 0.062431 0.000009 -0.810712 0.580581
1.269217 0.088497 -0.061494 -0.000009 0.821209 -0.565686
-0.186317 0.084135 -0.067340 0.000076 0.713062 -0.697089
0.996868 -0.100532 -0.038814 0.000794 -0.926525 -0.368610
0.803610 -0.101266 0.036856 -0.000760 -0.938443 0.336029
0.445509 0.093467 0.053640 0.000056 0.864215 0.497643
-0.181837 0.133425 0.159446 -0.056057 0.789746 -0.610868
0.043883 0.256181 0.297435 -0.056057 0.789746 -0.610868
-1.201415 -0.075796 0.076604 0.000029 -0.698541 0.711604
0.700614 -0.050037 0.095444 0.000090 -0.463753 0.882794
0.859026 -0.107765 -0.000000 -0.002760 -0.990308 -0.111534
1.421278 0.206487 -0.230825 -0.030509 0.816439 0.573104
-0.297660 -0.084108 0.067373 -0.000556 -0.734073 0.675095
-1.374238 -0.089003 0.060759 -0.000347 -0.826983 0.557534
-1.321152 0.054475 -0.092983 -0.000079 0.581682 -0.810036
-1.423707 -0.036903 0.101250 0.000056 -0.331093 0.940277
1.423707 0.101323 -0.036700 -0.000659 0.940931 -0.329286
-1.458347 -0.101323 0.036700 -0.077050 -0.901106 0.417648
-1.458347 0.082629 -0.069178 -0.071939 0.816734 -0.566233
-1.374238 -0.098123 -0.044555 0.000196 -0.909764 -0.408384
-0.455920 -0.092232 0.055737 -0.000286 -0.819131 0.568690
-0.229320 0.041551 -0.099432 -0.000184 0.460939 -0.884269
0.036890 0.097313 0.046297 -0.000199 0.922287 0.379661
1.079681 0.093320 -0.053894 -0.000065 0.865152 -0.495877
0.287453 -0.198546 0.240157 0.056098 0.765703 0.640744
1.382942 -0.183714 0.203611 -0.000000 -0.766910 -0.641754
-1.151622 0.095787 -0.049377 0.000203 0.841129 -0.535551
1.384345 -0.072016 0.070130 -0.000000 0.641754 -0.766910
0.926033 0.021535 -0.105591 -0.001210 0.300818 -0.949685
-1.116965 0.057133 -0.091374 0.000505 0.525240 -0.847869
1.305538 -0.061686 0.088363 -0.000166 -0.570364 0.818160
-0.089113 -0.019236 0.106034 0.000304 -0.286880 0.954641
-0.192388 0.054701 -0.092850 0.000324 0.416406 -0.905953
-1.236564 -0.079999 -0.072204 0.000180 -0.741614 -0.666580
-1.306038 -0.090723 0.058160 0.001267 -0.839861 0.537611
0.891285 0.019356 0.106012 0.000791 0.280687 0.956058
-1.015989 0.077553 0.074825 0.000471 0.723425 0.686407
-1.389266 0.053837 -0.093353 0.000692 0.494658 -0.865819
-0.639191 0.033624 0.102385 0.000382 0.208929 0.975082
0.960054 0.041643 0.099394 0.000682 0.384335 0.920252
0.822044 0.025675 -0.104662 0.000291 0.324487 -0.942614
0.227497 0.308212 -0.352136 0.111032 0.762168 0.637786
0.511700 -0.073970 0.078369 -0.000233 -0.685820 0.723999
1.465837 -0.160441 -0.207662 0.177516 0.739598 -0.646091
0.252980 0.048886 -0.096039 0.000043 0.401320 -0.913039
1.183029 0.101763 -0.035463 -0.000768 0.942816 -0.323961
0.480488 0.101365 0.036584 0.000096 0.901789 0.425710
-0.067275 0.019508 0.105985 -0.000485 0.235406 0.968498
-0.719643 0.077102 -0.075290 -0.000388 0.696574 -0.713861
0.153485 0.308965 -0.375600 -0.028240 -0.754065 -0.656192
-1.567865 0.063978 0.045803 -0.445585 0.663892 0.593889
0.259786 -0.431981 0.521539 -0.000119 0.758419 0.651448
0.152937 -0.226049 0.280292 -0.028240 0.754065 0.656192
-0.143270 0.128370 -0.155297 -0.028240 -0.754065 -0.656192
0.822859 -0.100737 -0.038281 -0.001071 -0.937405 -0.338913
-0.563654 -0.103406 0.030338 0.000719 -0.967293 0.243015
0.189781 -0.289214 -0.326751 -0.056057 -0.789746 0.610868
-0.025887 -0.137512 -0.170854 -0.028240 0.754065 -0.656192
0.458620 -0.088719 -0.061174 0.000116 -0.788190 -0.610802
1.047122 -0.015126 0.106698 -0.000123 -0.206848 0.975808
-0.118313 0.112099 0.126045 -0.056057 0.789746 -0.610868
-0.146595 -0.050286 0.095313 0.000766 -0.371787 0.925328
-1.390171 0.083530 -0.068088 -0.000075 0.710314 -0.699995
0.507578 -0.106529 -0.016271 0.000738 -0.992698 -0.096027
0.461455 0.105500 -0.021978 -0.000511 0.977086 -0.201470
0.308104 0.071309 0.080798 0.000150 0.628195 0.774597
-1.273643 0.056367 0.091848 0.000031 0.520734 0.850366
-0.193407 -0.079104 -0.073184 -0.000444 -0.728030 -0.681439
0.477563 -0.087187 0.063338 0.000099 -0.748856 0.658561
-1.272068 -0.101322 -0.036704 0.000414 -0.932085 -0.354820
0.349078 0.106497 -0.016484 -0.000446 0.992364 -0.092846
-1.010807 -0.102549 -0.033122 -0.000514 -0.917373 -0.390893
-0.009502 -0.087195 -0.113737 -0.028240 0.754065 -0.656192
-1.184042 0.039558 -0.100242 0.000736 0.362889 -0.928920
0.192374 -0.240057 -0.298088 -0.000119 0.758419 -0.651448
0.257414 -0.105472 0.022110 0.000581 -0.954071 0.290058
-0.144011 -0.129860 0.151365 -0.056057 -0.789746 -0.610868
1.452068 0.230979 0.276025 -0.039416 0.886210 -0.453750
0.022363 -0.061358 -0.088592 -0.000712 -0.525529 -0.847673
0.249089 0.047159 0.096898 -0.000759 0.385044 0.920127
-0.399547 -0.000000 0.107765 -0.000271 0.043610 0.997144
0.341619 -0.096382 0.048206 -0.000061 -0.895027 0.440178
0.589681 0.081341 -0.070689 -0.000392 0.747850 -0.660033
0.119864 -0.000000 0.107765 -0.002301 0.116559 0.990036
-1.356478 0.094956 -0.050956 -0.000190 0.830446 -0.552146
1.505747 0.153338 0.183242 0.265055 -0.719112 0.642358
1.517047 0.091609 0.109475 0.265055 -0.719112 0.642358
1.510267 -0.128646 0.153735 0.265055 0.719112 0.642358
1.494447 0.215067 0.257010 0.151203 -0.682921 0.707532
1.494447 0.215067 -0.257010 0.151203 0.816850 0.547484
1.503487 0.165684 -0.197996 0.265055 0.759078 0.594598
0.266206 0.310880 -0.362064 0.111032 0.762168 0.637786
0.463085 -0.014212 0.106824 -0.000774 -0.204878 0.976244
0.143016 0.346217 0.404738 -0.056057 0.789746 -0.610868
-1.309456 0.040252 0.099965 -0.000317 0.377445 0.923073
-0.027342 -0.184117 -0.224348 -0.028240 0.754065 -0.656192
0.320457 -0.471636 0.563615 0.111032 -0.762168 -0.637786
0.692584 -0.071021 -0.081051 -0.000247 -0.661668 -0.746074
-1.322008 0.083963 -0.067553 0.000313 0.831960 -0.549771
1.043887 0.106656 -0.015417 0.002709 0.967970 -0.239331
0.888608 -0.009839 -0.107315 -0.000831 -0.166715 -0.983972
1.002259 0.056334 -0.083252 0.000000 -0.766910 -0.641754
0.071587 -0.333946 0.395429 -0.056057 -0.789746 -0.610868
1.458347 0.000000 -0.107765 0.312864 0.047328 -0.939700
1.011287 -0.067291 0.084174 0.000025 -0.691785 0.718154
0.178049 -0.143689 0.184180 0.056098 0.765703 0.640744
1.327746 0.169116 0.218029 -0.030509 -0.708067 0.702611
0.144481 0.158672 0.202503 -0.028240 -0.754065 0.656192
-1.140343 0.044084 0.098336 0.001401 0.421864 0.903312
1.281700 0.191473 0.228815 -0.090693 0.900172 -0.425987
0.260349 -0.110807 -0.121953 0.111032 -0.762168 0.637786
-0.859026 -0.107765 0.000000 0.004599 -0.996214 -0.041559
-0.220059 -0.078861 0.073445 -0.000744 -0.691443 0.718788
1.252921 0.167447 0.184172 -0.028327 0.813185 -0.578253
-1.424096 0.093897 -0.052883 0.000490 0.819832 -0.567837
0.228327 0.342417 -0.417262 -0.000119 -0.758419 -0.651448
1.477748 -0.095374 0.129906 0.089164 0.755531 0.645890
0.244057 -0.075705 0.077168 -0.000000 0.641754 -0.766910
0.219751 -0.000000 0.107765 -0.001818 0.047407 0.996121
0.034374 0.311730 0.373651 -0.028240 -0.754065 0.656192
1.196802 0.154434 0.168620 -0.030509 0.816439 -0.573104
1.365159 0.177792 -0.228397 -0.030509 -0.708067 -0.702611
0.119544 -0.178837 0.224602 -0.028240 0.754065 0.656192
0.076321 0.328199 0.394381 -0.028240 -0.754065 0.656192
1.140683 0.141421 0.153069 -0.030509 0.816439 -0.573104
-1.038823 -0.000000 0.107765 -0.000355 0.041396 0.997420
0.404388 0.068131 -0.083495 -0.000080 0.624194 -0.777145
-1.033577 0.031138 -0.103168 -0.000355 0.373903 -0.924506
-1.583829 0.018903 -0.066998 -0.518739 0.359577 -0.768165
0.193540 -0.029485 0.103653 0.000183 -0.265440 0.960861
0.781176 -0.034817 -0.101985 -0.001292 -0.334374 -0.939591
0.978823 -0.121240 0.144884 -0.090693 -0.900172 -0.425987
0.934913 -0.093705 -0.096048 -0.028327 -0.813185 0.578253
0.959894 -0.116850 -0.139639 -0.090693 -0.900172 0.425987
0.861491 0.056334 0.083252 -0.000000 -0.641754 -0.766910
-0.110410 0.075188 -0.077601 -0.000000 -0.641754 0.766910
0.827385 -0.086123 0.102919 -0.090693 -0.900172 -0.425987
1.362918 0.151046 -0.164571 0.000000 0.766910 0.641754
0.282257 -0.495956 0.596023 0.004570 0.759040 0.650566
0.002713 -0.093987 -0.052723 0.000567 -0.900333 -0.427540
1.362626 -0.136363 0.147026 0.000000 -0.766910 -0.641754
1.286620 0.081277 0.070763 -0.000119 0.756554 0.649663
0.131230 -0.284392 0.325891 -0.056057 -0.789746 -0.610868
0.976242 0.033609 -0.102390 -0.000742 0.309159 -0.947839
0.281695 0.173835 0.211131 0.056098 -0.765703 0.640744
-0.318331 0.032184 -0.102847 -0.000373 0.377316 -0.923829
0.214845 0.079983 0.104828 0.056098 -0.765703 0.640744
0.103102 -0.359899 0.426089 -0.056057 -0.789746 -0.610868
0.283687 -0.041083 -0.099627 -0.002974 -0.414455 -0.907014
-0.379570 -0.107765 -0.000000 0.000369 -0.993245 -0.071168
-0.093857 -0.095514 0.102360 -0.056057 -0.789746 -0.610868
0.206299 -0.497602 0.594645 -0.028240 0.754065 0.656192
1.441027 -0.104139 0.027718 0.153744 -0.949376 0.240565
-0.190557 -0.106446 0.016809 0.000176 -0.972259 0.217626
-0.534077 -0.099347 -0.041754 0.000277 -0.918539 -0.388338
1.217670 0.081206 0.070844 -0.000085 0.753197 0.653513
-0.568576 -0.090542 -0.058441 -0.000426 -0.785356 -0.614420
-0.998868 0.107765 -0.000000 0.000785 0.990252 0.110236
1.047151 -0.119732 0.127151 -0.028327 -0.813185 -0.578253
0.217744 -0.363230 0.440724 -0.028240 0.754065 0.656192
0.181624 -0.263926 0.325054 -0.028240 0.754065 0.656192
1.231100 -0.115617 0.154097 -0.000000 0.766910 0.641754
0.111372 0.225979 -0.278424 -0.028240 -0.754065 -0.656192
1.324016 -0.072016 -0.070130 0.000000 0.641754 0.766910
0.065151 -0.206081 0.230712 -0.056057 -0.789746 -0.610868
1.271627 -0.156103 0.202478 -0.030509 0.708067 0.702611
1.271627 0.156103 -0.202478 -0.033553 -0.701632 -0.708211
0.223996 -0.192473 0.213216 0.111032 -0.762168 -0.637786
-0.179796 0.107765 -0.000000 -0.001266 0.993658 0.089652
1.065857 0.108388 0.145457 -0.030509 -0.708067 0.702611
-0.668682 -0.029244 -0.103721 0.000853 -0.260236 -0.962278
0.013999 0.196366 -0.222846 -0.056057 0.789746 0.610868
0.320457 -0.069159 -0.082646 0.000000 0.641754 0.766910
1.464784 -0.072016 0.070130 -0.000000 0.641754 -0.766910
1.445839 0.155596 -0.170009 0.000000 0.766910 0.641754
-0.639275 0.107765 -0.000000 0.003662 0.990867 0.109000
1.098373 0.084864 -0.117346 0.000000 -0.766910 -0.641754
0.959378 0.107174 0.011272 -0.000251 0.980324 0.186191
0.926233 0.088454 -0.061556 -0.000263 0.761385 -0.643998
0.444371 0.052679 0.094012 -0.001252 0.400372 0.913295
0.320457 -0.147057 -0.175737 0.111032 -0.762168 0.637786
-0.918958 -0.107765 0.000000 -0.003107 -0.989586 -0.119628
-1.406887 -0.104357 -0.026887 0.000469 -0.938836 -0.336594
-0.019540 -0.179869 0.204596 -0.056057 -0.789746 -0.610868
1.442366 0.182130 0.233580 -0.000000 -0.766910 0.641754
-0.891073 -0.020079 -0.105878 -0.000333 -0.209949 -0.975060
0.777004 -0.082234 -0.069649 0.000437 -0.822245 -0.564437
0.622014 -0.081185 -0.070868 0.000053 -0.810332 -0.582671
-0.453954 0.020001 0.105893 -0.001315 0.286812 0.954095
0.239450 -0.160044 0.177154 0.111032 -0.762168 -0.637786
0.262876 -0.167726 -0.205478 0.056098 0.765703 -0.640744
-0.264550 0.012528 0.107034 -0.001208 0.188246 0.979660
1.371897 0.105328 0.022790 -0.000302 0.945475 0.313142
-0.029817 -0.053515 0.093538 -0.000319 -0.583729 0.808485
-0.796744 0.101411 -0.036458 0.000861 0.937727 -0.342205
0.769083 -0.092717 0.054926 -0.000056 -0.859193 0.505780
-0.680929 -0.089765 0.059629 0.001105 -0.807411 0.585422
0.399695 -0.102643 -0.032828 -0.000842 -0.976651 -0.201989
-1.423707 0.036903 -0.101250 0.000709 0.330387 -0.940513
-1.423707 -0.069343 0.082491 0.000014 -0.642348 0.763058
-1.458347 -0.082629 0.069178 -0.053935 -0.685071 0.722179
1.334557 -0.102855 -0.138846 -0.000000 0.766910 -0.641754
-1.178420 0.031109 0.103177 -0.000539 0.301526 0.950290
-0.110436 -0.106504 0.016436 -0.000184 -0.992497 0.099143
-0.048542 0.085896 0.110565 -0.028240 -0.754065 0.656192
-0.085602 0.126610 0.155756 -0.028240 -0.754065 0.656192
1.458347 0.036700 0.101323 0.154648 0.412135 0.888350
0.622363 0.066019 -0.085175 0.000359 0.678135 -0.731473
1.185584 0.014688 -0.106759 -0.000551 0.209218 -0.975229
0.477468 0.032695 0.102686 0.001360 0.386961 0.919131
-1.288202 0.095210 -0.050481 -0.000381 0.833482 -0.547565
-1.358460 0.107765 -0.000000 0.000529 0.997468 0.038422
1.169162 0.107054 -0.112000 0.000000 0.766910 0.641754
-0.699207 -0.000000 0.107765 -0.000160 0.054738 0.995597
-1.233962 -0.105005 0.024233 0.001049 -0.971220 0.225845
-1.497224 -0.040138 -0.095200 -0.181110 -0.287530 -0.936664
-0.297027 -0.012063 0.107088 0.004493 -0.201741 0.977610
-1.634592 -0.027770 0.006976 -0.720166 -0.626414 0.285488
-0.502470 0.100701 -0.038374 0.001113 0.893838 -0.442005
0.174696 -0.077324 -0.105166 0.056098 0.765703 -0.640744
-1.339609 -0.078929 0.073372 0.000451 -0.729069 0.680823
-0.353284 0.096909 -0.047138 -0.000254 0.891974 -0.447345
0.214845 -0.093583 -0.093447 0.111032 -0.762168 0.637786
1.233124 0.085331 -0.086041 0.000000 0.766910 0.641754
-0.099887 0.000000 -0.107765 0.004298 0.043005 -0.996569
0.648885 0.022292 0.105434 0.000097 0.303227 0.948749
-1.308009 -0.106120 0.018754 -0.000701 -0.977326 0.200184
1.208678 -0.082406 0.114409 -0.000000 0.766910 0.641754
-0.127846 -0.018703 0.106129 0.000505 -0.228330 0.970350
1.405478 0.097905 -0.132930 -0.000000 -0.766910 -0.641754
0.779117 -0.107765 -0.000000 -0.001686 -0.998022 -0.023871
1.269246 0.105380 -0.022545 0.000299 0.972201 -0.222192
0.790309 0.019180 0.106044 0.000202 0.201371 0.977045
0.160334 -0.048630 0.096169 -0.000233 -0.440547 0.894855
1.288158 -0.054218 -0.093133 -0.001355 -0.514364 -0.854360
-1.339291 -0.049471 0.095739 0.000794 -0.530743 0.844495
-0.390380 0.020500 -0.105797 -0.000125 0.278153 -0.956861
0.205856 0.293199 0.330429 -0.000293 0.782465 -0.621379
0.144728 -0.167981 -0.213211 -0.028240 0.754065 -0.656192
-1.487814 -0.022690 0.102462 -0.190583 -0.279415 0.934425
-0.502322 0.054350 -0.093056 -0.000302 0.466190 -0.881325
0.154455 0.076246 0.105649 0.056098 -0.765703 0.640744
0.159651 -0.089890 0.121500 0.056098 0.765703 0.640744
0.203386 0.246590 0.274300 0.111032 0.762168 -0.637786
0.272439 0.327503 -0.395577 0.056098 -0.765703 -0.640744
-0.462258 -0.041309 0.099533 -0.001747 -0.308103 0.947460
0.224924 0.391705 0.473755 -0.028240 -0.754065 0.656192
0.699207 0.107765 -0.000000 0.000538 0.993605 0.066020
1.265602 -0.096981 0.099963 -0.000000 -0.766910 -0.641754
1.282736 0.137306 0.180015 0.000000 -0.766910 0.641754
-0.104599 -0.126297 0.154579 -0.028240 0.754065 0.656192
0.186704 0.129373 -0.131319 0.111032 0.762168 0.637786
0.702924 -0.014026 0.106848 -0.000747 -0.202946 0.976705
0.028706 -0.120769 0.123763 -0.056057 -0.789746 -0.610868
-0.485508 -0.106630 -0.015602 -0.000185 -0.972694 -0.221624
0.659312 -0.053083 -0.093784 0.000024 -0.496632 -0.864648
-0.010466 0.063961 -0.086996 -0.028240 -0.754065 -0.656192
1.364235 0.072016 0.070130 0.000000 0.766910 -0.641754
1.143028 0.072016 0.070130 -0.000000 0.766910 -0.641754
0.214845 -0.317632 0.361191 0.005295 -0.781504 -0.622248
0.219339 0.329848 0.376572 -0.004286 0.783104 -0.620720
0.113028 -0.149760 0.190907 -0.028240 0.754065 0.656192
-0.276356 0.072494 -0.079737 0.000213 0.662663 -0.745110
0.052019 0.118288 0.152115 -0.028240 -0.754065 0.656192
0.039955 -0.107765 -0.000000 0.000256 -0.990131 -0.111644
1.130262 0.156356 -0.186849 -0.090693 0.900172 0.425987
-0.172653 0.090105 0.059113 0.000751 0.805605 0.587908
-1.269554 -0.022239 -0.105445 0.001098 -0.222907 -0.971789
-0.315737 -0.093993 -0.052711 -0.000945 -0.911020 -0.405324
0.496028 -0.088732 -0.061155 -0.000692 -0.873597 -0.481155
0.114973 -0.411913 0.492245 -0.028240 0.754065 0.656192
0.157840 -0.087961 -0.062258 0.000703 -0.780115 -0.621033
0.892113 0.086216 0.064654 0.000154 0.801350 0.593626
0.769292 -0.014248 0.106819 0.000112 -0.201891 0.976904
0.188020 0.199749 0.215648 0.111032 0.762168 -0.637786
-1.198641 -0.107765 0.000000 0.001705 -0.997471 -0.028404
1.265902 -0.127323 0.136222 0.000000 -0.766910 -0.641754
0.287530 0.044254 0.098259 0.000750 0.365431 0.928144
0.329541 -0.106390 -0.017158 -0.001695 -0.991308 -0.109391
1.045981 -0.050768 0.095057 0.000061 -0.468204 0.880229
0.040321 -0.145599 0.182996 -0.028240 0.754065 0.656192
-1.223596 0.106703 -0.015091 0.000211 0.974497 -0.214278
0.248343 -0.447004 -0.525373 -0.056057 -0.789746 0.610868
0.284129 -0.404805 0.477426 0.111032 -0.762168 -0.637786
1.322215 -0.101994 0.034793 -0.001013 -0.910740 0.405924
-0.249273 0.105852 -0.020217 0.001386 0.951212 -0.295853
-0.578500 0.079171 -0.073111 -0.001196 0.716953 -0.693778
-0.333406 0.047237 0.096860 -0.000236 0.439110 0.895132
0.183386 0.214467 0.268294 0.027994 -0.762298 0.646298
-0.559565 0.035695 0.101681 0.001127 0.376622 0.923187
-0.432461 -0.105360 0.022642 -0.002494 -0.955777 0.281122
1.131185 0.084626 -0.085199 0.000000 0.766910 0.641754
0.250615 -0.468706 -0.563347 -0.028240 0.754065 -0.656192
0.138444 0.086518 -0.119327 -0.000119 -0.758419 -0.651448
0.690149 -0.096601 -0.047765 0.000036 -0.843961 -0.530187
0.104440 -0.292570 0.354649 -0.028240 0.754065 0.656192
1.113601 -0.106487 0.016545 0.000015 -0.970932 0.227073
-1.130546 -0.106290 -0.017771 0.000059 -0.959228 -0.270024
-1.510451 0.036523 -0.093533 -0.281395 0.338824 -0.892352
0.085851 0.187607 0.204929 -0.056057 0.789746 -0.610868
1.298635 0.135297 -0.145751 0.000000 0.766910 0.641754
0.243352 -0.279586 -0.340862 0.056098 0.765703 -0.640744
-0.123101 0.053866 0.093336 0.000042 0.546170 0.834333
-0.015363 -0.149008 0.184517 -0.028240 0.754065 0.656192
-1.168843 -0.019973 0.105898 -0.000437 -0.212779 0.974449
0.141663 -0.295483 -0.339272 -0.056057 -0.789746 0.610868
-0.242975 -0.053737 0.093411 -0.000404 -0.444534 0.892559
1.487985 0.073412 -0.056858 0.449886 0.642864 -0.615739
0.142819 0.331828 -0.401413 -0.028240 -0.754065 -0.656192
-1.552722 -0.064752 0.056552 -0.433038 -0.590462 0.673392
-1.537289 0.085059 -0.035579 -0.383048 0.825924 -0.403839
-1.338483 -0.107765 0.000000 -0.002108 -0.989682 -0.114521
-0.421313 -0.050533 -0.095182 0.001133 -0.487113 -0.870338
0.107263 -0.088838 0.120650 -0.028240 0.754065 0.656192
-1.441027 -0.097643 -0.045598 -0.026279 -0.904520 -0.418901
-1.202501 0.083608 0.067992 0.000423 0.779113 0.622320
0.123315 0.095970 0.129536 -0.028240 -0.754065 0.656192
-0.807297 -0.013689 -0.106892 -0.000049 -0.194213 -0.978541
1.287561 0.034161 -0.102207 -0.000044 0.305730 -0.947911
0.320457 -0.445669 0.532585 0.111032 -0.762168 -0.637786
0.579343 -0.107765 -0.000000 -0.001050 -0.996508 -0.042146
-0.859026 0.107765 -0.000000 -0.000796 0.991434 0.105031
0.545650 0.013482 0.106918 -0.001448 0.108086 0.991423
1.519307 0.079263 -0.094721 0.265055 0.759078 0.594598
0.081758 -0.258042 -0.313994 -0.028240 0.754065 -0.656192
-0.667726 0.013706 -0.106890 -0.001509 0.187825 -0.979894
0.140731 0.250380 -0.307727 -0.028240 -0.754065 -0.656192
0.251921 0.222046 -0.253418 0.111032 0.762168 0.637786
0.299671 -0.376998 0.446902 0.111032 -0.762168 -0.637786
0.030586 -0.124725 -0.128705 -0.056057 -0.789746 0.610868
-1.084822 -0.018076 -0.106238 -0.000332 -0.237459 -0.968261
0.152070 -0.187657 0.236137 -0.028240 0.754065 0.656192
-0.449540 -0.093720 -0.053196 -0.001253 -0.825199 -0.560475
1.183014 0.082433 -0.069412 -0.000085 0.761975 -0.643228
-1.516406 0.035017 0.092453 -0.285153 0.414381 0.860175
0.054263 -0.174958 0.217335 -0.028240 0.754065 0.656192
-0.076233 0.154188 -0.176598 -0.056057 0.789746 0.610868
-0.281184 -0.057532 0.091123 -0.000131 -0.612886 0.786568
-1.068291 0.072321 0.079894 -0.000680 0.676992 0.732263
-1.064385 -0.072524 0.079709 -0.000453 -0.719336 0.690145
-0.432117 0.105724 -0.020874 0.000760 0.951949 -0.293914
1.269944 -0.105442 0.022253 -0.000372 -0.972493 0.220681
0.089479 0.083801 -0.070393 -0.000000 -0.641754 0.766910
-1.535815 -0.092735 0.000000 -0.298155 -0.948390 -0.056951
0.247654 0.101307 0.108390 0.111032 0.762168 -0.637786
0.307499 0.014233 0.106821 -0.000929 0.087697 0.993846
0.083551 0.036497 0.101396 0.000534 0.378553 0.922671
1.119583 -0.082180 -0.114139 0.000000 0.766910 -0.641754
0.281695 0.173835 -0.211131 0.056098 -0.765703 -0.640744
1.346106 0.095500 -0.130056 0.000000 -0.766910 -0.641754
0.574543 -0.049106 -0.095926 -0.000512 -0.476229 -0.875929
1.218619 -0.107765 -0.000000 -0.000756 -0.997695 -0.037622
0.997753 0.125629 0.150130 -0.090693 0.900172 -0.425987
0.320457 -0.095125 -0.113676 0.111032 -0.762168 0.637786
0.908761 0.051898 -0.094445 0.000227 0.559714 -0.825338
-0.226540 -0.046162 -0.097377 0.000839 -0.505335 -0.859460
-1.423240 0.106670 -0.015324 -0.003272 0.969276 -0.234251
1.528347 0.029880 -0.035707 0.265055 0.759078 0.594598
0.133950 -0.097740 0.084333 -0.000293 -0.782465 -0.621379
1.184360 -0.094043 0.052622 -0.000937 -0.910851 0.405741
-1.150571 -0.056402 -0.091826 0.000042 -0.523236 -0.848798
0.161017 -0.352997 0.411852 -0.056057 -0.789746 -0.610868
-1.556417 0.000000 -0.084304 -0.385119 -0.058084 -0.916093
1.081622 -0.031947 -0.102921 -0.003192 -0.383587 -0.919876
0.187880 0.244334 -0.268905 0.055403 0.773273 0.630352
0.158958 -0.031153 -0.103164 -0.000185 -0.238823 -0.968609
1.069553 0.133603 -0.151692 -0.060740 0.860860 0.501181
1.140585 -0.096165 0.098988 -0.000000 -0.766910 -0.641754
1.220376 -0.032614 0.102711 -0.000669 -0.305357 0.949074
1.079836 0.106236 0.018086 -0.001902 0.963270 0.257633
1.280421 -0.122825 -0.162711 0.000000 0.766910 -0.641754
-1.542740 -0.020730 0.087716 -0.333385 -0.261710 0.900725
1.002259 -0.072016 -0.070130 0.000000 0.641754 0.766910
1.298635 -0.135297 0.145751 -0.000000 -0.766910 -0.641754
-0.848985 0.018109 0.106232 0.000179 0.192582 0.978961
-0.072692 0.107055 -0.012348 0.002229 0.977829 -0.199855
0.178049 0.143689 0.184180 0.056098 -0.765703 0.640744
-0.749967 -0.095288 0.050335 0.000490 -0.839425 0.538461
0.137869 0.195631 -0.244689 -0.028240 -0.754065 -0.656192
-0.728164 0.077366 0.075018 -0.000060 0.721060 0.688931
0.069963 -0.110107 -0.106193 -0.056057 -0.789746 0.610868
-1.576935 -0.071966 -0.015967 -0.523345 -0.807364 -0.260463
-0.180471 -0.012826 -0.106999 0.002312 -0.209225 -0.975518
0.004197 -0.030826 -0.103262 0.000400 -0.336157 -0.939081
0.377142 0.070281 0.081693 0.000369 0.574722 0.815008
0.772628 0.080658 0.071468 -0.000418 0.742647 0.665730
1.096487 -0.086095 -0.086954 0.000000 -0.766910 0.641754
0.238439 -0.320896 -0.390658 0.056098 0.765703 -0.640744
1.528347 0.039403 0.042216 1.000000 -0.000000 -0.000000
0.549289 0.106370 0.017285 -0.000616 0.959431 0.269289
0.838173 -0.092838 0.054721 0.000232 -0.860700 0.503010
-0.852491 0.044304 -0.098237 0.000447 0.312783 -0.945615
1.009738 0.095374 0.129906 -0.013073 -0.741984 0.668071
-0.617780 -0.071551 -0.080584 0.000176 -0.661269 -0.746370
-0.023668 0.079164 0.073118 -0.000249 0.768337 0.635654
0.044310 -0.078402 0.073935 -0.000081 -0.735678 0.671534
-0.796631 0.027400 0.104223 0.000103 0.346559 0.935087
-0.684495 0.105712 -0.020937 0.000377 0.961615 -0.262801
1.402571 -0.202149 0.225641 -0.030509 -0.816439 -0.573104
0.081908 0.075860 -0.104646 -0.028240 -0.754065 -0.656192
0.545891 -0.087225 0.063285 0.000074 -0.749364 0.657951
0.169482 0.136644 0.137010 0.111032 0.762168 -0.637786
0.297663 -0.227794 -0.274214 0.056098 0.765703 -0.640744
-0.133716 0.090791 0.058054 0.001137 0.779151 0.622073
-0.004664 0.051681 0.094564 -0.000230 0.526789 0.846706
-0.062583 0.098744 0.043162 -0.000971 0.891742 0.445508
-0.350003 -0.081546 -0.070452 0.000140 -0.753435 -0.652817
1.269215 0.104319 0.027032 -0.000225 0.938346 0.337625
0.442103 -0.104539 0.026170 -0.000190 -0.937229 0.338740
-0.518616 -0.074606 0.077764 -0.000235 -0.643559 0.761684
0.133696 0.076459 0.075943 -0.001097 0.745028 0.662890
-1.272010 -0.044934 0.097950 0.001391 -0.417571 0.905575
1.356820 -0.094002 0.052696 0.000927 -0.913242 0.400303
0.080189 -0.252764 0.289685 -0.056057 -0.789746 -0.610868
-1.505620 -0.082092 -0.059787 -0.184584 -0.794729 -0.571525
-0.524023 -0.102202 0.034177 0.000494 -0.958937 0.273037
0.128201 -0.161346 -0.167092 -0.056057 -0.789746 0.610868
-0.808782 -0.044559 0.098121 -0.001053 -0.433074 0.897951
0.119544 0.178837 0.224602 -0.028240 -0.754065 0.656192
-0.979017 -0.033832 0.102316 0.000062 -0.211039 0.974584
-1.107471 0.019373 0.106009 -0.000494 0.200023 0.977408
1.528347 -0.070065 -0.018830 1.000000 -0.000000 -0.000000
1.167426 -0.042706 0.098942 0.000326 -0.476424 0.875813
1.528347 -0.024084 0.030442 1.000000 0.000000 0.000000
0.281234 -0.284323 0.343206 0.056098 0.765703 0.640744
-1.070814 0.040161 0.100002 -0.000129 0.448808 0.890455
-0.854996 -0.097575 -0.045743 0.001227 -0.905626 -0.416987
1.163643 0.147580 0.184327 -0.090693 -0.578018 0.810969
-1.135361 0.075440 0.076955 0.000196 0.712705 0.697775
-0.228018 -0.078201 -0.074148 0.000018 -0.782526 -0.618040
0.803875 -0.050429 0.095238 -0.000036 -0.465792 0.881692
1.103270 -0.132745 0.142702 -0.030509 -0.816439 -0.573104
-0.041697 0.102230 -0.034094 0.000376 0.941020 -0.330251
0.369596 -0.017236 -0.106378 -0.000165 -0.107133 -0.991454
-0.943599 -0.034004 -0.102260 0.000243 -0.314814 -0.945934
0.799094 0.000000 -0.107765 0.002827 0.087143 -0.994086
-0.313265 0.103199 0.031037 -0.000328 0.957710 0.275141
0.081746 0.075771 0.104537 -0.028240 -0.754065 0.656192
-0.462767 0.058838 -0.090285 0.001054 0.609967 -0.789273
0.667184 0.052417 0.094158 0.000681 0.559227 0.825458
-0.264439 0.061460 0.088521 -0.000318 0.537703 0.839756
0.439099 -0.064698 -0.086183 0.000119 -0.553819 -0.829221
0.004329 0.210052 -0.255514 -0.028240 -0.754065 -0.656192
0.215073 -0.179229 -0.195837 0.111032 -0.762168 0.637786
0.978890 -0.000000 0.107765 0.002927 0.107307 0.991152
-1.205695 0.106751 0.014744 -0.001270 0.975673 0.209581
0.151927 -0.146605 -0.145857 -0.000293 -0.782465 0.621379
-0.919355 -0.064789 0.086115 0.000050 -0.638988 0.765416
1.152267 -0.098522 -0.043666 -0.000298 -0.913877 -0.399134
-0.798433 0.052927 -0.093872 -0.000443 0.564986 -0.821673
0.032798 0.175368 0.193974 -0.056057 0.789746 -0.610868
-1.068861 -0.106385 0.017188 -0.001983 -0.991061 0.108214
-0.861487 0.095002 -0.050871 -0.000196 0.866186 -0.493733
1.474809 0.082602 0.055442 0.305467 0.777107 0.534562
0.884260 -0.045471 -0.097702 0.000060 -0.506777 -0.858787
-1.017349 -0.033938 0.102281 -0.000068 -0.420964 0.903880
-0.279102 -0.053195 -0.093721 0.000419 -0.488572 -0.869202
0.634184 0.083697 0.067883 -0.000028 0.772014 0.631134
0.858458 0.088594 -0.061355 -0.000264 0.763163 -0.641985
-1.372808 -0.076318 -0.076085 0.000464 -0.707581 -0.702896
-0.375673 -0.014590 -0.106773 -0.000129 -0.168641 -0.983446
0.301076 -0.169434 0.199103 0.111032 -0.762168 -0.637786
-1.366788 0.019572 0.105973 -0.001177 0.235464 0.969364
1.406387 -0.088228 -0.061880 -0.000165 -0.817703 -0.571200
0.565612 0.096051 0.048861 0.000040 0.844238 0.530640
-1.407171 -0.104655 0.025704 -0.003018 -0.967862 0.239728
-0.098818 0.173927 -0.204189 -0.056057 0.789746 0.610868
1.423707 0.093291 0.053945 0.000142 0.863608 0.499100
-1.340052 -0.099762 -0.040753 -0.000340 -0.917805 -0.389952
-0.529260 0.034842 -0.101977 0.001192 0.381310 -0.921382
-0.579343 -0.107765 0.000000 0.001144 -0.991616 -0.105498
1.028324 0.058504 0.090501 -0.000299 0.543574 0.836029
0.438042 -0.103320 -0.030630 -0.000129 -0.939471 -0.334646
0.069730 0.110958 0.107315 -0.056057 0.789746 -0.610868
-0.796148 0.090076 0.059158 0.000036 0.835680 0.544455
0.320457 -0.186007 -0.222282 0.111032 -0.762168 0.637786
1.131157 0.042787 -0.098907 0.000077 0.476986 -0.875515
-0.330670 -0.042780 -0.098910 0.000757 -0.480010 -0.874061
0.002047 0.135987 -0.170304 -0.028240 -0.754065 -0.656192
-1.252361 0.055816 -0.092184 0.000257 0.514189 -0.854367
-0.719464 -0.084279 -0.067159 0.000347 -0.784262 -0.615963
-0.942676 -0.068591 -0.083118 0.000014 -0.562124 -0.823621
0.900302 -0.086515 -0.111353 -0.075716 0.611560 -0.784992
0.992033 -0.018929 -0.106089 -0.001172 -0.193064 -0.978817
1.338670 0.042771 0.098914 0.000602 0.402346 0.912413
-0.376607 -0.088318 0.061751 -0.000527 -0.778633 0.623070
-0.401906 0.066049 0.085151 -0.000039 0.613482 0.786135
0.547309 0.079432 0.072828 0.000046 0.668307 0.740064
-0.385550 0.039758 0.100163 0.000818 0.369985 0.926009
-0.873877 -0.050737 -0.095074 -0.000052 -0.549553 -0.832057
0.015438 0.044366 -0.098209 -0.000614 0.487253 -0.869884
