0.099747 -0.269780 0.362331 -0.066014 0.765803 0.639678
-0.912915 0.108177 -0.047341 0.000709 0.897119 -0.437279
-0.011225 -0.108542 0.046497 -0.000080 -0.935128 0.347768
0.302808 -0.110538 0.041529 0.000927 -0.948032 0.312328
-0.040615 -0.086260 -0.080639 0.000223 -0.753814 -0.653553
-0.831781 0.096368 0.068239 0.000648 0.788253 0.611545
0.248681 -0.130855 -0.178447 0.070066 0.792277 -0.606125
-0.451830 0.092250 -0.073711 0.000057 0.715267 -0.695463
0.641568 -0.094255 -0.071129 -0.000352 -0.806889 -0.586820
0.850472 -0.098500 -0.065124 0.000033 -0.881595 -0.466974
0.929320 -0.044912 -0.109208 -0.000405 -0.337688 -0.938892
-0.502895 0.104736 0.054533 -0.000539 0.834917 0.546050
0.225837 -0.263447 0.333701 0.074297 -0.792034 -0.605939
1.056479 -0.106392 0.051226 0.000009 -0.865160 0.496795
0.829685 0.046733 0.108441 -0.000286 0.345351 0.936190
0.514349 -0.017528 0.116774 0.001149 -0.187024 0.980057
0.161932 0.257792 0.354397 -0.020650 -0.775954 0.629554
0.246355 0.225199 -0.286222 0.074297 0.792034 0.605939
0.749761 -0.035856 -0.112506 0.000906 -0.388310 -0.918898
-1.387914 -0.117136 0.014914 0.001225 -0.981182 0.181385
0.127136 0.073990 -0.118168 0.070066 -0.792277 -0.606125
0.333697 -0.074120 0.091922 0.000125 -0.650803 0.756960
1.417601 0.068341 0.073625 0.000000 -0.607619 -0.794229
0.177962 0.114791 0.027684 -0.001367 0.942176 0.328587
0.155069 0.358304 0.461590 -0.069994 0.818995 -0.569516
0.580009 -0.086260 0.080639 0.000223 -0.753814 0.653553
1.122715 -0.021785 0.116055 -0.000660 -0.297019 0.951031
0.176402 0.158267 -0.190157 0.074297 0.792034 0.605939
-0.047318 0.102121 0.146438 -0.066014 -0.765803 0.639678
1.332770 -0.097057 0.067255 0.000124 -0.869016 0.490124
0.263189 -0.373578 0.482235 0.074297 -0.792034 -0.605939
0.056617 0.078971 0.129450 -0.066014 -0.765803 0.639678
-0.862409 -0.068036 -0.096511 0.000617 -0.540438 -0.838688
1.402910 0.097146 -0.067127 0.000018 0.835382 -0.545223
0.075706 0.139943 0.204412 -0.066014 -0.765803 0.639678
0.031622 -0.132592 0.191063 -0.066014 0.765803 0.639678
1.318919 0.083393 -0.129943 -0.022950 -0.764588 -0.643847
1.441529 0.184000 0.250267 -0.034412 -0.749176 0.661476
1.441529 0.184000 -0.250267 -0.034412 -0.749176 -0.661476
1.435422 0.143744 0.171695 0.076963 0.783605 -0.616473
0.290941 0.031211 -0.113883 -0.000521 0.273047 -0.959426
0.267187 0.094203 0.071198 0.000624 0.760281 0.646075
-0.128353 0.066791 0.097377 0.000250 0.639975 0.765446
1.212944 -0.066247 0.105011 -0.034412 0.749176 0.661476
0.776553 0.075987 -0.090385 -0.000079 0.708097 -0.702740
0.102793 -0.164242 0.188941 -0.021893 -0.811550 -0.582782
1.451458 -0.116324 0.020298 0.075107 -0.988608 0.095920
0.184875 0.201843 0.248155 0.074297 0.792034 -0.605939
1.001998 0.040995 0.110737 0.002750 0.269353 0.959906
-1.469427 0.042897 0.108054 -0.180136 0.322050 0.924199
1.534012 0.068508 -0.068682 1.000000 -0.000000 0.000000
1.438682 -0.141778 0.169604 0.076963 -0.783605 -0.616473
-1.051056 0.118082 -0.000000 -0.002423 0.995248 0.058544
0.181655 -0.190954 0.233528 0.074297 -0.792034 -0.605939
1.388990 0.094305 0.144207 0.009919 -0.781741 0.622825
1.300136 -0.110474 0.126081 -0.034412 -0.834425 -0.550046
-1.606356 0.049159 0.019673 -0.675047 0.653948 0.335547
1.483801 0.104841 0.032711 0.251819 0.923075 0.279198
0.251620 0.109938 0.150767 0.070066 -0.792277 0.606125
1.332408 0.176638 -0.236253 -0.034412 -0.749176 -0.661476
1.332408 0.181818 0.232291 -0.034412 0.834425 -0.550046
-1.517694 -0.017775 -0.103310 -0.321818 -0.259035 -0.906501
-0.205199 0.071749 -0.093784 -0.069994 0.818995 0.569516
-1.529407 -0.100511 0.000000 -0.327381 -0.936526 -0.071901
0.138276 0.210718 0.295600 -0.020650 -0.775954 0.629554
-0.032068 -0.029096 -0.114441 -0.000099 -0.308009 -0.949025
0.260886 0.151575 -0.191769 0.074297 0.792034 0.605939
1.385187 -0.167835 0.207777 -0.034412 -0.834425 -0.550046
0.117839 -0.086334 -0.135378 0.070066 0.792277 -0.606125
1.508375 -0.176676 0.222663 0.076963 -0.783605 -0.616473
-0.884876 -0.014311 0.117212 -0.000166 -0.162894 0.984809
-0.047100 -0.181024 -0.240920 -0.066014 0.765803 -0.639678
1.362457 -0.117461 0.012093 0.000177 -0.995460 0.073413
1.222914 0.094637 -0.137683 -0.034412 -0.749176 -0.661476
1.183321 0.104470 0.146760 -0.034412 -0.749176 0.661476
0.251923 -0.130074 0.162565 0.074297 -0.792034 -0.605939
0.256400 -0.414499 0.548310 0.070066 0.792277 0.606125
-0.036866 0.172247 -0.231470 -0.066014 -0.765803 -0.639678
0.425273 -0.116340 -0.020207 -0.001670 -0.963426 -0.258147
1.512318 -0.153919 -0.208402 0.076963 0.799996 -0.595049
1.115583 0.091847 -0.128940 -0.034412 -0.749176 -0.661476
0.866513 0.014098 -0.117237 -0.000069 0.210528 -0.975559
-0.107115 -0.117055 0.015538 -0.000420 -0.972012 0.225914
0.141243 0.143986 0.208030 0.070066 -0.792277 0.606125
-0.034104 -0.163702 0.204990 -0.069994 -0.818995 -0.569516
0.430432 0.118082 -0.000000 -0.002872 0.990488 0.113652
0.051893 -0.196364 -0.241391 -0.069994 -0.818995 0.569516
-0.090430 0.116684 0.018118 -0.000330 0.980323 0.187728
1.172284 -0.091444 -0.105211 -0.034412 -0.834425 0.550046
0.160589 -0.334626 -0.426861 -0.069994 -0.818995 0.569516
-0.092796 -0.112238 0.138196 -0.069994 -0.818995 -0.569516
0.110111 -0.118082 -0.000000 -0.002324 -0.996919 -0.047909
-0.226329 0.116836 0.017107 -0.000412 0.979487 0.189576
1.295567 0.136332 0.188686 -0.034412 -0.749176 0.661476
0.652504 0.109519 0.044147 0.001149 0.916192 0.394677
-0.244059 -0.092122 0.073871 0.001306 -0.719140 0.691881
0.128934 -0.311007 0.414699 -0.066014 0.765803 0.639678
-1.519599 0.083473 -0.062318 -0.332405 0.696201 -0.631734
-0.923116 -0.114019 -0.030709 0.000160 -0.948932 -0.308508
1.593188 -0.240988 -0.314999 0.076963 -0.783605 0.616473
0.064849 0.091123 -0.144846 -0.066014 -0.765803 -0.639678
1.389745 0.022976 -0.115825 0.001423 0.210761 -0.975311
-1.058799 -0.116402 -0.019845 -0.001241 -0.971444 -0.223829
1.534012 -0.060703 -0.047192 1.000000 0.000000 0.000000
-1.131842 0.103547 0.056758 -0.001320 0.838064 0.540379
-0.930238 0.110268 0.042242 -0.000017 0.893893 0.442612
1.531191 0.133466 0.178463 0.076963 -0.799996 0.595049
1.531191 0.133466 -0.178463 0.076963 -0.799996 -0.595049
0.297678 0.116851 -0.017008 -0.000683 0.979680 -0.189018
-0.692091 0.062555 -0.100151 0.001153 0.583677 -0.808704
-0.743320 0.022109 0.115994 0.001947 0.245368 0.965627
1.166049 -0.129217 -0.173889 -0.034412 0.749176 -0.661476
-0.432747 -0.094618 0.070646 -0.000280 -0.741580 0.667403
0.224261 0.076918 -0.110767 0.070066 -0.792277 -0.606125
-1.451458 0.000000 -0.118082 -0.109831 -0.058802 -0.987780
-0.530302 0.035188 -0.112717 0.000027 0.344090 -0.936411
0.769375 0.102303 0.058970 0.001189 0.829682 0.554392
0.027895 -0.118302 0.132083 -0.069994 -0.818995 -0.569516
-0.986731 -0.083239 -0.083753 -0.000758 -0.628224 -0.774971
-1.063921 0.042648 0.110111 0.001110 0.393581 0.916499
1.596669 -0.253057 0.330775 0.061075 -0.791505 -0.607451
1.039686 0.116393 -0.019900 -0.000418 0.974643 -0.212338
-1.558446 -0.041477 0.076313 -0.517244 -0.339742 0.778560
-0.865199 -0.115244 0.025733 -0.000063 -0.981404 0.183902
-0.008930 -0.255971 -0.334583 -0.066014 0.765803 -0.639678
0.056493 -0.317378 -0.414850 -0.066014 0.765803 -0.639678
1.044982 -0.101237 -0.128032 -0.034412 -0.834425 0.550046
1.131137 0.000000 -0.118082 0.003439 -0.107094 -0.990530
0.050050 0.118082 -0.000000 -0.000821 0.997480 0.031387
0.930935 -0.118082 -0.000000 0.000336 -0.996254 -0.050797
0.796243 -0.082024 -0.084943 -0.000003 -0.696463 -0.714293
0.312734 0.290512 -0.379733 0.074297 0.792034 0.605939
0.312734 -0.436354 0.570366 0.070066 0.792277 0.606125
0.312734 0.387740 0.506822 0.070066 -0.792277 0.606125
0.312734 -0.254052 -0.332075 0.074297 -0.792034 0.605939
0.312734 -0.424201 -0.554480 0.074297 -0.792034 0.605939
-0.002379 -0.214009 0.273435 -0.069994 -0.818995 -0.569516
0.990192 -0.097516 -0.066588 -0.000431 -0.849464 -0.523200
0.568742 0.027380 0.114864 0.000995 0.204053 0.977127
-1.233339 -0.041249 -0.110643 -0.000196 -0.290372 -0.953506
1.131470 -0.104710 -0.054581 0.001633 -0.840295 -0.538149
-0.390392 0.000000 -0.118082 0.000113 -0.113693 -0.990234
0.005599 0.165524 0.202731 -0.069994 0.818995 -0.569516
-1.601673 -0.043311 -0.037116 -0.667914 -0.546083 -0.496614
-1.352716 -0.044005 -0.109576 -0.000515 -0.303701 -0.949025
-1.311318 0.118082 -0.000000 -0.003140 0.997742 0.037940
-0.910915 0.000000 -0.118082 0.000231 -0.060092 -0.994539
-1.035584 -0.040336 -0.110979 -0.000235 -0.280307 -0.956728
0.965297 0.097960 -0.128045 -0.034412 0.834425 0.550046
1.393173 -0.225496 -0.294749 -0.034412 -0.834425 0.550046
1.268376 -0.188298 -0.246127 -0.034412 -0.834425 0.550046
0.541023 0.105482 -0.053074 0.000009 0.856324 -0.511895
0.108394 0.216224 -0.263007 -0.069994 0.818995 0.569516
-0.533076 -0.040469 0.110931 0.000224 -0.288245 0.954188
0.250047 -0.037961 0.111814 0.000715 -0.365817 0.928123
-1.123995 -0.084036 -0.082953 0.000290 -0.678170 -0.731675
1.467549 -0.104605 -0.045253 0.248420 -0.888935 -0.377754
-1.203223 0.085001 -0.081965 0.000144 0.684885 -0.725395
-0.050697 -0.149972 -0.187285 -0.069994 -0.818995 0.569516
0.980594 -0.093530 0.072080 0.000073 -0.744376 0.664187
0.375733 0.049349 0.107276 -0.000081 0.363323 0.929131
0.109253 0.288028 -0.385158 -0.066014 -0.765803 -0.639678
-1.111116 0.000000 -0.118082 -0.000118 -0.059073 -0.994724
-1.111116 -0.000000 0.118082 -0.000806 0.042900 0.997227
1.142866 -0.102489 0.058646 0.000395 -0.876407 0.476371
1.143579 0.151100 -0.197505 -0.034412 0.834425 0.550046
0.275937 -0.240286 0.309571 0.074297 -0.792034 -0.605939
-1.302218 -0.080484 0.086404 -0.000076 -0.637333 0.767587
-1.451458 -0.111023 0.040214 -0.090269 -0.956194 0.262066
0.218455 -0.080754 0.086151 0.000077 -0.718584 0.692093
1.407520 -0.120448 -0.138601 0.076963 -0.783605 0.616473
0.236046 -0.326007 0.434994 0.070066 0.792277 0.606125
-0.341195 -0.101970 0.059544 -0.000409 -0.812696 0.579405
1.078234 0.065011 0.096603 -0.034412 -0.749176 0.661476
1.427966 0.152733 -0.182191 0.039872 0.801858 0.595277
0.208602 0.092512 0.073382 -0.000065 0.810610 0.581640
0.435072 0.056142 0.103882 0.000097 0.507158 0.859080
-1.149763 -0.109629 0.043872 0.000019 -0.888109 0.453860
0.092070 0.289661 0.370619 -0.069994 0.818995 -0.569516
0.266238 -0.102441 -0.128202 0.074297 -0.792034 0.605939
0.197801 0.373840 0.497028 -0.066014 -0.765803 0.639678
0.175052 -0.084789 -0.082183 0.000604 -0.738420 -0.671088
0.820411 0.116885 0.016771 -0.001282 0.970189 0.233283
-0.330332 -0.000000 0.118082 0.000145 0.059146 0.994711
-0.871902 0.053551 -0.105241 0.000893 0.414258 -0.907615
-1.143470 0.104425 -0.055125 0.000306 0.860850 -0.504175
0.068798 0.221111 0.274901 -0.069994 0.818995 -0.569516
0.196137 0.298060 0.403077 0.070066 -0.792277 0.606125
0.156915 -0.161802 -0.192389 0.074297 -0.792034 0.605939
1.259234 -0.014541 -0.117183 -0.000057 -0.173373 -0.982937
0.790795 -0.000000 0.118082 -0.001641 0.071213 0.996172
0.264844 -0.317900 -0.421069 0.070066 0.792277 -0.606125
1.438201 -0.054446 0.084255 -0.000000 0.607619 -0.794229
0.650654 -0.000000 0.118082 0.001226 0.108688 0.991074
0.616524 0.114054 -0.030579 -0.001270 0.969501 -0.235216
-0.273990 0.116646 -0.018359 -0.000529 0.974146 -0.212926
-0.143677 -0.075181 -0.091158 -0.000000 0.607619 0.794229
-0.797966 -0.020391 -0.116308 -0.000583 -0.260405 -0.962878
-0.839340 0.113234 -0.033486 -0.001078 0.941422 -0.329241
-1.476638 0.114207 0.014833 -0.185951 0.959705 0.194763
-1.601673 0.043311 -0.037116 -0.667914 0.546083 -0.496614
-0.777919 -0.113721 -0.031796 -0.000099 -0.931550 -0.357608
0.263361 -0.360562 -0.477004 0.070066 0.792277 -0.606125
1.150026 0.106116 -0.051795 -0.000496 0.848692 -0.524436
0.254874 0.244681 0.312732 0.074297 0.792034 -0.605939
0.312734 -0.302666 0.395619 0.070066 0.792277 0.606125
-0.630634 -0.000000 0.118082 -0.000031 0.121147 0.988900
1.229348 -0.068425 -0.108331 -0.034412 0.749176 -0.661476
0.209147 -0.460661 -0.602138 -0.066014 0.765803 -0.639678
-0.380753 0.053769 -0.105130 0.000359 0.495362 -0.866064
-1.084587 0.056988 -0.103420 -0.000191 0.431179 -0.899312
1.498771 -0.019359 -0.104221 0.251242 -0.270291 -0.925842
-0.741719 -0.116364 0.020072 -0.000005 -0.962447 0.261883
-0.482684 0.021005 0.116199 -0.000027 0.231123 0.969656
0.112080 0.098231 -0.065529 -0.001226 0.852583 -0.518404
-0.373614 -0.109799 -0.043446 -0.000374 -0.888788 -0.453526
1.260906 0.099012 0.111147 -0.034412 0.834425 -0.550046
-1.019701 -0.112913 0.034554 -0.000199 -0.932608 0.353505
1.292084 0.150376 -0.204411 -0.034412 -0.749176 -0.661476
-0.216218 -0.019528 0.116456 -0.000840 -0.214936 0.973845
-0.338018 -0.054799 -0.104596 0.000241 -0.513441 -0.855396
1.265686 -0.107450 -0.048969 0.000514 -0.881936 -0.466391
0.175060 -0.202254 -0.280284 0.070066 0.792277 -0.606125
0.223041 0.354263 -0.452066 0.074297 0.792034 0.605939
0.239025 -0.034537 -0.112918 0.000554 -0.238038 -0.969010
0.636019 -0.116287 -0.020510 0.002064 -0.961279 -0.263865
1.242581 -0.143199 -0.179326 -0.034412 -0.834425 0.550046
-0.053476 -0.075797 0.114288 -0.066014 0.765803 0.639678
0.042755 -0.241901 -0.307998 -0.069994 -0.818995 0.569516
0.161406 0.106872 -0.157187 0.070066 -0.792277 -0.606125
-0.416121 0.117302 -0.013548 -0.000418 0.984881 -0.162032
0.149468 0.022669 -0.115886 -0.001285 0.218563 -0.973362
-0.927277 -0.072596 0.093130 0.000014 -0.574910 0.815764
-0.670674 -0.118082 0.000000 -0.000085 -0.994511 -0.081260
0.261592 0.366725 0.473082 0.074297 0.792034 -0.605939
-1.208889 0.039662 0.111222 -0.000918 0.368899 0.926745
-0.662441 -0.058967 0.102305 0.000374 -0.447064 0.891323
-1.451458 -0.075982 0.090389 -0.083887 -0.555313 0.822968
0.963364 0.064130 0.076846 -0.000000 -0.607619 -0.794229
1.385843 -0.103603 0.114482 0.051328 -0.787549 -0.613834
-0.805169 0.037350 -0.112019 0.000059 0.400652 -0.913744
0.860977 -0.060200 0.079852 -0.034412 0.749176 0.661476
0.120700 0.080298 0.127157 0.070066 -0.792277 0.606125
-0.107064 0.163860 0.214184 -0.066014 -0.765803 0.639678
1.251257 -0.000000 0.118082 0.002613 0.090533 0.993733
1.094335 0.111146 0.039873 0.000331 0.912608 0.402829
1.516676 -0.113684 -0.143630 0.076963 -0.783605 0.616473
-0.395000 0.069901 0.095170 -0.000480 0.552505 0.830753
0.046157 0.039262 -0.111364 0.001542 0.365199 -0.928384
1.366635 -0.181924 -0.230311 -0.034412 -0.834425 0.550046
1.157388 -0.064405 0.100035 -0.034412 0.749176 0.661476
1.325984 -0.171543 0.217106 -0.034412 -0.834425 -0.550046
0.269368 0.325153 0.419696 0.074297 0.792034 -0.605939
1.596669 0.253057 0.330775 0.061075 0.791505 -0.607451
1.596669 0.253057 -0.330775 0.061075 -0.793354 -0.605034
-0.423129 -0.020838 0.116229 -0.000474 -0.227619 0.970605
1.331771 -0.059505 -0.101993 -0.000108 -0.527668 -0.846747
0.200510 0.132961 0.160035 0.074297 0.792034 -0.605939
-0.254722 -0.116996 -0.015981 0.001359 -0.983827 -0.168038
1.313660 0.050657 -0.087154 -0.000000 -0.607619 0.794229
0.209109 -0.111465 0.132992 0.074297 -0.792034 -0.605939
1.202210 0.074831 -0.091344 0.000136 0.596974 -0.799549
1.246801 -0.156927 0.199887 -0.034412 -0.834425 -0.550046
0.039962 -0.017377 0.116796 0.000072 -0.193988 0.978574
0.115117 -0.227553 0.278472 -0.069994 -0.818995 -0.569516
-0.135974 -0.088446 0.109287 -0.069994 -0.818995 -0.569516
-1.378026 -0.046695 0.108457 0.000131 -0.480215 0.874469
-1.469368 -0.095214 -0.066724 -0.183263 -0.805020 -0.556920
1.360191 0.115938 -0.022400 0.003251 0.955897 -0.281780
-1.196034 -0.055004 0.104489 -0.001019 -0.404343 0.911986
-0.361660 0.103051 0.057652 -0.001295 0.850767 0.521440
1.076704 -0.057882 -0.102922 0.000681 -0.537336 -0.840752
0.003735 0.100784 -0.061530 0.000311 0.817035 -0.572705
-0.328696 0.069759 -0.095274 0.000689 0.671971 -0.736918
-0.115556 0.078647 -0.111294 -0.066014 -0.765803 -0.639678
1.231237 -0.118082 -0.000000 -0.002424 -0.994876 -0.057340
-0.490493 0.000000 -0.118082 0.000239 -0.104751 -0.991719
0.350352 -0.118082 -0.000000 0.002928 -0.992142 -0.101101
1.331338 -0.000000 0.118082 -0.000856 0.113306 0.990079
1.222796 0.136599 -0.170551 -0.034412 0.834425 0.550046
1.432874 0.069107 -0.104654 0.076963 -0.799996 -0.595049
-1.079928 -0.072830 0.092947 0.001044 -0.538912 0.839856
0.398876 -0.024438 -0.115526 0.000719 -0.235758 -0.968524
-0.492296 -0.095940 0.068839 -0.000355 -0.776519 0.626396
-0.005753 0.235763 -0.305133 -0.069994 0.818995 0.569516
-0.157188 -0.101100 0.061009 -0.000420 -0.825745 0.560334
-1.282415 0.105562 -0.052915 0.000109 0.912042 -0.404302
-1.192955 -0.072254 -0.093395 -0.000250 -0.529963 -0.845125
-0.811828 -0.096675 0.067803 -0.000070 -0.758292 0.648277
0.162622 -0.359478 -0.476204 -0.066014 0.765803 -0.639678
1.526579 -0.053882 0.072065 0.076963 0.799996 0.595049
-0.620624 -0.017137 -0.116832 0.000003 -0.048473 -0.996457
-0.791927 0.112075 0.037183 -0.001065 0.929915 0.361559
-0.661791 0.105562 0.052915 0.000109 0.912042 0.404302
-0.530796 -0.066062 -0.097873 -0.000054 -0.635570 -0.768983
1.140990 0.032986 0.113381 -0.002672 0.279829 0.956489
-0.172487 0.102452 0.133917 -0.066014 -0.765803 0.639678
-0.580837 0.050334 -0.106817 0.000064 0.380020 -0.922418
0.336690 0.075892 -0.090464 0.001162 0.656343 -0.750909
0.435855 0.106392 -0.051226 0.000009 0.865160 -0.496795
1.051056 -0.118082 -0.000000 -0.000234 -0.995507 -0.050624
1.251257 0.118082 -0.000000 0.000639 0.994938 0.061112
-0.167258 -0.112311 -0.036463 -0.001193 -0.961527 -0.264238
0.989037 0.111847 0.037863 -0.000476 0.920314 0.384711
0.054614 -0.166438 -0.198021 -0.069994 -0.818995 0.569516
0.953157 -0.059486 0.102004 0.000962 -0.521557 0.850493
-0.440414 -0.019346 -0.116486 0.000165 -0.208563 -0.975441
-1.257926 -0.098968 0.064410 -0.000369 -0.778963 0.623294
1.545163 -0.219856 -0.282143 0.076963 -0.783605 0.616473
-0.020815 0.100625 0.061789 -0.000080 0.823788 0.562736
-0.800868 0.028172 0.114672 0.000023 0.198688 0.978200
-0.661415 0.100382 -0.062184 0.000038 0.873794 -0.481412
0.140497 -0.019131 0.116522 0.000164 -0.205730 0.976056
1.272855 0.089732 -0.076757 0.000364 0.780296 -0.621971
0.727255 0.089115 -0.077472 -0.000446 0.765539 -0.639815
0.055477 0.124769 -0.184160 -0.066014 -0.765803 -0.639678
0.387559 -0.034743 0.112855 0.000511 -0.236378 0.969253
-0.711961 0.073545 0.092382 -0.000207 0.581207 0.810857
0.820411 -0.116885 0.016771 -0.001282 -0.970189 0.233283
1.073399 -0.046282 0.108634 0.000556 -0.371109 0.925951
-0.740889 -0.080708 -0.086195 0.000779 -0.707117 -0.703969
-1.362257 0.059748 -0.101850 -0.000093 0.456058 -0.886872
0.379972 0.114275 0.029743 0.003217 0.959707 0.269506
0.889968 -0.075037 -0.091174 0.000090 -0.672124 -0.737233
-0.562637 0.085144 0.081815 -0.000279 0.648174 0.758379
-1.249928 0.087932 0.078812 -0.000334 0.698344 0.712501
0.450556 -0.099841 -0.063049 0.000021 -0.854911 -0.514223
1.500678 0.040195 -0.097562 0.248157 0.362175 -0.894512
-1.326641 0.055975 0.103972 -0.000099 0.501565 0.862420
-0.490893 0.066651 -0.097473 -0.000072 0.601080 -0.796234
0.044285 0.286190 -0.371500 -0.069994 0.818995 0.569516
0.022477 -0.265721 0.344745 -0.069994 -0.818995 -0.569516
-0.024278 0.188336 0.239207 -0.069994 0.818995 -0.569516
-0.542284 0.114436 -0.029114 -0.000042 0.952753 -0.296196
-1.342382 -0.116334 -0.020242 0.000125 -0.974343 -0.213368
0.200193 0.020992 0.116201 0.000535 0.218650 0.973101
0.528624 0.067776 -0.096694 0.000084 0.588731 -0.805452
1.422978 0.224739 -0.291736 -0.034412 0.834425 0.550046
-1.380764 0.088928 0.077687 -0.000008 0.773158 0.630481
-0.711961 -0.073545 0.092382 -0.000207 -0.581207 0.810857
1.105914 0.106146 0.131666 -0.034412 0.834425 -0.550046
0.738329 -0.078096 0.088568 -0.000381 -0.616046 0.785089
0.467503 -0.044586 0.109341 -0.001223 -0.461612 0.884162
-0.284315 0.044819 -0.109246 -0.000490 0.409291 -0.909608
-1.199162 0.115750 0.023351 -0.000687 0.950811 0.299571
-1.112379 -0.111266 -0.039539 0.000262 -0.905056 -0.419376
0.536552 -0.095446 -0.069522 -0.000020 -0.761051 -0.645095
-0.491482 -0.091791 -0.074282 0.000068 -0.804590 -0.589823
0.266238 0.102441 -0.128202 0.074297 0.792034 0.605939
-1.252794 0.073107 -0.092729 -0.000153 0.575167 -0.814982
0.351317 -0.065152 -0.098482 0.000157 -0.488237 -0.869999
0.235416 0.106968 -0.050012 -0.000453 0.859012 -0.507370
-0.118198 0.131450 -0.168945 -0.069994 0.818995 0.569516
0.245066 -0.113059 -0.034074 -0.000052 -0.940624 -0.332458
0.671154 0.075943 -0.090421 0.000316 0.709470 -0.701434
-0.768609 0.091370 -0.074799 -0.000454 0.740537 -0.668784
0.999813 0.105596 -0.052848 -0.000024 0.914672 -0.398604
0.158793 0.116291 -0.020488 0.002441 0.963784 -0.255198
0.554018 -0.025931 -0.115200 -0.001159 -0.286993 -0.955254
-1.392488 0.112316 -0.036448 -0.000128 0.962812 -0.260492
0.830815 0.113134 -0.033822 0.000082 0.979010 -0.191918
-1.550408 0.045359 -0.078987 -0.416568 0.341979 -0.836473
-0.140082 0.116857 -0.016967 -0.001158 0.993582 -0.092668
0.261786 -0.174779 -0.234346 0.070066 0.792277 -0.606125
0.998834 -0.019479 0.116464 0.003299 -0.201420 0.976893
-0.954742 0.092510 -0.073384 -0.000791 0.757189 -0.649872
-0.621553 0.116187 0.021071 0.000273 0.972964 0.219234
1.382632 0.170000 0.231347 -0.034412 -0.749176 0.661476
0.879781 0.061197 -0.100986 -0.000008 0.558937 -0.826351
0.634276 -0.051455 0.106282 -0.000002 -0.517987 0.852738
1.161646 0.105482 0.053074 0.000009 0.856323 0.511895
0.876003 -0.106957 0.050036 -0.000178 -0.882562 0.465201
0.213751 -0.087234 -0.125468 0.070066 0.792277 -0.606125
1.310864 0.080299 0.086576 0.000345 0.694850 0.715914
0.885647 0.113129 0.033840 0.000089 0.923759 0.376819
-0.050697 0.149972 -0.187285 -0.069994 0.818995 0.569516
1.076704 0.057882 -0.102922 0.000681 0.537336 -0.840752
0.672191 -0.111117 0.039956 -0.000157 -0.902246 0.425337
-0.996640 0.040355 -0.110972 -0.000249 0.281403 -0.956410
0.060458 -0.195579 0.269445 -0.066014 0.765803 0.639678
-0.752077 -0.044459 0.109393 0.001083 -0.411425 0.908505
0.346884 0.083975 0.083015 -0.000374 0.745930 0.662787
1.171552 -0.116027 -0.021936 0.001049 -0.971823 -0.225564
0.102793 0.140107 -0.207405 0.023411 -0.784485 -0.618658
0.622528 -0.014278 -0.117216 0.000630 -0.178755 -0.981851
0.438019 0.058083 -0.102809 0.000146 0.509382 -0.857796
-0.484194 -0.114591 -0.028500 0.000997 -0.940904 -0.332169
1.425748 -0.208037 0.266226 -0.034412 -0.834425 -0.550046
1.066512 0.105531 -0.133198 -0.034412 0.834425 0.550046
0.098409 -0.173721 -0.247194 -0.066014 0.765803 -0.639678
1.411002 0.230810 0.301695 -0.034412 -0.749176 0.661476
1.382632 0.170000 -0.231347 -0.034412 -0.749176 -0.661476
0.605298 0.099085 0.064230 -0.000324 0.855815 0.513083
-0.621533 -0.100578 -0.061867 -0.000074 -0.875147 -0.478949
1.363340 0.060762 -0.079423 -0.000000 -0.607619 0.794229
0.088580 0.109095 0.045183 0.000089 0.901097 0.428118
-0.057137 0.049156 0.107364 0.000399 0.348562 0.934840
-0.140477 -0.030022 -0.114202 -0.001969 -0.342110 -0.937236
0.217743 -0.256438 -0.346175 0.070066 0.792277 -0.606125
-0.052545 -0.215032 -0.281072 -0.066014 0.765803 -0.639678
0.510513 0.000000 -0.118082 -0.005151 -0.103676 -0.991578
0.184875 0.201843 -0.248155 0.074297 0.792034 0.605939
0.023186 -0.141428 -0.165918 -0.069994 -0.818995 0.569516
1.185818 -0.134669 0.181094 -0.034412 0.749176 0.661476
0.230341 -0.199963 -0.270900 0.070066 0.792277 -0.606125
0.010259 0.099503 0.107216 -0.069994 0.818995 -0.569516
0.546082 -0.054926 0.104530 0.000179 -0.408265 0.910249
0.244725 0.422552 0.560186 -0.023898 -0.775308 0.630344
0.911564 -0.031211 0.113883 -0.000521 -0.273047 0.959426
1.495214 0.103519 0.142856 0.076963 -0.799996 0.595049
1.431184 -0.025618 -0.115269 0.001156 -0.248358 -0.965394
1.467763 0.064770 0.093715 0.248292 0.620094 0.740530
0.312734 0.460661 0.602138 -0.000000 0.607619 0.794229
1.041220 -0.097384 0.122421 -0.034412 -0.834425 -0.550046
0.073267 -0.317554 0.413042 -0.069994 -0.818995 -0.569516
0.201975 0.390943 -0.517933 -0.066014 -0.765803 -0.639678
0.149628 -0.066729 0.097419 0.000040 -0.602664 0.795055
0.067310 -0.097710 0.097626 -0.025107 -0.812033 -0.581885
-0.317365 -0.069265 0.095633 0.000202 -0.552534 0.830472
-0.093421 0.099398 0.119808 -0.069994 0.818995 -0.569516
0.312734 0.363433 -0.475050 0.074297 0.792034 0.605939
0.532247 0.114598 0.028473 -0.000528 0.954109 0.292290
1.072266 0.129844 0.169721 -0.034412 -0.749176 0.661476
0.260886 0.151575 0.191769 0.074297 0.792034 -0.605939
1.439909 -0.146116 -0.207277 0.039872 0.784313 -0.618211
-0.054793 0.057468 -0.103154 -0.000219 0.517010 -0.853245
0.083321 -0.287053 -0.381314 -0.066014 0.765803 -0.639678
-0.954285 0.029256 0.114400 0.000042 0.203471 0.977264
-1.003842 -0.035731 0.112546 -0.001899 -0.235586 0.969387
0.025880 -0.117227 0.014186 -0.000112 -0.983938 0.167003
1.504448 0.088789 -0.110459 0.076963 0.783605 0.616473
0.091902 -0.061345 -0.100897 -0.000065 -0.550030 -0.832548
0.026393 -0.105394 -0.113705 -0.069994 -0.818995 0.569516
0.291173 0.207601 -0.273851 0.070066 -0.792277 -0.606125
-1.331338 0.000000 -0.118082 0.000140 -0.126195 -0.987947
-0.118726 0.100412 0.062135 -0.000106 0.873931 0.481556
-0.550553 -0.118082 0.000000 0.000119 -0.995109 -0.075026
0.119147 -0.108567 0.118173 0.074297 -0.792034 -0.605939
0.179673 -0.308394 -0.386792 0.026204 -0.802563 0.594923
0.312734 -0.363433 0.475050 0.070066 0.792277 0.606125
-1.401918 -0.059185 -0.102179 -0.000153 -0.581204 -0.810869
-0.880594 0.084909 0.082060 0.000115 0.684014 0.726314
1.246801 0.151875 0.203753 -0.034412 -0.749176 0.661476
0.312734 -0.108209 0.141442 0.070066 0.792277 0.606125
0.171401 -0.373759 0.481806 -0.069994 -0.818995 -0.569516
0.132820 0.389019 -0.508494 -0.069994 0.818995 0.569516
0.724925 0.117046 -0.015610 -0.000811 0.978939 -0.194145
-1.271277 0.000000 -0.118082 -0.000267 -0.060658 -0.994434
-1.271277 -0.000000 0.118082 0.004388 0.038655 0.997724
0.231430 0.189627 0.237896 0.074297 0.792034 -0.605939
0.194646 0.405477 0.534577 -0.066014 -0.765803 0.639678
-1.568579 0.066920 0.045625 -0.547671 0.725955 0.405938
0.043431 0.234780 0.314618 -0.066014 -0.765803 0.639678
1.260879 -0.111243 -0.129703 -0.034412 -0.834425 0.550046
1.024796 -0.055709 -0.083288 -0.000000 0.607619 0.794229
0.075280 0.171685 0.242369 -0.066014 -0.765803 0.639678
0.725595 0.088025 0.078708 -0.000386 0.683652 0.727059
1.497141 -0.103525 0.142614 0.076963 0.799996 0.595049
-0.727738 0.117055 -0.015538 -0.000420 0.972012 -0.225914
1.449587 -0.102780 -0.121394 0.076963 -0.783605 0.616473
-0.060930 -0.113992 0.030808 0.000290 -0.949430 0.306695
0.074219 -0.159887 0.228136 -0.066014 0.765803 0.639678
1.534012 0.031719 0.016071 1.000000 0.000000 -0.000000
-1.391398 -0.000000 0.118082 -0.001604 0.041234 0.997438
-1.094628 0.116151 0.021265 -0.000628 0.954482 0.287650
1.483447 0.108797 -0.015647 0.245550 0.943049 -0.214652
1.336834 0.134558 -0.160321 -0.034412 0.834425 0.550046
0.266418 0.338143 -0.436314 0.074297 0.792034 0.605939
0.128561 0.233660 -0.322063 -0.066014 -0.765803 -0.639678
1.534012 -0.000000 0.058205 1.000000 -0.000000 0.000000
0.741834 -0.117461 -0.012093 -0.002193 -0.995469 -0.074483
0.137122 -0.114351 -0.169770 0.070066 0.792277 -0.606125
1.024930 0.014050 -0.117243 0.000206 0.202538 -0.977454
0.155648 -0.201738 0.281854 0.070066 0.792277 0.606125
0.733528 0.016507 0.116922 0.001002 0.177957 0.981921
0.178896 0.058065 -0.102819 0.000031 0.410162 -0.909612
-0.671127 -0.108393 -0.046844 0.000042 -0.873308 -0.482332
0.079432 0.079378 0.087421 0.000009 0.704948 0.705909
-0.964295 -0.093843 0.071672 -0.000260 -0.766677 0.638920
0.017814 0.164785 -0.228179 -0.066014 -0.765803 -0.639678
0.141440 -0.143877 0.207865 0.070066 0.792277 0.606125
1.441365 -0.209928 -0.268118 -0.034412 -0.834425 0.550046
-0.277665 -0.013230 -0.117338 -0.004542 -0.192393 -0.979584
-0.325741 0.103814 -0.056267 0.000030 0.916579 -0.394579
0.478111 0.013205 0.117341 -0.001620 0.166636 0.983987
1.086557 -0.110752 -0.040955 0.000815 -0.900655 -0.429391
-0.028648 -0.184588 0.247091 -0.066014 0.765803 0.639678
-0.983381 0.073388 0.092507 0.000662 0.575463 0.815367
0.101756 0.322624 0.416832 -0.069994 0.818995 -0.569516
1.114141 0.085397 -0.081551 -0.000159 0.751821 -0.656222
1.420108 -0.077643 -0.085763 0.076963 -0.783605 0.616473
1.188614 -0.051218 -0.086724 -0.000000 0.607619 0.794229
1.211572 0.030668 -0.114030 0.000297 0.216708 -0.974249
0.803731 -0.037139 -0.112089 0.000036 -0.323345 -0.943836
-0.158147 0.074097 -0.091940 -0.000133 0.670440 -0.738737
-0.061239 -0.102493 -0.120303 -0.069994 -0.818995 0.569516
-0.570573 -0.000000 0.118082 0.000194 0.060205 0.994518
1.355628 -0.110997 -0.163117 -0.034412 0.749176 -0.661476
-0.069325 0.115351 -0.025248 -0.000349 0.960373 -0.271464
0.296749 0.039719 0.111201 0.000384 0.388893 0.918546
0.296749 -0.039719 0.111201 0.000384 -0.388893 0.918546
0.272362 -0.274063 -0.362899 0.070066 0.792277 -0.606125
1.125751 -0.145786 -0.190559 -0.034412 -0.834425 0.550046
1.185818 0.139558 0.177354 -0.034412 0.834425 -0.550046
0.269582 -0.399496 -0.527176 0.070066 0.792277 -0.606125
0.138276 -0.230774 -0.280257 0.026204 -0.802563 0.594923
1.015240 0.087459 0.108990 -0.034412 0.834425 -0.550046
1.346791 -0.062447 0.102565 0.000000 0.794229 0.607619
0.148712 0.109682 0.162328 0.070066 -0.792277 0.606125
1.547396 -0.243753 0.312798 0.042530 -0.800632 -0.596853
-0.013087 0.202228 -0.257809 -0.069994 0.818995 0.569516
1.030549 0.088390 -0.109445 -0.034412 0.834425 0.550046
-1.617280 0.000000 -0.042584 -0.688533 -0.050795 -0.719274
0.019853 -0.019624 -0.116440 0.001082 -0.255102 -0.964350
1.433510 0.114720 -0.027977 -0.000399 0.950689 -0.302012
0.136720 -0.354318 0.458112 -0.069994 -0.818995 -0.569516
0.206096 -0.144967 -0.201815 0.070066 0.792277 -0.606125
1.113875 -0.120885 0.153527 -0.034412 -0.834425 -0.550046
1.105770 0.111155 -0.039849 0.000796 0.920947 -0.384035
0.255604 -0.201961 0.256982 0.074297 -0.792034 -0.605939
-0.261354 -0.093555 -0.072048 -0.000184 -0.769170 -0.636017
0.291851 0.129100 0.166188 0.074297 0.792034 -0.605939
1.260906 -0.081375 0.124640 -0.034412 0.749176 0.661476
0.670674 0.118082 -0.000000 -0.000714 0.989374 0.121984
0.285008 -0.014226 -0.117222 0.000141 -0.175796 -0.982445
0.905632 0.014226 0.117222 0.000141 0.175796 0.982445
-1.621310 -0.036905 0.010744 -0.739186 -0.629705 0.224581
0.065501 0.128024 0.141442 -0.069994 0.818995 -0.569516
0.208777 0.242983 -0.329624 0.070066 -0.792277 -0.606125
0.282565 0.434760 -0.564583 0.074297 0.792034 0.605939
-0.897722 0.029497 0.114338 -0.000236 0.205952 0.976706
-1.032838 0.110642 -0.041252 0.000502 0.898524 -0.433671
0.114949 -0.322598 -0.427132 -0.066014 0.765803 -0.639678
0.312734 0.217591 0.284417 0.070066 -0.792277 0.606125
1.467618 0.219658 -0.281235 -0.034412 0.834425 0.550046
0.101756 0.322624 -0.416832 -0.069994 0.818995 0.569516
0.193349 0.286890 -0.388800 0.070066 -0.792277 -0.606125
0.150104 0.252951 0.310696 -0.025338 0.812178 -0.581901
0.206848 0.256395 0.347379 0.070066 -0.792277 0.606125
-1.431438 0.118082 -0.000000 -0.034886 0.994852 0.052658
0.963364 -0.057394 -0.082000 -0.000000 0.607619 0.794229
0.150009 0.349775 -0.449945 -0.069994 0.818995 0.569516
-0.335444 -0.117092 0.015261 -0.000125 -0.972199 0.224918
0.140779 -0.260521 -0.355481 -0.066014 0.765803 -0.639678
-1.093955 -0.041087 -0.110703 -0.000229 -0.385668 -0.919733
0.267187 -0.094203 0.071198 0.000624 -0.760281 0.646075
-0.034499 0.115262 -0.163492 -0.066014 -0.765803 -0.639678
1.463801 0.216948 0.288742 -0.034412 -0.749176 0.661476
0.763539 0.117513 0.011580 0.002874 0.983141 0.173383
-1.556780 -0.081325 -0.032993 -0.503709 -0.771298 -0.380816
-0.838195 -0.095107 -0.069986 0.001130 -0.739042 -0.668486
1.411418 -0.118082 -0.000000 -0.002216 -0.993590 -0.091752
0.183790 -0.383747 -0.507442 -0.066014 0.765803 -0.639678
0.043431 0.234780 -0.314618 -0.066014 -0.765803 -0.639678
-0.005451 -0.074021 -0.117117 -0.066014 0.765803 -0.639678
-0.013997 -0.087227 0.132045 -0.066014 0.765803 0.639678
1.250919 -0.050657 0.087154 -0.005740 0.786917 0.616757
1.210117 0.094681 0.070561 -0.000013 0.811810 0.579849
1.527820 0.175160 -0.234953 0.076963 -0.799996 -0.595049
1.527820 0.175159 0.234953 0.076963 -0.799996 0.595049
0.191501 0.330572 -0.417231 -0.021893 0.811550 0.582782
-1.171177 0.000000 -0.118082 -0.000075 -0.120171 -0.989079
0.191468 -0.236817 0.323565 0.070066 0.792277 0.606125
0.326138 -0.097806 -0.066161 0.000336 -0.815889 -0.574078
0.140779 0.260521 -0.355481 -0.066014 -0.765803 -0.639678
0.089543 0.071985 -0.093603 -0.000000 -0.607619 0.794229
1.392137 0.125427 -0.143009 0.038243 0.801119 0.596285
1.376401 -0.070867 -0.071692 0.048882 -0.787860 0.613532
1.382696 0.092691 0.100219 0.055729 0.786929 -0.614331
1.534012 -0.089600 0.037180 1.000000 0.000000 -0.000000
-0.115905 -0.088497 -0.123049 -0.066014 0.765803 -0.639678
0.590593 -0.118082 -0.000000 -0.001178 -0.991734 -0.105065
1.337223 -0.088849 0.137075 -0.022950 0.764588 0.643847
0.239594 0.092524 0.111972 0.074297 0.792034 -0.605939
0.161520 0.324380 0.434072 -0.066014 -0.765803 0.639678
-0.416121 -0.117302 -0.013548 -0.000418 -0.984881 -0.162032
0.010128 0.071537 -0.093946 -0.000000 -0.607619 0.794229
1.351520 -0.141431 0.197373 -0.034412 0.749176 0.661476
0.067310 -0.097710 -0.097626 0.022990 -0.803046 0.594027
1.426281 0.171584 0.210893 -0.034412 0.834425 -0.550046
-0.238692 -0.112999 0.034272 -0.000013 -0.969132 0.237134
-0.085431 0.117954 0.161460 -0.066014 -0.765803 0.639678
0.185587 -0.319483 0.402012 -0.021893 -0.811550 -0.582782
0.173579 -0.409648 0.533150 -0.069994 -0.818995 -0.569516
1.280747 0.104695 -0.118527 -0.034412 0.834425 0.550046
-0.681892 0.022090 0.115997 -0.000113 0.301837 0.949678
-1.529407 0.100511 -0.000000 -0.327367 0.936537 -0.071855
1.315036 -0.178756 -0.228734 -0.034412 -0.834425 0.550046
0.416889 0.016497 -0.116924 -0.003245 0.209497 -0.975615
0.271813 0.297647 -0.393790 0.070066 -0.792277 -0.606125
1.463795 -0.180039 -0.221373 0.039872 -0.801858 0.595277
-0.100489 0.020021 0.116372 0.000301 0.211113 0.974876
-0.166195 -0.035328 0.112673 -0.000412 -0.350410 0.934159
1.246801 0.151875 -0.203753 -0.034412 -0.749176 -0.661476
1.504448 -0.083385 -0.114593 0.076963 0.799996 -0.595049
1.295687 -0.121457 -0.171845 -0.034412 0.749176 -0.661476
0.053884 0.275471 0.354907 -0.069994 0.818995 -0.569516
0.109175 -0.091670 0.074431 -0.000029 -0.831723 0.550919
1.542894 -0.180161 -0.231403 0.076963 -0.783605 0.616473
0.215045 -0.420343 -0.543433 -0.069994 -0.818995 0.569516
0.031622 0.132592 0.191063 -0.066014 -0.765803 0.639678
-0.020662 0.129685 0.182187 -0.066014 -0.765803 0.639678
0.078512 0.184934 -0.258565 -0.066014 -0.765803 -0.639678
0.230239 0.219847 0.277250 0.074297 0.792034 -0.605939
0.270272 -0.000000 0.118082 0.000866 0.113013 0.990349
0.209242 -0.363838 0.462889 -0.025338 -0.812178 -0.581901
0.156100 0.170228 0.240614 0.070066 -0.792277 0.606125
1.553627 -0.273322 -0.357263 -0.015832 -0.826611 0.561590
1.188097 0.116323 -0.020304 0.000651 0.959681 -0.271354
0.004167 -0.181029 -0.246217 -0.066014 0.765803 -0.639678
1.473620 -0.140227 0.194999 0.076963 0.799996 0.595049
-0.380567 0.117407 0.012606 -0.001938 0.984238 0.169727
0.710714 0.000000 -0.118082 -0.000856 -0.113306 -0.990079
1.125582 -0.081494 -0.117735 -0.034412 0.749176 -0.661476
1.373440 -0.016911 -0.116865 -0.001054 -0.176059 -0.982288
0.128561 -0.233660 -0.322063 -0.066014 0.765803 -0.639678
-1.023810 -0.103490 -0.056861 0.000333 -0.851912 -0.519238
-0.930935 0.118082 -0.000000 -0.000571 0.988250 0.129454
0.127359 -0.141429 0.162135 0.074297 -0.792034 -0.605939
0.286303 -0.147914 -0.190101 0.074297 -0.792034 0.605939
1.558379 -0.120298 0.157244 0.076963 -0.783605 -0.616473
1.161104 0.087503 -0.126388 -0.034412 -0.749176 -0.661476
1.054438 -0.124530 -0.162775 -0.034412 -0.834425 0.550046
0.156156 0.102791 0.115162 0.074297 0.792034 -0.605939
-1.488878 0.086140 0.072872 -0.259437 0.731807 0.621860
-0.294180 0.071095 0.094281 -0.001547 0.510555 0.856519
0.929641 -0.087332 -0.114153 -0.034412 -0.834425 0.550046
0.270272 -0.118082 -0.000000 0.000060 -0.996452 -0.053467
0.016746 0.111255 -0.163984 -0.066014 -0.765803 -0.639678
0.173737 0.102271 -0.116637 0.074297 0.792034 0.605939
0.095555 0.109116 -0.115998 0.074297 0.792034 0.605939
0.860977 0.060200 0.079852 -0.000000 -0.607619 -0.794229
1.321861 0.204240 -0.266965 -0.034412 0.834425 0.550046
0.140779 -0.260521 0.355481 -0.066014 0.765803 0.639678
1.321861 0.204240 0.266965 -0.034412 -0.749176 0.661476
1.516676 0.113684 -0.143630 0.076963 0.783605 0.616473
0.343209 0.029770 -0.114268 -0.000667 0.337873 -0.938740
1.168137 0.051780 0.086295 -0.000000 -0.607619 -0.794229
-0.072171 -0.130678 0.178060 -0.066014 0.765803 0.639678
1.451852 0.156341 -0.219479 0.039872 -0.784313 -0.618211
-0.318688 -0.085089 -0.081873 -0.000208 -0.780728 -0.621362
0.168319 0.253219 -0.313280 0.074297 0.792034 0.605939
1.408646 -0.125063 0.144608 0.076963 -0.783605 -0.616473
1.479909 -0.223108 -0.296557 -0.034412 0.749176 -0.661476
-1.509489 0.049272 0.095515 -0.305969 0.359961 0.876996
-0.886830 0.090537 -0.075805 -0.000384 0.703223 -0.708051
0.019447 -0.238987 0.306673 -0.069994 -0.818995 -0.569516
1.522926 -0.203473 0.258543 0.076963 -0.783605 -0.616473
-0.028373 0.093221 -0.102931 -0.069994 0.818995 0.569516
0.228949 -0.446860 0.579858 -0.069994 -0.818995 -0.569516
1.222914 0.108132 0.127359 -0.034412 0.834425 -0.550046
-1.412485 -0.112382 -0.036244 -0.000033 -0.963412 -0.258404
0.292693 -0.193914 -0.255784 0.070066 0.792277 -0.606125
-1.210081 -0.117723 0.009196 -0.000601 -0.986781 0.154487
1.352285 0.101069 -0.111170 -0.000000 0.794229 0.607619
0.350352 0.118082 -0.000000 -0.000582 0.995967 0.052888
0.963364 0.064130 -0.076846 -0.034412 0.834425 0.550046
0.313938 0.105003 -0.054016 0.000512 0.876072 -0.477638
0.267692 0.248371 -0.319127 0.074297 0.792034 0.605939
-0.240923 0.101455 0.060417 -0.000287 0.875051 0.480207
0.156156 -0.102797 -0.115169 0.074297 -0.792034 0.605939
0.215045 -0.420343 0.543433 -0.069994 -0.818995 -0.569516
1.336834 0.119538 0.171812 -0.034412 -0.749176 0.661476
0.949279 0.042644 0.110113 0.000700 0.373277 0.925082
0.714007 -0.112483 0.035930 -0.000222 -0.916092 0.394901
-0.383033 -0.103903 0.056103 -0.000084 -0.826349 0.558992
1.363340 0.060762 0.079423 -0.000000 -0.607619 -0.794229
1.534012 -0.036953 -0.089694 1.000000 0.000000 0.000000
1.352285 0.080859 0.126632 -0.000000 -0.794229 0.607619
1.352285 -0.101069 -0.111170 -0.000000 -0.794229 0.607619
0.220008 0.152021 -0.209428 0.070066 -0.792277 -0.606125
0.045638 -0.206928 -0.281503 -0.066014 0.765803 -0.639678
0.176402 0.158267 0.190157 0.074297 0.792034 -0.605939
1.391398 -0.000000 0.118082 -0.004732 0.091582 0.993359
-1.553642 -0.080965 0.037972 -0.440210 -0.754968 0.476539
0.132735 0.167444 -0.196798 0.074297 0.792034 0.605939
1.379898 0.116913 0.016577 0.001490 0.994834 0.076426
0.011021 0.117118 -0.015058 0.000014 0.980206 -0.185515
1.261376 0.060762 0.079423 -0.000000 -0.607619 -0.794229
1.149413 -0.116420 0.019742 -0.000333 -0.967219 0.242460
1.451458 0.102223 0.059109 0.084075 0.900189 0.417192
0.107019 -0.233064 0.319127 -0.066014 0.765803 0.639678
-1.490821 -0.066594 -0.090550 -0.243330 -0.660020 -0.704275
-0.059296 -0.116652 -0.162597 -0.066014 0.765803 -0.639678
1.487681 0.198243 0.247494 0.039872 0.801858 -0.595277
1.487681 0.198243 -0.247494 0.039872 0.801858 0.595277
1.300614 -0.077937 -0.122812 -0.011479 0.779605 -0.625895
0.140456 -0.114473 -0.028972 -0.000108 -0.946591 -0.315341
-0.950956 -0.118082 0.000000 -0.000090 -0.997094 -0.033484
0.215156 -0.363709 -0.486690 0.027958 0.785396 -0.617558
1.279184 0.101542 0.148431 -0.034412 -0.749176 0.661476
-0.900462 -0.039666 -0.111220 0.000398 -0.374749 -0.924910
0.281636 0.272561 0.352456 0.074297 0.792034 -0.605939
-1.500726 -0.102276 -0.040421 -0.204427 -0.901252 -0.371956
-1.593851 0.030499 0.055634 -0.582453 0.323604 0.738958
1.534012 0.018715 0.095185 0.245447 0.058083 0.964145
-0.552428 -0.072488 0.093214 0.000226 -0.569203 0.819254
-0.270272 -0.000000 0.118082 0.000072 0.127976 0.987553
1.332262 0.149913 0.205977 -0.034412 -0.749176 0.661476
0.118469 0.259579 0.352051 -0.066014 -0.765803 0.639678
0.061113 -0.020583 -0.116274 -0.000136 -0.223472 -0.971662
-0.830835 -0.000000 0.118082 -0.000251 0.039521 0.997649
-1.421492 0.028172 -0.114672 0.000273 0.202934 -0.977388
0.826517 0.046231 -0.108655 0.000113 0.434757 -0.897819
1.288247 0.163881 0.219507 -0.034412 -0.749176 0.661476
0.177399 0.064199 0.099560 0.000000 -0.607619 -0.794229
0.070462 -0.147847 0.169339 -0.069994 -0.818995 -0.569516
0.209735 -0.308358 -0.414967 0.070066 0.792277 -0.606125
0.284964 -0.098610 -0.064957 0.000649 -0.859553 -0.506356
0.180809 -0.275302 0.343676 0.074297 -0.792034 -0.605939
0.042980 -0.260393 -0.345235 -0.066014 0.765803 -0.639678
0.199787 0.116885 -0.016771 -0.001282 0.970189 -0.233283
1.188614 -0.070305 0.072122 -0.034412 -0.834425 -0.550046
-0.302492 0.114019 0.030709 0.000160 0.948932 0.308508
0.202494 -0.229837 -0.313167 0.070066 0.792277 -0.606125
0.137129 0.125615 -0.184494 0.070066 -0.792277 -0.606125
-1.451458 0.090540 -0.075801 -0.077317 0.814070 -0.568919
-1.183098 -0.104776 -0.054456 0.000230 -0.863265 -0.500038
1.535453 0.234651 0.299737 0.037214 0.803057 -0.593682
1.535453 0.234651 -0.299737 0.039872 0.801858 0.595277
-1.418772 -0.050693 0.106647 -0.000308 -0.328438 0.941579
1.376401 -0.070867 0.071692 0.048882 -0.787860 -0.613532
1.004318 0.065253 0.075987 -0.000000 -0.607619 -0.794229
0.078118 0.233927 -0.292185 -0.069994 0.818995 0.569516
0.547511 -0.116994 -0.015994 -0.003062 -0.977180 -0.200648
0.182260 -0.276785 -0.345793 0.074297 -0.792034 0.605939
1.257753 -0.125146 0.174050 -0.034412 0.749176 0.661476
1.334925 -0.134819 -0.189020 -0.034412 0.749176 -0.661476
1.086228 -0.067498 0.074269 -0.034412 -0.834425 -0.550046
-0.086266 -0.053218 0.105410 0.001386 -0.511056 0.857782
0.271449 0.177792 0.237167 0.070066 -0.792277 0.606125
1.534012 0.080608 0.053971 0.252591 0.851041 0.453566
0.226716 -0.144965 0.199429 0.070066 0.792277 0.606125
0.470473 -0.118082 -0.000000 0.003018 -0.994493 -0.081288
0.055477 -0.124769 -0.184160 -0.066014 0.765803 -0.639678
-1.570531 -0.039071 -0.069572 -0.492919 -0.481190 -0.717371
1.317646 -0.113191 0.163626 -0.034412 0.749176 0.661476
0.272651 0.186997 -0.239513 0.074297 0.792034 0.605939
1.029909 -0.112206 -0.036786 0.000061 -0.931975 -0.356025
-1.494585 -0.109981 0.018511 -0.216915 -0.935189 0.265600
-1.418383 0.050357 0.106806 -0.000129 0.326883 0.942170
-1.031036 -0.000000 0.118082 -0.000150 0.032876 0.998374
1.492054 0.135564 0.168368 0.076963 0.783605 -0.616473
1.492054 0.135564 -0.168368 0.076963 0.783605 0.616473
0.272816 0.404043 -0.523237 0.074297 0.792034 0.605939
-0.947717 -0.055326 -0.104319 0.000414 -0.423348 -0.903316
-0.948881 0.021708 -0.116069 -0.000073 0.229345 -0.970349
1.534012 0.022642 -0.023293 1.000000 -0.000000 0.000000
-0.232896 -0.054373 0.104819 0.000433 -0.413019 0.908091
0.910734 -0.112918 -0.034538 0.000021 -0.938767 -0.337569
1.544455 0.072022 0.094141 0.076963 0.783605 -0.616473
1.579264 0.192712 0.251897 0.076963 0.783605 -0.616473
1.586226 -0.216850 -0.283448 0.076963 -0.783605 0.616473
1.579264 0.192712 -0.251897 0.076963 -0.799996 -0.595049
1.600150 -0.265126 -0.346550 0.058417 -0.792732 0.605875
1.565341 -0.144436 0.188795 0.076963 -0.783605 -0.616473
1.568821 -0.156505 -0.204570 0.076963 -0.783605 0.616473
0.910915 0.000000 -0.118082 0.000269 -0.080421 -0.995131
0.262467 -0.457857 -0.604284 0.054965 0.789928 -0.610320
1.589707 -0.228919 0.299224 0.076963 -0.783605 -0.616473
1.296680 -0.084507 0.089521 -0.005740 -0.801136 -0.598171
0.073224 -0.081265 -0.133909 0.024710 0.784778 -0.618370
0.753299 -0.018463 0.116630 0.001636 -0.194695 0.978564
-0.364731 -0.020667 0.116259 -0.000270 -0.228539 0.970434
-0.007861 -0.107225 -0.049460 -0.000715 -0.866194 -0.495587
-1.111116 -0.118082 0.000000 0.000090 -0.995151 -0.050933
1.127182 -0.068621 0.073410 -0.034412 -0.834425 -0.550046
0.605642 0.022107 -0.115994 -0.001474 0.271579 -0.959233
-0.041641 -0.225267 0.294450 -0.069994 -0.818995 -0.569516
-0.128872 -0.143391 -0.187428 -0.066014 0.765803 -0.639678
0.111013 0.368550 0.481739 -0.066014 -0.765803 0.639678
0.154628 -0.409489 -0.535249 -0.066014 0.765803 -0.639678
-0.172487 -0.102452 0.133917 -0.069994 -0.818995 -0.569516
-0.150680 -0.122921 -0.160673 -0.066014 0.765803 -0.639678
-0.194295 -0.081983 -0.107162 -0.066014 0.765803 -0.639678
-0.074353 0.194563 -0.254317 -0.069994 0.818995 0.569516
-0.030737 -0.235501 -0.307828 -0.066014 0.765803 -0.639678
0.111013 -0.368550 -0.481739 -0.066014 0.765803 -0.639678
-0.183391 0.092218 -0.120540 -0.069994 0.818995 0.569516
0.209147 0.460661 0.602138 -0.066014 -0.765803 0.639678
0.187340 0.440192 -0.575383 -0.069994 0.818995 0.569516
0.071320 -0.112060 -0.037228 -0.000852 -0.926665 -0.369321
-1.495921 0.109354 -0.020200 -0.218472 0.932464 -0.273620
0.299901 0.154565 -0.200461 0.074297 0.792034 0.605939
-0.241720 0.090681 -0.075633 0.000087 0.743897 -0.664673
0.268290 -0.214540 -0.285566 0.070066 0.792277 -0.606125
0.900624 0.106694 -0.050593 0.000032 0.879779 -0.470346
1.091096 0.118082 -0.000000 0.002207 0.994436 0.076554
-1.231237 -0.000000 0.118082 0.000547 0.120732 0.988965
-1.011016 0.118082 -0.000000 0.002120 0.995596 0.056017
0.390392 -0.118082 -0.000000 -0.001486 -0.996192 -0.051766
-0.010010 -0.000000 0.118082 0.000003 0.048473 0.996457
-0.530533 -0.000000 0.118082 0.000183 0.059571 0.994633
-0.710714 0.000000 -0.118082 -0.004070 -0.057349 -0.995012
1.291297 -0.000000 0.118082 0.000745 0.035447 0.998105
-1.291297 -0.118082 0.000000 -0.001025 -0.995413 -0.054935
-1.348042 0.116635 0.018428 0.001559 0.973966 0.214456
0.937211 -0.111469 0.038961 0.000430 -0.914000 0.401189
1.470810 -0.199037 0.249755 -0.034412 -0.834425 -0.550046
0.312734 -0.168977 0.220873 0.070066 0.792277 0.606125
0.312734 0.326973 0.427391 0.070066 -0.792277 0.606125
0.312734 -0.314819 -0.411505 0.074297 -0.792034 0.605939
0.312734 0.181130 0.236759 0.070066 -0.792277 0.606125
0.312734 0.387740 -0.506822 0.074297 0.792034 0.605939
0.312734 0.096056 -0.125556 0.074297 0.792034 0.605939
0.312734 -0.096056 -0.125556 0.074297 -0.792034 0.605939
0.312734 -0.363433 -0.475050 0.074297 -0.792034 0.605939
0.312734 0.266205 -0.347961 0.074297 0.792034 0.605939
0.312734 -0.460661 0.602138 -0.000000 -0.607619 0.794229
-0.190191 0.118082 -0.000000 -0.001178 0.996648 0.040891
-1.322760 -0.085899 -0.081023 0.000018 -0.692376 -0.718266
-0.500761 -0.116373 0.020018 0.000564 -0.958841 0.273513
-0.233065 -0.034743 -0.112855 0.000511 -0.236378 -0.969253
-0.571425 0.090940 -0.075321 0.000042 0.703064 -0.707799
0.046181 0.126581 -0.141741 -0.069994 0.818995 0.569516
-0.819400 -0.113458 -0.032720 -0.001649 -0.925485 -0.372038
0.648227 -0.055013 -0.104484 -0.000113 -0.543984 -0.836299
0.100569 -0.018499 0.116624 0.000124 -0.203593 0.976526
-0.571968 -0.108783 -0.045930 -0.000048 -0.899722 -0.431009
-0.201198 0.021449 -0.116118 0.001233 0.214079 -0.974140
0.039787 0.050334 0.106817 0.000064 0.380020 0.922418
-0.166345 0.090990 0.075261 -0.000337 0.798289 0.598593
0.209821 0.204493 -0.279192 0.070066 -0.792277 -0.606125
0.233273 0.309311 0.413491 0.070066 -0.792277 0.606125
0.059777 -0.050512 0.106733 0.000083 -0.469320 0.880333
1.408266 0.047555 0.108083 0.000303 0.418273 0.905557
0.490037 0.089118 0.077469 -0.000017 0.776944 0.625805
0.477891 -0.098693 0.064830 -0.000114 -0.853432 0.516682
1.451458 -0.020531 0.116283 0.043455 -0.193230 0.976157
0.187928 0.288425 0.361702 0.074297 0.792034 -0.605939
0.920749 0.116749 -0.017694 0.000075 0.977957 -0.196944
1.018561 -0.100501 0.061991 0.000030 -0.808971 0.583824
0.438281 -0.095585 0.069331 0.000053 -0.828937 0.555084
-1.282919 -0.085770 -0.081160 -0.000108 -0.756956 -0.649840
0.095555 0.109116 0.115998 0.074297 0.792034 -0.605939
1.303280 0.110807 -0.040806 -0.000050 0.900156 -0.429990
-0.822305 0.117471 0.011995 0.001597 0.985539 0.155598
0.259488 0.121802 -0.165365 0.070066 -0.792277 -0.606125
-1.361023 -0.086854 0.079998 0.000008 -0.691621 0.719023
0.005599 -0.165524 0.202731 -0.069994 -0.818995 -0.569516
1.094335 -0.111146 0.039873 0.000331 -0.912608 0.402829
-0.520235 0.116269 0.020612 0.000142 0.972381 0.221028
1.416023 -0.125667 -0.182873 0.042530 0.785513 -0.616615
