1.477784 0.164248 -0.133439 0.057663 0.631551 0.773187
-0.968634 -0.000000 0.087607 0.002942 0.157462 0.981511
-0.019046 0.302011 0.263694 -0.130372 -0.578086 0.805494
0.094384 -0.324851 0.289379 0.078684 0.637826 0.766151
0.132380 0.177053 0.138396 0.047202 0.639097 -0.767677
-0.008070 -0.364104 -0.298569 -0.078612 -0.670181 0.738023
0.059840 0.166392 0.161009 0.078684 -0.637826 0.766151
-1.289570 -0.019237 -0.085468 -0.003194 -0.228657 -0.970249
1.354313 -0.091356 -0.087595 0.057663 0.645883 -0.761255
0.209250 0.125663 -0.100340 0.047202 0.639097 0.767677
0.104794 0.393936 -0.317257 0.047202 0.639097 0.767677
1.330065 0.220088 -0.180258 -0.023308 0.679880 0.732953
0.234353 -0.396523 0.327376 0.047202 -0.639097 -0.767677
-1.156085 0.085702 -0.018167 0.001670 0.968921 -0.233986
-0.062909 -0.116061 0.079168 -0.078612 -0.670181 -0.738023
0.805434 -0.078976 -0.037917 0.000297 -0.897911 -0.430429
1.059757 -0.088758 -0.080164 -0.023308 0.597555 -0.801490
0.303649 -0.042020 0.076872 -0.003094 -0.524407 0.845225
-1.491563 -0.030028 0.075483 -0.251060 -0.449728 0.848829
0.139412 -0.450717 0.389539 0.078684 0.637826 0.766151
0.179417 -0.070333 -0.052443 0.047202 -0.639097 0.767677
1.485978 -0.194789 -0.158997 0.057663 -0.631551 0.773187
0.145790 0.214490 0.170387 0.047202 0.639097 -0.767677
1.420527 -0.242795 0.205498 -0.023308 0.597555 0.801490
0.146862 0.524709 -0.450373 0.013901 -0.621814 -0.781516
0.038531 0.115031 0.120438 0.078684 -0.637826 0.766151
0.199864 -0.274645 0.223791 0.047202 -0.639097 -0.767677
0.133529 -0.558456 0.459973 -0.078612 -0.670181 -0.738023
1.333297 0.161401 0.125717 -0.023308 0.679880 -0.732953
-1.088465 0.000000 -0.087607 0.000472 -0.043842 -0.996303
-0.098102 0.297417 0.247601 -0.078612 0.670181 -0.738023
-1.444898 0.061441 0.062249 -0.079618 0.747701 0.650722
0.108787 0.227624 -0.206958 0.078684 -0.637826 -0.766151
0.161785 0.189875 -0.170088 0.078684 -0.637826 -0.766151
-0.062909 0.116061 -0.079168 -0.078612 0.670181 0.738023
1.313709 -0.154954 -0.120359 -0.023308 -0.679880 0.732953
0.071204 0.142924 -0.106222 0.047202 0.639097 0.767677
-0.529254 0.000000 -0.087607 0.000383 -0.149788 -0.982716
0.000093 -0.246641 -0.191034 -0.078612 -0.670181 0.738023
0.141410 0.332909 -0.268702 0.047202 0.639097 0.767677
-0.029257 0.064608 0.059319 -0.000000 -0.768533 -0.639810
0.066392 0.391009 0.341395 -0.130372 -0.578086 0.805494
-0.924836 -0.086923 -0.010921 -0.000988 -0.972533 -0.218378
0.163978 0.458193 0.393240 0.078684 -0.637826 0.766151
-0.030611 -0.153816 -0.155466 -0.130372 0.578086 -0.805494
-0.033326 0.134770 0.093007 0.005241 0.650425 -0.758905
-0.161737 0.048385 0.073033 -0.000103 0.550288 0.829597
0.264507 -0.303951 0.252163 0.047202 -0.639097 -0.767677
1.089573 -0.046336 0.074350 0.001017 -0.514702 0.851697
0.198788 0.152087 0.134829 0.078684 -0.637826 0.766151
-0.193712 0.079555 -0.075772 -0.130372 -0.578086 -0.805494
1.333297 0.152894 -0.135936 -0.023308 -0.597555 -0.801490
0.177977 -0.192511 0.170620 0.078684 0.637826 0.766151
0.143299 0.286503 0.252431 0.078684 -0.637826 0.766151
-0.885914 0.050642 0.071486 -0.000286 0.583228 0.807531
0.888116 0.078436 -0.039022 0.001116 0.901836 -0.419654
0.954051 0.035755 -0.079978 -0.001313 0.334560 -0.937653
0.114686 0.463826 0.376049 0.005241 0.650425 -0.758905
-0.074102 -0.180599 0.138966 -0.078612 -0.670181 -0.738023
-0.103638 -0.224375 0.194285 -0.130372 0.578086 0.805494
0.216859 -0.122757 -0.108556 0.078684 0.637826 -0.766151
0.049260 -0.268254 0.209210 0.047202 -0.639097 -0.767677
1.446809 0.290344 -0.241714 -0.023308 0.679880 0.732953
1.488989 -0.116224 0.098493 0.057663 0.645883 0.761255
0.152599 0.429966 -0.370909 0.078684 -0.637826 -0.766151
1.324491 -0.054338 0.068719 -0.000054 -0.702275 0.705891
0.213435 0.588398 -0.485827 0.047202 0.639097 0.767677
1.175455 0.108558 0.081720 -0.023308 0.679880 -0.732953
-0.802559 0.086672 0.012761 -0.000991 0.968330 0.235595
0.227355 0.502730 0.423808 0.078684 -0.637826 0.766151
0.561167 -0.076883 0.041998 -0.001453 -0.838601 0.537197
0.111840 0.409918 0.330995 0.047202 0.639097 -0.767677
1.433905 -0.155234 0.122805 0.057663 -0.631551 -0.773187
0.191703 -0.418409 0.357272 0.078684 0.637826 0.766151
0.689028 0.000000 -0.087607 -0.006653 -0.178289 -0.977191
0.146091 0.338313 0.295276 0.078684 -0.637826 0.766151
1.460818 -0.272632 0.228915 -0.023308 0.597555 0.801490
0.186457 -0.514846 -0.438095 0.078684 0.637826 -0.766151
1.377599 -0.117785 0.108255 0.057663 0.645883 0.761255
0.129798 0.266291 -0.212528 0.047202 0.639097 0.767677
1.047512 0.079156 0.037540 0.000830 0.899893 0.426344
0.212690 0.602488 0.497512 0.047202 0.639097 -0.767677
-0.137097 0.218073 0.179705 -0.078612 0.670181 -0.738023
0.152959 -0.351899 0.305881 0.078684 0.637826 0.766151
0.246954 -0.229907 -0.189442 0.047202 -0.639097 0.767677
0.240200 0.287440 -0.243258 0.078684 -0.637826 -0.766151
-0.404490 0.080253 -0.035134 0.000101 0.938989 -0.330760
0.309563 -0.087607 0.000000 0.001290 -0.987465 -0.124057
-0.122900 -0.096005 -0.099039 -0.130372 0.578086 -0.805494
1.501434 0.016440 0.022520 1.000000 0.000000 -0.000000
1.125740 -0.079520 0.036763 -0.000579 -0.899405 0.427594
-1.472363 0.040729 -0.074439 -0.114162 0.584131 -0.795224
0.278786 0.402310 -0.334926 0.047202 0.639097 0.767677
1.280450 -0.133891 -0.101880 -0.023308 -0.679880 0.732953
1.235842 -0.070469 -0.071650 -0.023308 0.597555 -0.801490
0.144409 0.120634 -0.092166 0.047202 0.639097 0.767677
-0.084942 0.231862 -0.186671 -0.078612 0.670181 0.738023
1.406606 0.204452 0.163319 -0.023308 0.679880 -0.732953
1.406631 -0.174517 0.154190 0.003698 0.614210 0.788764
1.381697 0.149113 -0.134524 0.030688 -0.630319 -0.775352
1.208296 0.000000 -0.087607 0.001194 -0.121489 -0.989812
-0.019854 0.260517 -0.233784 -0.130372 -0.578086 -0.805494
0.203915 0.270139 0.232582 0.078684 -0.637826 0.766151
0.965461 -0.095224 -0.076028 -0.023308 -0.679880 0.732953
-0.003819 -0.083676 0.098685 0.078684 0.637826 0.766151
0.226966 -0.095812 0.076578 0.047202 -0.639097 -0.767677
0.233739 0.677747 0.561459 0.033226 0.642977 -0.764879
-0.276805 0.019966 -0.085301 -0.003816 0.298382 -0.948725
-0.958620 0.017195 -0.085903 0.002627 0.137787 -0.986046
1.173231 -0.198848 -0.165542 -0.023308 -0.679880 0.732953
-0.141935 0.172636 -0.150955 -0.130372 -0.578086 -0.805494
0.221569 0.316724 0.269552 0.078684 -0.637826 0.766151
0.175366 -0.181397 -0.161636 0.078684 0.637826 -0.766151
1.187477 -0.085820 -0.017602 0.002546 -0.943706 -0.316977
0.011631 -0.389703 -0.331594 -0.130372 0.578086 -0.805494
0.259078 -0.484425 -0.405312 0.078684 0.637826 -0.766151
1.274973 0.086661 0.012838 0.003480 0.970452 0.228486
1.154436 -0.082022 -0.057773 -0.023308 -0.679880 0.732953
0.227214 0.448803 0.370461 0.047202 0.639097 -0.767677
1.295536 -0.125743 0.093842 -0.023308 -0.679880 -0.732953
1.341038 0.217937 0.184654 -0.023308 -0.597555 0.801490
0.029053 -0.174072 -0.129561 0.047202 -0.639097 0.767677
1.247778 -0.097192 0.068876 -0.023308 -0.679880 -0.732953
0.157188 -0.073628 0.047474 0.000118 -0.758980 0.644864
0.097619 0.298547 -0.237403 0.047202 0.639097 0.767677
1.484883 0.235893 -0.200337 0.057663 -0.645883 -0.761255
1.164957 -0.097597 0.071886 -0.023308 -0.679880 -0.732953
0.218403 0.077339 0.041153 -0.001370 0.880153 0.465940
0.018156 -0.228183 0.216731 -0.060793 0.600496 0.795606
0.015404 -0.189701 0.141733 0.047202 -0.639097 -0.767677
-0.159785 -0.146394 -0.117032 -0.078612 -0.670181 0.738023
1.501524 0.308643 -0.256948 -0.023308 0.679880 0.732953
0.015404 0.189701 -0.141733 0.047202 0.639097 0.767677
0.082376 -0.335022 -0.299080 0.078684 0.637826 -0.766151
-0.059043 0.164219 -0.122487 -0.078612 0.670181 0.738023
-1.068438 0.033670 0.080878 0.001143 0.316908 0.944196
1.417640 -0.148170 -0.115821 0.057663 -0.631551 0.773187
1.428784 0.247339 0.202395 -0.023308 0.679880 -0.732953
1.431566 -0.207218 0.165091 0.003698 -0.664346 -0.747025
0.193196 0.385097 0.329386 0.078684 -0.637826 0.766151
1.011975 -0.079893 -0.060329 -0.023308 -0.679880 0.732953
0.109968 0.225575 0.205130 0.078684 -0.637826 0.766151
1.096473 0.140420 -0.119749 -0.023308 -0.597555 -0.801490
0.237932 -0.423168 -0.356487 0.078684 0.637826 -0.766151
-1.152650 0.035511 0.080087 0.000796 0.432524 0.897233
1.076243 -0.135011 0.115128 -0.023308 0.597555 0.801490
0.873296 0.017487 0.085844 0.004217 0.309371 0.945982
0.240514 -0.366897 -0.303091 0.047202 -0.639097 0.767677
-1.358990 -0.054868 0.068297 -0.000007 -0.707455 0.700718
1.383713 0.081285 0.058658 0.057663 0.631551 -0.773187
1.082291 0.087454 0.079848 -0.023308 -0.597555 0.801490
-0.318749 0.085997 0.016719 -0.000298 0.942646 0.318125
-0.041238 -0.239725 -0.189156 -0.078612 -0.670181 0.738023
0.159543 0.070934 0.051721 0.047202 0.639097 -0.767677
0.115966 -0.091383 0.092799 0.078684 0.637826 0.766151
1.059757 -0.094927 0.072755 -0.023308 -0.679880 -0.732953
-0.088262 -0.085255 0.096930 -0.130372 0.578086 0.805494
-1.228268 -0.000000 0.087607 0.000022 0.044756 0.995283
0.083284 0.348161 0.277826 0.047202 0.639097 -0.767677
-0.052632 -0.091850 -0.056088 -0.036697 -0.660787 0.749020
-0.007585 0.191997 0.142231 0.005241 0.650425 -0.758905
0.042423 0.231750 -0.217208 0.078684 -0.637826 -0.766151
0.278786 -0.630706 0.525067 0.078684 0.637826 0.766151
0.230671 -0.525324 -0.442277 0.078684 0.637826 -0.766151
0.037462 -0.292145 -0.228375 -0.039699 -0.661519 0.748301
0.191909 -0.635507 0.523723 -0.039699 -0.661519 -0.748301
1.464710 -0.000000 0.087048 0.015114 -0.065782 0.993270
0.228719 -0.592501 -0.490183 0.047202 -0.639097 0.767677
-0.671815 -0.068678 0.054390 -0.000319 -0.687287 0.719531
1.501434 0.084312 -0.019286 0.018046 0.992249 -0.070503
-0.549225 0.087607 -0.000000 -0.000049 0.996070 -0.041466
0.172603 -0.128357 -0.117763 0.078684 0.637826 -0.766151
-1.040447 -0.015721 0.086184 0.001527 -0.113331 0.989893
1.134043 0.046771 0.074077 -0.000028 0.623510 0.776332
-1.525795 0.051687 0.048518 -0.326363 0.748111 0.568666
0.201259 0.085923 -0.017095 0.000247 0.962035 -0.256839
-0.052793 0.252633 0.202108 -0.078612 0.670181 -0.738023
-0.220885 -0.069372 -0.053598 -0.078612 -0.670181 0.738023
0.943827 -0.079199 -0.037448 0.000162 -0.900263 -0.425517
-0.042636 -0.018376 0.085658 -0.000926 -0.277934 0.955202
0.088174 0.087183 0.060860 0.047202 0.639097 -0.767677
0.152252 -0.125423 0.117411 0.078684 0.637826 0.766151
0.040301 0.055285 -0.070518 0.000000 -0.768533 0.639810
1.469047 0.053843 -0.068314 0.014662 0.615017 -0.783952
0.044036 0.015624 0.086202 -0.000144 0.274415 0.957756
0.045120 -0.085774 -0.017824 -0.000356 -0.967969 -0.236503
-0.242135 0.094398 0.078587 -0.078612 0.670181 -0.738023
-0.206345 -0.110973 -0.089827 -0.078612 -0.670181 0.738023
0.443611 0.081384 -0.032427 0.000391 0.898917 -0.428774
0.149567 0.580322 -0.490723 -0.130372 -0.578086 -0.805494
1.377832 -0.248218 0.208300 -0.023308 0.597555 0.801490
1.501434 0.000000 -0.043245 1.000000 -0.000000 0.000000
0.233620 0.440377 -0.371256 0.078684 -0.637826 -0.766151
-0.009149 0.113722 -0.124246 0.078684 -0.637826 -0.766151
0.138762 -0.598702 0.495962 -0.078612 -0.670181 -0.738023
0.071204 -0.142924 0.106222 0.047202 -0.639097 -0.767677
1.175151 -0.082175 0.030368 0.000693 -0.934394 0.344844
0.689028 0.087607 -0.000000 -0.000433 0.993642 -0.063609
0.150549 -0.237743 -0.211092 0.078684 0.637826 -0.766151
1.501434 0.067543 0.054021 0.024739 0.833855 0.544269
1.027322 -0.150050 0.124918 -0.023308 -0.679880 -0.732953
0.254719 -0.502448 0.420764 0.078684 0.637826 0.766151
-1.358872 -0.086039 0.016498 0.000177 -0.972641 0.218160
1.531305 -0.302997 0.250764 0.003698 -0.664346 -0.747025
1.531305 0.302997 0.250764 0.030688 0.648236 -0.760437
1.531305 -0.302997 -0.250764 0.030688 -0.648236 0.760437
1.007227 0.105310 -0.090978 -0.023308 -0.597555 -0.801490
-0.008009 -0.245814 0.191146 -0.078612 -0.670181 -0.738023
-0.124682 -0.165496 0.130639 -0.078612 -0.670181 -0.738023
1.336126 -0.098850 0.069457 0.044175 -0.639894 -0.766812
0.191373 0.227009 0.183612 0.047202 0.639097 -0.767677
0.008304 -0.090816 -0.058974 0.047202 -0.639097 0.767677
0.100696 0.513377 -0.422534 -0.078612 0.670181 0.738023
0.108250 -0.449519 0.363743 -0.036697 -0.660787 -0.749020
0.616668 -0.024537 -0.084100 -0.001120 -0.400579 -0.909413
-0.690076 0.039331 -0.078282 0.000273 0.555209 -0.826086
-1.527044 0.070413 -0.000000 -0.394801 0.899398 -0.108780
-0.663751 0.084585 0.022810 -0.001741 0.918901 0.378927
-0.099522 -0.053680 0.072447 -0.000000 0.768533 -0.639810
-0.724337 -0.078452 0.038989 -0.001496 -0.929088 0.356590
1.372126 0.232194 -0.190149 -0.023308 0.679880 0.732953
1.536897 -0.235011 -0.195648 0.057663 -0.631551 0.773187
1.536897 -0.235011 0.195648 0.057663 0.645883 0.761255
1.536897 0.235011 0.195648 0.057663 0.631551 -0.773187
1.530449 -0.204367 -0.170137 0.057663 -0.631551 0.773187
1.511106 0.112436 -0.093603 0.057663 0.631551 0.773187
1.524001 -0.173723 0.144626 0.057663 0.645883 0.761255
1.517554 -0.143079 -0.119115 0.057663 -0.631551 0.773187
1.239218 -0.186833 0.152299 -0.023308 -0.679880 -0.732953
-1.459290 0.026696 0.082242 -0.141262 0.332759 0.925308
-0.956434 0.086003 -0.016687 -0.000813 0.949308 -0.302520
1.254821 0.154528 -0.134872 -0.023308 -0.597555 -0.801490
-1.189985 0.079399 0.037023 -0.000392 0.871972 0.480962
-0.130178 0.034825 -0.080387 0.000422 0.449996 -0.888402
0.250999 0.180628 -0.153228 0.078684 -0.637826 -0.766151
0.250999 -0.180628 -0.153228 0.078684 0.637826 -0.766151
0.069787 -0.080660 0.034189 -0.000427 -0.890741 0.445185
-0.889674 0.074064 -0.046791 -0.002584 0.899914 -0.427602
0.049367 -0.071861 0.083386 0.078684 0.637826 0.766151
0.169561 -0.469269 -0.383954 0.047202 -0.639097 0.767677
-1.408014 0.000000 -0.087607 -0.005552 -0.080072 -0.992272
0.015891 -0.169270 -0.167918 0.078684 0.637826 -0.766151
0.031027 0.257836 0.240095 -0.067800 -0.598442 0.796860
0.566212 -0.015566 -0.086213 0.000354 -0.291910 -0.951444
-0.213328 -0.135002 0.112390 -0.130372 0.578086 0.805494
-0.165317 -0.202674 -0.168728 -0.078612 -0.670181 0.738023
-0.050091 0.365089 0.303940 -0.078612 0.670181 -0.738023
-0.050091 -0.365089 0.303940 -0.130372 0.578086 0.805494
-0.203726 0.148536 -0.123657 -0.078612 0.670181 0.738023
0.170761 -0.676385 -0.563095 -0.078612 -0.670181 0.738023
-0.184522 -0.175605 -0.146193 -0.078612 -0.670181 0.738023
0.132352 -0.622247 -0.518025 -0.078612 -0.670181 0.738023
0.026727 0.473366 0.394081 -0.078612 0.670181 -0.738023
0.122749 0.608712 0.506757 -0.078612 0.670181 -0.738023
0.045932 0.500435 0.416616 -0.078612 0.670181 -0.738023
0.103545 0.581643 -0.484222 -0.078612 0.670181 0.738023
-0.242135 0.094398 -0.078587 -0.078612 0.670181 0.738023
0.084341 0.554574 0.461687 -0.078612 0.670181 -0.738023
0.084341 -0.554574 -0.461687 -0.078612 -0.670181 0.738023
-0.194124 0.162071 0.134925 -0.078612 0.670181 -0.738023
0.240514 0.366897 -0.303091 0.047202 0.639097 0.767677
1.442100 0.188804 0.150836 0.057663 0.631551 -0.773187
1.269240 0.098448 -0.069359 -0.023308 0.679880 0.732953
0.140427 -0.521053 -0.425273 -0.036697 -0.660787 0.749020
0.017370 0.085554 0.098072 0.078684 -0.637826 0.766151
0.150027 0.033910 0.080778 -0.000056 0.487211 0.868394
-0.737192 -0.085922 -0.017100 0.000527 -0.970275 -0.228263
-1.545282 -0.000000 -0.062559 -0.397748 0.091416 -0.906071
-0.069269 0.064754 0.059144 0.000000 -0.768533 -0.639810
1.448632 0.118275 0.103290 0.057663 -0.645883 0.761255
-0.748944 0.087607 -0.000000 0.000876 0.995224 -0.041543
0.289592 0.087607 -0.000000 -0.000935 0.985781 -0.137507
0.249648 -0.000000 0.087607 0.001312 0.147193 0.983822
-0.249648 -0.000000 0.087607 0.001500 0.131523 0.987060
0.129817 -0.087607 0.000000 -0.001618 -0.986083 -0.134649
-1.208296 0.000000 -0.087607 -0.001194 -0.121489 -0.989812
-0.868775 0.000000 -0.087607 -0.000062 -0.035632 -0.996649
1.088465 -0.000000 0.087607 0.003120 0.044520 0.996500
1.427986 0.087607 -0.000000 0.003620 0.993024 -0.067261
0.209704 -0.087607 0.000000 0.001504 -0.986957 -0.131223
0.529254 -0.087607 0.000000 0.002167 -0.995948 -0.056320
-0.509282 -0.087607 0.000000 0.001692 -0.988322 -0.125407
0.649085 0.000000 -0.087607 0.003416 -0.035677 -0.996874
0.788888 -0.000000 0.087607 0.000621 0.028875 0.996662
0.104061 0.346943 -0.278090 0.047202 0.639097 0.767677
1.506371 -0.276134 0.232851 0.003698 0.614210 0.788764
1.506371 0.276134 0.232851 0.003698 -0.614210 0.788764
1.501434 -0.066869 -0.017495 1.000000 0.000000 -0.000000
1.205654 -0.089786 0.085173 -0.023308 0.597555 0.801490
0.159733 0.554362 0.473737 -0.060793 -0.600496 0.795606
-0.046197 0.106157 0.068394 0.005241 0.650425 -0.758905
0.005286 0.220611 0.166844 0.005241 0.650425 -0.758905
-1.376077 0.028834 -0.082726 0.000418 0.330493 -0.939421
1.341524 -0.062050 -0.061844 0.000021 -0.704590 -0.703538
-1.134061 -0.028935 -0.082690 0.000831 -0.434356 -0.896163
-0.352040 0.053937 0.069034 -0.000060 0.614198 0.783763
0.874756 0.054594 0.068516 0.000112 0.619120 0.779678
0.874834 -0.037626 -0.079115 0.000745 -0.418061 -0.902668
-0.701678 -0.078721 -0.038443 -0.000124 -0.896056 -0.434266
-0.938522 0.068703 0.054358 -0.001411 0.822281 0.557905
-0.169986 -0.033797 0.080825 0.000177 -0.443847 0.891320
-0.701974 -0.037174 -0.079329 -0.000277 -0.423128 -0.901445
0.155506 0.508591 0.415825 0.047202 0.639097 -0.767677
-1.012945 -0.068662 -0.054410 -0.000001 -0.781142 -0.617476
0.356398 0.066543 0.056982 -0.000048 0.758573 0.645026
-0.050118 0.033177 -0.081081 0.000150 0.317915 -0.943637
0.183316 0.171799 -0.137154 0.047202 0.639097 0.767677
0.936130 0.119551 -0.099527 -0.023308 0.679880 0.732953
1.282662 0.235446 0.196011 -0.023308 -0.597555 0.801490
1.118515 -0.180549 0.150308 -0.023308 -0.679880 -0.732953
1.118515 -0.180549 -0.150308 -0.023308 -0.679880 0.732953
0.954368 -0.125651 -0.104606 -0.023308 -0.679880 0.732953
0.990845 -0.137851 0.114762 -0.023308 -0.679880 -0.732953
1.027322 0.150050 -0.124918 -0.023308 0.679880 0.732953
1.100276 0.174449 -0.145230 -0.023308 0.679880 0.732953
0.863175 -0.095153 0.079215 -0.023308 -0.679880 -0.732953
0.863175 0.095153 -0.079215 -0.023308 0.679880 0.732953
1.392093 0.272045 0.226479 -0.023308 -0.597555 0.801490
1.264423 -0.229347 -0.190933 -0.023308 -0.679880 0.732953
1.173231 0.198848 -0.165542 -0.023308 0.679880 0.732953
0.943951 -0.037936 -0.078967 0.000364 -0.430606 -0.897799
1.393566 0.068768 -0.054276 -0.000078 0.706390 -0.701804
-0.140040 0.176997 0.142719 -0.078612 0.670181 -0.738023
-0.340604 0.070586 -0.051890 0.001697 0.748402 -0.654709
-0.589169 -0.087607 0.000000 -0.002269 -0.989170 -0.118605
-0.421675 0.078338 0.039219 -0.001123 0.891068 0.444505
1.325946 0.185929 -0.160351 -0.023308 -0.597555 -0.801490
-0.283506 0.079186 0.037476 -0.000128 0.847096 0.523077
-0.020455 0.163384 0.117619 0.005241 0.650425 -0.758905
0.425406 0.066690 0.056809 0.000028 0.760626 0.642655
-0.073357 -0.143881 0.105544 -0.078612 -0.670181 -0.738023
-0.736120 -0.028684 0.082778 0.002496 -0.333847 0.936927
0.684526 0.073933 0.046998 0.000020 0.774502 0.625822
0.239772 -0.268332 0.227395 0.078684 0.637826 0.766151
-1.393346 -0.038086 0.078895 -0.000070 -0.433820 0.896431
0.268865 0.080460 -0.034657 0.000403 0.856510 -0.507834
-0.282633 0.038066 0.078904 -0.001002 0.434385 0.896140
0.130495 -0.395484 0.320126 0.047202 -0.639097 -0.767677
0.980653 0.085825 -0.017578 -0.001250 0.960813 -0.261227
-1.289988 -0.085636 0.018478 -0.000983 -0.942799 0.321211
0.278786 0.189140 0.157460 0.047202 0.639097 -0.767677
0.278786 -0.234819 0.195489 0.078684 0.637826 0.766151
0.278786 0.234819 -0.195489 0.047202 0.639097 0.767677
0.278786 0.158687 -0.132108 0.047202 0.639097 0.767677
0.278786 -0.128234 -0.106756 0.078684 0.637826 -0.766151
0.278786 -0.371857 0.309573 0.078684 0.637826 0.766151
0.278786 -0.310951 -0.258869 0.078684 0.637826 -0.766151
0.278786 -0.447989 0.372954 0.078684 0.637826 0.766151
0.278786 0.645932 -0.537743 0.047202 0.639097 0.767677
0.278786 0.250045 0.208165 0.047202 0.639097 -0.767677
0.278786 0.478442 -0.398306 0.047202 0.639097 0.767677
1.000212 -0.032736 0.081261 -0.001296 -0.348086 0.933034
0.888747 0.000000 -0.087607 -0.004373 -0.067525 -0.992738
0.278786 -0.585026 0.487039 0.078684 0.637826 0.766151
-0.180158 0.114014 0.089799 -0.078612 0.670181 -0.738023
-0.193712 -0.079555 0.075772 -0.130372 0.578086 0.805494
1.048747 0.033797 -0.080825 -0.000177 0.443847 -0.891320
0.541430 -0.038421 0.078732 -0.000206 -0.483919 0.870146
-0.019754 -0.048671 0.072843 -0.000462 -0.500157 0.860827
1.427986 -0.078895 -0.038086 0.003142 -0.942894 -0.317305
0.096001 0.510916 0.420800 -0.078612 0.670181 -0.738023
-0.752013 0.065771 -0.057872 -0.000129 0.787148 -0.609925
1.368071 -0.087607 0.000000 -0.000662 -0.996576 -0.043539
1.205678 -0.095881 -0.068999 -0.023308 -0.679880 0.732953
1.355616 0.259845 0.216323 -0.023308 -0.597555 0.801490
0.078228 0.085332 -0.091637 0.078684 -0.637826 -0.766151
0.650352 0.045761 0.074705 -0.000098 0.613408 0.784372
-0.619217 -0.051599 0.070799 0.000493 -0.593429 0.799755
-0.524350 0.034783 0.080406 -0.000830 0.496248 0.863150
-0.021750 0.015882 0.086155 0.000837 0.270544 0.958988
1.089191 0.080854 -0.033728 -0.000503 0.860957 -0.500263
-0.060065 0.085781 -0.017790 0.000206 0.940944 -0.325639
-0.766958 0.046132 0.074477 -0.000015 0.618389 0.780425
0.356692 0.034865 0.080370 -0.000698 0.381032 0.918045
0.753754 -0.061609 -0.062283 -0.000036 -0.776069 -0.623859
-1.444422 -0.061534 0.062184 -0.079694 -0.746674 0.651587
1.359011 0.079227 -0.037390 -0.000390 0.900774 -0.424494
-0.615621 -0.061185 -0.062701 0.000065 -0.609118 -0.787386
0.515662 0.049355 -0.072381 0.000330 0.568318 -0.817769
0.977129 -0.078628 0.038634 -0.000330 -0.836236 0.539635
0.017370 -0.106659 0.072721 0.047202 -0.639097 -0.767677
0.178942 -0.508326 0.417046 0.047202 -0.639097 -0.767677
-0.563449 -0.078334 -0.039227 -0.000244 -0.891992 -0.442566
-0.352396 0.078694 0.038499 0.000097 0.839545 0.535441
-0.475925 0.085478 -0.019197 -0.002745 0.934523 -0.342382
0.390783 0.077668 0.040529 0.001051 0.884339 0.457643
0.198344 -0.643320 -0.543830 0.008893 0.620409 -0.782492
-0.002079 -0.432762 0.360278 -0.130372 0.578086 0.805494
1.319360 -0.099465 -0.068709 0.027479 -0.648651 0.760127
0.061747 0.191151 -0.145790 0.047202 0.639097 0.767677
1.355616 -0.259845 -0.216323 -0.023308 -0.679880 0.732953
0.768916 0.087607 -0.000000 -0.007892 0.993668 -0.065621
0.799831 0.079195 -0.037458 0.002001 0.915317 -0.391508
-1.393447 0.085436 0.019379 -0.000609 0.939299 0.330895
1.443728 0.182380 -0.158051 0.057663 -0.645883 -0.761255
0.218403 -0.077339 -0.041153 -0.001370 -0.880153 -0.465940
-0.009798 -0.153447 -0.110001 0.047202 -0.639097 0.767677
0.118401 0.215406 -0.169465 0.047202 0.639097 0.767677
0.179039 0.606894 -0.499111 0.005241 0.650425 0.758905
1.191469 0.204948 0.170621 -0.023308 -0.597555 0.801490
-0.309096 -0.033302 0.081030 -0.000565 -0.315811 0.944391
-0.421087 0.053445 0.069416 -0.000105 0.604788 0.790629
0.195513 0.402426 -0.329902 0.047202 0.639097 0.767677
1.497769 -0.219474 0.185430 0.057663 0.645883 0.761255
-0.863440 -0.062189 0.061704 -0.001412 -0.791823 0.603131
-0.908719 -0.000000 0.087607 -0.004645 0.070017 0.993180
-0.811385 0.064931 -0.058812 0.000966 0.777821 -0.621991
0.840406 0.037508 0.079171 0.000119 0.524645 0.846087
-0.009798 -0.153447 0.110001 0.047202 -0.639097 -0.767677
0.244635 -0.327952 -0.270923 0.047202 -0.639097 0.767677
-0.788498 -0.011018 -0.086911 0.000448 -0.226501 -0.970632
-0.649085 -0.087607 0.000000 0.000165 -0.996523 -0.039786
0.693808 -0.081785 0.031402 -0.001872 -0.916493 0.390451
0.109190 -0.081064 0.033219 0.000529 -0.893821 0.439129
-0.387327 0.085176 0.020494 0.000277 0.935757 0.340636
1.226060 0.084914 0.082135 -0.023308 -0.597555 0.801490
0.278786 -0.371857 -0.309573 0.078684 0.637826 -0.766151
0.083097 -0.195969 0.151113 0.047202 -0.639097 -0.767677
-0.114790 0.118523 0.116512 -0.130372 -0.578086 0.805494
0.011721 0.213357 0.205049 -0.060793 -0.600496 0.795606
1.027322 -0.150050 -0.124918 -0.023308 -0.679880 0.732953
1.012977 -0.038046 -0.078914 -0.000036 -0.433497 -0.896572
1.462668 -0.053063 -0.069044 0.015839 -0.609075 -0.788250
-0.050091 0.365089 -0.303940 -0.078612 0.670181 0.738023
-1.598683 0.027139 -0.008567 -0.647795 0.702830 -0.278722
-1.541328 -0.062642 -0.014963 -0.449513 -0.846866 -0.266353
1.324363 0.079137 0.037579 -0.000006 0.845279 0.526264
1.471819 -0.149442 0.127977 0.057663 0.645883 0.761255
0.278786 -0.250045 -0.208165 0.078684 0.637826 -0.766151
-1.046755 -0.019952 -0.085304 0.000144 -0.237185 -0.968326
0.019204 0.139833 -0.143071 0.078684 -0.637826 -0.766151
0.327715 0.060153 -0.063691 0.001115 0.737392 -0.669478
-0.700524 -0.014185 0.086451 0.001469 -0.251971 0.963470
-0.463332 0.035433 -0.080121 0.000058 0.332311 -0.938693
1.486886 0.136548 0.111493 0.057663 0.631551 -0.773187
-1.468357 -0.085419 0.000000 -0.094436 -0.988446 -0.073454
0.719085 -0.086730 -0.012361 -0.000200 -0.970740 -0.225861
0.127556 -0.492440 0.400661 -0.036697 -0.660787 -0.749020
0.098710 0.466910 -0.401098 -0.130372 -0.578086 -0.805494
1.294529 0.208675 -0.170801 -0.023308 0.679880 0.732953
1.048521 -0.087607 0.000000 -0.000421 -0.996550 -0.035743
0.117426 0.425533 -0.344338 0.047202 0.639097 0.767677
0.494882 -0.017121 -0.085917 0.003356 -0.281883 -0.954570
0.494882 0.017121 0.085917 0.003299 0.281946 0.954554
0.278786 0.508894 0.423658 0.047202 0.639097 -0.767677
-0.318950 -0.085652 0.018401 -0.000521 -0.957155 0.273223
0.256818 0.531959 -0.445116 0.078684 -0.637826 -0.766151
0.000554 -0.053278 -0.072929 0.078684 0.637826 -0.766151
-0.011716 -0.268945 -0.241150 -0.130372 0.578086 -0.805494
0.000554 0.075741 -0.045947 0.000000 -0.768533 0.639810
0.830217 -0.037388 0.079228 0.000033 -0.538588 0.837495
0.060733 -0.113458 -0.116849 0.078684 0.637826 -0.766151
-1.075514 -0.072000 0.049909 0.000338 -0.720722 0.684491
-0.802932 -0.085543 0.018905 0.001640 -0.938560 0.332075
0.003639 0.365855 0.313186 -0.130372 -0.578086 0.805494
0.192453 0.432950 0.369301 0.078684 -0.637826 0.766151
0.156808 0.104947 0.079869 0.047202 0.639097 -0.767677
-0.990083 -0.063515 0.060338 -0.000161 -0.661497 0.742706
-0.039761 -0.094746 0.111592 -0.060793 0.600496 0.795606
0.945638 -0.090735 0.078319 -0.023308 0.597555 0.801490
1.047579 -0.054718 -0.068416 -0.000062 -0.622866 -0.776861
1.501434 -0.019006 -0.084375 1.000000 -0.000000 0.000000
0.211240 -0.088265 -0.080418 0.078684 0.637826 -0.766151
1.154436 0.082022 0.057773 -0.023308 0.679880 -0.732953
0.423151 0.017375 0.085866 0.000123 0.284452 0.954164
1.107691 0.062544 -0.061344 0.000490 0.655686 -0.748636
1.306892 0.072900 0.075528 0.009019 -0.627009 0.778566
-0.092324 0.134636 -0.099169 -0.078612 0.670181 0.738023
0.036171 -0.235002 -0.180723 0.047202 -0.639097 0.767677
-0.673174 0.067089 -0.056339 -0.000615 0.804470 -0.587733
-0.408296 -0.072801 -0.048734 0.000055 -0.759648 -0.643782
0.049864 0.447781 0.368383 -0.078612 0.670181 -0.738023
0.026649 -0.316611 0.251743 -0.078612 -0.670181 -0.738023
1.272347 -0.062112 -0.061782 0.000009 -0.705867 -0.702288
1.375633 0.097951 0.091576 0.057663 -0.645883 0.761255
0.208853 -0.210960 0.182808 0.078684 0.637826 0.766151
-1.223999 -0.056017 0.067358 -0.000396 -0.637508 0.765151
0.066078 0.127378 0.092964 0.047202 0.639097 -0.767677
-1.247263 0.056780 0.066716 -0.000556 0.602143 0.793285
-0.404691 -0.081017 0.033335 -0.000196 -0.893336 0.440551
0.958781 -0.017429 0.085855 0.002067 -0.288521 0.952117
0.389451 0.087607 -0.000000 -0.000595 0.985800 -0.132509
0.094434 -0.146172 -0.110354 0.047202 -0.639097 0.767677
0.149789 0.087607 -0.000000 0.000403 0.988073 -0.117272
0.267907 -0.081269 0.032715 0.003331 -0.855474 0.507020
-0.033326 0.134770 -0.093007 0.005241 0.650425 0.758905
0.092035 0.171313 0.131136 0.047202 0.639097 -0.767677
1.426244 0.126782 -0.098993 0.057663 0.631551 0.773187
-0.126908 -0.256813 -0.213799 -0.078612 -0.670181 0.738023
-0.148727 -0.074105 -0.079142 -0.130372 0.578086 -0.805494
-0.050275 0.223170 -0.175086 -0.078612 0.670181 0.738023
0.221732 -0.549222 0.453723 0.047202 -0.639097 -0.767677
-0.629113 0.087607 -0.000000 0.001785 0.994694 -0.055824
0.244436 0.632288 -0.524273 0.047202 0.639097 0.767677
-1.443160 -0.082368 0.029614 -0.055061 -0.967141 0.232869
0.013779 -0.287997 0.227131 -0.078612 -0.670181 -0.738023
0.065136 -0.527504 -0.439151 -0.078612 -0.670181 0.738023
-0.017915 -0.097062 -0.111276 0.078684 0.637826 -0.766151
-0.011682 0.419228 0.349010 -0.078612 0.670181 -0.738023
0.026727 0.473366 -0.394081 -0.078612 0.670181 0.738023
1.246185 0.223247 -0.185855 -0.023308 0.679880 0.732953
1.138436 0.086412 -0.014418 0.001169 0.988162 -0.125708
-1.486128 -0.030356 -0.076619 -0.238945 -0.309291 -0.915536
-0.023773 -0.331697 -0.270814 -0.078612 -0.670181 0.738023
0.112944 0.034777 -0.080408 0.000389 0.508401 -0.856194
0.164559 -0.300628 0.243252 0.047202 -0.639097 -0.767677
-0.490209 0.052514 0.070123 -0.000012 0.683435 0.724091
0.185474 0.613667 0.520466 -0.100589 -0.587834 0.801459
0.102989 -0.270444 0.243201 0.078684 0.637826 0.766151
1.276735 0.109916 0.102249 -0.023308 -0.597555 0.801490
-1.553868 0.046195 -0.035509 -0.454351 0.768141 -0.433957
-0.046340 -0.198168 0.184750 -0.130372 0.578086 0.805494
-0.489310 0.000000 -0.087607 -0.003855 -0.100710 -0.991246
-0.561927 -0.017720 -0.085796 0.000448 -0.301485 -0.949042
0.129817 0.000000 -0.087607 0.001366 -0.159215 -0.981660
-1.001501 0.073143 0.048218 -0.001053 0.892934 0.441594
0.049367 0.090382 -0.061138 0.047202 0.639097 0.767677
0.049367 -0.090382 -0.061138 0.047202 -0.639097 0.767677
1.257814 -0.191649 -0.162635 -0.023308 0.597555 -0.801490
1.257819 0.191651 0.162636 -0.023308 -0.597555 0.801490
0.546502 -0.045054 -0.075134 -0.000056 -0.604859 -0.790815
-0.086447 0.263267 0.215350 -0.078612 0.670181 -0.738023
0.042686 0.369763 -0.322310 -0.130372 -0.578086 -0.805494
-1.341399 0.074170 0.046624 0.000392 0.843774 0.528323
1.495695 0.225535 0.190729 0.057663 -0.645883 0.761255
1.481436 -0.255107 -0.207927 0.030688 -0.648236 0.760437
0.239038 -0.068530 0.054608 0.000000 0.768533 -0.639810
0.917352 0.095264 0.077596 -0.023308 0.679880 -0.732953
-0.064668 0.307290 0.260099 -0.130372 -0.578086 0.805494
-0.064668 -0.307290 0.260099 -0.130372 0.578086 0.805494
1.390051 -0.085495 -0.079915 0.057663 0.645883 -0.761255
0.024730 -0.376543 0.306371 -0.078612 -0.670181 -0.738023
0.278786 0.554574 0.461687 0.047202 0.639097 -0.767677
-1.173717 -0.074127 0.046692 0.001022 -0.894402 0.437959
0.821670 -0.012802 -0.086666 0.000887 -0.123176 -0.988220
0.174950 0.646318 0.542195 -0.060793 -0.600496 0.795606
0.036171 0.235002 -0.180723 0.047202 0.639097 0.767677
0.709000 -0.000000 0.087607 -0.000759 0.034674 0.996675
0.639506 0.086004 -0.016681 0.000271 0.987692 -0.123510
0.042636 0.018376 -0.085658 0.000926 0.277934 -0.955202
-0.564890 -0.032827 0.081224 0.000535 -0.383684 0.918279
-0.218421 -0.034445 -0.080551 0.000093 -0.489494 -0.866884
1.140289 0.046490 -0.074254 -0.002091 0.528923 -0.843941
0.239369 0.475182 0.399641 0.078684 -0.637826 0.766151
0.858581 -0.074835 0.045549 0.000412 -0.881625 0.463487
-0.386419 0.036775 0.079514 -0.002442 0.517994 0.850201
-1.238686 0.086543 -0.013607 -0.000294 0.968535 -0.235672
-0.001150 0.183704 -0.181684 0.008893 -0.620409 -0.782492
-0.663285 0.048957 0.072651 -0.000000 0.647348 0.756541
1.464100 0.036004 0.079263 0.016025 0.272754 0.956212
-0.080256 -0.136998 -0.135361 -0.130372 0.578086 -0.805494
1.273126 -0.073670 0.047410 -0.000256 -0.772159 0.628927
0.046283 0.122907 -0.088025 0.047202 0.639097 0.767677
0.170995 -0.527016 0.449815 0.078684 0.637826 0.766151
-1.102283 0.044763 -0.075307 -0.002019 0.490399 -0.866438
1.171658 -0.151387 0.121568 -0.023308 -0.679880 -0.732953
0.008995 0.376812 -0.308291 -0.078612 0.670181 0.738023
0.278786 -0.417536 -0.347602 0.078684 0.637826 -0.766151
-0.649085 0.000000 -0.087607 0.002589 -0.038887 -0.996633
0.235393 -0.465421 -0.384799 0.047202 -0.639097 0.767677
0.198788 -0.158545 0.127071 0.047202 -0.639097 -0.767677
0.247409 0.610597 0.506397 0.047202 0.639097 -0.767677
-1.185864 -0.068811 -0.054222 0.000217 -0.782870 -0.615079
0.076074 0.361620 0.321870 -0.060793 -0.600496 0.795606
0.632897 -0.053720 -0.069203 -0.000115 -0.612532 -0.785056
0.240432 -0.323889 0.273579 0.078684 0.637826 0.766151
0.169347 0.350149 -0.284772 0.047202 0.639097 0.767677
1.099406 0.074496 0.046101 0.000036 0.782034 0.616357
-0.067258 -0.076032 -0.093711 -0.130372 0.578086 -0.805494
1.220489 -0.038144 -0.078867 0.000064 -0.530341 -0.842494
0.213468 -0.588390 0.485823 0.047202 -0.639097 -0.767677
-0.049812 0.163432 -0.159259 -0.130372 -0.578086 -0.805494
0.050908 -0.473998 0.392079 -0.078612 -0.670181 -0.738023
1.300900 -0.241546 0.201089 -0.023308 -0.679880 -0.732953
0.435726 -0.085869 0.017363 0.000198 -0.960357 0.262841
-0.000779 -0.084841 0.021838 0.000406 -0.957406 0.274012
-0.152175 -0.189444 0.155314 -0.078612 -0.670181 -0.738023
0.120028 0.424417 0.369635 0.078684 -0.637826 0.766151
1.197747 -0.130835 -0.115548 -0.023308 0.597555 -0.801490
1.243243 -0.151134 0.119057 -0.023308 -0.679880 -0.732953
0.021786 0.330920 0.265255 -0.078612 0.670181 -0.738023
1.081054 -0.086099 -0.016184 0.000206 -0.944846 -0.311735
-0.083731 0.257175 -0.221047 -0.130372 -0.578086 -0.805494
0.178860 -0.400306 0.327113 0.047202 -0.639097 -0.767677
1.082291 0.094379 -0.071530 -0.023308 0.679880 0.732953
0.097565 -0.182027 -0.140396 0.047202 -0.639097 0.767677
0.118388 0.147993 0.113343 0.047202 0.639097 -0.767677
-0.040640 0.182810 0.174651 -0.130372 -0.578086 0.805494
-1.513047 0.034900 -0.066784 -0.266874 0.384044 -0.876369
0.046776 -0.204885 0.156303 0.047202 -0.639097 -0.767677
-0.020339 0.085708 -0.018141 0.003982 0.955877 -0.281745
0.087236 0.177876 -0.167755 0.078684 -0.637826 -0.766151
0.942272 0.086020 0.016599 0.000455 0.972631 0.217966
0.030523 0.341772 0.300253 -0.130372 -0.578086 0.805494
0.942425 0.016954 0.085950 0.000475 0.222860 0.971474
-0.011682 0.419228 -0.349010 -0.078612 0.670181 0.738023
0.741222 -0.052680 0.069998 0.000029 -0.653606 0.751074
0.389440 0.034552 -0.080505 0.000096 0.508034 -0.856336
-0.422057 -0.019811 0.085337 0.003147 -0.359928 0.927250
1.195148 0.167055 0.135355 -0.023308 0.679880 -0.732953
0.800451 -0.074758 0.045675 -0.000295 -0.908971 0.407308
0.013169 0.285262 -0.224712 -0.078612 0.670181 0.738023
0.129869 -0.371995 -0.324982 0.078684 0.637826 -0.766151
0.881268 -0.020411 0.085196 -0.000488 -0.306781 0.945822
-0.116353 0.240982 -0.204145 -0.130372 -0.578086 -0.805494
-0.064592 -0.197880 -0.153645 -0.078612 -0.670181 0.738023
-1.118496 0.085323 0.019872 -0.001632 0.946716 0.306411
0.321180 0.085504 0.019077 -0.000143 0.965325 0.246777
0.169281 -0.450913 0.368656 0.047202 -0.639097 -0.767677
0.321912 0.015828 0.086165 0.000467 0.273359 0.957491
-0.089408 0.065101 -0.058728 -0.000000 -0.768533 0.639810
0.026412 0.120575 0.084862 0.047202 0.639097 -0.767677
0.078635 0.204704 0.190973 0.078684 -0.637826 0.766151
0.287575 0.035153 0.080245 0.001368 0.379558 0.918631
0.043898 -0.287488 -0.263459 0.008893 0.620409 -0.782492
-0.436143 -0.086013 0.016633 -0.000010 -0.963744 0.251594
-1.158389 0.054154 -0.068864 0.000428 0.620513 -0.779317
-0.111983 -0.091221 -0.061839 -0.078612 -0.670181 0.738023
-0.049095 -0.163766 0.159615 -0.130372 0.578086 0.805494
-1.599728 -0.025658 0.010140 -0.644954 -0.697178 0.300665
0.825323 0.037653 -0.079102 -0.003304 0.502866 -0.860500
0.005286 0.220611 -0.166844 0.005241 0.650425 0.758905
1.174787 0.071381 -0.070554 -0.000000 -0.768533 0.639810
-0.097492 -0.086474 -0.014041 0.000354 -0.962465 -0.256382
0.142076 -0.572248 -0.471586 -0.078612 -0.670181 0.738023
0.110634 -0.301123 0.267957 0.078684 0.637826 0.766151
0.639247 0.071467 -0.050670 0.002676 0.734465 -0.670609
-0.186034 0.107398 -0.096997 -0.130372 -0.578086 -0.805494
-0.094723 0.084708 0.022349 0.001264 0.919946 0.376551
0.169761 -0.000000 0.087607 0.001113 0.069511 0.994139
-1.272431 -0.074414 -0.046232 -0.000013 -0.780863 -0.617833
0.278786 0.158687 0.132108 0.047202 0.639097 -0.767677
1.372058 0.093779 -0.067995 0.057663 0.631551 0.773187
-0.016250 -0.217177 -0.166019 -0.078612 -0.670181 0.738023
0.046121 0.265411 0.206651 0.047202 0.639097 -0.767677
-0.130431 -0.034944 0.080336 0.000185 -0.452188 0.887149
-1.000251 -0.016463 0.086046 -0.000397 -0.248757 0.964358
0.141311 0.560968 -0.461425 -0.078612 0.670181 0.738023
1.463541 -0.035333 0.079574 0.015640 -0.266192 0.958439
-0.003819 0.083676 -0.098685 0.078684 -0.637826 -0.766151
0.173318 -0.377568 -0.325160 0.078684 0.637826 -0.766151
0.991705 0.034777 -0.080408 0.000389 0.508401 -0.856194
1.497381 -0.190739 0.161079 0.057663 0.645883 0.761255
1.040455 -0.059851 0.063975 -0.000582 -0.670159 0.736514
0.039367 0.188992 0.142616 0.047202 0.639097 -0.767677
0.719054 0.019208 -0.085475 -0.000926 0.346987 -0.931979
0.161602 0.456868 -0.392381 0.078684 -0.637826 -0.766151
0.278786 0.082555 -0.068728 0.047202 0.639097 0.767677
-0.080149 0.139820 -0.137404 -0.130372 -0.578086 -0.805494
-0.942425 -0.016954 -0.085950 -0.000475 -0.222860 -0.971474
1.133088 -0.099587 0.090371 -0.023308 0.597555 0.801490
0.094363 0.353636 -0.313345 0.078684 -0.637826 -0.766151
0.021750 -0.015882 -0.086155 -0.000837 -0.270544 -0.958988
0.045807 0.265487 -0.206694 0.047202 0.639097 0.767677
0.579926 0.086607 0.013195 0.000224 0.968933 0.233075
-0.060175 -0.085320 0.019883 0.000426 -0.984468 0.143625
0.278786 0.356630 0.296897 0.047202 0.639097 -0.767677
0.514939 0.086488 0.013955 -0.000331 0.965525 0.247768
1.490020 -0.090024 -0.073724 0.057663 -0.631551 0.773187
-0.029958 -0.087607 0.000000 -0.001151 -0.995014 -0.047884
0.210171 -0.038472 0.078707 0.000716 -0.479246 0.872598
1.376077 -0.074188 0.046595 -0.000102 -0.843709 0.528802
-0.693808 0.081785 -0.031402 0.001872 0.916494 -0.390450
0.058078 0.294014 -0.231198 0.047202 0.639097 0.767677
0.220473 0.350119 0.287891 0.047202 0.639097 -0.767677
-0.009149 -0.113722 0.124246 0.078684 0.637826 0.766151
0.334163 -0.056828 0.066675 -0.000772 -0.597598 0.796795
0.051433 -0.389219 -0.315037 -0.078612 -0.670181 0.738023
-0.357240 -0.015916 -0.086149 0.000227 -0.275715 -0.956770
1.195290 0.129566 -0.114530 -0.023308 -0.597555 -0.801490
0.257261 0.411932 0.341613 0.047202 0.639097 -0.767677
0.185103 -0.485135 -0.413500 0.078684 0.637826 -0.766151
1.327286 -0.208358 -0.169465 -0.023308 -0.679880 0.732953
-0.389451 -0.000000 0.087607 -0.003763 0.156021 0.981811
0.089873 -0.000000 0.087607 0.000330 0.058217 0.995140
0.616265 0.086708 0.012514 -0.000564 0.969503 0.230852
1.142564 0.119877 0.093265 -0.023308 0.679880 -0.732953
1.511403 0.213952 -0.176546 0.057663 0.631551 0.773187
0.159543 0.070934 -0.051721 0.000000 -0.768533 0.639810
0.908719 0.087607 -0.000000 -0.004609 0.993186 -0.044303
0.859405 0.046876 -0.074010 0.001395 0.559504 -0.824050
1.314865 -0.162353 0.127186 -0.023308 -0.679880 -0.732953
1.117359 -0.086049 -0.016448 -0.000281 -0.972451 -0.219201
0.261838 0.592108 -0.491892 0.047202 0.639097 0.767677
0.235707 -0.149351 0.128760 0.078684 0.637826 0.766151
0.357240 -0.015916 -0.086149 -0.000225 -0.275716 -0.956775
0.131797 0.081225 0.032825 -0.001147 0.924687 0.368850
1.373993 -0.173332 -0.135490 -0.023308 -0.679880 0.732953
0.010228 0.337011 -0.272017 -0.078612 0.670181 0.738023
-1.188324 0.087607 -0.000000 -0.002156 0.995677 -0.051968
1.467142 -0.210816 0.170684 0.057663 -0.631551 -0.773187
-0.487772 0.070574 -0.051906 -0.001885 0.738572 -0.670129
1.264533 0.137550 -0.105780 -0.023308 0.679880 0.732953
0.078406 -0.042256 -0.076742 0.002620 -0.481736 -0.870727
-1.107562 -0.061791 0.062103 -0.002150 -0.625309 0.775827
-0.056474 -0.130368 -0.091475 -0.078612 -0.670181 0.738023
0.165141 0.375412 -0.324205 0.078684 -0.637826 -0.766151
0.115596 -0.409931 0.358030 0.078684 0.637826 0.766151
-1.377033 0.086856 -0.011440 -0.003183 0.971931 -0.221623
1.246185 -0.223247 0.185855 -0.023308 -0.679880 -0.732953
1.272618 0.083024 -0.027963 -0.000619 0.942037 -0.323431
0.057607 -0.139537 0.138881 0.078684 0.637826 0.766151
-1.561572 -0.029041 0.045600 -0.477231 -0.559639 0.671673
-1.561575 0.029040 0.045599 -0.477245 0.559632 0.671669
0.060309 -0.085858 -0.093915 0.078684 0.637826 -0.766151
0.065229 0.310176 0.245093 0.047202 0.639097 -0.767677
0.134973 -0.467381 -0.380256 0.047202 -0.639097 0.767677
1.239913 0.074410 -0.046238 0.000551 0.786883 -0.611178
0.015580 -0.133449 0.094914 0.047202 -0.639097 -0.767677
-0.499515 -0.058552 0.065166 -0.000448 -0.582976 0.807432
-1.130938 0.059154 0.064620 0.001474 0.726917 0.680696
0.022813 -0.184929 0.180244 0.078684 0.637826 0.766151
1.256930 0.142838 0.110927 -0.023308 0.679880 -0.732953
0.050333 -0.302315 0.275141 -0.060793 0.600496 0.795606
0.161743 0.253176 -0.222791 0.078684 -0.637826 -0.766151
-0.616731 0.017755 -0.085788 -0.004308 0.119824 -0.988230
0.217287 -0.189198 -0.153727 0.047202 -0.639097 0.767677
-0.373707 -0.081841 -0.031256 0.000929 -0.883896 -0.458601
-0.020832 0.243998 0.190863 -0.078612 0.670181 -0.738023
0.053427 -0.437086 -0.358292 -0.078612 -0.670181 0.738023
0.161158 -0.662850 0.551828 -0.130372 0.578086 0.805494
1.427986 0.079020 -0.037824 0.005833 0.842168 -0.529972
0.078781 -0.223486 -0.173756 0.047202 -0.639097 0.767677
-0.926632 -0.074371 -0.046302 0.000010 -0.780486 -0.618307
0.046073 0.050518 0.071574 -0.000069 0.663158 0.742811
-0.171041 -0.081105 0.033120 0.000102 -0.865292 0.492723
1.049801 0.081105 -0.033120 -0.000102 0.865292 -0.492723
0.030136 -0.033392 0.080993 -0.000062 -0.438767 0.893866
0.249826 0.033392 -0.080993 -0.000012 0.439272 -0.893616
1.324329 0.054973 -0.068212 -0.000056 0.624441 -0.775618
1.013122 0.019339 0.085445 0.000436 0.330528 0.939410
0.278786 0.310951 0.258869 0.047202 0.639097 -0.767677
-0.460104 -0.035710 -0.079998 0.001309 -0.406450 -0.909136
0.070809 -0.173541 -0.165833 0.078684 0.637826 -0.766151
-1.048521 0.087607 -0.000000 -0.002459 0.994492 -0.060990
1.324222 0.037885 0.078991 0.000059 0.529212 0.843444
0.199936 0.048671 -0.072843 0.000003 0.497424 -0.862579
0.195640 0.240120 -0.208441 0.078684 -0.637826 -0.766151
-0.830217 0.037388 -0.079228 -0.000102 0.538478 -0.837547
0.900072 -0.091412 -0.074573 -0.023308 -0.679880 0.732953
0.115300 0.033598 0.080908 -0.000446 0.380899 0.919673
1.341669 -0.082886 -0.028369 0.000758 -0.943648 -0.315364
1.307650 -0.195489 0.166947 -0.023308 0.597555 0.801490
0.874624 0.079106 0.037644 0.000343 0.900657 0.422942
1.144594 0.086170 -0.080702 -0.023308 -0.597555 -0.801490
1.082128 -0.038202 -0.078838 0.000145 -0.432242 -0.897040
0.494278 -0.078251 -0.039392 -0.001312 -0.889887 -0.446860
0.909230 -0.079070 -0.037721 0.000719 -0.899260 -0.427608
0.259111 0.653158 0.542549 0.047202 0.639097 -0.767677
-0.162394 0.075496 0.044445 -0.000103 0.797116 0.596333
1.376077 -0.046308 -0.074367 0.000361 -0.525734 -0.845413
-0.321940 -0.051873 -0.070599 0.000089 -0.590244 -0.801565
0.321940 -0.051873 -0.070599 -0.000126 -0.590254 -0.801559
0.840018 -0.078952 -0.037967 -0.000561 -0.898401 -0.429551
0.805434 0.078976 0.037917 0.000297 0.897911 0.430429
-0.166374 -0.081464 -0.032225 -0.001113 -0.877548 -0.470449
1.272480 -0.082901 -0.028324 -0.000886 -0.899230 -0.428016
0.719092 -0.073956 -0.046962 -0.000012 -0.774999 -0.625171
-0.534170 -0.054143 0.068873 -0.000676 -0.631880 0.769665
-0.733747 0.074686 0.045792 -0.000259 0.786438 0.610516
-1.340698 0.012847 0.086659 0.001054 0.121798 0.988220
-1.376187 -0.028415 -0.082870 -0.003617 -0.317896 -0.943191
-0.732431 0.047101 0.073867 0.000925 0.437592 0.894431
-0.317169 0.037487 0.079181 0.000116 0.524546 0.846145
-0.200690 0.019079 -0.085504 0.001839 0.291238 -0.951033
1.099492 0.046810 0.074052 -0.000077 0.432063 0.897126
0.115273 -0.347231 -0.305865 0.078684 0.637826 -0.766151
0.564890 0.032827 -0.081224 -0.000535 0.383684 -0.918279
0.072668 -0.246303 0.192376 0.047202 -0.639097 -0.767677
1.501434 -0.000000 0.086489 0.018834 -0.069018 0.992592
1.306979 -0.082709 0.028881 0.001514 -0.942289 0.319140
1.078590 0.121680 -0.096971 -0.023308 0.679880 0.732953
-1.038692 0.049313 0.072409 0.001142 0.609481 0.787502
0.356294 -0.077866 -0.040148 -0.001062 -0.884594 -0.457247
0.391008 -0.052156 -0.070390 -0.000071 -0.596416 -0.797469
0.203783 0.343763 -0.281574 0.047202 0.639097 0.767677
-0.874400 -0.085543 -0.018904 -0.003501 -0.941577 -0.322801
-0.667197 -0.078758 -0.038367 -0.000778 -0.894840 -0.436880
-0.828831 -0.000000 0.087607 -0.002523 0.066262 0.993791
-0.892060 -0.046471 -0.074266 0.000212 -0.526504 -0.844956
0.047193 -0.386821 0.335281 -0.130372 0.578086 0.805494
0.179763 0.017375 -0.085866 -0.000168 0.259564 -0.961265
0.040133 -0.085858 0.017417 -0.000151 -0.960403 0.262708
1.324556 0.079282 -0.037274 0.000251 0.847905 -0.521735
1.078508 0.017195 -0.085903 -0.001613 0.132509 -0.987115
0.030523 -0.341772 0.300253 -0.130372 0.578086 0.805494
0.166433 -0.166636 -0.131817 0.047202 -0.639097 0.767677
-1.012977 -0.038046 -0.078914 0.000036 -0.433497 -0.896572
-0.822737 -0.074165 -0.046631 0.000048 -0.843831 -0.528283
-0.529202 -0.036235 -0.079762 0.001920 -0.405461 -0.908770
-0.129624 -0.132514 0.101215 -0.078612 -0.670181 -0.738023
0.149659 -0.051178 -0.071104 -0.000184 -0.582662 -0.807461
0.087170 0.285393 0.225810 0.047202 0.639097 -0.767677
0.736342 0.068155 0.055044 -0.000052 0.775711 0.624304
0.384695 -0.033432 0.080976 0.001932 -0.318880 0.943204
-1.341748 0.082980 -0.028093 -0.000090 0.944865 -0.311843
1.501434 0.057534 0.021109 1.000000 -0.000000 -0.000000
-1.255008 -0.037994 -0.078939 0.000133 -0.528917 -0.843392
0.089873 0.000000 -0.087607 -0.004407 -0.092869 -0.988492
0.166215 0.166762 0.131909 0.047202 0.639097 -0.767677
-0.358782 -0.016919 0.085957 -0.000141 -0.254393 0.962901
1.455503 0.016988 -0.085517 0.014351 0.068359 -0.992848
-0.089873 0.000000 -0.087607 -0.000330 -0.058217 -0.995140
0.198344 0.649814 -0.536029 0.005241 0.650425 0.758905
0.521937 0.075432 -0.044553 0.000459 0.863689 -0.495457
-0.594645 0.065287 0.058417 -0.000031 0.744404 0.661301
-1.133981 -0.062231 -0.061663 0.000028 -0.707357 -0.700795
1.324201 -0.019162 -0.085485 -0.003436 -0.324339 -0.941083
1.203233 0.028966 0.082679 0.000471 0.432245 0.897069
-0.770884 -0.054295 -0.068753 -0.000018 -0.616791 -0.781685
1.168593 0.028940 0.082689 0.001328 0.319695 0.942088
-1.324222 -0.037885 -0.078991 -0.000059 -0.529212 -0.843444
-0.857433 -0.074237 -0.046516 -0.000003 -0.778750 -0.620489
0.477300 0.060390 0.063466 -0.000066 0.600872 0.794009
-1.012875 -0.085593 -0.018673 -0.003318 -0.942188 -0.321379
1.376077 0.028834 -0.082726 -0.000418 0.330493 -0.939421
-0.231615 0.074924 0.045401 0.000962 0.852994 0.513452
-0.032153 -0.318718 0.273563 -0.130372 0.578086 0.805494
0.598121 -0.078486 -0.038921 0.000009 -0.837102 -0.538855
0.546465 0.060786 0.063087 -0.000023 0.767821 0.633973
-0.432776 0.049070 -0.072574 0.000150 0.658616 -0.746975
0.712474 -0.066344 0.057214 0.000410 -0.790926 0.605532
-1.341585 -0.074333 -0.046363 -0.000004 -0.845446 -0.525699
-1.376292 -0.074487 0.046116 -0.000485 -0.846759 0.523632
-0.560076 0.065903 0.057721 -0.000006 0.668795 0.737686
-0.802938 0.073457 0.047739 0.000036 0.769557 0.631854
0.484177 -0.079773 0.036211 0.001686 -0.882375 0.461931
0.704923 0.080403 -0.034788 0.000999 0.944440 -0.315961
-1.324329 0.054973 -0.068212 0.000056 0.624441 -0.775618
-0.230572 0.029714 0.082413 -0.000029 0.443095 0.891817
-1.053186 0.078987 -0.037894 -0.002316 0.934555 -0.342542
-1.082133 -0.068756 -0.054291 -0.000020 -0.781922 -0.616499
-1.393566 0.068768 -0.054276 0.000078 0.706390 -0.701804
-1.376077 0.046308 0.074367 -0.000419 0.525442 0.845615
-0.028327 -0.080928 -0.033549 0.000708 -0.921431 -0.376669
0.056768 0.317141 -0.286824 0.008893 -0.620409 -0.782492
0.038531 0.115031 -0.120438 0.078684 -0.637826 -0.766151
1.307213 -0.028389 0.082879 0.001340 -0.312958 0.944396
0.738289 0.045473 -0.074880 -0.001556 0.542493 -0.833835
0.218665 0.051657 0.070757 0.000229 0.674472 0.732552
-0.888906 0.037538 -0.079157 0.000575 0.485439 -0.869222
-1.393447 -0.068516 -0.054594 0.000141 -0.703345 -0.704828
-1.220489 -0.038144 -0.078867 -0.000064 -0.530341 -0.842494
1.341473 0.029119 -0.082626 0.000896 0.320143 -0.941923
-0.870591 -0.017088 0.085924 -0.002893 -0.316232 0.944311
