1.441542 0.121551 -0.108710 0.009601 0.670805 0.741572
0.186532 -0.339134 -0.292935 -0.043051 -0.687963 0.724467
-0.522797 0.021825 0.102070 -0.002988 0.341215 0.934872
0.191911 -0.540693 0.484018 -0.043051 -0.687963 -0.724467
1.071308 0.049162 0.092074 -0.000223 0.425522 0.901800
0.037286 0.173781 0.160462 -0.015535 -0.661703 0.749605
0.404207 -0.379375 -0.332835 0.118746 -0.664243 0.738025
1.054220 0.059723 -0.085603 -0.000386 0.656159 -0.750678
0.391962 -0.619860 0.547309 0.010967 -0.681581 -0.730635
0.597263 -0.063771 -0.082631 -0.000305 -0.549360 -0.832076
1.169265 -0.089528 0.053659 -0.000018 -0.799933 0.595617
-0.050006 0.122322 0.101103 -0.043051 0.687963 -0.724467
-0.782750 -0.042630 -0.095275 0.000545 -0.500773 -0.862032
1.175403 0.091439 -0.084479 -0.005818 -0.662969 -0.748624
0.793462 0.083898 -0.062095 -0.000267 0.782395 -0.617934
0.136189 0.302454 -0.261094 -0.043051 0.687963 0.724467
1.474277 0.033715 -0.099006 -0.006296 0.219474 -0.972550
-0.499424 0.104377 -0.000000 0.000002 0.996313 -0.051887
0.353725 -0.339113 0.311243 0.043066 0.668356 0.742594
-0.125057 -0.134272 -0.122221 -0.015535 0.661703 -0.749605
0.166981 0.307715 0.264261 -0.043051 0.687963 -0.724467
-0.436121 0.033061 0.099003 -0.001888 0.212632 0.974089
0.386347 -0.258883 0.237142 0.043066 0.668356 0.742594
0.736642 -0.088683 0.055045 -0.000957 -0.900860 0.426652
0.391586 0.711425 0.642403 -0.015535 -0.661703 0.749605
0.124090 -0.307468 0.280271 -0.015535 0.661703 0.749605
0.003137 -0.367313 0.330592 -0.015535 0.661703 0.749605
0.545672 0.058082 -0.086724 0.002186 0.497353 -0.864121
-0.003420 -0.154422 -0.142530 -0.015535 0.661703 -0.749605
-1.488245 0.081561 -0.054440 -0.188138 0.805353 -0.556155
0.999598 0.100751 0.027274 0.001905 0.930653 0.356112
1.438341 0.039760 0.096508 0.000480 0.374064 0.925399
0.126394 -0.221959 0.185237 -0.043051 -0.687963 -0.724467
0.190865 -0.095523 -0.042072 -0.001066 -0.890388 -0.448122
-0.115524 -0.130485 0.112749 -0.043051 -0.687963 -0.724467
0.236692 0.492305 0.445767 -0.015535 -0.661703 0.749605
1.243000 -0.159945 -0.145672 -0.005818 0.662969 -0.748624
0.266280 0.140966 -0.100013 -0.043051 0.687963 0.724467
-0.041551 0.092881 -0.087415 -0.015535 -0.661703 -0.749605
-0.544050 -0.057521 0.087097 0.001712 -0.499490 0.862753
0.068750 -0.096105 -0.040724 0.000304 -0.941523 -0.324879
1.279170 0.142749 -0.130724 -0.005818 -0.662969 -0.748624
0.162310 -0.286027 -0.243944 -0.043051 -0.687963 0.724467
-0.119535 0.063439 0.082886 -0.000296 0.639857 0.764720
1.244956 0.130513 0.115277 -0.005818 0.674918 -0.737870
1.205938 0.095901 0.041202 -0.000396 0.869359 0.487372
0.163430 0.100125 0.029488 -0.001465 0.971534 0.228303
0.088144 0.395715 0.352512 -0.043051 0.687963 -0.724467
0.293742 0.072853 0.075080 0.020279 -0.665953 0.745528
0.293559 0.585566 -0.529271 -0.015535 -0.661703 -0.749605
-1.468057 0.014697 -0.100747 -0.164446 0.208849 -0.960670
1.227445 0.201140 0.182033 -0.005818 -0.662969 0.748624
0.100119 -0.294683 -0.255859 -0.043051 -0.687963 0.724467
1.400737 -0.235773 0.212899 0.009601 0.667082 0.744922
0.326593 0.553232 0.487922 -0.043051 0.687963 -0.724467
1.199851 -0.255583 -0.230032 -0.005818 0.662969 -0.748624
-0.509525 -0.071554 -0.075991 0.000074 -0.709705 -0.700134
0.308595 0.507368 0.445438 -0.043051 0.687963 -0.724467
-1.418364 -0.000000 0.104377 0.001838 0.053054 0.995743
0.457739 0.240783 0.216712 0.043066 -0.668356 0.742594
0.105942 -0.413614 0.373595 -0.015535 0.661703 0.749605
0.388276 0.417327 -0.379635 0.043066 -0.668356 -0.742594
0.075974 0.383716 -0.346581 -0.015535 -0.661703 -0.749605
0.289045 -0.477828 0.434073 -0.015535 0.661703 0.749605
0.374243 -0.393161 0.358699 0.043066 0.668356 0.742594
-0.847031 0.030308 -0.099880 0.000761 0.256054 -0.963791
-0.470883 0.035348 -0.098210 0.001728 0.265166 -0.961172
0.198946 -0.293869 0.249213 -0.043051 -0.687963 -0.724467
-1.453140 -0.076722 -0.069520 -0.113250 -0.696353 -0.703102
-1.385605 0.096638 -0.039443 -0.000879 0.896141 -0.435911
0.255779 -0.623173 0.558547 -0.043051 -0.687963 -0.724467
-0.657838 0.101975 -0.022265 0.000030 0.940003 -0.329092
1.474277 -0.033715 0.099006 -0.006296 -0.219474 0.972550
-0.035078 0.099248 0.032318 -0.001317 0.933645 0.349604
-1.158664 0.104377 -0.000000 0.000002 0.987629 -0.127660
0.912376 0.065271 -0.081451 -0.000088 0.565133 -0.821362
-0.346961 0.022062 -0.102019 -0.000018 0.255307 -0.962840
1.395629 -0.122163 -0.108669 0.009601 -0.670805 0.741572
0.121915 -0.128850 -0.097086 -0.043051 -0.687963 0.724467
1.432422 -0.169818 0.152253 0.009601 -0.670805 -0.741572
-1.489023 0.015359 0.096670 -0.203228 0.221952 0.949477
1.238319 -0.039609 -0.096570 0.001219 -0.408359 -0.909391
-0.690509 -0.091185 0.050793 0.000194 -0.842197 0.533591
0.427915 0.502195 0.453719 0.043066 -0.668356 0.742594
-0.394576 0.071500 0.076042 0.000086 0.733956 0.674760
0.386641 -0.096471 0.039849 -0.000286 -0.875800 0.476140
-0.759125 -0.000000 0.104377 0.000378 0.063925 0.993813
1.119632 0.212427 0.191190 -0.005818 0.674918 -0.737870
0.304200 -0.697477 0.626230 -0.043051 -0.687963 -0.724467
-0.309190 0.102062 -0.021861 0.000273 0.963971 -0.251184
-0.040880 -0.148346 0.136390 -0.015535 0.661703 0.749605
0.837828 -0.082401 0.064068 -0.000492 -0.742805 0.664710
0.321930 -0.449844 -0.410052 -0.015535 0.661703 -0.749605
0.339359 0.098771 -0.033748 0.000018 0.959771 -0.269846
-0.208419 0.090747 -0.080533 -0.043051 0.687963 0.724467
0.080902 0.028613 -0.100379 0.002298 0.301851 -0.949079
1.183807 -0.246952 0.222264 -0.005818 -0.674918 -0.737870
1.423678 0.324304 -0.291883 0.009601 -0.667082 -0.744922
1.423678 -0.324304 0.291883 0.009601 -0.670805 -0.741572
1.438937 0.280820 -0.252747 0.009601 -0.667082 -0.744922
1.505059 -0.092391 0.083154 0.009601 -0.670805 -0.741572
0.829174 -0.049804 -0.091729 -0.000055 -0.522944 -0.848808
-0.094406 0.177130 -0.155788 -0.043051 0.687963 0.724467
0.179287 -0.093343 0.046708 -0.000207 -0.896008 0.439105
0.398379 0.648375 0.574005 -0.019908 0.685323 -0.727211
0.409008 -0.314954 0.275627 0.118746 -0.664243 -0.738025
1.131928 -0.089108 -0.054355 0.000340 -0.809190 -0.582317
0.263664 0.272332 0.224916 -0.043051 0.687963 -0.724467
0.119862 -0.000000 0.104377 -0.002276 0.069057 0.992991
1.018825 -0.000000 -0.104377 -0.000402 -0.049108 -0.995429
0.273060 -0.240578 -0.224312 -0.015535 0.661703 -0.749605
-0.040072 0.033775 -0.098762 -0.000360 0.271153 -0.959363
0.457739 0.463330 -0.417011 0.118746 0.664243 0.738025
0.457739 0.552349 -0.497130 0.118746 0.664243 0.738025
0.457739 -0.136928 0.123239 0.043066 0.668356 0.742594
0.011416 0.034515 0.098506 0.000222 0.370742 0.925766
1.510146 0.036497 0.045260 1.000000 0.000000 -0.000000
-0.038908 0.316925 -0.285242 -0.043051 0.687963 0.724467
-0.154529 0.178358 -0.160527 -0.043051 0.687963 0.724467
-0.217595 -0.102776 0.092501 -0.015535 0.661703 0.749605
-0.419516 -0.104377 0.000000 0.003958 -0.996808 -0.060688
1.510146 -0.102780 0.020478 -0.001961 -0.994489 0.060326
0.273242 -0.092342 0.053426 -0.000000 0.743284 -0.668976
0.399042 0.558961 0.506485 0.043066 -0.668356 0.742594
-0.709182 0.017086 -0.102969 0.001311 0.053811 -0.995627
0.045181 -0.417701 0.375943 -0.015535 0.661703 0.749605
0.253561 0.435998 -0.396413 -0.015535 -0.661703 -0.749605
1.081877 -0.056895 -0.087507 -0.000447 -0.630688 -0.772276
-0.726450 -0.096288 -0.040291 0.000359 -0.897401 -0.433558
1.312157 0.316001 -0.284410 -0.005818 -0.662969 -0.748624
1.151720 -0.229689 -0.206727 -0.005818 0.662969 -0.748624
1.360288 0.341895 0.307715 -0.005818 0.674918 -0.737870
1.360288 0.341895 -0.307715 -0.005818 -0.662969 -0.748624
0.457739 -0.567186 0.510483 0.043066 0.668356 0.742594
-0.007772 -0.284673 -0.252765 -0.043051 -0.687963 0.724467
0.648127 -0.095725 0.041610 -0.000054 -0.892316 0.444069
1.118944 0.042636 -0.095272 0.000794 0.429870 -0.899371
-1.107485 0.041694 -0.095688 -0.000174 0.493846 -0.865940
0.689223 0.017231 -0.102945 -0.000135 0.109661 -0.990919
-0.288260 0.036648 -0.097732 0.001117 0.279728 -0.956820
1.360417 -0.031913 -0.099379 -0.000993 -0.366842 -0.926689
0.244890 -0.657044 -0.591359 -0.043051 -0.687963 0.724467
-1.299381 0.102735 -0.018445 -0.002068 0.975879 -0.205333
-0.544800 -0.102544 -0.019478 0.001082 -0.961401 -0.262734
0.200115 0.518389 -0.462351 -0.043051 0.687963 0.724467
-0.336434 0.062256 0.083778 0.000157 0.565448 0.821124
-0.379322 -0.036294 -0.097864 0.000658 -0.376347 -0.923215
0.326593 0.546465 -0.495440 -0.015535 -0.661703 -0.749605
-0.329364 -0.085424 0.059978 -0.000117 -0.750219 0.656638
0.268830 -0.584310 -0.527650 -0.015535 0.661703 -0.749605
0.189694 -0.484849 -0.438212 -0.015535 0.661703 -0.749605
-0.850284 -0.103090 -0.016346 -0.000285 -0.977480 -0.197116
0.039954 0.104377 -0.000000 0.000058 0.992654 -0.078512
0.947966 -0.041761 0.095659 -0.003391 -0.335248 0.937428
1.258548 0.104377 -0.000000 0.000260 0.993421 -0.065222
0.401719 -0.090197 -0.052527 0.000006 -0.822703 -0.563127
-1.598408 0.030287 0.030242 -0.626293 0.502373 0.589435
1.167422 0.184709 -0.165461 -0.005818 0.674918 0.737870
1.329191 0.271111 -0.243216 -0.005818 0.674918 0.737870
0.051455 -0.316571 -0.279536 -0.043051 -0.687963 0.724467
0.559739 -0.035464 0.098168 0.000690 -0.377715 0.922829
1.383362 -0.073506 0.067811 -0.000000 0.743284 -0.668976
0.085382 0.325683 -0.286173 -0.043051 0.687963 0.724467
1.372777 0.256548 0.231863 0.009601 -0.667082 0.744922
0.275293 0.347953 0.319143 -0.015535 -0.661703 0.749605
-1.030456 -0.092968 0.047451 -0.001729 -0.859110 0.505941
-1.093683 -0.089527 0.053661 0.001413 -0.793540 0.603638
0.334597 0.630162 -0.560501 -0.043051 0.687963 0.724467
-1.277360 0.033334 -0.098911 0.000117 0.269692 -0.959767
-1.514992 -0.057259 0.070006 -0.352371 -0.484550 0.792199
1.343186 0.101818 -0.093683 0.009601 -0.667082 -0.744922
0.398652 0.470696 0.414133 0.118746 0.664243 -0.738025
0.187719 0.364676 -0.332090 -0.015535 -0.661703 -0.749605
0.469484 0.103445 -0.013921 -0.000579 0.968951 -0.236344
0.353038 -0.621244 -0.550936 -0.043051 -0.687963 0.724467
1.299178 0.220828 0.200026 -0.005818 -0.662969 0.748624
1.320703 0.185150 -0.168597 -0.000678 -0.664355 -0.747407
0.326160 -0.224199 -0.209416 0.043066 0.668356 -0.742594
0.418834 0.382046 -0.346108 0.043066 -0.668356 -0.742594
1.261986 0.047577 -0.092903 0.004070 0.550010 -0.830834
1.333118 0.172540 0.157145 0.009601 -0.667082 0.744922
-1.006691 0.046739 0.093328 -0.000864 0.487041 0.869953
-0.268761 0.081802 -0.064831 0.000018 0.734019 -0.674663
0.140742 0.452051 -0.408246 -0.015535 -0.661703 -0.749605
1.391551 0.257478 -0.231018 0.009601 0.670805 0.741572
1.134873 0.082507 0.076254 -0.005818 -0.662969 0.748624
1.399995 -0.223615 -0.202021 0.009601 0.667082 -0.744922
0.088780 0.050694 0.091240 0.000333 0.513901 0.854354
0.320713 -0.642928 0.573448 -0.043051 -0.687963 -0.724467
0.319502 -0.537073 -0.472999 -0.043051 -0.687963 0.724467
1.031671 -0.110840 0.100543 -0.005818 0.662969 0.748624
-1.195946 0.080483 -0.066462 0.000636 0.732312 -0.677108
1.382005 0.102706 0.093978 0.009601 -0.667082 0.744922
0.385264 0.260485 -0.238647 0.043066 -0.668356 -0.742594
0.151068 0.373600 0.327772 -0.043051 0.687963 -0.724467
-0.165040 0.165761 0.149190 -0.043051 0.687963 -0.724467
0.395347 0.153421 0.141702 0.043066 -0.668356 0.742594
1.290909 -0.076983 -0.070486 -0.002057 -0.705747 -0.704563
-0.215036 0.059884 0.085490 0.001469 0.527559 0.846029
0.327789 0.320572 -0.296060 0.023537 -0.666334 -0.745150
0.298813 0.388665 -0.355568 -0.015535 -0.661703 -0.749605
0.397485 0.037467 0.097421 0.000061 0.409059 0.909276
0.828993 -0.096159 -0.040596 -0.000715 -0.866243 -0.492372
0.308883 -0.070238 -0.077209 -0.000167 -0.697423 -0.711526
0.354126 -0.118850 -0.090298 0.118746 -0.664243 0.738025
0.403644 -0.502040 -0.443147 0.118746 -0.664243 0.738025
-1.600242 0.028249 -0.030020 -0.664025 0.420343 -0.611755
-0.098659 -0.091006 0.051113 -0.000380 -0.905014 0.417629
1.379514 0.101836 -0.022892 -0.004109 0.935912 -0.341700
0.187444 0.092785 -0.047808 -0.000571 0.854769 -0.511864
-0.026545 -0.092897 0.047590 -0.000909 -0.834956 0.544769
0.240205 0.158826 0.118522 -0.043051 0.687963 -0.724467
0.857872 0.046639 0.093378 -0.000522 0.475705 0.876043
0.441062 0.086237 0.058803 -0.000382 0.802454 0.591652
1.043315 -0.122475 -0.109515 -0.005818 -0.674918 0.737870
0.145002 0.166949 0.156663 -0.015535 -0.661703 0.749605
1.186253 -0.113138 -0.099847 -0.005818 -0.674918 0.737870
1.023370 0.160640 0.144581 -0.005818 0.674918 -0.737870
0.257846 -0.350990 0.299955 -0.043051 -0.687963 -0.724467
1.308695 -0.117830 -0.103623 0.009601 -0.670805 0.741572
0.208312 0.536934 0.479474 -0.043051 0.687963 -0.724467
-1.526974 0.077406 0.037428 -0.361326 0.764282 0.523767
1.350556 -0.198646 -0.177270 0.009601 -0.670805 0.741572
0.457739 0.151764 0.136592 0.043066 -0.668356 0.742594
-0.605326 -0.103584 -0.012848 -0.006042 -0.976801 -0.205457
1.438341 0.096407 0.040004 -0.002994 0.917938 0.390268
0.331729 -0.116204 0.111895 0.043066 0.668356 0.742594
-0.643559 -0.021858 0.102063 -0.000165 -0.323364 0.942065
-1.252714 0.077857 -0.069520 -0.000555 0.711099 -0.698574
-1.111951 -0.019457 0.102548 0.000425 -0.296697 0.951364
0.216398 -0.147384 0.140872 -0.015535 0.661703 0.749605
-1.187849 -0.020591 0.102326 0.000222 -0.302139 0.949673
0.457739 -0.329802 0.296831 0.043066 0.668356 0.742594
1.187117 -0.188510 0.170534 -0.005818 0.662969 0.748624
1.499973 0.106885 0.096200 0.009601 -0.667082 0.744922
-1.191683 -0.096183 0.040538 -0.000159 -0.872892 0.481322
-0.937523 -0.021759 -0.102084 -0.000897 -0.278622 -0.956347
-0.888696 -0.071406 -0.076130 -0.000069 -0.757467 -0.648249
0.317428 0.142646 -0.136523 0.043066 -0.668356 -0.742594
0.049669 0.122635 0.115570 -0.015535 -0.661703 0.749605
-0.087584 0.019042 0.102626 0.001344 0.291055 0.953178
-1.178641 0.000000 -0.104377 0.000679 -0.060416 -0.994477
-1.357139 -0.101902 -0.022596 0.000686 -0.959158 -0.267993
1.262639 -0.249101 0.224780 -0.005818 0.662969 0.748624
1.262639 -0.249101 -0.224780 -0.005818 0.662969 -0.748624
1.221609 -0.098917 0.091461 -0.005818 0.662969 0.748624
0.336312 0.461044 0.420237 -0.015535 -0.661703 0.749605
0.561220 -0.099142 -0.032641 0.000583 -0.923743 -0.374213
0.090656 -0.208351 -0.192084 -0.015535 0.661703 -0.749605
0.420839 0.748175 -0.667442 0.073910 0.672268 0.735818
1.262639 0.249101 -0.224780 -0.005818 -0.662969 -0.748624
1.510146 -0.029802 -0.022846 1.000000 -0.000000 -0.000000
0.406460 -0.243579 -0.210978 0.118746 -0.664243 0.738025
1.475348 -0.063861 -0.082836 -0.007364 -0.530448 -0.844639
0.414424 0.622178 -0.562491 0.043066 -0.668356 -0.742594
-1.600041 -0.039697 -0.011738 -0.668071 -0.690396 -0.261240
0.390906 -0.516232 0.468499 0.043066 0.668356 0.742594
1.328442 0.103445 0.013921 0.000593 0.968872 0.236604
-0.155408 0.063678 -0.082702 0.000574 0.630407 -0.772374
0.278356 -0.102738 -0.018425 0.000745 -0.958781 -0.269285
-0.079443 -0.214187 0.193711 -0.015535 0.661703 0.749605
1.313275 -0.273097 -0.246423 -0.005818 0.662969 -0.748624
0.420305 -0.651470 0.588512 0.043066 0.668356 0.742594
-0.030297 0.186714 -0.161080 -0.043051 0.687963 0.724467
0.943151 -0.117484 -0.105739 -0.005818 0.662969 -0.748624
0.344102 0.458849 -0.418460 -0.015535 -0.661703 -0.749605
0.457739 -0.389148 0.350244 0.043066 0.668356 0.742594
-0.571879 0.043268 0.094987 -0.001418 0.453382 0.887976
0.077822 -0.151465 0.121182 -0.043051 -0.687963 -0.724467
0.457739 0.344638 0.310185 0.043066 -0.668356 0.742594
0.455971 -0.018945 0.102644 -0.002481 -0.226026 0.970913
0.507088 0.022734 0.101872 0.001827 0.266276 0.959659
0.308844 -0.151826 0.145283 0.043066 0.668356 0.742594
0.201065 -0.399665 -0.349552 -0.043051 -0.687963 0.724467
0.433313 0.423879 0.377574 0.118746 0.664243 -0.738025
1.081895 0.108251 -0.098640 -0.005818 -0.662969 -0.748624
1.117689 -0.164876 -0.149065 -0.005818 0.662969 -0.748624
0.335162 0.627528 0.567174 -0.015535 -0.661703 0.749605
-0.083558 0.190752 0.168079 -0.043051 0.687963 -0.724467
-0.151229 0.105939 0.091562 -0.043051 0.687963 -0.724467
0.236428 -0.100538 0.099935 -0.015535 0.661703 0.749605
0.255401 0.669641 -0.602696 -0.043051 0.687963 0.724467
1.389483 -0.095523 -0.042072 -0.001069 -0.890229 -0.448483
0.133440 0.453193 0.409102 -0.015535 -0.661703 0.749605
-1.424472 0.093601 0.046189 -0.000456 0.874942 0.479173
0.340765 -0.484654 0.421958 -0.043051 -0.687963 -0.724467
-0.998076 0.023255 -0.101754 -0.004189 0.344371 -0.934927
0.542141 -0.079492 0.067643 -0.000159 -0.824232 0.560642
-0.519266 0.092212 -0.048903 -0.001367 0.924281 -0.374197
-0.209035 -0.092285 -0.048765 0.000525 -0.912892 -0.399638
-1.484888 -0.097124 -0.018128 -0.248356 -0.934061 -0.238420
0.395512 -0.696483 -0.629294 -0.015535 0.661703 -0.749605
1.142185 -0.018945 -0.102644 0.002481 -0.226026 -0.970913
-1.299378 -0.064314 0.082209 -0.000024 -0.696106 0.713773
0.401681 -0.181404 0.154249 0.118746 -0.664243 -0.738025
-0.850462 -0.041692 0.095689 0.000925 -0.494570 0.865610
0.418834 0.183299 -0.167230 0.043066 -0.668356 -0.742594
-0.040738 -0.087170 -0.057412 0.000091 -0.802110 -0.592122
-0.139829 -0.098618 -0.034193 -0.003257 -0.950182 -0.299173
-0.660608 0.098040 0.035815 0.000195 0.917594 0.389934
0.649838 0.077108 -0.070349 -0.000091 0.697192 -0.712660
0.824852 0.091867 0.049549 -0.000339 0.893301 0.442526
0.649251 -0.017086 0.102969 -0.001686 -0.053975 0.995447
-0.401041 0.101354 -0.024938 0.002544 0.936021 -0.342105
-0.320989 -0.085962 -0.059205 -0.000043 -0.755570 -0.650444
-0.789874 0.069941 0.077478 0.000101 0.627337 0.774824
0.207059 0.283679 -0.239054 -0.043051 0.687963 0.724467
0.194495 0.073080 0.074828 0.000000 -0.743284 -0.668976
-0.658319 -0.087758 -0.056508 -0.000127 -0.805795 -0.587065
0.646744 0.098252 0.035230 -0.001678 0.950723 0.298725
0.270514 0.042055 -0.095530 -0.000325 0.444852 -0.891893
-0.809091 -0.102757 0.018323 0.000066 -0.956514 0.280746
-1.298502 -0.000000 0.104377 0.000376 0.112884 0.990373
-1.348556 0.049422 0.091935 0.000096 0.373392 0.924434
-0.958894 0.104377 -0.000000 -0.000022 0.995520 -0.054398
1.358433 -0.000000 0.104377 -0.002681 0.113597 0.990370
0.223627 -0.462777 0.408143 -0.043051 -0.687963 -0.724467
-0.969071 -0.091902 -0.049485 0.000109 -0.924140 -0.374040
-0.859009 0.104377 -0.000000 -0.000677 0.996052 -0.047401
0.729142 -0.017231 -0.102945 0.000135 -0.109661 -0.990919
-0.918882 -0.098715 0.033912 0.000124 -0.959218 0.271590
0.737282 0.099142 0.032641 -0.000583 0.923743 0.374213
-1.358001 0.064401 -0.082141 -0.000131 0.569436 -0.818349
-0.619130 -0.034052 -0.098666 -0.000099 -0.271521 -0.959284
-0.244287 0.094410 0.044512 -0.000167 0.886050 0.456894
-1.018824 -0.082456 -0.063997 -0.000002 -0.849577 -0.521727
0.415210 -0.619776 -0.560283 0.043066 0.668356 -0.742594
0.599309 0.000000 -0.104377 -0.001551 -0.042980 -0.996650
0.959195 -0.126115 0.113507 -0.005818 -0.674918 -0.737870
0.457739 -0.463330 -0.417011 0.118746 -0.664243 0.738025
-0.079908 0.000000 -0.104377 -0.002983 -0.126307 -0.987301
0.249582 0.049804 0.091729 0.000055 0.522944 0.848808
0.009983 -0.017358 -0.102924 0.000097 -0.218691 -0.972668
-1.318701 0.087144 0.057450 -0.000083 0.801577 0.592928
1.231036 -0.097987 -0.035962 -0.000037 -0.909615 -0.407599
-0.690665 0.069488 0.077885 0.000185 0.706028 0.703945
1.078891 -0.092212 -0.048903 -0.001367 -0.924281 -0.374197
-0.001743 -0.124040 -0.099867 -0.043051 -0.687963 0.724467
-0.898445 0.057756 -0.086942 0.000301 0.597325 -0.798187
1.400662 0.144987 -0.131600 0.009601 -0.667082 -0.744922
-0.759785 0.098279 0.035156 0.000027 0.918915 0.386960
1.248877 -0.049956 0.091646 0.001491 -0.537801 0.839310
0.040497 -0.229141 -0.197162 -0.043051 -0.687963 0.724467
-0.758709 0.068662 -0.078614 0.001413 0.684822 -0.724874
-1.358282 -0.034044 -0.098669 -0.000246 -0.376394 -0.923162
0.196705 -0.182872 -0.143942 -0.043051 -0.687963 0.724467
1.456799 0.079288 -0.068050 -0.008732 0.804967 -0.587675
0.687922 -0.076947 0.070525 -0.000414 -0.657923 0.749027
0.405598 -0.440486 0.399474 0.043066 0.668356 0.742594
-0.740060 -0.081616 0.065065 0.000247 -0.813280 0.576834
-0.150903 0.103460 0.013806 -0.000488 0.979331 0.189447
0.009450 0.076849 -0.070631 0.000000 0.695141 -0.714661
0.171071 0.041020 -0.095979 -0.000581 0.442117 -0.893363
-0.889719 -0.070438 0.077027 0.000345 -0.713815 0.696026
0.093057 0.176106 0.163670 -0.015535 -0.661703 0.749605
-0.433918 -0.076945 0.070528 -0.000054 -0.711627 0.698225
0.248926 0.095477 0.042174 0.000204 0.863845 0.497106
0.206998 0.329392 0.301343 -0.015535 -0.661703 0.749605
1.217746 0.161539 0.146888 -0.005818 -0.662969 0.748624
-1.250313 -0.077382 0.070047 0.000059 -0.660897 0.746582
0.296722 0.656467 0.587731 -0.043051 0.687963 -0.724467
0.550470 0.095568 0.041969 0.000030 0.864568 0.495953
1.317333 -0.087337 0.057157 -0.000048 -0.769358 0.634058
-1.008573 0.070881 -0.076619 -0.000065 0.715297 -0.694492
-1.396554 -0.099999 0.029915 -0.000582 -0.969799 0.234410
1.136561 -0.056556 0.087727 0.000055 -0.435670 0.896453
0.879576 -0.099007 0.033048 0.000136 -0.974412 0.211311
0.113758 0.115089 0.084504 -0.043051 0.687963 -0.724467
0.306584 -0.317001 0.292468 -0.015535 0.661703 0.749605
0.372710 -0.525062 -0.477502 0.004003 0.664117 -0.747487
0.443668 -0.293628 -0.262010 0.118746 -0.664243 0.738025
0.601222 0.087641 -0.056689 0.000467 0.773847 -0.628536
-1.060208 0.081967 0.064623 -0.000846 0.713684 0.695839
1.321564 0.262857 0.235726 -0.005818 0.674918 -0.737870
-0.812552 0.067935 -0.079243 -0.002279 0.686613 -0.723634
0.435301 0.587185 0.529785 0.043066 -0.668356 0.742594
0.125157 -0.443210 -0.400118 -0.015535 0.661703 -0.749605
-1.156385 -0.054788 -0.088842 0.000022 -0.576852 -0.813176
0.302493 0.303726 0.280666 -0.015535 -0.661703 0.749605
0.457739 -0.136928 -0.123239 0.118746 -0.664243 0.738025
0.106939 -0.343896 0.312072 -0.015535 0.661703 0.749605
-0.948904 0.091816 0.049644 0.000125 0.902304 0.424019
-1.260583 -0.064255 -0.082255 0.000346 -0.664887 -0.742638
0.409689 -0.420434 -0.370671 0.118746 -0.664243 0.738025
0.364357 0.122164 -0.115367 0.043066 -0.668356 -0.742594
0.599141 -0.100702 0.027453 0.004891 -0.951339 0.297722
1.164867 -0.111178 0.101877 -0.005818 0.662969 0.748624
0.282868 0.116081 0.114618 0.023537 -0.666334 0.745150
0.171313 -0.568865 -0.511995 -0.043051 -0.687963 0.724467
0.181200 0.232460 0.191953 -0.043051 0.687963 -0.724467
0.441495 0.310016 -0.276410 0.118746 0.664243 0.738025
0.959143 -0.098771 0.033748 -0.000018 -0.959771 0.269846
1.069258 0.103335 -0.014714 -0.000806 0.992631 -0.090733
0.324381 -0.403351 0.369062 -0.015535 0.661703 0.749605
-1.230379 0.078037 0.069317 0.000333 0.702763 0.707328
0.439032 0.116064 -0.105546 0.043066 -0.668356 -0.742594
0.294172 0.472584 -0.413264 -0.043051 0.687963 0.724467
0.307756 -0.032641 0.099142 0.000228 -0.347309 0.934543
-0.551751 -0.048687 -0.092327 -0.000293 -0.530528 -0.844497
-0.040779 0.290137 0.259915 -0.043051 0.687963 -0.724467
0.259582 0.156724 -0.150012 -0.015535 -0.661703 -0.749605
0.159578 0.487135 -0.439606 -0.015535 -0.661703 -0.749605
0.827418 -0.033945 0.098704 -0.001496 -0.399127 0.912728
1.388388 -0.278904 0.250359 0.009601 -0.670805 -0.741572
0.992066 -0.105036 -0.093967 -0.005818 -0.674918 0.737870
-0.620734 -0.098326 0.035023 0.000355 -0.918100 0.388704
-0.017221 -0.233189 0.204436 -0.043051 -0.687963 -0.724467
-0.840509 -0.059666 -0.085642 -0.001073 -0.607031 -0.791516
-1.170997 -0.102383 -0.020307 -0.000409 -0.964774 -0.248883
-1.038802 0.104377 -0.000000 0.000299 0.995478 -0.056727
0.181200 -0.220779 0.204931 -0.015535 0.661703 0.749605
0.004394 -0.164436 0.151531 -0.015535 0.661703 0.749605
0.210897 -0.254930 -0.211526 -0.043051 -0.687963 0.724467
1.196199 0.129529 -0.114761 -0.005818 0.674918 0.737870
0.408122 -0.036648 -0.097732 -0.001117 -0.279728 -0.956820
0.241045 -0.118471 -0.115861 -0.015535 0.661703 -0.749605
0.668657 -0.096863 -0.038886 -0.003041 -0.939268 -0.334067
1.349053 -0.162318 0.144389 0.009601 -0.670805 -0.741572
-0.227243 0.013895 0.103448 -0.000855 0.094346 0.993284
1.432836 0.152621 0.136702 0.009601 0.670805 -0.741572
0.147609 0.245866 0.226381 -0.015535 -0.661703 0.749605
1.229725 -0.101695 0.023512 -0.001532 -0.960975 0.262836
0.094408 0.240300 0.204555 -0.043051 0.687963 -0.724467
-0.174908 -0.033350 0.098906 -0.002329 -0.339230 0.937800
1.252255 0.058082 0.086724 -0.002186 0.497353 0.864121
0.019302 -0.327583 0.295856 -0.015535 0.661703 0.749605
1.418706 -0.101298 0.025166 -0.000722 -0.954359 0.287657
0.159448 0.227776 -0.188797 -0.043051 0.687963 0.724467
-0.199770 0.104377 -0.000000 0.002075 0.997177 -0.042789
0.271369 -0.396693 0.362086 -0.015535 0.661703 0.749605
0.083007 -0.263328 0.227101 -0.043051 -0.687963 -0.724467
0.281828 0.207798 -0.195558 -0.015535 -0.661703 -0.749605
-1.041216 -0.013112 0.103550 -0.001929 -0.181987 0.980957
0.340747 0.198916 -0.185815 0.043066 -0.668356 -0.742594
0.352156 -0.555822 0.488863 -0.043051 -0.687963 -0.724467
0.499424 -0.104377 0.000000 0.002873 -0.989016 -0.122529
-0.880709 0.021526 0.102134 -0.003746 0.285003 0.954672
-0.189671 -0.093089 0.047213 -0.000096 -0.835111 0.544652
1.213174 0.058063 -0.086737 0.000260 0.623659 -0.779445
-0.151229 -0.105939 -0.091562 -0.043051 -0.687963 0.724467
1.510146 0.086841 -0.019514 1.000000 -0.000000 0.000000
0.970520 0.018545 0.102717 0.002558 0.218411 0.972755
0.201675 0.429998 -0.378321 -0.043051 0.687963 0.724467
0.439970 0.058201 -0.086645 -0.000728 0.600381 -0.795981
0.067428 -0.103583 0.012856 -0.005616 -0.977220 0.202450
1.299178 -0.220828 0.200026 -0.005818 0.662969 0.748624
0.129269 -0.518477 -0.466644 -0.043051 -0.687963 0.724467
0.336613 -0.264504 0.218572 0.118746 -0.664243 -0.738025
-0.601388 0.097970 0.036008 -0.000125 0.914845 0.396300
0.284153 -0.516200 0.467844 -0.015535 0.661703 0.749605
1.425941 0.049669 -0.091802 -0.000254 0.431658 -0.899184
0.005871 -0.018639 0.102700 0.003227 -0.105992 0.991474
0.292494 -0.159900 -0.153498 0.004003 0.664117 -0.747487
0.200859 0.555978 -0.498001 -0.043051 0.687963 0.724467
0.022314 -0.206224 0.176481 -0.043051 -0.687963 -0.724467
-0.264678 -0.064294 0.082225 0.000149 -0.669945 0.738355
0.402901 -0.590064 -0.522252 0.118746 -0.664243 0.738025
0.060673 0.228903 -0.195738 -0.043051 0.687963 0.724467
0.859009 0.104377 -0.000000 0.000480 0.996320 -0.042635
0.207775 -0.066221 0.080681 -0.000715 -0.718060 0.690979
0.392489 0.346382 -0.301255 0.118746 0.664243 0.738025
-0.265255 -0.016847 0.103009 -0.002062 -0.227967 0.970503
1.359766 -0.145059 -0.132192 0.009601 0.667082 -0.744922
0.408005 0.691146 -0.614050 0.068763 0.673092 0.735462
-0.131459 -0.103511 0.013417 -0.000096 -0.980500 0.184158
0.327983 -0.018545 -0.102717 -0.002558 -0.218411 -0.972755
0.911064 0.100222 0.090203 -0.005818 0.674918 -0.737870
-0.239724 -0.104377 0.000000 -0.002523 -0.996182 -0.049603
0.025593 -0.275207 0.249752 -0.015535 0.661703 0.749605
1.463465 -0.017513 -0.103048 -0.007873 -0.056352 -0.995148
-0.623544 0.022035 0.102025 0.000127 0.263762 0.960479
-1.116330 0.101538 -0.024182 0.001133 0.962721 -0.261558
0.400986 0.211315 0.193481 0.043066 -0.668356 0.742594
1.111058 -0.092785 0.047808 0.000571 -0.854769 0.511864
0.519401 0.104377 -0.000000 -0.000342 0.993237 -0.065198
0.819055 0.000000 -0.104377 0.000240 -0.114488 -0.990369
0.412283 0.287315 0.261228 0.043066 -0.668356 0.742594
0.132497 -0.445776 0.397414 -0.043051 -0.687963 -0.724467
-0.997995 -0.060851 0.084804 -0.001221 -0.619436 0.781579
0.357374 -0.376869 -0.323045 0.118746 -0.664243 0.738025
1.133708 0.156076 0.141397 -0.005818 -0.662969 0.748624
0.879432 -0.100889 -0.026758 -0.003889 -0.950627 -0.299750
-0.427464 -0.093716 -0.045956 -0.001370 -0.907824 -0.411850
0.457739 -0.478167 0.430364 0.043066 0.668356 0.742594
0.236369 0.099854 -0.099330 -0.015535 -0.661703 -0.749605
1.263693 -0.115581 0.106545 -0.005818 0.662969 0.748624
0.170245 0.130764 -0.096032 -0.043051 0.687963 0.724467
1.374232 -0.333768 -0.300626 -0.005818 0.662969 -0.748624
0.003137 -0.367313 -0.330592 -0.043051 -0.687963 0.724467
0.071751 0.360033 0.325588 -0.015535 -0.661703 0.749605
0.080604 -0.410418 -0.366922 -0.043051 -0.687963 0.724467
0.315155 0.181677 0.140573 0.118746 0.664243 -0.738025
1.426216 -0.266268 -0.239418 0.009601 -0.670805 0.741572
0.077729 0.174516 -0.161950 -0.015535 -0.661703 -0.749605
1.389059 0.290448 0.260810 0.009601 0.670805 -0.741572
-1.247091 -0.098835 -0.033560 0.000107 -0.947258 -0.310582
0.523851 0.088992 -0.054544 0.000347 0.878748 -0.470851
1.432836 -0.152621 -0.136702 0.009601 -0.670805 0.741572
0.425174 -0.058904 0.086168 0.000582 -0.499705 0.862570
0.324580 -0.320458 -0.266997 0.010967 -0.681581 0.730635
1.280069 0.298739 0.268873 -0.005818 0.674918 -0.737870
1.130032 0.103131 -0.091137 -0.005818 0.674918 0.737870
-0.029370 -0.103375 -0.014433 0.001464 -0.994361 -0.085602
0.169664 -0.144638 -0.137480 -0.015535 0.661703 -0.749605
0.152949 -0.199927 -0.185939 -0.015535 0.661703 -0.749605
0.256156 0.405013 0.369115 -0.015535 -0.661703 0.749605
0.310538 0.438238 0.379676 -0.043051 0.687963 -0.724467
1.378906 -0.267839 -0.241896 0.009601 0.667082 -0.744922
-0.006862 0.137313 0.112775 -0.043051 0.687963 -0.724467
0.093662 0.309889 0.270683 -0.043051 0.687963 -0.724467
-0.068205 -0.218508 -0.193524 -0.043051 -0.687963 0.724467
0.960188 -0.101902 -0.022596 0.000339 -0.958595 -0.270036
1.308908 0.049993 -0.091626 0.000034 0.427251 -0.900744
1.329643 -0.095922 -0.041153 -0.000184 -0.894108 -0.440436
0.205257 -0.084916 -0.085499 -0.015535 0.661703 -0.749605
1.058779 -0.000000 0.104377 0.000991 0.051848 0.994948
0.604446 0.103481 0.013652 0.003613 0.981776 0.178423
0.019237 0.357607 0.322358 -0.015535 -0.661703 0.749605
0.285160 -0.292470 -0.242761 -0.043051 -0.687963 0.724467
-0.009402 -0.104628 0.098451 -0.015535 0.661703 0.749605
0.302120 0.220658 0.173560 0.010967 0.681581 -0.730635
0.332474 -0.657563 -0.593632 -0.015535 0.661703 -0.749605
0.126753 -0.082551 0.063874 0.001749 -0.828902 0.553755
0.111199 0.246488 -0.209433 -0.043051 0.687963 0.724467
0.405264 0.571411 -0.517329 0.043066 -0.668356 -0.742594
0.746420 -0.024433 0.101477 -0.001079 -0.283003 0.955031
0.164698 -0.243923 -0.203819 -0.043051 -0.687963 0.724467
-0.773946 -0.102097 -0.021697 -0.000528 -0.962791 -0.256393
0.001863 -0.192617 -0.176355 -0.015535 0.661703 -0.749605
1.309209 -0.298558 0.268940 -0.005818 0.662969 0.748624
0.044638 0.353594 -0.319342 -0.015535 -0.661703 -0.749605
-0.072596 -0.180308 0.157510 -0.043051 -0.687963 -0.724467
0.355241 0.074626 -0.073110 0.000000 -0.743284 0.668976
0.256215 -0.180826 0.138463 -0.043051 -0.687963 -0.724467
0.270417 -0.232949 0.187116 -0.043051 -0.687963 -0.724467
0.412967 -0.344797 -0.303123 0.118746 -0.664243 0.738025
1.343187 -0.101818 0.093683 0.009601 0.667082 0.744922
1.388064 0.042947 0.095132 0.000390 0.506020 0.858872
1.475348 0.063861 0.082836 -0.004561 0.520002 0.850998
-0.832388 -0.016205 -0.103112 0.002423 -0.221603 -0.972023
0.251066 0.295106 -0.247291 -0.043051 0.687963 0.724467
0.422064 0.240931 -0.218914 0.043066 -0.668356 -0.742594
1.158191 0.098902 -0.033362 -0.000639 0.950562 -0.299131
0.354343 0.245873 0.204657 0.118746 0.664243 -0.738025
-1.523387 -0.013568 0.086327 -0.327622 -0.229045 0.910812
1.152229 -0.188634 -0.170373 -0.005818 0.662969 -0.748624
0.316797 0.584496 0.528808 -0.015535 -0.661703 0.749605
0.165755 0.522993 0.468764 -0.043051 0.687963 -0.724467
0.039502 -0.100328 0.074898 -0.043051 -0.687963 -0.724467
0.111982 -0.477210 0.429858 -0.015535 0.661703 0.749605
-0.734220 0.102284 -0.020801 0.000701 0.961721 -0.259220
1.441542 -0.121551 0.108710 0.009601 -0.670805 -0.741572
0.236502 0.569982 0.509182 -0.043051 0.687963 -0.724467
1.464369 0.208347 0.187519 0.009601 -0.667082 0.744922
-0.765536 -0.079891 -0.067171 0.000759 -0.792609 -0.605383
0.229921 0.277451 0.255967 -0.015535 -0.661703 0.749605
0.451147 -0.012166 -0.103666 0.004218 -0.202096 -0.977163
0.357519 -0.726072 -0.650216 -0.043051 -0.687963 0.724467
-0.966841 0.023218 0.101762 0.004677 0.233585 0.970230
0.241306 -0.184400 -0.174064 -0.015535 0.661703 -0.749605
-0.007541 0.195724 0.168284 -0.043051 0.687963 -0.724467
0.688278 0.103141 0.016016 0.001127 0.992428 0.101802
-0.001987 0.234481 0.213231 -0.015535 -0.661703 0.749605
0.259701 -0.000000 0.104377 -0.000034 0.117026 0.990347
0.440423 -0.102839 -0.089772 0.118746 -0.664243 0.738025
0.238002 0.356533 -0.306399 -0.043051 0.687963 0.724467
-1.078756 0.000000 -0.104377 0.000966 -0.061763 -0.994227
0.340558 0.265813 -0.246035 0.043066 -0.668356 -0.742594
0.243200 -0.264855 0.245124 -0.015535 0.661703 0.749605
-0.904762 0.013034 -0.103560 0.000202 0.083934 -0.994673
0.158196 -0.100065 0.097896 -0.015535 0.661703 0.749605
-1.223619 0.102111 0.021632 -0.000411 0.959903 0.265247
1.510146 0.037324 -0.071166 1.000000 0.000000 0.000000
0.417230 -0.164868 -0.150735 0.043066 0.668356 -0.742594
0.173859 0.184950 -0.173152 -0.015535 -0.661703 -0.749605
1.072169 -0.127331 0.113729 -0.005818 -0.674918 -0.737870
-1.539283 -0.077472 0.022498 -0.384877 -0.872546 0.283394
1.463465 -0.103048 0.017513 -0.007873 -0.995148 0.056352
1.399995 0.223615 -0.202021 0.009601 -0.667082 -0.744922
0.179574 0.298754 -0.273729 -0.015535 -0.661703 -0.749605
0.490082 0.071359 0.076175 0.002987 0.622261 0.778410
0.228089 -0.308899 -0.283690 -0.015535 0.661703 -0.749605
1.357938 -0.298391 -0.267941 -0.005818 -0.674918 0.737870
0.082759 -0.084652 -0.082727 -0.015535 0.661703 -0.749605
0.304524 -0.400307 -0.365964 -0.015535 0.661703 -0.749605
-1.438341 0.039760 0.096508 -0.008940 0.389182 0.918241
0.107246 -0.145111 -0.136604 -0.015535 0.661703 -0.749605
0.205478 0.130947 0.126137 -0.015535 -0.661703 0.749605
1.418364 0.104377 -0.000000 -0.000001 0.996898 -0.041812
1.261054 0.088683 -0.055045 0.000957 0.900860 -0.426652
0.278067 -0.459891 -0.402168 -0.043051 -0.687963 0.724467
0.418634 -0.408482 0.361354 0.118746 -0.664243 -0.738025
0.347041 0.420259 -0.360434 0.064899 0.673675 0.735155
0.346676 0.710586 0.640732 -0.015535 -0.661703 0.749605
-0.086399 0.092828 0.075258 -0.043051 0.687963 -0.724467
0.186532 0.339134 -0.292935 -0.043051 0.687963 0.724467
0.356034 0.106644 0.101881 0.043066 -0.668356 0.742594
0.403644 0.502040 -0.443147 0.118746 0.664243 0.738025
0.439356 -0.216910 -0.196291 0.043066 0.668356 -0.742594
0.318230 -0.198843 0.156518 0.118746 -0.664243 -0.738025
-1.438341 0.096508 -0.039760 -0.017453 0.872598 -0.481078
0.171313 -0.568865 0.511995 -0.015535 0.661703 0.749605
0.253556 0.201665 -0.158409 -0.043051 0.687963 0.724467
0.316797 -0.584496 -0.528808 -0.015535 0.661703 -0.749605
0.050008 -0.042557 0.095308 -0.000257 -0.450092 0.888598
-0.950574 -0.042124 0.095500 0.002766 -0.457909 0.885467
-1.318479 -0.104377 0.000000 -0.004541 -0.994445 -0.061871
1.166328 0.224637 -0.202366 -0.005818 -0.662969 -0.748624
0.209855 0.172918 -0.133708 -0.043051 0.687963 0.724467
0.104891 0.101426 -0.072056 -0.043051 0.687963 0.724467
1.402802 0.075026 0.066123 0.000000 -0.743284 -0.668976
0.223561 -0.554943 -0.495669 -0.043051 -0.687963 0.724467
0.202771 0.238473 -0.196381 -0.043051 0.687963 0.724467
0.179793 -0.104377 0.000000 -0.004862 -0.983769 -0.143695
-0.110329 -0.040585 -0.096164 -0.002977 -0.492651 -0.866325
1.313722 0.019522 0.102536 -0.000509 0.289742 0.953651
0.238065 -0.619915 -0.556505 -0.043051 -0.687963 0.724467
0.176156 -0.372397 -0.325138 -0.043051 -0.687963 0.724467
0.268830 -0.584310 0.527650 -0.015535 0.661703 0.749605
-0.153463 0.106773 -0.092486 -0.043051 0.687963 0.724467
0.187719 -0.371941 0.324019 -0.043051 -0.687963 -0.724467
1.510146 -0.020984 0.076594 1.000000 -0.000000 -0.000000
0.244791 0.584438 -0.527264 -0.015535 -0.661703 -0.749605
-0.319631 -0.000000 0.104377 0.004731 0.049902 0.996219
0.057849 -0.343297 0.310526 -0.015535 0.661703 0.749605
-0.087734 0.228530 0.206201 -0.015535 -0.661703 0.749605
0.235837 -0.539690 0.480456 -0.043051 -0.687963 -0.724467
-1.553486 0.052203 -0.051834 -0.434231 0.590357 -0.673097
1.257028 -0.177168 0.157856 -0.005818 -0.674918 -0.737870
0.294076 -0.295360 0.244976 -0.043051 -0.687963 -0.724467
1.319839 0.079982 0.067063 0.004107 0.721861 0.687492
-0.185906 -0.020380 -0.102368 -0.000695 -0.319241 -0.943039
0.050884 0.290173 -0.263487 -0.015535 -0.661703 -0.749605
1.510146 0.000000 0.020960 1.000000 -0.000000 -0.000000
0.064461 0.280889 0.255573 -0.015535 -0.661703 0.749605
0.794166 -0.087960 0.056194 0.000649 -0.874583 0.478662
0.349714 -0.710427 0.635822 -0.043051 -0.687963 -0.724467
0.379891 -0.744585 0.671432 -0.000000 -0.743284 0.668976
1.257028 0.177168 -0.157856 -0.005818 0.674918 0.737870
-1.461820 -0.032119 -0.097485 -0.119001 -0.416118 -0.898055
0.364933 -0.091395 0.087640 0.043066 0.668356 0.742594
0.992066 0.105036 0.093967 -0.005818 0.674918 -0.737870
-0.522797 -0.021825 0.102070 -0.003021 -0.341167 0.934893
0.218932 -0.408158 0.371120 -0.015535 0.661703 0.749605
-0.122996 -0.216149 0.194540 -0.015535 0.661703 0.749605
0.909546 0.102941 0.017256 -0.002443 0.970176 0.228749
-0.047175 -0.248887 -0.225011 -0.015535 0.661703 -0.749605
1.092317 0.090901 0.080248 -0.005818 0.674918 -0.737870
0.338315 -0.210294 -0.170056 0.118746 -0.664243 0.738025
0.231263 0.456499 0.414048 -0.015535 -0.661703 0.749605
-0.721561 -0.032191 -0.099289 -0.001878 -0.204876 -0.975782
0.117540 0.421014 -0.374790 -0.043051 0.687963 0.724467
0.759125 -0.104377 0.000000 -0.000152 -0.985234 -0.140544
0.084633 -0.225051 0.206701 -0.015535 0.661703 0.749605
0.991282 0.143378 -0.129044 -0.005818 -0.662969 -0.748624
1.009928 0.097337 -0.086784 -0.005818 0.674918 0.737870
-1.599635 -0.011920 0.040009 -0.667727 -0.265063 0.689245
0.327776 -0.100315 0.028835 -0.001149 -0.923640 0.375692
-0.070174 -0.054153 0.089231 0.000664 -0.456888 0.885969
0.279659 -0.120857 -0.080122 0.010967 -0.681581 0.730635
0.230354 -0.210443 0.196826 -0.015535 0.661703 0.749605
0.322664 0.104954 0.072729 0.118746 0.664243 -0.738025
0.429218 0.092290 -0.048756 0.000081 0.905407 -0.417392
-0.450772 0.103066 -0.016494 -0.002235 0.992034 -0.094031
-0.358078 -0.102517 0.019618 0.002639 -0.968968 0.233702
0.169664 -0.158342 0.122255 -0.043051 -0.687963 -0.724467
0.279659 -0.101475 0.101658 0.004003 0.664117 0.747487
0.165927 0.341828 0.296718 -0.043051 0.687963 -0.724467
0.457739 0.107255 0.096532 0.043066 -0.668356 0.742594
0.093057 -0.176106 -0.163670 -0.015535 0.661703 -0.749605
0.336814 0.661584 -0.590208 -0.043051 0.687963 0.724467
0.305283 -0.492894 -0.431891 -0.043051 -0.687963 0.724467
-1.506698 0.091589 -0.016918 -0.285028 0.906037 -0.297820
1.259275 0.233656 0.209507 -0.005818 0.674918 -0.737870
1.270441 -0.129630 -0.119039 -0.005818 0.662969 -0.748624
0.227079 -0.519959 -0.469979 -0.015535 0.661703 -0.749605
0.272197 0.322788 -0.272322 -0.043051 0.687963 0.724467
0.417137 -0.145893 0.133663 0.043066 0.668356 0.742594
0.286880 -0.664202 -0.595660 -0.043051 -0.687963 0.724467
0.314954 0.277687 0.226952 0.010967 0.681581 -0.730635
-0.034521 0.254563 -0.230283 -0.015535 -0.661703 -0.749605
0.351961 0.149709 0.140877 0.043066 -0.668356 0.742594
0.223868 0.631850 -0.568683 -0.043051 0.687963 0.724467
1.227445 0.202136 -0.180927 -0.005818 0.674918 0.737870
0.415625 0.151021 -0.129148 0.118746 0.664243 0.738025
0.233233 -0.455397 -0.413116 -0.015535 0.661703 -0.749605
-1.166556 0.040172 -0.096337 -0.000584 0.428694 -0.899913
0.399539 -0.104377 0.000000 0.000931 -0.995358 -0.046208
0.213357 -0.619253 0.557346 -0.015535 0.661703 0.749605
0.422797 -0.202724 0.184484 0.043066 0.668356 0.742594
1.206156 -0.075664 -0.065413 -0.000000 0.743284 0.668976
1.240298 0.099300 0.086764 -0.005818 0.674918 -0.737870
1.076448 -0.089758 0.082221 -0.005818 0.662969 0.748624
1.366209 0.184591 -0.164758 0.009601 0.670805 0.741572
-0.479447 -0.000000 0.104377 0.003812 0.046588 0.996717
1.420043 -0.199374 0.180054 0.009601 0.667082 0.744922
0.085425 -0.368092 -0.326442 -0.043051 -0.687963 0.724467
-0.578548 0.087170 -0.057412 -0.000230 0.802501 -0.591534
-0.077815 0.156906 0.143181 -0.015535 -0.661703 0.749605
-0.509498 0.096252 0.040376 0.002920 0.900624 0.427202
0.159933 0.033775 0.098762 0.000294 0.258158 0.963275
-0.004564 -0.297967 0.269218 -0.015535 0.661703 0.749605
0.361450 0.315743 0.289762 0.043066 -0.668356 0.742594
0.362722 -0.254798 -0.234835 0.043066 0.668356 -0.742594
-0.000506 0.142002 -0.131626 -0.015535 -0.661703 -0.749605
-1.564502 0.056986 0.035745 -0.544691 0.665096 0.500112
0.421993 0.442854 -0.392829 0.118746 0.664243 0.738025
0.111043 -0.096105 -0.040724 -0.000149 -0.941292 -0.325320
1.038359 -0.057049 0.087408 -0.000001 -0.590897 0.802996
-0.083968 -0.141962 -0.129861 -0.015535 0.661703 -0.749605
0.098659 0.428195 0.386315 -0.015535 -0.661703 0.749605
-0.072924 0.118682 -0.099009 -0.043051 0.687963 0.724467
0.034595 -0.347857 -0.310247 -0.043051 -0.687963 0.724467
0.109152 -0.185650 0.172429 -0.015535 0.661703 0.749605
-1.398387 0.104377 -0.000000 0.001341 0.993717 -0.073637
0.158196 -0.100065 -0.097896 -0.015535 0.661703 -0.749605
-0.092937 -0.113576 -0.095350 -0.043051 -0.687963 0.724467
0.102523 -0.037750 0.097312 0.001433 -0.387725 0.918373
0.188567 -0.502051 0.453373 -0.015535 0.661703 0.749605
1.301208 0.103749 -0.090790 0.009601 0.670805 0.741572
0.059209 -0.154261 -0.124944 -0.043051 -0.687963 0.724467
0.236833 0.470171 -0.426232 -0.015535 -0.661703 -0.749605
-1.438341 -0.073899 0.073712 -0.018126 -0.625961 0.775564
-1.037824 -0.022813 -0.101854 -0.000252 -0.333105 -0.938530
1.206682 -0.177008 -0.160501 -0.005818 0.662969 -0.748624
0.444947 0.102410 0.020170 0.000189 0.963010 0.251141
0.385474 -0.133776 0.108775 0.118746 -0.664243 -0.738025
0.402960 0.396846 0.360350 0.043066 -0.668356 0.742594
0.069105 0.094564 0.091194 -0.015535 -0.661703 0.749605
0.326664 -0.223468 0.208729 0.043066 0.668356 0.742594
1.229357 0.022544 -0.101914 0.002821 0.344134 -0.934583
0.367743 -0.444221 -0.405031 0.043066 0.668356 -0.742594
0.375651 -0.160740 -0.149431 0.043066 0.668356 -0.742594
-1.426611 0.019797 -0.102483 -0.001506 0.228903 -0.970382
0.417698 0.286494 -0.251410 0.118746 0.664243 0.738025
1.034521 0.087294 0.079713 -0.005818 -0.662969 0.748624
0.234201 0.197221 0.155340 -0.043051 0.687963 -0.724467
0.075668 -0.105226 0.100742 -0.015535 0.661703 0.749605
0.279659 0.101475 -0.101658 0.023537 -0.666334 -0.745150
0.530063 0.022503 -0.101923 0.002714 0.342373 -0.935241
-0.923347 0.022449 0.101935 -0.000484 0.334153 0.938044
0.279677 0.104377 -0.000000 0.000013 0.995427 -0.047393
1.033388 0.033032 0.099013 0.002358 0.213630 0.973749
0.964275 0.093539 -0.046316 0.000636 0.878014 -0.472040
0.005813 0.101686 0.023548 0.001701 0.953707 0.287456
1.299381 -0.102735 0.018445 0.002072 -0.975881 0.205327
-1.502239 -0.079275 -0.051368 -0.286755 -0.859302 -0.412826
0.270975 0.216331 0.202865 -0.015535 -0.661703 0.749605
1.144833 -0.109732 -0.097058 -0.005818 -0.674918 0.737870
1.425510 0.094050 -0.045268 -0.000274 0.880482 -0.469021
0.259274 -0.395107 -0.341765 -0.043051 -0.687963 0.724467
0.714520 0.051972 0.090518 0.001034 0.430171 0.899463
-0.522003 0.040853 -0.096050 0.000832 0.417034 -0.905698
0.625145 0.063909 0.082524 -0.001016 0.677382 0.730729
0.379891 0.744585 -0.671432 -0.000000 0.743284 -0.668976
-1.238572 0.000000 -0.104377 0.001583 -0.117554 -0.989544
1.185112 0.144341 0.128397 -0.005818 0.674918 -0.737870
1.220578 -0.128028 -0.117233 -0.005818 0.662969 -0.748624
0.282333 0.538125 -0.476206 -0.043051 0.687963 0.724467
0.008463 0.311483 0.281419 -0.015535 -0.661703 0.749605
0.140206 0.130305 0.124217 -0.015535 -0.661703 0.749605
0.140206 0.130305 -0.124217 -0.015535 -0.661703 -0.749605
1.505059 -0.092391 -0.083154 0.009601 -0.670805 0.741572
0.275293 -0.347953 -0.319143 -0.015535 0.661703 -0.749605
0.378085 -0.373085 0.322971 0.118746 -0.664243 -0.738025
0.014603 -0.095309 0.042555 0.001804 -0.885621 0.457385
0.263498 0.415307 -0.360697 -0.043051 0.687963 0.724467
-1.568466 -0.056279 -0.032166 -0.521208 -0.664588 -0.527211
1.301208 -0.101176 0.093649 0.009601 0.667082 0.744922
-0.059931 0.104377 -0.000000 -0.005470 0.988034 -0.127386
0.119320 0.102583 0.019272 -0.000333 0.973752 0.216458
0.343832 0.393604 0.360861 0.023537 -0.666334 0.745150
0.168465 -0.258900 0.217817 -0.043051 -0.687963 -0.724467
1.360288 -0.341895 0.307715 -0.005818 -0.674918 -0.737870
0.379891 0.744585 0.671432 0.000000 0.743284 0.668976
-1.318344 0.033781 -0.098760 -0.000068 0.217665 -0.972937
-0.035523 -0.180452 -0.164842 -0.015535 0.661703 -0.749605
-0.116115 0.095741 -0.079791 -0.043051 0.687963 0.724467
1.359329 0.087478 -0.056941 -0.000060 0.771108 -0.631957
-0.455971 -0.018945 -0.102644 0.002481 -0.226026 -0.970913
0.147721 -0.345013 0.300824 -0.043051 -0.687963 -0.724467
0.059505 0.104319 -0.099606 -0.015535 -0.661703 -0.749605
1.464763 -0.091931 -0.049758 -0.005324 -0.900759 -0.427084
-1.171220 0.053056 0.089887 -0.000133 0.592669 0.802024
-1.569162 -0.000000 0.064382 -0.560661 -0.079908 0.815850
0.342325 0.232828 -0.216245 0.043066 -0.668356 -0.742594
0.315675 -0.442994 0.383888 -0.043051 -0.687963 -0.724467
1.446631 0.196781 -0.176826 0.009601 0.670805 0.741572
0.346961 -0.022062 0.102019 0.000018 -0.255307 0.962840
0.098168 0.464400 -0.417140 -0.043051 0.687963 0.724467
0.928797 -0.049489 -0.091899 0.000286 -0.374639 -0.923889
1.176251 0.213614 0.192682 -0.005818 -0.662969 0.748624
0.404796 0.671127 0.607104 0.020186 -0.665948 0.745544
1.185966 0.073071 0.068295 -0.000000 -0.743284 -0.668976
-0.799078 0.104377 -0.000000 0.003178 0.997577 -0.035259
0.420371 -0.670832 -0.597756 0.118746 -0.664243 0.738025
1.423678 -0.324304 -0.291883 0.009601 -0.670805 0.741572
-1.108395 -0.070408 -0.077054 -0.000399 -0.713518 -0.696098
1.396659 0.175557 0.156981 0.009601 0.670805 -0.741572
0.362361 -0.582607 0.528085 -0.015535 0.661703 0.749605
1.053714 -0.087901 -0.080400 -0.005818 0.662969 -0.748624
0.127497 0.178090 -0.166135 -0.015535 -0.661703 -0.749605
0.165355 0.201320 0.163324 -0.043051 0.687963 -0.724467
1.393418 -0.160958 0.145995 0.009601 0.667082 0.744922
0.436883 -0.721170 0.645718 0.118746 -0.664243 -0.738025
0.350124 0.019046 0.102625 0.000630 0.242139 0.966699
1.418785 0.231676 0.208997 0.009601 -0.667082 0.744922
0.909906 0.017732 -0.102860 0.002176 0.208151 -0.975216
1.380303 0.120342 -0.106823 0.009601 0.670805 0.741572
1.082601 0.138494 -0.125429 -0.005818 -0.662969 -0.748624
-1.238572 -0.000000 0.104377 0.000499 0.057130 0.995067
0.059209 0.154261 -0.124944 -0.043051 0.687963 0.724467
0.151304 -0.313823 -0.270993 -0.043051 -0.687963 0.724467
1.454196 -0.237337 0.213610 0.009601 -0.670805 -0.741572
1.438937 0.280820 0.252747 0.009601 -0.667082 0.744922
1.484714 -0.150369 -0.135336 0.009601 -0.670805 0.741572
1.479628 -0.164864 0.148382 0.009601 -0.670805 -0.741572
1.489800 0.135874 -0.122291 0.009601 -0.667082 -0.744922
1.489800 0.135874 0.122291 0.009601 -0.667082 0.744922
1.464369 -0.208347 -0.187519 0.009601 -0.670805 0.741572
1.418591 0.338799 0.304929 0.007399 -0.666502 0.745459
1.053357 -0.102544 -0.019478 0.001082 -0.961401 -0.262734
-0.544800 0.102544 -0.019478 0.001082 0.961401 -0.262734
-0.948581 -0.070622 -0.076858 0.000133 -0.715541 -0.694234
-1.487347 0.052970 -0.082764 -0.243726 0.453152 -0.853623
0.408005 -0.685733 0.620064 0.005399 0.664273 0.747318
0.000718 -0.252891 -0.222079 -0.043051 -0.687963 0.724467
0.318170 0.359611 0.330322 -0.015535 -0.661703 0.749605
0.107952 -0.383490 0.347044 -0.015535 0.661703 0.749605
-0.030405 0.097474 0.076343 -0.043051 0.687963 -0.724467
0.180302 -0.394233 0.358027 -0.015535 0.661703 0.749605
1.097196 -0.187765 0.168810 -0.005818 -0.674918 -0.737870
0.097058 0.292620 -0.266604 -0.015535 -0.661703 -0.749605
-0.023138 0.287954 -0.256793 -0.043051 0.687963 0.724467
0.410652 -0.312947 -0.274085 0.118746 -0.664243 0.738025
0.860123 0.070507 -0.076964 0.000126 0.590736 -0.803044
0.220210 0.019063 -0.102622 -0.000223 0.257758 -0.961622
-0.433918 0.076945 0.070528 -0.000061 0.711637 0.698213
-0.026443 0.127529 -0.104648 -0.043051 0.687963 0.724467
-0.511392 -0.102468 0.019875 0.000443 -0.964887 0.248750
-1.209415 -0.052209 0.090381 -0.000420 -0.539615 0.838439
0.329080 0.051125 0.090999 -0.000005 0.532999 0.842528
0.414422 0.714946 -0.645984 0.023537 -0.666334 -0.745150
0.943691 -0.074014 0.067247 0.000000 0.743284 -0.668976
