-0.254029 0.149424 -0.190238 -0.037720 -0.757374 -0.651892
-0.096891 0.535573 0.636880 -0.063752 0.785277 -0.615854
0.006441 -0.100770 -0.057788 -0.000036 -0.848699 -0.524235
-0.335896 0.221293 0.260882 -0.063752 0.785277 -0.615854
-0.056423 0.471083 0.556369 0.107561 0.764397 -0.635711
-0.282805 0.175997 0.197630 -0.063752 0.785277 -0.615854
0.183793 0.018843 -0.114626 0.001132 0.261430 -0.962383
1.770149 -0.090130 0.121542 0.193175 0.730498 0.655024
1.426615 0.115196 -0.014963 -0.000365 0.974635 -0.214746
0.052076 -0.052092 0.103829 0.000288 -0.504107 0.860735
-0.203698 -0.116703 0.155135 -0.037720 0.757374 0.651892
-0.076852 -0.327211 0.401441 0.063779 0.767292 0.638118
-1.822003 0.016357 0.101512 -0.359575 0.099319 0.924509
0.003120 0.329395 0.396074 0.107561 0.764397 -0.635711
-1.674250 0.116164 -0.000000 0.003787 0.995348 -0.060240
0.543830 0.057490 -0.100941 0.000273 0.430173 -0.899839
-0.398050 -0.042766 0.108005 0.000492 -0.396074 0.916025
-0.211574 0.234606 0.264988 -0.063752 0.785277 -0.615854
1.298507 -0.080673 -0.114678 -0.014087 0.752301 -0.657456
-1.567924 -0.090137 0.073276 -0.000436 -0.803589 0.591171
1.589827 -0.030269 0.112151 0.000174 -0.190200 0.980009
-0.903648 -0.038273 -0.109678 0.000001 -0.416514 -0.906415
0.388306 -0.030005 -0.112222 0.001222 -0.204586 -0.977039
1.709224 -0.106917 -0.045418 -0.000485 -0.894875 -0.441007
-0.045054 -0.021369 -0.114182 -0.001135 -0.256651 -0.963367
-1.839806 0.051639 -0.080928 -0.409031 0.570034 -0.707674
0.801251 -0.055005 -0.102316 0.000962 -0.524619 -0.848531
-1.754454 -0.089070 0.074570 -0.103227 -0.735839 0.664102
-0.390722 0.109679 0.124238 -0.063752 0.785277 -0.615854
-0.506464 0.036016 0.110440 -0.000545 0.360967 0.929934
1.505533 0.156932 0.206375 -0.063236 -0.691494 0.717849
1.538150 -0.092612 0.129034 0.000000 0.768857 0.639420
-0.219741 0.347913 0.410312 -0.063752 0.785277 -0.615854
-1.908835 -0.042755 -0.030562 -0.680669 -0.619899 -0.382163
1.744277 0.255357 0.300062 0.193175 0.777208 -0.598859
1.656090 -0.132461 0.176950 -0.000000 0.768857 0.639420
-0.066339 -0.426560 0.519850 0.063779 0.767292 0.638118
-1.910609 0.050983 -0.000000 -0.678980 0.728962 -0.048767
0.269859 -0.090244 0.073144 0.000043 -0.743843 0.664683
1.257062 0.034617 0.110886 -0.000363 0.386717 0.919621
1.471028 0.144222 -0.191092 -0.032873 -0.729863 -0.681209
-0.057384 0.207445 -0.239200 0.107561 0.764397 0.635711
1.154222 -0.061046 0.079295 -0.098137 0.644926 0.757918
-0.067147 -0.246481 0.303399 0.063779 0.767292 0.638118
1.111626 0.113770 0.023463 0.000040 0.968270 0.238200
-0.143965 -0.424074 -0.515697 -0.037720 0.757374 -0.651892
1.634045 -0.114383 -0.020267 0.000485 -0.968660 -0.233512
-0.160032 -0.467691 -0.565443 -0.037720 0.757374 -0.651892
1.407084 0.095811 0.132881 0.000000 -0.768857 0.639420
-0.349287 0.176297 0.215948 -0.037720 -0.757374 0.651892
-0.165832 -0.349009 -0.406129 -0.063752 -0.785277 0.615854
-0.065705 -0.104310 0.051123 -0.000008 -0.865334 0.496294
-0.186078 0.376899 -0.458452 -0.037720 -0.757374 -0.651892
1.731486 -0.186565 -0.206656 0.064708 -0.774174 0.627928
-1.381527 -0.115186 0.015041 -0.000007 -0.985186 0.160718
-1.213656 0.115772 0.009537 -0.000904 0.985365 0.162476
-1.004235 -0.114273 -0.020874 -0.002120 -0.961234 -0.264084
-0.564846 0.017042 -0.114907 0.001980 0.183780 -0.980809
-1.109600 0.021126 0.114227 0.003374 0.263031 0.961472
1.309253 0.086737 -0.077271 0.000236 0.702086 -0.708652
1.034383 -0.106911 0.045433 0.000460 -0.907731 0.413544
1.644503 0.095645 -0.097332 -0.000000 0.768857 0.639420
1.539019 0.202826 -0.249762 -0.098137 -0.644926 -0.757918
1.832207 0.066130 -0.038313 0.462655 0.708257 -0.525470
-0.201962 0.091139 0.125535 -0.037720 -0.757374 0.651892
-0.175430 -0.391381 0.475894 -0.037720 0.757374 0.651892
-0.058862 0.099578 -0.125931 0.063779 -0.767292 -0.638118
-0.153751 0.434689 -0.527464 -0.037720 -0.757374 -0.651892
-0.165107 0.455507 0.541849 -0.063752 0.785277 -0.615854
-0.060558 -0.367362 -0.448091 0.063779 0.767292 -0.638118
0.882231 0.107823 -0.043223 -0.000472 0.888587 -0.452781
-1.313334 0.116164 -0.000000 0.001991 0.988014 -0.130666
1.744277 -0.255357 -0.300062 0.193175 -0.777208 0.598859
-1.593380 -0.021625 -0.114134 -0.000191 -0.204916 -0.976560
-0.052621 -0.038430 0.109623 -0.001806 -0.262949 0.961949
1.404389 -0.136436 -0.175838 -0.098137 0.644926 -0.757918
-0.248554 0.314652 -0.370884 -0.063752 0.785277 0.615854
1.769465 -0.044595 -0.098903 0.456169 -0.284557 -0.840308
1.608594 0.177988 -0.231693 0.000000 -0.768857 -0.639420
-0.059370 -0.137940 0.155290 0.107561 -0.764397 -0.635711
-0.215122 -0.141885 -0.147127 -0.063752 -0.785277 0.615854
-0.349852 -0.273056 -0.328331 -0.037720 0.757374 -0.651892
1.288641 -0.127321 -0.153094 -0.098137 0.644926 -0.757918
1.734107 -0.049592 0.041956 0.000000 -0.768857 -0.639420
1.660802 -0.214127 0.275148 -0.065585 0.688553 0.720708
1.750413 0.105180 -0.144147 0.129100 -0.745741 -0.651944
1.337436 0.111241 0.033461 -0.001866 0.932046 0.355573
1.129614 -0.114548 0.019311 -0.001940 -0.960223 0.268782
1.609046 -0.195062 -0.252223 -0.032873 0.729863 -0.681209
1.609046 0.212441 0.237770 -0.065585 0.834145 -0.545644
1.695089 -0.036053 -0.061026 0.000000 0.768857 -0.639420
1.625663 0.115412 -0.013201 0.001346 0.983852 -0.167474
-0.238902 0.103990 -0.138328 -0.037720 -0.757374 -0.651892
1.798345 0.145760 -0.175266 0.193175 -0.730498 -0.655024
-0.012622 -0.182068 -0.220498 0.063779 0.767292 -0.638118
1.512316 -0.209713 0.252165 -0.098137 -0.862779 -0.495965
0.267480 0.032680 -0.111473 0.001435 0.188931 -0.979347
0.003120 0.622779 0.748848 0.107561 0.764397 -0.635711
1.062525 0.092806 0.069865 0.000064 0.780943 0.620744
1.768276 -0.108490 0.011520 0.371436 -0.902395 0.167783
-0.181069 0.171246 -0.181040 -0.063752 0.785277 0.615854
0.514965 -0.053953 -0.102875 0.000006 -0.511282 -0.856564
-0.042789 0.251129 -0.306554 0.063779 -0.767292 -0.638118
-0.251500 -0.109503 -0.109602 -0.063752 -0.785277 0.615854
-0.188358 0.316706 -0.367271 -0.063752 0.785277 0.615854
-1.637998 0.101014 0.057361 -0.000402 0.842371 0.534202
-0.430515 -0.115790 -0.009311 0.000522 -0.985202 -0.163207
-0.520560 -0.053924 -0.102890 -0.000373 -0.504423 -0.860730
-0.411653 -0.129325 0.151456 -0.063752 -0.785277 -0.615854
0.280184 0.110919 -0.034513 -0.001869 0.960111 -0.269089
-0.144636 0.565378 -0.679827 -0.063752 0.785277 0.615854
-0.358061 -0.261363 0.314271 -0.063752 -0.785277 -0.615854
-0.399104 -0.202899 0.243972 -0.063752 -0.785277 -0.615854
-0.300600 -0.343213 -0.412690 -0.037720 0.757374 -0.651892
-0.169262 -0.530299 0.637647 -0.063752 -0.785277 -0.615854
0.471829 0.056261 -0.101631 -0.000331 0.542353 -0.837140
1.549951 0.114207 -0.021232 -0.002194 0.970768 -0.227211
-0.140166 0.340162 -0.418428 -0.037720 -0.757374 -0.651892
0.094634 0.098182 -0.062084 0.002346 0.791173 -0.607739
-0.164076 -0.201322 0.255739 -0.037720 0.757374 0.651892
1.422714 0.055253 0.084112 0.000000 -0.639420 -0.768857
-0.353940 0.070346 -0.092584 -0.037720 -0.757374 -0.651892
0.151737 -0.107814 0.043246 0.000262 -0.912428 0.402799
-0.156960 0.020383 0.114362 -0.001960 0.219092 0.972857
-0.183573 -0.043462 0.107727 -0.000703 -0.457908 0.885816
-0.228313 -0.350714 0.425587 -0.037720 0.757374 0.651892
0.003120 0.533488 0.641482 0.107561 0.764397 -0.635711
0.003120 0.482465 0.580130 0.107561 0.764397 -0.635711
0.003120 -0.367662 0.442088 0.107561 -0.764397 -0.635711
0.003120 -0.571756 0.687496 0.107561 -0.764397 -0.635711
-0.293516 0.130503 0.140730 -0.063752 0.785277 -0.615854
-0.161053 -0.541992 -0.651707 -0.037720 0.757374 -0.651892
-0.325021 0.115321 0.013972 -0.000113 0.975643 0.210063
-0.803308 0.055185 -0.102219 0.000019 0.557029 -0.827560
-0.816487 -0.049318 -0.105175 -0.001428 -0.479426 -0.874523
1.505533 -0.156932 0.206375 -0.065585 0.688553 0.720708
0.906914 0.017981 -0.114764 0.002547 0.257449 -0.963279
0.802516 -0.108990 0.040191 0.000275 -0.899555 0.430914
-0.044704 -0.464619 -0.563451 0.063779 0.767292 -0.638118
-0.390993 0.116164 -0.000000 0.000838 0.997678 -0.029716
0.012914 -0.034945 -0.110783 0.001342 -0.239508 -0.968423
-1.031531 0.100580 -0.058118 0.000185 0.812218 -0.579239
0.451145 -0.116164 -0.000000 0.001975 -0.985976 -0.136417
0.169064 0.115549 0.011935 -0.000275 0.985017 0.160448
1.323052 0.139997 -0.168336 -0.098137 0.862779 0.495965
1.219818 0.101969 -0.122611 -0.098137 0.862779 0.495965
1.701579 0.279430 -0.335995 -0.098137 0.862779 0.495965
1.426287 0.178024 -0.214061 -0.098137 0.862779 0.495965
-1.426488 0.097426 -0.063264 -0.000092 0.857897 -0.509118
-0.056220 -0.545313 -0.661631 -0.003875 0.761354 -0.647871
-1.850184 0.080456 0.043164 -0.458094 0.728837 0.497328
0.966666 -0.079538 -0.084663 0.000113 -0.712853 -0.697797
1.781486 0.079243 0.083501 0.193175 0.777208 -0.598859
-1.697206 -0.078363 0.085751 -0.000014 -0.638734 0.766315
1.621583 -0.037584 -0.109916 -0.000418 -0.358713 -0.930846
0.003120 -0.495221 0.595468 0.107561 -0.764397 -0.635711
-0.192194 0.277883 0.318165 -0.063752 0.785277 -0.615854
-1.737931 -0.043015 -0.107906 -0.000566 -0.449453 -0.891193
1.782014 0.080257 -0.084988 0.193175 0.777208 0.598859
0.585182 -0.114805 -0.017718 -0.000740 -0.975986 -0.205546
-1.630558 -0.114203 0.021254 0.000435 -0.966816 0.242392
1.673363 -0.108912 -0.113284 -0.000000 -0.768857 0.639420
1.387275 0.094129 -0.068073 0.000557 0.832186 -0.550251
0.003120 -0.444197 0.534116 0.107561 -0.764397 -0.635711
0.594170 -0.058906 -0.100121 -0.001070 -0.453891 -0.888093
-0.408313 -0.100477 -0.114327 -0.063752 -0.785277 0.615854
-1.417279 -0.031022 0.111945 0.000172 -0.223931 0.972302
1.832207 0.066130 0.038313 1.000000 0.000000 0.000000
-1.350114 0.073596 -0.089876 0.001280 0.651348 -0.756016
1.461357 -0.072631 0.069659 -0.000000 -0.768857 -0.639420
1.370694 -0.111174 -0.033683 0.000506 -0.921496 -0.382238
-0.127543 -0.498360 -0.602953 -0.037720 0.757374 -0.651892
-0.039963 0.614174 -0.731211 0.046417 0.773795 0.630184
1.634187 -0.106379 0.110238 0.000000 -0.768857 -0.639420
-0.160269 0.141084 0.185973 -0.003875 -0.761354 0.647871
-0.078866 0.136122 0.149805 0.107561 0.764397 -0.635711
0.576924 -0.103562 0.052621 0.000295 -0.864353 0.498460
0.788257 -0.077204 0.086796 0.000123 -0.679831 0.730144
1.516078 -0.112253 -0.029889 0.000886 -0.934813 -0.349194
-1.072723 0.000000 -0.116164 0.002222 -0.031923 -0.997836
1.442035 -0.072631 -0.069659 0.000000 -0.768857 0.639420
-0.932367 0.116164 -0.000000 0.003062 0.991914 -0.106375
-0.120010 -0.600456 0.722006 -0.063752 -0.785277 -0.615854
-0.680522 -0.077362 0.086656 0.000180 -0.731354 0.678603
0.033285 -0.094759 0.067193 0.000114 -0.773400 0.630080
-0.365112 -0.101106 0.057199 -0.001414 -0.886711 0.456419
1.617054 0.043733 0.070260 -0.152122 -0.631979 -0.759909
-1.664541 -0.035682 0.110548 -0.000159 -0.397979 0.914704
-1.144490 -0.017434 -0.114848 0.000235 -0.180865 -0.981387
0.003120 -0.405930 -0.488102 0.107561 -0.764397 0.635711
1.229498 0.072631 0.069659 -0.073773 0.841665 -0.533411
1.229498 -0.055253 0.084112 -0.073773 0.677896 0.730331
-0.167861 -0.330733 0.383035 -0.063752 -0.785277 -0.615854
1.643550 0.225151 -0.253053 -0.065585 0.834145 0.545644
-0.169262 0.530299 0.637647 -0.063752 0.785277 -0.615854
-0.150274 0.494438 -0.597082 -0.037720 -0.757374 -0.651892
1.832207 -0.021268 0.053272 1.000000 -0.000000 0.000000
0.718723 0.114088 0.021863 0.001397 0.948414 0.304653
-0.653395 0.061937 0.098275 -0.000099 0.578068 0.813145
-0.035221 -0.329613 -0.400168 0.063779 0.767292 -0.638118
-0.295097 0.188761 -0.233564 -0.037720 -0.757374 -0.651892
0.337969 -0.114351 -0.020444 0.003271 -0.961951 -0.261103
1.533894 -0.000000 0.116164 -0.006283 -0.091217 0.993361
-0.045321 0.423667 0.501234 0.107561 0.764397 -0.635711
1.736349 0.106493 0.046403 0.000681 0.880214 0.467677
1.678683 -0.162557 -0.213138 -0.000000 0.768857 -0.639420
-0.156277 -0.116438 0.113039 0.107561 -0.764397 -0.635711
0.674826 -0.102899 0.053907 0.000052 -0.896217 0.438050
-0.358061 0.261363 -0.314271 -0.063752 0.785277 0.615854
1.754454 0.109220 -0.039561 0.079601 0.936157 -0.314295
1.538343 -0.092848 -0.129317 0.000000 0.768857 -0.639420
-0.163023 0.218826 0.239841 -0.063752 0.785277 -0.615854
1.746627 0.117981 0.159539 0.129100 -0.745741 0.651944
-1.210425 0.092447 0.070339 -0.001458 0.735937 0.674100
1.135402 0.065390 -0.075681 -0.098137 0.862779 0.495965
-1.740894 0.082351 -0.081930 -0.001121 0.689995 -0.721408
-0.280571 -0.311525 0.370210 -0.063752 -0.785277 -0.615854
-0.059675 0.458881 -0.541147 0.107561 0.764397 0.635711
-1.754454 -0.114395 -0.020197 -0.032976 -0.961587 -0.262027
-0.056220 -0.545313 0.661631 -0.003875 0.761354 0.647871
1.505533 -0.156932 -0.206375 -0.032873 0.729863 -0.681209
1.320428 0.030869 -0.111988 -0.000655 0.322761 -0.943906
-0.966128 0.062357 -0.098009 -0.001729 0.477714 -0.875955
0.739059 -0.080327 -0.083915 0.001718 -0.638744 -0.764712
-0.342511 -0.033878 0.111114 -0.000160 -0.330736 0.941325
-1.847098 -0.082143 0.043088 -0.460487 -0.797638 0.379236
-1.257061 -0.115397 -0.013329 0.000394 -0.983240 -0.171728
1.561347 0.094634 0.096116 -0.000000 0.768857 -0.639420
1.550452 -0.150911 0.163785 -0.000000 -0.768857 -0.639420
1.775674 -0.034198 0.099612 0.456098 -0.240063 0.854117
-0.072890 -0.092297 -0.070537 0.000061 -0.810699 -0.581262
1.186041 -0.078588 -0.088620 -0.098137 -0.862779 0.495965
-0.019595 -0.261867 -0.311033 0.107561 -0.764397 0.635711
-1.229332 -0.024512 0.113549 0.000594 -0.265727 0.961921
-0.591502 -0.000000 0.116164 -0.000877 -0.120846 0.988949
1.698405 0.201613 -0.260100 -0.000000 -0.768857 -0.639420
-0.229369 -0.274481 0.336957 -0.037720 0.757374 0.651892
-0.088646 0.279319 -0.320335 0.107561 0.764397 0.635711
0.070178 0.116164 -0.000000 -0.002393 0.992235 -0.094262
-0.051241 0.204834 0.251732 0.063779 -0.767292 0.638118
-0.711807 0.000000 -0.116164 -0.000291 -0.049069 -0.995815
1.471771 0.098240 0.061992 0.000105 0.802732 0.592225
-0.162326 -0.449718 0.544429 -0.037720 0.757374 0.651892
0.510701 0.038185 0.109709 0.001457 0.370129 0.926139
-0.464773 -0.109356 -0.131493 -0.037720 0.757374 -0.651892
-0.242187 -0.052550 0.103598 0.000267 -0.504478 0.860536
-0.202096 0.483528 0.581408 -0.063752 0.785277 -0.615854
1.602489 -0.162620 0.177864 -0.000000 -0.768857 -0.639420
-0.632133 -0.082236 -0.082045 -0.002380 -0.699987 -0.711044
-0.251348 0.413371 0.497049 -0.063752 0.785277 -0.615854
1.268141 -0.072631 -0.069659 -0.032873 -0.802838 0.593462
1.450824 0.086728 -0.121959 0.000000 -0.768857 -0.639420
1.677089 0.101626 0.056269 0.000252 0.819887 0.568275
1.213624 0.106836 -0.045608 0.000365 0.874067 -0.480760
0.478920 -0.101716 0.056107 0.000116 -0.847449 0.526360
1.754454 0.039779 -0.109141 0.159969 0.253129 -0.944738
-0.275794 0.341963 0.412673 -0.037720 -0.757374 0.651892
-0.275794 0.341963 -0.412673 -0.037720 -0.757374 -0.651892
1.700937 0.124557 -0.132097 0.000000 0.768857 0.639420
1.484648 0.103770 -0.052209 -0.000529 0.905931 -0.417105
-1.920019 -0.000000 0.042132 -0.713135 -0.044004 0.696368
1.699870 -0.184544 0.204227 -0.000000 -0.768857 -0.639420
0.060131 -0.115098 -0.015705 -0.001962 -0.978739 -0.192944
-0.172123 -0.034282 -0.110990 0.000720 -0.242729 -0.967660
-0.033460 -0.638578 0.761655 0.060058 -0.772043 -0.631693
-0.199309 0.106519 0.046343 -0.000382 0.928300 0.365249
1.569491 0.053884 -0.102911 0.000402 0.404859 -0.911621
-0.107871 0.276995 0.314288 0.107561 0.764397 -0.635711
-0.270687 0.116164 -0.000000 0.000671 0.987810 -0.129667
0.984184 0.114273 0.020874 0.002120 0.961234 0.264084
0.420913 -0.019521 0.114512 0.000062 -0.261903 0.962389
0.310446 -0.048759 -0.105435 -0.000280 -0.363050 -0.929348
1.008344 0.037092 0.110083 0.002562 0.249352 0.965614
0.783713 -0.013271 0.115404 -0.002667 -0.185622 0.980809
-1.210823 0.026056 0.113204 0.001526 0.267638 0.960759
-1.640317 0.040927 -0.108716 -0.000979 0.290200 -0.953597
0.932367 0.116164 -0.000000 0.002860 0.991689 -0.102839
0.999203 -0.035848 -0.110494 0.000503 -0.256771 -0.963733
0.828614 0.035260 0.110684 -0.000109 0.248820 0.965662
-1.754454 0.109141 0.039779 -0.078121 0.958452 0.262057
-0.432175 0.119148 -0.144756 -0.037720 -0.757374 -0.651892
-1.112825 0.116164 -0.000000 0.001219 0.991079 -0.109760
0.510701 -0.038185 0.109709 0.001457 -0.370129 0.926139
-0.740683 0.106519 -0.046343 -0.000382 0.928300 -0.365249
-1.341468 -0.091826 0.071148 0.002637 -0.745505 0.662373
0.607910 0.110758 0.035025 -0.000588 0.963390 0.257846
-0.109774 0.097873 0.098584 0.107561 0.764397 -0.635711
-0.988550 -0.050761 0.104487 -0.000187 -0.476881 0.876178
0.725168 0.018843 0.114626 0.001132 0.261430 0.962383
1.228914 0.034096 -0.111048 -0.000050 0.323746 -0.943658
1.416915 -0.030546 -0.112076 -0.000399 -0.221595 -0.972913
1.343781 -0.020989 0.114252 0.000818 -0.216138 0.973407
-0.162940 0.324225 0.374227 -0.063752 0.785277 -0.615854
-0.326563 -0.131891 0.165672 -0.037720 0.757374 0.651892
-1.549659 -0.106134 -0.047218 -0.000487 -0.880845 -0.467797
-0.860653 -0.112569 -0.028677 0.001042 -0.971315 -0.227612
-0.461595 0.107065 -0.045068 -0.000164 0.930928 -0.358633
-1.702660 -0.080247 -0.083991 0.000451 -0.648929 -0.757744
-0.379554 -0.100813 -0.057714 0.000436 -0.888619 -0.453095
0.663690 0.077328 0.086686 0.001712 0.625038 0.777342
0.832112 0.116164 -0.000000 -0.002173 0.997040 -0.043685
-1.607688 0.083006 -0.081265 -0.000167 0.673755 -0.735615
-0.508853 0.055678 -0.101951 -0.000026 0.560386 -0.825278
-0.115412 0.470943 0.556387 -0.063752 0.785277 -0.615854
1.430484 0.030288 -0.112146 0.000016 0.297570 -0.952226
0.960713 0.058147 0.100563 -0.000185 0.520241 0.851079
-1.782313 -0.017153 0.111622 -0.210032 -0.099514 0.969321
1.403392 -0.072631 0.069659 -0.000000 -0.768857 -0.639420
0.458083 0.110020 -0.037279 -0.000292 0.920229 -0.384840
1.078892 -0.040927 -0.108716 0.000979 -0.290199 -0.953597
1.309909 0.032259 0.111595 -0.000876 0.364127 0.928713
-0.104861 0.107526 0.043956 -0.001299 0.935237 0.347235
-1.442085 0.104056 0.051638 -0.000071 0.845731 0.529276
1.164082 0.112219 0.030016 -0.000907 0.942870 0.326007
-0.918684 -0.086357 -0.077696 0.000107 -0.801253 -0.594190
-0.273073 -0.191899 -0.238484 -0.037720 0.757374 -0.651892
0.559703 0.098459 -0.061644 0.000002 0.831301 -0.551406
-0.998657 0.015643 -0.115106 -0.000551 0.181738 -0.981038
1.085909 -0.084929 -0.079254 -0.000041 -0.792553 -0.605809
-0.770591 -0.049336 0.105167 -0.000236 -0.353658 0.932761
1.680837 0.054827 -0.102411 0.000838 0.413739 -0.907504
-0.561149 0.113069 -0.026636 -0.002471 0.965374 -0.249085
-0.935542 -0.088994 0.074661 0.000143 -0.823231 0.563416
0.371583 0.076512 -0.087407 -0.000176 0.724731 -0.685424
-1.453690 0.000000 -0.116164 -0.001302 -0.094972 -0.992995
1.033024 -0.109740 -0.038094 -0.000430 -0.956445 -0.282064
-0.310541 -0.034199 -0.111016 -0.000076 -0.245009 -0.966991
-0.160606 0.051641 -0.104054 0.000020 0.485838 -0.871252
0.118629 -0.067641 -0.094440 0.000041 -0.499234 -0.863644
1.754454 -0.088921 -0.074748 0.067955 -0.782022 -0.608909
-0.818009 -0.100820 -0.057700 -0.000337 -0.829052 -0.554910
0.631603 -0.000000 0.116164 0.002165 -0.095978 0.993036
0.098014 0.073087 0.090290 -0.000284 0.651892 0.755141
0.310208 -0.065376 0.096021 0.000096 -0.518618 0.852140
0.340041 0.079170 0.085007 0.000009 0.714243 0.696391
0.684854 -0.049471 0.105103 -0.001660 -0.467886 0.881312
0.390358 -0.066610 0.095169 -0.000076 -0.610200 0.789168
0.964574 0.036293 -0.110349 0.000062 0.333711 -0.940046
0.912957 0.076512 0.087407 -0.000176 0.724731 0.685424
-1.327297 -0.018188 0.114731 0.000738 -0.204216 0.976359
-1.645240 0.104368 -0.051004 0.000018 0.870582 -0.487046
-0.460681 -0.052329 -0.103710 -0.000218 -0.404022 -0.912041
0.209783 -0.065853 -0.095695 -0.000201 -0.614823 -0.785516
1.521340 -0.048862 -0.105388 0.000090 -0.378775 -0.922843
-0.020467 0.054464 -0.102605 -0.000516 0.514997 -0.854232
1.746627 -0.135360 -0.145086 0.064708 -0.774174 0.627928
-0.026521 0.065293 0.096078 -0.000027 0.533626 0.842826
-0.552605 0.082590 0.081688 0.000225 0.738404 0.670765
1.152030 0.040687 0.108806 0.000197 0.374177 0.924708
-1.075028 -0.094503 0.067553 -0.000035 -0.836492 0.543478
1.099298 0.044692 0.107223 -0.001635 0.309614 0.947755
0.201486 0.016583 0.114974 0.000316 0.192317 0.978888
0.328062 0.051182 -0.104281 -0.000079 0.522420 -0.849824
1.442623 -0.109931 0.037541 -0.001624 -0.919742 0.385772
-0.607109 0.071396 -0.091634 -0.000060 0.560457 -0.825219
0.066276 0.100506 0.058246 -0.000232 0.878149 0.473035
0.429225 0.088309 -0.075469 -0.000131 0.802234 -0.592843
-0.508089 0.094759 -0.067193 0.000114 0.773400 -0.630080
-0.975648 -0.040794 -0.108765 0.000503 -0.436338 -0.897033
-1.521176 -0.080852 -0.083409 -0.000012 -0.641567 -0.763860
-0.109825 -0.275421 0.312064 0.107561 -0.764397 -0.635711
0.781009 0.018006 -0.114760 0.001563 0.249528 -0.965653
-0.270687 0.000000 -0.116164 -0.000005 -0.049264 -0.996339
-0.578175 -0.114507 -0.019551 0.000218 -0.959937 -0.269810
-1.703806 -0.110424 -0.036064 -0.001299 -0.954790 -0.288355
-0.144145 0.134536 -0.176489 0.063779 -0.767292 -0.638118
0.734187 0.095733 -0.065797 -0.000174 0.779038 -0.623076
-0.464183 -0.064118 0.096866 0.000569 -0.467249 0.881278
-0.261728 0.100168 -0.058826 -0.000066 0.834444 -0.546632
-0.844551 0.097197 -0.063615 -0.000048 0.776961 -0.625718
-0.684451 0.018508 0.114680 -0.000635 0.246864 0.966604
-0.672962 0.051745 -0.104003 -0.000805 0.355129 -0.932218
-1.468431 -0.082719 -0.081558 0.000071 -0.724575 -0.685648
-1.033127 -0.109309 0.039315 0.000589 -0.918978 0.387931
-0.251348 -0.413371 -0.497049 -0.037720 0.757374 -0.651892
1.609046 -0.195062 0.252223 -0.065585 0.688553 0.720708
1.362046 0.089189 0.074427 0.000154 0.780511 0.621297
1.730778 -0.095930 0.065511 -0.000257 -0.759618 0.646083
-0.074742 0.636549 -0.763342 0.000000 0.639420 -0.768857
-0.003571 0.114428 -0.020008 -0.001036 0.971137 -0.225453
-0.261934 0.055185 0.102219 0.000019 0.557029 0.827560
1.488634 -0.080146 0.114044 0.000000 0.768857 0.639420
-1.133872 0.084265 -0.079960 -0.000081 0.685001 -0.725210
-1.248307 -0.059633 -0.099689 0.000135 -0.532278 -0.843739
-0.126140 -0.079566 0.084637 0.000055 -0.609226 0.789902
-0.818023 0.025022 0.113437 -0.000670 0.318539 0.945507
1.453171 -0.039547 0.109225 0.000282 -0.398205 0.914404
0.249925 0.090275 0.073106 -0.000153 0.805177 0.588803
-1.545223 -0.041424 -0.108527 -0.000259 -0.376350 -0.923729
-0.170433 -0.116164 -0.000000 0.001340 -0.997458 -0.036913
0.204529 0.102800 -0.054095 -0.000218 0.834538 -0.546543
-0.072478 0.482152 -0.587309 0.032377 -0.764890 -0.642946
-0.112989 -0.389499 0.452288 -0.063752 -0.785277 -0.615854
-0.133779 -0.099248 -0.133022 0.063779 0.767292 -0.638118
-1.539763 0.078049 0.086037 -0.000279 0.631542 0.772305
-0.887432 0.074431 0.089186 -0.000288 0.712057 0.698632
0.873452 -0.105634 -0.048328 0.000074 -0.925094 -0.373464
-0.488781 -0.108423 -0.041696 -0.001015 -0.948935 -0.309031
1.522061 0.138763 -0.184527 0.000000 -0.768857 -0.639420
-1.316034 0.101814 -0.055928 0.002210 0.897299 -0.436133
-0.310216 0.278736 0.331470 -0.063752 0.785277 -0.615854
-1.305635 -0.111870 -0.031292 -0.001497 -0.932032 -0.355636
-0.203034 0.378799 0.459679 -0.037720 -0.757374 0.651892
-0.082302 0.080826 -0.083434 -0.000123 0.761048 -0.644977
1.624942 0.167574 -0.183821 -0.000000 0.768857 0.639420
-0.175698 -0.226533 -0.250980 -0.063752 -0.785277 0.615854
-0.091639 -0.602753 -0.721997 -0.063752 -0.785277 0.615854
1.598005 -0.080794 -0.083465 0.000056 -0.655450 -0.752551
-1.085232 0.069114 -0.093367 0.000087 0.669126 -0.739885
1.250338 -0.113904 0.022802 0.000786 -0.960455 0.269435
-0.308282 -0.117892 -0.126178 -0.063752 -0.785277 0.615854
-0.090018 0.492350 0.598143 -0.037720 -0.757374 0.651892
-1.513843 -0.000000 0.116164 -0.000360 -0.047786 0.996557
-1.258745 0.066420 0.095302 -0.001991 0.504042 0.861830
0.211401 -0.033449 0.111244 -0.000086 -0.379289 0.922683
0.437232 -0.015643 -0.115106 0.000551 -0.181738 -0.981038
0.807426 0.080669 0.083586 0.000278 0.710651 0.700156
-0.936442 0.009381 0.115785 0.002263 0.160509 0.985345
-1.484960 0.113307 0.025606 0.003011 0.967518 0.241086
0.771960 -0.116164 -0.000000 -0.003248 -0.996512 -0.052573
1.439789 -0.107169 -0.146538 -0.000000 0.768857 -0.639420
1.716043 0.188838 -0.209389 0.000000 0.768857 0.639420
1.671469 0.099327 0.137109 -0.000000 -0.768857 0.639420
0.628781 -0.105985 -0.047553 0.000163 -0.884782 -0.460849
-1.178087 0.029774 -0.112284 -0.000438 0.310928 -0.948104
0.169939 0.064544 -0.096582 -0.000879 0.582177 -0.811363
0.046006 0.072170 -0.091025 -0.001133 0.688102 -0.722714
0.684142 -0.051100 -0.104321 0.000438 -0.388148 -0.919083
0.663251 0.093999 -0.068251 -0.000398 0.820155 -0.568036
1.090173 0.111165 -0.033712 -0.000427 0.945802 -0.317878
1.646684 -0.227341 -0.284563 -0.098137 0.644926 -0.757918
1.632756 0.254078 -0.305511 -0.098137 0.862779 0.495965
1.645718 0.236917 0.273093 -0.098137 0.862779 -0.495965
0.358816 -0.113302 0.025627 -0.003131 -0.961770 0.263891
-1.501874 0.048772 0.105429 -0.000004 0.371313 0.926003
1.688718 0.104086 -0.051577 0.000050 0.846618 -0.527594
0.003120 -0.112545 -0.135328 0.107561 -0.764397 0.635711
-1.922115 0.008664 -0.039087 -0.726538 0.104106 -0.675009
1.023422 0.100755 -0.057815 -0.000783 0.849925 -0.522325
-0.210305 -0.471835 -0.567348 -0.037720 0.757374 -0.651892
-1.224677 -0.093999 -0.068251 0.000398 -0.820155 -0.568036
1.686916 0.155801 -0.169665 -0.000000 0.768857 0.639420
1.495110 -0.203375 -0.244545 -0.098137 0.644926 -0.757918
1.497457 0.139105 0.149589 0.000000 0.768857 -0.639420
1.678683 0.179936 0.198685 0.000000 0.768857 -0.639420
0.884634 -0.032755 -0.111450 -0.000139 -0.301408 -0.951519
1.539837 0.096280 -0.098095 0.000000 0.768857 0.639420
-0.040775 0.521833 -0.620040 0.107561 0.764397 0.635711
0.501923 0.115681 -0.010579 0.002329 0.984171 -0.167871
0.691756 -0.116164 -0.000000 -0.002619 -0.997454 -0.035078
-1.588440 0.067118 0.094812 0.000393 0.608903 0.790478
-0.168727 -0.280137 -0.318610 -0.063752 -0.785277 0.615854
-0.621934 -0.030924 -0.111972 0.000278 -0.301303 -0.951440
1.384768 0.112448 -0.152885 -0.032873 -0.729863 -0.681209
-0.167235 -0.087705 -0.076171 0.001589 -0.721293 -0.688632
-0.040418 -0.515775 0.624534 0.063779 0.767292 0.638118
-1.381539 0.115185 0.015048 -0.000008 0.985181 0.160747
0.003120 -0.584512 -0.702834 0.107561 -0.764397 0.635711
1.675622 -0.050301 -0.104708 0.000075 -0.477261 -0.876016
-1.255914 -0.079004 0.085161 0.000129 -0.717069 0.693922
1.720129 0.207590 0.267287 0.129100 -0.745741 0.651944
1.720129 -0.207590 -0.267287 0.064708 0.758527 -0.646742
1.317600 -0.034741 -0.110847 -0.000297 -0.250642 -0.965522
1.285584 0.111870 0.031292 0.001497 0.932032 0.355636
0.735467 -0.079923 0.084300 0.000377 -0.754640 0.652701
-0.200175 -0.148940 0.192792 -0.037720 0.757374 0.651892
-1.604783 -0.102306 -0.055024 0.000454 -0.831637 -0.551055
0.588684 -0.044762 0.107194 -0.000752 -0.466110 0.882428
-0.845569 0.096089 0.065277 0.000095 0.846485 0.527866
-1.801588 -0.104080 -0.031909 -0.270407 -0.889605 -0.360156
1.521576 0.013256 -0.115405 -0.003522 0.185584 -0.980799
-0.420903 0.089192 -0.101240 -0.063752 0.785277 0.615854
-0.179603 -0.105144 0.049385 -0.000058 -0.874300 0.480318
-1.884928 0.046336 -0.054030 -0.602095 0.558326 -0.562126
-0.263711 0.314820 0.372667 -0.063752 0.785277 -0.615854
-0.586816 -0.095044 -0.066788 -0.000044 -0.782602 -0.618978
0.003120 0.138057 0.166004 0.107561 0.764397 -0.635711
0.859364 0.040598 -0.108839 0.002219 0.271798 -0.959320
-0.075279 -0.296708 -0.364606 0.063779 0.767292 -0.638118
-0.221865 -0.077244 -0.086761 0.000390 -0.626889 -0.776040
-1.857802 -0.014017 0.086365 -0.487193 -0.199370 0.846773
-0.251500 -0.109503 0.109602 -0.063752 -0.785277 -0.615854
1.238285 -0.038572 -0.109573 0.003371 -0.284740 -0.956047
0.391763 -0.073694 -0.089796 0.000678 -0.580210 -0.811700
-0.320204 0.092721 -0.120531 -0.037720 -0.757374 -0.651892
0.625646 0.047733 0.105904 0.000583 0.360215 0.930686
-0.695741 0.099155 0.060517 0.000138 0.900844 0.428194
-0.875296 -0.028967 0.112495 -0.000222 -0.203084 0.977259
1.627950 0.095101 0.096678 -0.000000 0.768857 -0.639420
-0.072478 -0.204823 0.233494 0.107561 -0.764397 -0.635711
-0.310789 -0.116164 -0.000000 0.000551 -0.993785 -0.075789
1.079949 -0.040030 0.109049 0.000826 -0.366052 0.927862
0.836239 0.105920 0.047697 0.000163 0.878264 0.472960
1.300793 -0.067417 0.098739 0.000000 0.768857 0.639420
-1.474053 -0.031633 0.111774 -0.000243 -0.227366 0.971618
-0.731364 -0.064544 -0.096582 0.002028 -0.579858 -0.812867
-1.646662 -0.016095 -0.115044 0.001980 -0.190162 -0.980046
-0.163023 0.218826 -0.239841 -0.063752 0.785277 0.615854
-0.651654 0.116164 -0.000000 -0.001948 0.997718 -0.039837
1.179965 0.084618 -0.079586 0.000121 0.687943 -0.722562
0.560684 0.057269 0.101066 -0.000867 0.527969 0.846372
0.077281 0.032046 -0.111656 0.000239 0.311784 -0.948089
1.386171 0.056716 -0.101377 -0.000011 0.538162 -0.840026
1.140267 -0.015463 -0.115130 0.001370 -0.075000 -0.994749
1.738085 0.047423 0.106043 -0.000285 0.428165 0.901073
-0.300196 -0.078515 -0.085613 -0.000001 -0.598666 -0.797953
0.045287 0.018417 0.114695 -0.002094 0.193312 0.978647
-1.723386 0.044742 -0.107202 -0.001008 0.292147 -0.953706
1.263298 0.085054 0.113848 -0.098137 -0.644926 0.757918
1.561734 -0.216949 0.254974 -0.098137 -0.862779 -0.495965
-1.852897 -0.044399 -0.078266 -0.442192 -0.351507 -0.821582
0.693317 0.011598 -0.115584 -0.001590 0.187570 -0.980239
-0.739271 -0.079931 0.084292 -0.001489 -0.715003 0.695685
-1.202864 -0.113894 0.022851 0.000183 -0.951811 0.297412
-1.693638 0.105616 -0.048367 0.001652 0.877578 -0.474154
-0.152964 0.398936 -0.485971 -0.037720 -0.757374 -0.651892
0.003120 -0.189080 0.227356 0.107561 -0.764397 -0.635711
-0.326511 -0.076614 0.087318 0.000570 -0.581622 0.810550
-0.178934 -0.151132 -0.196567 -0.037720 0.757374 -0.651892
0.933726 -0.016236 0.115024 -0.000215 -0.169165 0.983418
-0.318050 0.015133 0.115174 0.001007 0.164445 0.984484
-0.446344 0.031968 0.111679 -0.000661 0.224273 0.972236
1.565618 -0.153866 -0.202687 -0.000000 0.768857 -0.639420
1.636644 0.127119 0.170526 0.000000 -0.768857 0.639420
-0.374449 0.067055 0.094856 0.000240 0.600634 0.797697
-0.172258 0.108302 -0.042009 -0.001016 0.946383 -0.315769
1.313759 -0.103979 -0.051792 -0.000529 -0.866682 -0.491536
1.650676 -0.121260 -0.163482 0.000000 0.768857 -0.639420
1.480041 -0.100047 -0.059032 -0.000741 -0.839330 -0.538649
-0.096695 -0.150491 0.190931 0.063779 0.767292 0.638118
-0.265956 -0.160632 -0.202570 -0.037720 0.757374 -0.651892
-0.187328 -0.302784 0.349412 -0.063752 -0.785277 -0.615854
0.230585 0.000000 -0.116164 0.000200 -0.111187 -0.990786
0.170433 -0.116164 -0.000000 0.001084 -0.993606 -0.093525
-0.189152 0.144711 0.148042 -0.063752 0.785277 -0.615854
-0.344710 0.104299 0.112616 -0.063752 0.785277 -0.615854
-0.109450 -0.547314 0.653150 -0.063752 -0.785277 -0.615854
1.037878 0.054953 -0.102344 -0.002067 0.418925 -0.905874
-1.528624 0.106524 0.046332 0.000939 0.898040 0.434428
-0.121250 -0.309126 -0.350659 0.050512 -0.773317 0.630675
1.728814 -0.259293 0.322386 -0.000618 0.679456 0.729790
-0.043214 0.601972 0.715989 -0.002499 0.779757 -0.624514
-1.461101 0.060062 -0.099432 -0.000728 0.605075 -0.791991
1.263298 0.085054 -0.113848 -0.098137 -0.644926 -0.757918
1.368374 -0.048278 -0.105657 0.000018 -0.372699 -0.925364
-1.268675 0.019092 -0.114584 -0.000017 0.222980 -0.971993
-1.393538 0.000000 -0.116164 0.002302 -0.042188 -0.997883
1.832207 0.021268 -0.053272 1.000000 0.000000 -0.000000
-0.142435 0.377001 0.461096 -0.037720 -0.757374 0.651892
-0.860756 0.061821 -0.098347 0.000524 0.481376 -0.873793
1.471127 0.063824 0.094419 -0.000000 -0.768857 0.639420
-0.228523 -0.369751 -0.439067 -0.063752 -0.785277 0.615854
1.477488 0.052484 -0.103632 0.000012 0.399107 -0.914068
-0.092497 0.108756 -0.040819 -0.000408 0.915845 -0.395148
-0.426474 -0.094563 0.108665 -0.063752 -0.785277 -0.615854
1.357464 -0.152672 -0.183578 -0.098137 0.644926 -0.757918
1.675580 0.055352 0.048882 0.000000 0.768857 -0.639420
1.318221 0.116281 -0.128037 -0.098137 0.862779 0.495965
1.536435 0.113743 0.023592 0.001721 0.950954 0.297319
1.490662 0.098027 -0.100196 0.000000 0.768857 0.639420
1.792819 0.040917 0.037417 0.193175 0.777208 -0.598859
-1.772404 0.035209 0.108883 -0.172636 0.343712 0.920228
1.546727 -0.222389 -0.267407 -0.098137 0.644926 -0.757918
-1.012571 0.116164 -0.000000 -0.004111 0.985555 -0.152438
1.173041 0.068287 0.073272 -0.098137 0.862779 -0.495965
1.746627 -0.135360 0.145086 0.064708 -0.774174 -0.627928
1.716344 -0.237770 0.268226 0.033354 -0.805431 -0.587345
1.739056 0.160962 0.175871 0.064708 0.774174 -0.627928
1.617054 0.043733 -0.070260 -0.000000 -0.768857 -0.639420
-0.073697 0.177652 0.221292 0.063779 -0.767292 0.638118
-0.671705 -0.116164 0.000000 -0.003465 -0.996915 -0.054443
-0.352237 0.144031 -0.164058 -0.063752 0.785277 0.615854
-0.090229 -0.000000 0.116164 0.003653 -0.036231 0.998005
0.912316 -0.116164 -0.000000 0.004731 -0.997756 -0.028235
-1.825239 0.061309 0.081133 -0.371680 0.524991 0.762157
-0.041359 0.370294 0.449697 0.063779 -0.767292 0.638118
1.516524 -0.132468 -0.141608 0.000000 -0.768857 0.639420
1.642523 -0.191377 -0.212442 -0.000000 -0.768857 0.639420
-0.061707 -0.436299 -0.531098 0.063779 0.767292 -0.638118
-0.081589 0.315409 0.387724 0.063779 -0.767292 0.638118
-0.049723 -0.404111 0.476973 0.107561 -0.764397 -0.635711
-0.251500 0.109503 0.109602 -0.063752 0.785277 -0.615854
-0.269812 -0.229612 0.264650 -0.063752 -0.785277 -0.615854
1.463434 -0.108211 0.147791 0.000000 0.768857 0.639420
1.505275 0.083596 0.118193 0.000000 -0.768857 0.639420
-1.393178 -0.112034 -0.030701 -0.001160 -0.972818 -0.222431
-0.920789 -0.112072 0.030559 0.000272 -0.947171 0.313484
1.574144 0.127840 0.171394 -0.000000 -0.768857 0.639420
-0.248043 -0.247725 -0.304791 -0.037720 0.757374 -0.651892
-1.493792 -0.116164 0.000000 -0.003811 -0.991644 -0.108100
1.574541 0.182352 0.236941 -0.065585 -0.688553 0.720708
1.453776 -0.137867 0.183451 -0.063236 0.691494 0.717849
-0.229335 -0.311498 -0.364872 -0.063752 -0.785277 0.615854
-0.040213 0.550749 0.666567 0.063779 -0.767292 0.638118
-0.096891 -0.535573 -0.636880 -0.063752 -0.785277 0.615854
1.773125 -0.028373 0.051791 -0.152122 0.631979 -0.759909
1.714598 0.034133 -0.058717 0.000000 -0.768857 -0.639420
1.675580 -0.055352 0.048882 0.000000 -0.768857 -0.639420
1.578036 0.064951 0.060425 0.000000 0.768857 -0.639420
-1.166251 -0.086199 0.077871 0.001527 -0.710167 0.700960
1.583570 -0.079625 0.113418 0.000000 0.768857 0.639420
-0.153766 -0.166348 0.215702 -0.003875 0.761354 0.647871
-0.771960 0.116164 -0.000000 0.002662 0.988900 -0.114382
-0.065026 -0.245354 -0.301831 0.063779 0.767292 -0.638118
1.585077 -0.107860 -0.043131 0.000733 -0.908606 -0.411606
0.824295 0.107605 -0.043765 0.001945 0.951511 -0.302775
1.832207 -0.066130 0.038313 1.000000 -0.000000 0.000000
-1.674660 -0.115607 0.011358 0.000037 -0.990852 0.127055
-0.467722 -0.100682 0.057942 -0.000108 -0.838273 0.540688
0.006303 -0.027844 0.112778 0.002534 -0.326369 0.942237
-0.262313 0.286507 -0.336419 -0.063752 0.785277 0.615854
-0.182435 -0.244658 0.274789 -0.063752 -0.785277 -0.615854
-0.903075 0.037213 -0.110042 -0.000836 0.262208 -0.962480
-0.353483 -0.200879 -0.244264 -0.037720 0.757374 -0.651892
-0.243928 0.197541 0.221076 -0.063752 0.785277 -0.615854
-0.011348 0.309750 -0.373898 0.063779 -0.767292 -0.638118
-0.360896 -0.050881 -0.104428 0.000042 -0.482551 -0.873073
1.126666 -0.104868 -0.049967 -0.002322 -0.888630 -0.452959
1.595460 0.146058 -0.157949 0.000000 0.768857 0.639420
-0.108244 -0.357934 0.411547 0.050512 -0.773317 -0.630675
-0.129714 0.183710 0.234175 0.063779 -0.767292 0.638118
-0.267108 -0.321795 -0.389743 -0.037720 0.757374 -0.651892
0.410464 0.115790 0.009311 -0.000522 0.985202 0.163207
-0.230573 0.376067 -0.454911 -0.037720 -0.757374 -0.651892
1.380946 -0.097257 0.099269 -0.000000 -0.768857 -0.639420
1.399512 -0.124491 -0.132016 0.000000 -0.768857 0.639420
0.642115 0.115512 -0.012292 -0.000117 0.995635 -0.073783
1.522785 0.180666 -0.199563 -0.065585 0.834145 0.545644
1.817158 -0.082142 0.098770 0.193175 -0.777208 -0.598859
1.354402 -0.087028 -0.122319 -0.000000 0.768857 -0.639420
1.548744 -0.108342 0.041906 0.001106 -0.943110 0.320103
1.323052 0.139997 0.168336 -0.098137 0.862779 -0.495965
-0.456650 0.060720 -0.099031 0.000299 0.463854 -0.882928
-1.694301 -0.000000 0.116164 0.000754 -0.046972 0.996602
1.190560 -0.050220 0.104747 0.000035 -0.454147 0.888193
-0.217402 0.077941 0.086135 0.000137 0.713795 0.696821
1.345428 0.055253 -0.084112 0.000000 -0.768857 -0.639420
-0.078168 -0.070283 0.092635 -0.000000 0.639420 -0.768857
-0.304810 0.242218 0.284347 -0.063752 0.785277 -0.615854
-0.036910 -0.341094 0.414142 0.063779 0.767292 0.638118
-0.058862 0.099578 0.125931 0.063779 -0.767292 0.638118
-0.309913 0.143082 -0.179637 -0.037720 -0.757374 -0.651892
-0.309881 -0.208694 -0.255867 -0.037720 0.757374 -0.651892
1.471028 0.161601 0.176639 -0.063236 0.831871 -0.549057
-1.614166 0.113924 0.022704 -0.000066 0.949733 0.302354
1.621266 0.030676 0.112040 -0.001034 0.308790 0.948724
-0.104508 0.218910 -0.245013 0.107561 0.764397 0.635711
-0.098040 -0.029568 -0.112338 -0.002495 -0.271114 -0.959118
-0.058144 -0.621936 -0.742990 -0.063752 -0.785277 0.615854
-0.112173 0.247226 0.277764 0.107561 0.764397 -0.635711
1.792819 -0.029331 -0.047052 0.193175 0.730498 -0.655024
0.531349 -0.000000 0.116164 -0.003630 -0.044505 0.997007
-0.129049 -0.365547 -0.423409 -0.063752 -0.785277 0.615854
1.538247 0.126986 -0.135016 0.000000 0.768857 0.639420
0.003120 0.393174 -0.472764 0.107561 0.764397 0.635711
-1.867489 -0.082183 0.000000 -0.527502 -0.844712 0.049324
1.391875 0.165348 0.198819 -0.098137 0.862779 -0.495965
-0.525890 0.114221 0.021158 0.001236 0.968960 0.234238
1.697597 -0.078350 -0.076535 0.000000 -0.768857 0.639420
-0.034171 0.572129 -0.681635 0.107561 0.764397 0.635711
-0.376375 -0.113390 -0.141294 -0.037720 0.757374 -0.651892
-0.154679 -0.481491 0.581785 -0.037720 0.757374 0.651892
1.480678 -0.055253 -0.084112 -0.000000 0.768857 -0.639420
0.294678 -0.087654 -0.076229 -0.000145 -0.685163 -0.725055
1.793303 -0.073425 -0.062324 0.456860 -0.626164 -0.626893
-1.533894 0.000000 -0.116164 -0.002980 -0.044925 -0.996284
1.718293 -0.146126 -0.193381 0.000000 0.768857 -0.639420
-0.047291 -0.228217 -0.265885 0.107561 -0.764397 0.635711
-0.411043 -0.000000 0.116164 -0.001650 -0.040988 0.997469
-0.315538 -0.152800 -0.190601 -0.037720 0.757374 -0.651892
-0.173275 0.090555 -0.126516 0.029957 -0.764660 -0.643280
-0.014031 0.096226 -0.112803 0.107561 0.764397 0.635711
-0.166772 -0.115819 -0.156245 -0.001456 0.761583 -0.647537
1.603559 0.104993 -0.108572 -0.000000 0.768857 0.639420
-0.222184 0.152079 -0.160857 -0.063752 0.785277 0.615854
-0.114803 -0.190010 -0.208521 0.107561 -0.764397 0.635711
0.279937 0.113947 0.022589 0.000039 0.964930 0.248488
1.577857 -0.104742 -0.143619 0.000000 0.768857 -0.639420
-0.036996 0.138797 -0.160105 0.107561 0.764397 0.635711
0.279986 0.069793 -0.092861 0.000364 0.621198 -0.780533
-0.162120 0.281639 0.349165 -0.037720 -0.757374 0.651892
-0.058862 -0.099578 0.125931 0.063779 0.767292 0.638118
-0.929389 0.103096 -0.053529 0.000579 0.838664 -0.540063
1.718739 0.075499 0.073107 0.000000 0.768857 -0.639420
-0.127754 -0.267405 -0.334616 -0.003875 0.761354 -0.647871
-0.827590 0.114760 -0.018010 0.000847 0.966294 -0.247704
-0.103536 -0.155047 -0.168387 0.107561 -0.764397 0.635711
1.234691 -0.011598 0.115584 -0.001590 -0.187570 0.980239
1.771418 -0.101703 -0.134074 0.193175 0.730498 -0.655024
0.372416 0.011767 -0.115567 -0.001898 0.190308 -0.979673
-0.153766 0.187107 0.198438 -0.006593 0.780276 -0.624056
-0.407161 0.105585 0.048434 -0.000170 0.874774 0.479386
-0.192844 -0.252014 -0.285247 -0.063752 -0.785277 0.615854
-0.208644 0.418942 0.499732 -0.063752 0.785277 -0.615854
-0.301740 -0.268927 -0.318085 -0.063752 -0.785277 0.615854
1.588839 -0.189441 -0.210114 0.000000 -0.768857 0.639420
-0.153841 0.255272 -0.285363 -0.063752 0.785277 0.615854
1.415209 0.024645 0.113520 0.000408 0.243493 0.966905
-0.251348 0.413371 -0.497049 -0.063752 0.785277 0.615854
-0.392642 -0.079032 0.085360 0.000000 0.639420 -0.768857
-0.267600 -0.364592 0.436533 -0.063752 -0.785277 -0.615854
-0.073447 -0.609141 0.734791 -0.037720 0.757374 0.651892
-0.314288 -0.196403 0.226909 -0.063752 -0.785277 -0.615854
1.525172 0.041424 0.108527 0.000259 0.376350 0.923729
1.681128 -0.087543 0.122939 0.000000 0.768857 0.639420
1.704310 -0.153825 0.167289 0.000000 -0.768857 -0.639420
-0.135140 -0.316028 -0.390679 -0.037720 0.757374 -0.651892
0.618143 -0.097620 0.062964 0.001644 -0.813858 0.576764
-0.094012 -0.479968 -0.583526 -0.037720 0.757374 -0.651892
-1.066737 0.020858 0.114276 -0.000393 0.283975 0.955611
0.003120 -0.291127 0.350060 0.107561 -0.764397 -0.635711
-0.160032 0.471765 -0.562055 -0.063752 0.785277 0.615854
1.213080 -0.116164 -0.000000 0.003229 -0.991784 -0.102656
1.558527 0.066871 -0.062733 0.000000 0.768857 0.639420
-0.111496 0.345732 0.396325 -0.006593 0.780276 -0.624056
-0.825190 -0.070133 0.092604 -0.000499 -0.652204 0.754619
1.402020 0.136181 0.146073 -0.066519 0.834962 -0.544215
1.578036 -0.047573 0.074878 -0.152122 0.631979 -0.759909
-0.110645 0.581294 -0.700285 -0.037720 -0.757374 -0.651892
1.367515 0.106093 0.145244 -0.065585 -0.688553 0.720708
-0.360726 0.098724 -0.061218 0.000217 0.825598 -0.559936
1.525061 0.192472 0.219651 -0.098137 0.862779 -0.495965
-0.187817 -0.418680 0.506894 -0.037720 0.757374 0.651892
-1.821111 0.101066 -0.020500 -0.365308 0.917319 -0.126580
-1.068195 -0.055472 0.102064 -0.000098 -0.515678 0.853916
1.662746 -0.078932 0.085228 0.000646 -0.628636 0.774736
1.727865 -0.085189 0.120109 -0.000000 0.768857 0.639420
1.421626 0.142785 -0.183472 -0.098137 -0.644926 -0.757918
-0.757624 0.028573 -0.112595 0.002106 0.276303 -0.957303
1.438878 -0.160726 -0.181479 -0.098137 -0.862779 0.495965
1.717209 0.275796 0.326581 -0.098137 0.862779 -0.495965
-0.247498 -0.115738 0.151479 -0.037720 0.757374 0.651892
-0.053944 0.414147 -0.488328 0.107561 0.764397 0.635711
-0.322939 0.098437 0.061679 0.000078 0.812800 0.578402
-0.112849 0.413120 0.482392 -0.063752 0.785277 -0.615854
1.209120 0.054888 0.102379 -0.000121 0.553004 0.830280
1.758482 -0.218803 0.257204 0.193175 -0.777208 -0.598859
-1.067265 0.114221 -0.021158 0.001236 0.968960 -0.234238
-0.038620 0.272843 0.321012 0.107561 0.764397 -0.635711
-0.072478 -0.482152 0.587309 -0.003875 0.761354 0.647871
-0.203335 0.169062 0.180560 -0.063752 0.785277 -0.615854
-0.080047 0.286004 0.352212 0.063779 -0.767292 0.638118
1.738605 0.218941 -0.274497 0.193175 -0.730498 -0.655024
-0.171339 0.177629 -0.227791 -0.037720 -0.757374 -0.651892
0.225978 -0.114337 -0.020522 -0.001214 -0.972750 -0.219356
-0.391536 -0.152529 -0.178961 -0.063752 -0.785277 0.615854
-1.109600 -0.021126 0.114227 0.003374 -0.263031 0.961472
-0.110280 -0.116164 -0.000000 -0.003414 -0.996502 -0.043281
1.558527 -0.049493 -0.077186 0.000000 0.768857 -0.639420
-0.142140 -0.507784 0.613059 -0.037720 0.757374 0.651892
-0.052867 -0.187888 -0.231518 0.063779 0.767292 -0.638118
-1.333810 0.103979 0.051793 0.000529 0.866681 0.491538
-0.210418 -0.197391 -0.248490 -0.037720 0.757374 -0.651892
1.717209 -0.275796 -0.326581 -0.098137 -0.862779 0.495965
-0.304810 0.242218 -0.284347 -0.063752 0.785277 0.615854
-0.390000 0.156980 -0.191149 -0.037720 -0.757374 -0.651892
-1.045599 -0.115374 -0.013524 -0.000514 -0.986180 -0.154236
-0.156277 0.116438 0.113039 0.107561 0.764397 -0.635711
-0.373755 -0.136344 0.168115 -0.037720 0.757374 0.651892
-1.736634 0.079134 0.085040 0.000017 0.635544 0.768639
-0.105617 -0.426589 -0.498818 -0.063752 -0.785277 0.615854
-0.275350 0.108096 -0.110277 -0.063752 0.785277 0.615854
-0.127240 -0.209551 -0.264999 0.063779 0.767292 -0.638118
-0.134257 -0.242141 0.304888 -0.003875 0.761354 0.647871
-0.104993 0.355830 0.438666 -0.003875 -0.761354 0.647871
-0.048438 -0.114968 -0.143394 0.063779 0.767292 -0.638118
1.672389 -0.185942 0.241256 -0.000000 0.768857 0.639420
-1.580117 -0.052647 0.103549 0.000775 -0.532298 0.843929
1.695307 0.244216 0.275977 -0.065585 0.834145 -0.545644
-0.079794 -0.298874 0.345346 0.107561 -0.764397 -0.635711
-0.261795 -0.331955 0.401855 -0.037720 0.757374 0.651892
-0.314288 0.196403 0.226909 -0.063752 0.785277 -0.615854
-0.297700 0.093172 0.122358 -0.037720 -0.757374 0.651892
-0.140760 0.216877 -0.275159 0.029957 -0.764660 -0.643280
-0.104454 -0.437173 0.533202 -0.037720 0.757374 0.651892
-0.206889 -0.264918 0.303155 -0.063752 -0.785277 -0.615854
0.447671 -0.100682 -0.057942 0.000108 -0.838273 -0.540688
0.744345 0.115329 -0.013906 0.002971 0.979838 -0.190062
-0.299813 0.297271 -0.354027 -0.063752 0.785277 0.615854
-0.106097 0.541100 -0.653851 -0.037720 -0.757374 -0.651892
-1.810275 -0.071417 -0.079026 -0.314489 -0.640321 -0.696111
0.588240 0.114548 -0.019311 -0.001940 0.960223 -0.268782
-1.832021 0.000000 -0.099169 -0.396876 -0.042346 -0.914269
-1.300462 -0.095922 0.065522 -0.002959 -0.800379 0.594387
-0.250636 -0.000000 0.116164 -0.002328 -0.110316 0.990789
-0.431094 0.000000 -0.116164 -0.000806 -0.106662 -0.991184
1.337436 -0.111241 0.033461 -0.001866 -0.932046 0.355573
-0.361237 -0.193363 0.227892 -0.063752 -0.785277 -0.615854
-0.361237 0.193363 -0.227892 -0.063752 0.785277 0.615854
0.534488 0.019410 -0.114531 0.001951 0.270025 -0.959855
-0.868291 0.114953 0.016731 0.000571 0.968154 0.240630
-1.929034 -0.032169 0.006162 -0.748670 -0.654761 0.084064
1.574541 0.199731 -0.222488 -0.065585 0.834145 0.545644
-0.293516 -0.130503 0.140730 -0.063752 -0.785277 -0.615854
-1.150281 0.028701 0.112563 -0.000070 0.342168 0.937257
1.422035 -0.104056 -0.051638 0.000071 -0.845731 -0.529276
-0.038540 0.137979 0.158861 0.107561 0.764397 -0.635711
1.595460 -0.128676 -0.172399 -0.000000 0.768857 -0.639420
-0.283791 -0.166145 0.207943 -0.037720 0.757374 0.651892
1.380026 0.115278 0.014318 0.006219 0.982393 0.175180
-0.821772 -0.110342 0.036313 -0.000895 -0.929614 0.361656
0.003120 -0.074278 -0.089314 0.107561 -0.764397 0.635711
-0.110645 0.583042 0.698831 -0.063752 0.785277 -0.615854
-0.229369 0.274481 0.336957 -0.037720 -0.757374 0.651892
1.769796 0.174749 -0.216015 0.193175 -0.730498 -0.655024
0.525588 -0.114399 -0.020171 -0.000270 -0.957936 -0.276507
-0.169617 -0.076546 0.087427 -0.000000 0.639420 -0.768857
0.390993 -0.116164 -0.000000 -0.002081 -0.996352 -0.042606
-0.029618 0.228950 0.278568 0.063779 -0.767292 0.638118
-0.038793 -0.114469 0.019770 0.000062 -0.974161 0.212654
1.399579 -0.107083 0.146434 0.000000 0.768857 0.639420
-0.271491 -0.221090 -0.272490 -0.037720 0.757374 -0.651892
1.832207 0.024841 0.032864 1.000000 0.000000 0.000000
-0.751670 0.063128 0.097514 -0.002600 0.599804 0.796391
-1.286123 -0.018927 0.114612 0.001350 -0.215863 0.973579
-0.130918 -0.110257 0.145973 0.063779 0.767292 0.638118
-0.309913 0.143082 0.179637 -0.037720 -0.757374 0.651892
1.406743 -0.154064 0.191142 -0.098137 0.644926 0.757918
-0.077685 -0.220562 0.273287 0.063779 0.767292 0.638118
-0.738774 -0.114088 -0.021863 -0.001397 -0.948414 -0.304653
-0.010025 0.000000 -0.116164 -0.002135 -0.092755 -0.993497
-0.257371 0.204933 -0.231893 -0.063752 0.785277 0.615854
-0.248897 0.227773 0.281561 -0.037720 -0.757374 0.651892
-0.134697 0.180359 -0.193551 0.107561 0.764397 0.635711
1.242216 -0.093995 0.104307 -0.098137 -0.862779 -0.495965
-0.541483 -0.016713 -0.114955 0.002332 -0.095623 -0.993055
1.052672 0.000000 -0.116164 0.000750 -0.066250 -0.994472
-0.232500 -0.204400 0.255356 -0.037720 0.757374 0.651892
1.770529 -0.103937 -0.029156 0.459430 -0.854018 -0.233000
-0.068636 0.229554 -0.283194 0.063779 -0.767292 -0.638118
-0.554935 -0.055187 0.102218 0.000016 -0.557728 0.827087
0.298356 -0.112109 -0.030426 -0.000143 -0.944850 -0.320146
-0.077283 0.386985 -0.451718 0.107561 0.764397 0.635711
-0.221537 -0.016583 -0.114974 -0.000316 -0.192317 -0.978888
0.370942 -0.000000 0.116164 0.000370 -0.105587 0.991585
-0.006928 -0.098787 0.061117 -0.000144 -0.831515 0.551105
-1.677926 -0.100865 0.057622 -0.000339 -0.840931 0.536350
-1.519102 0.065286 -0.096082 -0.000541 0.597744 -0.798655
0.835213 -0.057775 0.100778 0.000434 -0.516626 0.852984
