0.305776 0.366814 0.389147 -0.028103 -0.709785 0.703857
0.423251 0.380491 -0.385553 0.089798 0.720974 0.687119
-1.576797 -0.043855 -0.051880 -0.545362 -0.482908 -0.682803
0.165966 -0.334444 0.350922 -0.050257 -0.747000 -0.662922
-0.559117 -0.103364 0.033941 0.000028 -0.957009 0.287536
1.563734 -0.116390 -0.122124 0.299021 0.745700 -0.595414
1.218020 -0.049714 0.096770 -0.000034 -0.480455 0.876223
0.569035 0.048881 -0.097194 0.000104 0.495061 -0.868058
1.277971 -0.017217 -0.107422 -0.000003 -0.105682 -0.993695
1.037831 -0.077378 0.076476 0.000504 -0.688883 0.724033
0.447744 0.203269 -0.219139 0.050289 -0.722982 -0.689034
-0.059148 0.076525 0.077357 -0.000000 -0.689907 -0.723898
0.743829 0.008633 -0.108450 0.000296 0.027343 -0.998897
0.505356 0.260159 0.270022 0.089798 0.720974 -0.687119
0.423339 0.293121 -0.293889 0.089798 0.720974 0.687119
1.536690 -0.091765 0.049073 0.055318 -0.867982 0.492406
0.143438 -0.225255 -0.239914 -0.028103 0.709785 -0.703857
0.007958 0.086641 -0.083669 -0.050257 0.747000 0.662922
0.179565 0.096699 -0.049852 0.000675 0.910528 -0.411708
0.243190 -0.094413 -0.054057 0.000191 -0.876791 -0.479898
0.289545 -0.033932 -0.103367 0.000070 -0.285683 -0.957617
0.333880 0.395049 -0.406484 -0.050257 0.747000 0.662922
1.078079 0.105806 0.125880 0.000000 -0.723898 0.689907
0.215736 0.190896 0.185395 -0.050257 0.747000 -0.662922
-1.058335 -0.017189 0.107427 0.000001 -0.131745 0.990579
0.451314 -0.052909 -0.095061 -0.000637 -0.500695 -0.864924
1.400351 0.174944 0.168702 -0.000000 0.723898 -0.689907
1.255330 0.190260 -0.202713 -0.104757 -0.486515 -0.867369
1.265883 0.068991 -0.072390 -0.000000 -0.689907 0.723898
0.878620 0.096771 -0.049712 0.000034 0.900461 -0.433348
1.514367 0.158391 -0.151333 0.000000 0.723898 0.689907
0.472357 0.088637 -0.085737 0.089798 0.720974 0.687119
0.316654 -0.384038 0.395383 -0.050257 -0.747000 -0.662922
1.266805 -0.199401 0.209226 -0.104757 0.486515 0.867369
-1.073344 0.100316 0.042104 0.000073 0.910984 0.410719
1.392310 0.129426 -0.120942 0.000000 0.723898 0.689907
1.582135 0.235041 -0.261483 0.200602 -0.744598 -0.632304
-0.404368 0.025691 -0.105717 0.000448 0.185516 -0.981887
-0.454285 0.008633 0.108450 -0.000001 0.026469 0.998947
0.172932 -0.152798 0.168024 -0.028103 0.709785 0.703857
-0.554708 -0.057012 -0.092659 0.000009 -0.547143 -0.836206
0.096452 0.233825 0.246680 -0.028103 -0.709785 0.703857
0.527966 0.185610 -0.194755 0.089798 0.720974 0.687119
0.404372 0.042089 0.100322 0.000011 0.362081 0.931395
0.376661 -0.208006 -0.229298 0.050289 0.722982 -0.689034
0.475111 -0.091522 0.058819 0.000518 -0.809681 0.585530
0.433072 -0.380647 0.387000 0.089798 -0.720974 -0.687119
-0.833828 -0.092489 -0.057288 0.000098 -0.876045 -0.480802
-1.484048 -0.103551 -0.015554 -0.198070 -0.967325 -0.151721
0.518687 -0.251459 -0.262636 0.089798 -0.720974 0.687119
0.977619 0.082166 0.071353 0.000000 0.723898 -0.689907
1.008414 -0.017176 -0.107429 -0.000000 -0.131704 -0.990584
1.536690 0.038143 0.078765 1.000000 -0.000000 -0.000000
0.330254 0.141774 0.163189 0.024164 -0.718974 0.694355
-1.578682 0.066707 -0.000000 -0.562214 0.823628 -0.041940
0.332811 0.241953 0.264314 -0.028103 -0.709785 0.703857
-0.299524 0.107430 -0.017169 -0.000001 0.990598 -0.131607
1.612412 -0.236736 -0.248400 0.299021 0.745700 -0.595414
1.112833 -0.156127 0.158866 -0.104757 -0.889748 -0.444269
1.078391 -0.120853 -0.111946 -0.000000 -0.723898 0.689907
1.191473 -0.180771 -0.189678 -0.104757 -0.889748 0.444269
0.868668 -0.103362 0.033945 -0.000001 -0.957349 0.286497
1.398635 -0.232004 0.243435 -0.104757 0.486515 0.867369
0.391529 0.174321 -0.165080 0.089798 0.720974 0.687119
1.359791 -0.112879 0.103580 0.000000 -0.723898 -0.689907
0.465834 -0.162859 0.175418 0.050289 0.722982 0.689034
-0.933784 0.008052 0.108495 -0.000454 0.050627 0.998056
0.146493 0.118545 0.132427 -0.028103 -0.709785 0.703857
1.143246 -0.105733 0.025623 0.000003 -0.977063 0.209646
-1.193121 0.008633 0.108450 0.000002 0.026457 0.998948
-0.294490 -0.008614 0.108452 -0.000000 -0.052786 0.997907
0.268630 0.049999 0.096623 0.000278 0.484226 0.874116
1.345799 -0.206958 -0.205734 -0.104757 -0.889748 0.444269
-0.823574 0.100325 0.042081 -0.000037 0.931718 0.361265
0.243430 -0.186409 0.178239 -0.050257 -0.747000 -0.662922
1.456923 0.221360 0.217405 0.000000 0.723898 -0.689907
1.496257 0.211037 -0.206573 -0.000000 0.723898 0.689907
-0.538912 0.103302 -0.034129 -0.000134 0.957271 -0.286778
1.422719 0.025709 -0.105712 -0.000007 0.209906 -0.977008
0.450712 -0.331685 -0.337931 0.089798 -0.720974 0.687119
1.391777 0.054889 0.093932 -0.000037 0.548555 0.835278
0.064852 0.108452 -0.008614 0.000002 0.997907 -0.052784
-0.069890 -0.033916 0.103372 0.000002 -0.286377 0.957387
1.209377 -0.128411 0.119877 0.000000 -0.723898 -0.689907
0.124377 0.209207 -0.212954 -0.050257 0.747000 0.662922
1.372970 -0.100358 -0.042004 -0.000000 -0.931683 -0.361343
0.067895 -0.238584 -0.250339 -0.050257 -0.747000 0.662922
-1.497007 -0.000000 0.101971 -0.211700 -0.033466 0.975515
1.424835 -0.082230 0.071421 0.000000 -0.723898 -0.689907
-1.027957 -0.097051 0.049165 0.000142 -0.912896 0.406768
0.418904 -0.509975 0.529540 -0.050257 -0.747000 -0.662922
0.496961 0.057257 0.092508 -0.001068 0.560961 0.827268
-1.293000 0.008626 -0.108451 0.000008 0.052845 -0.997902
-0.777066 -0.070707 0.082684 0.000583 -0.623411 0.781090
1.578053 0.245944 0.272923 0.049084 -0.663360 0.737207
0.186282 0.269953 -0.286699 -0.028103 -0.709785 -0.703857
1.434261 -0.188169 -0.182579 -0.000000 -0.723898 0.689907
1.325893 0.160614 0.183388 -0.000000 -0.723898 0.689907
1.432129 0.114695 0.135207 0.000000 -0.723898 0.689907
1.496258 0.049654 -0.093891 0.053148 0.417789 -0.906188
0.165966 -0.334444 -0.350922 -0.050257 -0.747000 0.662922
0.221634 -0.254372 -0.256474 -0.050257 -0.747000 0.662922
1.308309 0.085120 0.074453 0.000000 0.723898 -0.689907
0.520820 -0.091272 -0.059207 0.000354 -0.824970 -0.563982
-0.273271 -0.070279 -0.083047 0.000885 -0.684947 -0.727650
1.558715 -0.271593 0.284974 -0.104757 0.486515 0.867369
-0.314625 0.072524 0.081094 0.000090 0.687789 0.725039
0.908978 -0.110908 -0.116373 -0.104757 -0.889748 0.444269
0.527966 -0.434355 0.455755 0.089798 -0.720974 -0.687119
-0.419119 0.070279 0.083047 0.000333 0.664744 0.746205
0.144777 0.025688 -0.105717 0.000245 0.216136 -0.975502
-0.895529 0.076525 -0.077330 0.001018 0.692725 -0.720407
-0.412294 -0.049207 -0.097029 -0.000222 -0.499023 -0.865788
0.451011 -0.202294 -0.202204 0.089798 -0.720974 0.687119
-0.414301 -0.108452 0.008613 0.000000 -0.997907 0.052779
0.273233 0.123295 -0.104861 -0.050257 0.747000 0.662922
-0.524198 0.042097 -0.100319 0.000439 0.337216 -0.940722
0.295844 -0.332516 0.338903 -0.050257 -0.747000 -0.662922
0.019729 -0.182541 0.190840 -0.050257 -0.747000 -0.662922
1.295441 -0.143346 -0.165270 0.000000 0.723898 -0.689907
0.269504 -0.088704 0.062989 0.000189 -0.798939 0.600261
-1.495867 0.084964 -0.056869 -0.242157 0.824998 -0.508471
1.152623 0.122247 0.113409 -0.000000 0.723898 -0.689907
0.527966 -0.503450 -0.528255 0.089798 -0.720974 0.687119
0.918395 0.113237 0.118816 -0.104757 0.889748 -0.444269
-0.634047 -0.105733 0.025624 -0.000059 -0.977036 0.209757
0.636521 0.078246 -0.075588 0.000505 0.699169 -0.713985
0.014856 0.076809 0.077048 0.001189 0.679034 0.733508
-0.967942 -0.087811 -0.064228 -0.000172 -0.821807 -0.568474
0.249770 0.180844 -0.171488 -0.050257 0.747000 0.662922
1.031767 -0.076413 -0.065316 0.000000 0.689907 0.723898
0.203064 0.090334 0.060627 0.000063 0.799520 0.599410
1.310926 -0.041115 0.100725 0.001332 -0.362362 0.931221
0.408690 0.490198 -0.508029 -0.050257 0.747000 0.662922
-1.210361 0.090464 -0.060434 -0.000533 0.812429 -0.581897
1.038300 0.049818 0.096717 -0.000185 0.434603 0.899831
0.343073 -0.136715 -0.119288 0.089798 -0.720974 0.687119
1.288064 -0.103373 -0.033914 0.000002 -0.957398 -0.286343
1.505571 -0.122368 0.113536 -0.000000 -0.723898 -0.689907
0.426541 -0.282503 0.303824 0.050289 0.722982 0.689034
1.359489 0.158059 -0.180708 -0.000000 -0.723898 -0.689907
0.386133 -0.179105 0.198281 0.050289 0.722982 0.689034
0.464887 0.435588 -0.448805 0.089798 0.720974 0.687119
1.129343 0.096862 0.049536 -0.000622 0.901745 0.430784
0.357440 0.330080 0.354166 -0.028103 -0.709785 0.703857
0.527966 -0.510360 0.535505 0.089798 -0.720974 -0.687119
0.020122 0.168654 -0.177913 -0.028103 -0.709785 -0.703857
-1.419616 -0.027162 -0.105348 0.000232 -0.265779 -0.963519
0.198448 -0.161303 -0.153359 -0.050257 -0.747000 0.662922
0.923534 -0.042045 0.100341 0.000024 -0.361432 0.931651
0.180971 -0.266145 0.272823 -0.050257 -0.747000 -0.662922
0.952067 0.061569 -0.079463 -0.000000 -0.689907 0.723898
0.527966 0.116515 -0.122255 0.089798 0.720974 0.687119
-0.059928 0.096723 -0.049806 -0.000168 0.911459 -0.409712
0.457288 -0.422526 0.448502 0.050289 0.722982 0.689034
1.461408 0.107714 0.008705 0.052460 0.997522 0.027086
0.069906 -0.017217 0.107422 0.000006 -0.105680 0.993695
0.009952 -0.103393 0.033850 -0.000071 -0.940912 0.336587
0.488772 -0.239434 0.254091 0.050289 0.722982 0.689034
1.118272 -0.096704 -0.049844 0.000252 -0.900104 -0.434065
0.347793 0.291049 -0.288239 -0.050257 0.747000 0.662922
0.463645 0.154158 0.166448 0.050289 -0.722982 0.689034
1.525184 0.202786 0.227639 -0.000000 -0.723898 0.689907
0.459521 0.210687 0.226063 0.050289 -0.722982 0.689034
-0.419337 0.107427 -0.017188 0.000002 0.990586 -0.131700
0.013052 -0.053233 -0.094880 0.000198 -0.506975 -0.861144
1.519613 -0.202948 0.198086 -0.000000 -0.723898 -0.689907
0.299816 -0.297072 -0.318580 -0.028103 0.709785 -0.703857
-1.288123 0.088644 0.063074 0.000066 0.782275 0.621835
0.743797 0.025644 0.105728 -0.000876 0.205062 0.978120
-0.418592 -0.051095 0.096048 -0.000138 -0.496668 0.867132
1.338099 -0.111592 -0.102229 -0.000000 -0.723898 0.689907
1.579960 0.156505 0.164216 0.299021 0.630563 -0.716224
0.983513 -0.113755 0.104498 -0.070277 -0.841234 -0.530906
1.459410 0.111129 -0.131465 0.000000 -0.723898 -0.689907
1.006167 0.123015 -0.117703 -0.104757 0.889748 0.444269
0.368046 0.468055 0.486159 -0.050257 0.747000 -0.662922
0.461732 -0.428406 -0.440858 0.089798 -0.720974 0.687119
1.191473 0.180771 0.189678 -0.104757 0.889748 -0.444269
1.073355 0.105733 -0.025625 -0.000001 0.977065 -0.209639
0.374458 -0.105729 -0.025641 0.000001 -0.977041 -0.209747
0.723906 -0.108452 -0.008613 -0.000000 -0.997907 -0.052779
-0.708874 -0.017173 -0.107430 -0.000063 -0.132264 -0.990494
0.314459 0.105733 -0.025624 -0.000001 0.977064 -0.209645
0.464940 -0.335800 0.344108 0.089798 -0.720974 -0.687119
-1.478586 -0.090844 0.053961 -0.151401 -0.877199 0.452959
0.527966 0.517269 0.542755 0.050289 -0.722982 0.689034
-1.223043 -0.105728 0.025642 -0.000007 -0.977037 0.209758
-1.148184 0.017210 -0.107424 -0.000025 0.105634 -0.993699
-0.773803 0.008641 -0.108450 0.000009 0.052922 -0.997896
0.052741 0.035593 -0.102807 0.000563 0.351086 -0.935540
0.420195 -0.121923 -0.113846 0.089798 -0.720974 0.687119
-1.028360 0.033973 -0.103353 0.000121 0.286902 -0.957225
-0.967465 0.107302 0.017953 0.000250 0.989902 0.136160
0.354420 -0.008641 -0.108450 0.000020 -0.052890 -0.997899
1.273059 -0.092451 0.057348 -0.000018 -0.862968 0.503881
-1.337893 -0.107430 0.017172 0.000000 -0.990596 0.131622
-1.133252 -0.025660 0.105724 0.000002 -0.209993 0.976986
-0.000194 -0.093468 0.101282 -0.028103 0.709785 0.703857
0.662940 -0.072948 0.080713 0.000287 -0.704945 0.708288
0.380192 -0.464054 0.490178 -0.028103 0.709785 0.703857
0.493801 0.026443 -0.105531 -0.000018 0.265718 -0.963325
-1.387771 -0.086944 0.065397 0.000972 -0.818140 0.573705
-1.331627 0.105611 -0.026122 -0.000260 0.976080 -0.213838
-1.105677 -0.095377 -0.052338 -0.000385 -0.891363 -0.451732
0.124810 -0.100346 0.042031 0.000011 -0.931632 0.361469
1.536690 -0.029137 -0.062115 1.000000 0.000000 0.000000
-1.600713 -0.031866 0.039186 -0.617592 -0.497820 0.605685
-1.431220 0.098971 0.045174 -0.000254 0.899213 0.435679
1.496257 -0.211037 -0.206573 -0.000000 -0.723898 0.689907
1.367829 0.103352 -0.033975 0.000004 0.957288 -0.286702
0.029366 0.150685 0.160162 -0.028103 -0.709785 0.703857
0.366342 0.296148 0.292578 -0.050257 0.747000 -0.662922
-1.273400 0.069880 -0.083384 0.000038 0.600674 -0.798618
-0.838639 -0.033996 -0.103346 0.000149 -0.286672 -0.957304
0.207448 -0.051064 -0.096065 0.000035 -0.486616 -0.872840
-1.268034 -0.033974 0.103353 0.000358 -0.287679 0.956970
1.158160 -0.017172 0.107430 0.000026 -0.131797 0.990570
0.788757 -0.103367 -0.033931 0.000035 -0.957022 -0.287493
0.394442 0.092913 0.056597 0.000239 0.864993 0.500569
-0.067690 -0.043238 -0.099832 -0.000104 -0.444852 -0.894803
0.879113 0.048637 -0.097316 0.000301 0.493556 -0.868931
1.075627 0.032024 -0.103973 -0.000902 0.343045 -0.938630
-1.048965 0.048884 0.097192 -0.000262 0.403871 0.914111
1.133138 0.146113 -0.138451 0.000000 0.723898 0.689907
-1.338349 -0.096676 -0.049897 -0.000011 -0.875220 -0.482270
0.473148 -0.542333 0.561890 0.043148 -0.730931 -0.680233
1.097308 -0.157484 -0.165243 -0.104757 -0.889748 0.444269
-0.783937 0.070235 -0.083085 0.000064 0.684311 -0.728245
-0.958427 0.093893 -0.054956 0.000244 0.847043 -0.530357
0.200580 0.368277 -0.386422 -0.050257 0.747000 0.662922
0.037886 0.122394 -0.131972 -0.028103 -0.709785 -0.703857
1.292603 -0.164643 0.157894 -0.000000 -0.723898 -0.689907
1.217302 0.103635 -0.033102 -0.000625 0.934601 -0.353930
0.787968 -0.063897 0.088052 -0.000590 -0.547918 0.835832
1.228659 0.157749 -0.150661 -0.000000 0.723898 0.689907
-1.403025 -0.082196 -0.071273 0.000049 -0.772552 -0.633852
0.676940 -0.059770 -0.090904 -0.000102 -0.579615 -0.814081
0.481053 0.536028 -0.556307 0.089798 0.720974 0.687119
0.268336 0.162971 0.149940 -0.050257 0.747000 -0.662922
-0.085612 0.048710 -0.097280 0.000308 0.402318 -0.914820
0.724016 -0.093088 0.056309 -0.000094 -0.840682 0.540297
-0.813173 0.056244 0.093127 0.000067 0.539286 0.841303
1.217303 -0.131589 -0.152934 0.000000 0.723898 -0.689907
1.503127 -0.106150 -0.096518 -0.000000 -0.723898 0.689907
-0.903567 0.008646 -0.108449 0.000016 0.052914 -0.997897
0.175643 0.168868 -0.184338 -0.028103 -0.709785 -0.703857
-0.656960 0.085843 -0.066836 0.000030 0.771736 -0.634673
-0.682704 0.089383 0.062022 0.000383 0.849342 0.526721
-0.772314 -0.105579 -0.026249 -0.001245 -0.978127 -0.204703
0.527966 0.289254 -0.303505 0.089798 0.720974 0.687119
1.447720 0.009982 0.108335 0.034936 0.029152 0.998035
-0.178539 0.067068 0.085661 0.000315 0.620131 0.783657
-0.292808 -0.099489 0.044022 -0.000307 -0.889434 0.455172
0.193068 0.036162 0.102608 0.000549 0.360103 0.932122
-0.717530 0.099787 -0.043344 0.000172 0.907643 -0.418227
0.221619 0.082202 -0.098778 -0.028103 -0.709785 -0.703857
-0.079890 0.107422 0.017217 -0.000011 0.993696 0.105677
-0.194693 -0.008633 -0.108450 -0.000002 -0.026457 -0.998948
1.003466 -0.108452 -0.008613 0.000000 -0.997904 -0.052819
-0.660535 -0.077550 -0.076302 -0.000041 -0.713410 -0.699908
0.115000 -0.210130 0.214705 -0.050257 -0.747000 -0.662922
-0.603679 0.105441 -0.026801 -0.000087 0.962233 -0.269628
-0.173538 0.052314 -0.095390 -0.000597 0.507913 -0.860132
1.224871 0.072354 0.090780 0.000000 -0.723898 0.689907
1.373321 -0.139564 0.161302 -0.000000 0.723898 0.689907
0.305617 -0.096290 -0.071976 -0.000195 -0.738972 0.672732
-1.506265 0.000000 -0.099580 -0.284035 -0.029912 -0.957292
1.536690 0.051611 -0.039391 1.000000 0.000000 0.000000
0.324315 -0.393723 -0.405715 -0.050257 -0.747000 0.662922
0.372137 -0.273395 -0.266501 -0.003537 -0.739607 0.672167
0.233702 -0.233569 0.251902 -0.028103 0.709785 0.703857
0.179705 -0.103356 -0.033964 -0.000009 -0.957298 -0.286668
-1.500642 0.065366 0.077095 -0.243837 0.572755 0.781081
0.454325 0.105731 -0.025631 -0.000003 0.977054 -0.209685
-1.137185 0.096141 0.050920 0.000012 0.871424 0.489181
0.858402 0.093205 0.092843 -0.104757 0.889748 -0.444269
0.600638 -0.030958 -0.104296 0.000214 -0.259697 -0.965170
0.454446 -0.107100 0.117742 0.050289 0.722982 0.689034
0.117337 -0.079407 -0.091796 -0.028103 0.709785 -0.703857
0.136198 0.125621 -0.117871 -0.050257 0.747000 0.662922
1.490427 -0.148191 0.170354 -0.000000 0.723898 0.689907
0.269858 0.261669 0.261040 -0.050257 0.747000 -0.662922
1.492191 0.121451 0.112573 -0.000000 0.723898 -0.689907
1.077835 -0.104175 0.124169 0.000000 0.723898 0.689907
0.723860 0.108450 0.008633 -0.000057 0.998957 0.026352
0.159294 0.219761 0.222199 -0.050257 0.747000 -0.662922
0.527966 -0.337621 0.354255 0.089798 -0.720974 -0.687119
1.166259 0.068991 -0.072390 -0.000000 -0.689907 0.723898
0.371274 -0.063368 0.088434 -0.000426 -0.557881 0.829110
0.017395 -0.146899 -0.155866 -0.028103 0.709785 -0.703857
-0.290478 0.077558 -0.076294 0.000264 0.689646 -0.723237
0.892443 -0.053525 -0.094716 -0.000064 -0.533757 -0.844914
-1.151286 0.076296 -0.077556 0.000442 0.684371 -0.728191
0.291129 -0.283276 0.283776 -0.050257 -0.747000 -0.662922
0.228873 0.317945 -0.336796 -0.028103 -0.709785 -0.703857
0.467531 -0.550112 -0.580447 -0.028103 0.709785 -0.703857
0.251616 0.238676 -0.257767 -0.028103 -0.709785 -0.703857
0.357354 -0.234039 0.223273 0.043148 -0.730931 -0.680233
-0.474378 -0.074565 -0.079222 -0.000050 -0.700149 -0.713031
0.378097 0.230595 0.222370 0.089798 0.720974 -0.687119
0.050254 -0.121238 0.131300 -0.028103 0.709785 0.703857
0.104813 0.079045 0.074753 0.000120 0.706340 0.706946
-1.382805 0.025646 -0.105728 -0.000167 0.183606 -0.982303
-1.103216 -0.108452 0.008613 0.000000 -0.997907 0.052780
-1.088297 0.103351 -0.033979 0.000012 0.957266 -0.286771
1.133185 0.008633 -0.108450 0.000381 0.053564 -0.997844
-0.843543 0.100327 -0.042077 -0.000326 0.931488 -0.361814
1.337883 0.017168 0.107430 0.000001 0.131642 0.990593
-0.104789 -0.108452 0.008613 -0.000000 -0.997907 0.052779
-0.738836 0.107428 0.017183 -0.000342 0.990653 0.131267
0.347500 0.207801 -0.194454 -0.003537 0.739607 0.672167
0.372541 0.419475 0.444917 -0.028103 -0.709785 0.703857
0.748105 0.068538 -0.084490 -0.000337 0.650722 -0.758423
0.457109 -0.471630 -0.485607 0.089798 -0.720974 0.687119
0.908570 -0.107429 -0.017173 0.000001 -0.990595 -0.131627
-0.229580 -0.103361 0.033948 -0.000366 -0.957767 0.285222
0.323672 0.431504 -0.455097 -0.028103 -0.709785 -0.703857
0.489368 0.376214 -0.389706 0.089798 0.720974 0.687119
0.284556 -0.042094 0.100320 -0.000007 -0.337338 0.940637
0.129787 -0.033988 0.103348 0.000007 -0.261549 0.964463
1.470921 -0.244685 -0.251787 -0.104757 -0.889748 0.444269
-0.154756 -0.100356 -0.042009 0.000028 -0.940949 -0.336483
-0.952818 -0.092471 0.057315 0.000298 -0.863216 0.503434
-0.648961 0.033991 -0.103347 0.000019 0.291293 -0.955803
0.534670 -0.081995 0.071504 -0.000212 -0.717171 0.695905
0.390440 0.135080 0.151772 0.050289 -0.722982 0.689034
0.843063 -0.094607 0.099268 -0.104757 0.486515 0.867369
0.641848 0.097291 0.048688 -0.000023 0.885698 0.462759
-1.267109 -0.086656 0.065778 -0.000405 -0.777334 0.627798
-0.569104 -0.000000 -0.108793 0.000000 0.026471 -0.998947
0.544102 0.105735 0.025613 -0.000019 0.982278 0.183669
-0.352057 -0.040820 0.100845 -0.000374 -0.327958 0.944003
-0.546364 -0.033112 0.103632 0.000096 -0.324667 0.945099
0.274902 -0.228937 -0.223775 -0.050257 -0.747000 0.662922
-0.536837 0.079634 0.074124 0.000819 0.714613 0.698782
-0.653646 -0.022456 0.106451 0.001305 -0.244732 0.969168
0.805397 -0.085292 -0.089494 -0.104757 -0.889748 0.444269
-1.003374 0.008614 0.108452 0.000001 0.052787 0.997907
-0.469259 -0.103371 0.033919 -0.000291 -0.957501 0.286030
-1.203151 0.108452 0.008613 -0.000002 0.997909 0.052765
0.579018 0.033988 0.103348 0.000001 0.286963 0.957211
0.069890 -0.107429 0.017174 -0.000000 -0.990595 0.131629
-0.049829 -0.107430 -0.017172 0.000001 -0.990598 -0.131607
-0.539566 -0.097169 -0.048931 0.000004 -0.880305 -0.473036
-1.168143 -0.096701 0.049849 -0.000027 -0.900451 0.433396
0.061363 0.044515 0.099269 0.000229 0.381366 0.923557
0.178865 0.278417 0.294939 -0.028103 -0.709785 0.703857
-1.549762 -0.030420 0.077363 -0.433410 -0.390852 0.810538
1.568132 -0.273922 -0.287418 -0.104757 -0.889748 0.444269
0.798742 -0.000000 0.108793 0.000014 -0.026447 0.998949
0.460835 0.257251 -0.261153 0.089798 0.720974 0.687119
0.057608 -0.084912 -0.068015 0.000777 -0.769290 -0.637533
-0.953460 -0.025644 -0.105728 -0.000130 -0.210013 -0.976977
0.299513 0.103366 0.033932 -0.000006 0.957362 0.286458
-1.286253 -0.068931 -0.084169 0.000443 -0.617781 -0.785547
0.527966 0.455083 -0.477505 0.089798 0.720974 0.687119
1.574551 0.143133 -0.150185 0.299021 -0.745700 -0.595414
0.672868 -0.100704 -0.041166 0.000301 -0.934219 -0.355079
1.093727 -0.092435 0.057374 -0.000228 -0.864765 0.500921
1.292145 0.110777 0.131096 -0.000000 -0.723898 0.689907
-0.873603 0.008641 0.108450 0.000092 0.053778 0.997827
0.475612 0.548893 0.569095 -0.000195 0.738972 -0.672732
0.480975 0.424139 0.438895 0.089798 0.720974 -0.687119
-0.594034 0.008633 0.108450 -0.000013 0.052577 0.997923
0.256497 0.346588 0.357744 -0.050257 0.747000 -0.662922
0.362283 0.089896 -0.061276 -0.000336 0.796076 -0.603967
0.310189 -0.475415 -0.498839 -0.050257 -0.747000 0.662922
0.252500 0.419026 0.439672 -0.028103 -0.709785 0.703857
-0.064790 -0.108890 0.114255 -0.050257 -0.747000 -0.662922
0.246731 -0.413388 -0.433755 -0.050257 -0.747000 0.662922
1.422878 -0.041978 -0.100369 -0.000034 -0.361394 -0.931665
1.313887 0.211045 0.221443 -0.104757 0.889748 -0.444269
-0.344411 -0.108452 0.008613 0.000002 -0.997907 0.052791
1.208092 0.017197 0.107426 -0.000003 0.131781 0.990574
-0.259617 -0.017214 -0.107423 0.000006 -0.131966 -0.990547
-1.161025 -0.073100 -0.080575 -0.001035 -0.700384 -0.712774
-0.868632 -0.108793 0.000000 -0.000003 -0.998953 -0.026404
-0.988443 -0.108793 0.000000 -0.000001 -0.998952 -0.026412
0.853634 0.025639 0.105729 -0.000005 0.183958 0.982215
1.192219 -0.092603 0.057103 -0.000288 -0.863415 0.503159
-1.602158 0.018179 -0.045840 -0.623991 0.222966 -0.745836
-0.482716 0.060686 0.090295 0.000014 0.537044 0.842754
1.427112 -0.135076 -0.156592 0.000000 0.723898 -0.689907
0.230389 -0.336410 0.355477 -0.028103 0.709785 0.703857
1.310714 -0.061569 -0.079463 0.000000 0.723898 -0.689907
0.173987 -0.271434 -0.287702 -0.028103 0.709785 -0.703857
-0.762636 0.025564 0.105747 0.000206 0.285601 0.957619
1.332855 0.008613 -0.108452 0.000000 0.052779 -0.997907
-0.137491 -0.056707 -0.092845 -0.000001 -0.533543 -0.845128
0.482336 -0.286909 -0.295082 0.089798 -0.720974 0.687119
1.173199 -0.105733 -0.025623 -0.000002 -0.977058 -0.209668
0.303740 0.329637 -0.335061 -0.050257 0.747000 0.662922
0.207192 -0.075342 0.078483 -0.000327 -0.674150 0.737693
0.109604 -0.124353 0.118458 -0.050257 -0.747000 -0.662922
1.096344 0.065266 0.087042 -0.000058 0.629381 0.776321
-0.753430 -0.103108 0.034709 0.000420 -0.941561 0.335236
0.464005 0.295069 0.301248 0.089798 0.720974 -0.687119
0.396760 -0.488700 -0.515692 -0.028103 0.709785 -0.703857
0.760220 0.095063 0.052906 0.000358 0.845653 0.532263
-1.372813 -0.042061 0.100334 -0.000212 -0.361180 0.931762
0.312808 0.247731 -0.269342 -0.028103 -0.709785 -0.703857
1.386568 0.205955 -0.201242 0.000000 0.723898 0.689907
1.250940 -0.061569 -0.079463 -0.000000 0.723898 -0.689907
0.260782 -0.168278 -0.156493 -0.050257 -0.747000 0.662922
-0.064942 0.025626 0.105732 0.000002 0.209650 0.977062
0.262817 0.093538 -0.055557 0.000365 0.830157 -0.556353
-0.898583 -0.096353 -0.050519 0.000166 -0.873944 -0.484605
0.116180 -0.125377 -0.138106 -0.028103 0.709785 -0.703857
1.536690 -0.022248 0.053930 1.000000 0.000000 0.000000
1.132910 -0.086172 -0.105278 -0.000000 0.723898 -0.689907
-0.911973 0.097618 0.048028 -0.000263 0.887581 0.459208
0.609044 -0.107430 -0.017168 0.000116 -0.990688 -0.131036
0.239608 -0.342027 -0.353883 -0.050257 -0.747000 0.662922
-0.429285 -0.096702 -0.049847 0.000265 -0.911903 -0.408829
1.259913 0.116185 -0.107048 -0.000000 0.723898 0.689907
1.590778 -0.183249 0.192277 0.299021 -0.630563 -0.716224
0.285684 0.109112 0.128473 -0.028103 -0.709785 0.703857
0.687135 0.055968 -0.093293 -0.000010 0.557504 -0.829369
-1.539904 -0.082606 -0.029335 -0.416917 -0.859072 -0.292398
-1.061760 -0.071591 -0.081919 0.000024 -0.695488 -0.717625
1.273146 0.162373 0.155512 -0.000000 0.723898 -0.689907
0.981955 -0.061569 0.079463 -0.000000 0.689907 -0.723898
0.166403 -0.187444 -0.202702 -0.028103 0.709785 -0.703857
1.465881 -0.095786 -0.049517 0.053597 -0.860139 -0.505911
-0.070559 0.103252 -0.108339 -0.050257 0.747000 0.662922
0.190067 0.144201 0.160039 -0.028103 -0.709785 0.703857
-0.159738 0.107431 -0.017163 -0.000001 0.990597 -0.131611
0.477526 0.465302 0.491908 0.050289 -0.722982 0.689034
1.476335 -0.095214 0.049412 0.053178 -0.871937 0.485271
0.428343 0.327171 -0.350562 0.050289 -0.722982 -0.689034
-1.417767 -0.000000 0.108793 -0.000131 -0.026536 0.998942
0.460009 -0.162626 -0.161758 0.089798 -0.720974 0.687119
0.367651 -0.415110 -0.440320 -0.028103 0.709785 -0.703857
-0.695024 0.044696 0.099188 -0.000303 0.455174 0.889691
0.464290 0.008641 0.108450 -0.000001 0.052942 0.997895
0.005515 -0.106432 -0.114584 -0.028103 0.709785 -0.703857
-1.382346 0.064819 0.087376 -0.000307 0.633406 0.773029
-0.479229 0.107430 -0.017170 -0.000013 0.990575 -0.131766
1.536690 0.010139 -0.103568 0.054422 0.030856 -0.997084
0.421035 0.525982 -0.554257 -0.028103 -0.709785 -0.703857
0.464352 -0.208289 0.210238 0.089798 -0.720974 -0.687119
0.149766 -0.033994 -0.103346 0.000067 -0.260818 -0.964704
0.355586 -0.353959 -0.358537 -0.050257 -0.747000 0.662922
1.561030 -0.109704 0.115109 0.299021 -0.630563 -0.716224
0.315958 0.481054 0.504755 -0.028103 -0.709785 0.703857
1.520658 0.088031 0.057077 0.052972 0.853010 0.517820
0.371399 -0.367174 0.392131 -0.028103 0.709785 0.703857
0.527966 -0.151063 -0.158505 0.089798 -0.720974 0.687119
0.373647 -0.537442 0.563922 -0.050257 -0.747000 -0.662922
0.405107 0.501713 0.529148 -0.028103 -0.709785 0.703857
0.292376 -0.147850 0.131079 -0.050257 -0.747000 -0.662922
0.247344 0.210104 0.228784 -0.028103 -0.709785 0.703857
0.334555 -0.092434 0.057376 0.000291 -0.862214 0.505112
0.080120 -0.199726 -0.211642 -0.028103 0.709785 -0.703857
1.190671 0.134574 0.156065 0.000000 -0.723898 0.689907
-1.078302 0.000000 -0.108793 0.000003 0.026469 -0.998947
0.833312 0.100074 0.042677 -0.000138 0.909532 0.413894
0.440736 0.360357 0.384479 0.050289 -0.722982 0.689034
-0.331714 -0.069344 -0.083830 0.000516 -0.674338 -0.737560
0.521606 -0.158992 0.167290 0.050289 0.722982 0.689034
-1.223150 -0.099748 -0.043431 -0.000509 -0.929488 -0.366611
0.493699 -0.046127 0.098531 -0.000501 -0.476614 0.878008
0.338720 0.125752 -0.107216 0.089798 0.720974 0.687119
-1.607763 0.031031 0.031908 -0.668036 0.575180 0.465149
1.161641 -0.129836 0.151094 0.000000 0.723898 0.689907
1.210210 -0.110570 -0.101157 -0.000000 -0.723898 0.689907
0.058012 0.097553 0.048161 -0.000380 0.905217 0.423621
1.496258 0.093891 -0.049654 0.053148 0.906188 -0.417789
0.527966 -0.351440 -0.368755 0.089798 -0.720974 0.687119
0.096311 0.143230 0.155316 -0.028103 -0.709785 0.703857
1.050226 0.145840 0.153025 -0.104757 0.889748 -0.444269
1.236258 -0.162644 0.155797 0.000000 -0.723898 -0.689907
0.440794 -0.360476 -0.384599 0.050289 0.722982 -0.689034
1.387910 -0.103364 0.033941 0.000002 -0.957355 0.286488
0.194647 0.108452 0.008613 -0.000003 0.997905 0.052809
0.274593 0.025647 -0.105727 -0.000134 0.209974 -0.976985
0.688875 0.033994 0.103346 0.000232 0.286103 0.957488
-0.459329 0.033996 -0.103346 -0.000994 0.287569 -0.957008
-0.214613 -0.105732 -0.025627 0.000002 -0.977053 -0.209688
1.053518 0.094353 -0.113862 0.000000 -0.723898 -0.689907
0.154428 0.323166 0.339089 -0.028103 -0.709785 0.703857
0.852480 0.096936 -0.101712 -0.104757 0.889748 0.444269
-1.183093 -0.025653 -0.105726 -0.000059 -0.209692 -0.977057
1.529909 -0.226220 0.252227 -0.000000 0.723898 0.689907
-1.322948 0.057413 0.092411 0.000262 0.550137 0.834245
0.527966 0.510360 -0.535505 0.089798 0.720974 0.687119
1.301577 0.180274 -0.174295 -0.000000 0.723898 0.689907
-0.408884 0.083791 -0.069391 0.000068 0.735275 -0.676739
-0.349502 0.033996 -0.103346 0.000004 0.287049 -0.957183
-1.018225 0.100130 0.042545 -0.000555 0.930653 0.364182
-1.542622 0.076377 0.040521 -0.429630 0.807483 0.400818
0.349456 0.049874 0.096688 -0.000007 0.481968 0.875396
-0.264117 0.048024 0.097620 0.000080 0.462414 0.885923
-1.010884 0.078184 -0.075653 -0.000211 0.697348 -0.715847
-0.199722 -0.033944 0.103362 -0.000016 -0.286697 0.957291
0.117311 -0.246649 0.255680 -0.050257 -0.747000 -0.662922
-0.630924 0.100322 0.042090 -0.000069 0.911901 0.408739
1.021932 0.107583 0.098023 0.000000 0.723898 -0.689907
0.384405 -0.008646 0.108449 0.000009 -0.052924 0.997896
0.449770 0.080161 0.073891 0.000000 -0.689907 -0.723898
0.419615 -0.087882 -0.064132 -0.000030 -0.790029 -0.611948
1.497148 -0.106165 -0.000000 0.053168 -0.997496 -0.026914
0.222380 -0.115577 -0.100019 -0.050257 -0.747000 0.662922
0.239291 0.291110 0.296533 -0.050257 0.747000 -0.662922
0.421671 0.086965 -0.065369 -0.000344 0.778773 -0.626417
0.119842 0.103368 -0.033929 0.000005 0.957410 -0.286320
0.783316 0.095257 -0.052556 0.000103 0.862822 -0.504135
1.531211 0.148653 0.141116 -0.000000 0.723898 -0.689907
0.156941 0.076299 0.090243 -0.028103 -0.709785 0.703857
0.349361 0.177640 0.199427 0.050289 -0.722982 0.689034
0.085216 0.198019 0.203316 -0.050257 0.747000 -0.662922
0.996320 -0.086269 -0.105380 -0.000000 0.723898 -0.689907
-0.044693 -0.095098 -0.097190 -0.050257 -0.747000 0.662922
-0.294575 0.025695 -0.105716 -0.000003 0.210182 -0.976945
0.265652 -0.268139 -0.288038 -0.028103 0.709785 -0.703857
1.365507 -0.068991 0.072390 -0.000000 0.689907 -0.723898
0.485826 0.341410 0.361307 0.050289 -0.722982 0.689034
1.401109 0.076874 -0.095523 0.000000 -0.723898 -0.689907
0.903940 -0.083042 0.070285 -0.000093 -0.746353 0.664506
1.548046 0.221600 -0.217657 -0.000000 0.723898 0.689907
1.411646 -0.176485 0.170319 0.000000 -0.723898 -0.689907
0.254420 0.101162 0.081347 -0.050257 0.747000 -0.662922
1.467655 -0.085237 0.104298 0.000000 0.723898 0.689907
1.608845 -0.257949 0.265586 0.299021 -0.630563 -0.716224
0.378965 0.098424 0.114148 0.050289 -0.722982 0.689034
0.292915 -0.203329 0.193553 -0.050257 -0.747000 -0.662922
0.324038 -0.468888 0.490434 -0.050257 -0.747000 -0.662922
0.527966 -0.406716 -0.426755 0.089798 -0.720974 0.687119
1.536690 -0.056023 0.009201 1.000000 0.000000 0.000000
0.149070 0.239319 -0.254322 -0.028103 -0.709785 -0.703857
0.430534 -0.289950 -0.311347 0.050289 0.722982 -0.689034
1.342028 0.103550 -0.123513 -0.000000 -0.723898 -0.689907
0.146909 0.076677 -0.090223 -0.028103 -0.709785 -0.703857
1.317891 0.096085 -0.051027 -0.000606 0.865405 -0.499197
0.627641 0.058743 0.091571 -0.000499 0.556891 0.829748
0.346376 -0.149206 0.132826 0.089798 -0.720974 -0.687119
-0.934585 0.059191 0.091282 0.000176 0.571633 0.819732
-0.209627 0.107263 0.018186 0.000302 0.989612 0.137983
0.474941 0.289050 -0.307161 0.050289 -0.722982 -0.689034
1.563515 -0.221266 -0.217307 0.000000 -0.723898 0.689907
0.843625 0.108452 -0.008613 0.000001 0.997908 -0.052776
0.400496 -0.034147 -0.103296 -0.000025 -0.340144 -0.939644
1.536690 0.049609 0.018402 1.000000 -0.000000 0.000000
0.430996 0.401564 0.428426 0.050289 -0.722982 0.689034
1.385342 -0.105005 -0.125039 -0.000000 0.723898 -0.689907
1.547333 -0.163845 -0.157057 0.200602 -0.667357 0.713351
0.015184 0.116211 0.116441 -0.050257 0.747000 -0.662922
-0.302424 -0.067732 0.085137 -0.000257 -0.583545 0.811313
0.254645 -0.108452 0.008613 0.000000 -0.997907 0.052779
-0.829018 -0.063341 0.088453 -0.000191 -0.560786 0.827126
0.504252 -0.108452 -0.008613 -0.000001 -0.997907 -0.052783
0.337995 -0.299943 0.322999 -0.028103 0.709785 0.703857
-0.111875 0.075396 0.078432 0.000922 0.679464 0.732998
0.933917 0.100140 -0.042520 -0.000130 0.898240 -0.437915
0.248478 0.132464 -0.150536 -0.028103 -0.709785 -0.703857
0.673982 -0.025745 0.105703 -0.000005 -0.210152 0.976953
1.508380 0.118255 -0.109220 -0.000000 0.723898 0.689907
0.588828 0.092090 -0.057927 0.000140 0.832230 -0.553174
-0.123828 -0.093002 0.056451 0.000298 -0.865068 0.500440
-1.317931 -0.017213 0.107423 -0.000003 -0.131917 0.990554
-1.400697 0.069874 -0.083388 0.000077 0.603316 -0.796694
0.828695 -0.108793 -0.000000 0.000000 -0.998954 -0.026389
0.431787 -0.461169 0.473568 -0.050257 -0.747000 -0.662922
-0.654016 -0.105733 -0.025625 0.000002 -0.977054 -0.209686
0.030210 -0.050029 0.096608 -0.000141 -0.435322 0.899501
-0.644206 -0.079991 0.073740 0.000070 -0.698526 0.714650
0.323217 0.405949 0.419575 -0.050257 0.747000 -0.662922
-1.238041 -0.017209 -0.107424 -0.000013 -0.105603 -0.993704
0.395231 0.194229 -0.213486 0.050289 -0.722982 -0.689034
0.182218 -0.131522 0.121031 -0.050257 -0.747000 -0.662922
0.520744 0.066845 -0.085836 -0.000066 0.589573 -0.806851
0.389666 -0.530142 -0.557199 -0.028103 0.709785 -0.703857
-0.364437 0.105753 -0.025540 -0.000028 0.964657 -0.260865
0.584036 -0.025676 0.105720 0.000000 -0.210149 0.976953
0.362011 0.469780 -0.495225 -0.028103 -0.709785 -0.703857
0.364545 0.041976 -0.100369 0.000152 0.365104 -0.930124
0.993577 0.032779 -0.103738 -0.000425 0.350791 -0.935749
-0.428164 0.103302 0.034129 -0.000222 0.957178 0.287045
0.274846 -0.404392 0.425806 -0.028103 0.709785 0.703857
1.233104 -0.100359 -0.042001 -0.000196 -0.932066 -0.360425
0.489421 -0.219463 -0.233089 0.050289 0.722982 -0.689034
-1.052725 -0.064975 0.087260 0.000019 -0.577992 0.815179
1.446352 0.197041 -0.221610 -0.000000 -0.723898 -0.689907
-0.190418 -0.080979 0.072652 0.000207 -0.766932 0.640647
-0.597430 0.075468 0.078362 -0.000431 0.678361 0.733787
1.178291 0.087568 0.064559 -0.000067 0.819877 0.571309
0.925410 0.084192 0.073479 0.000000 0.723898 -0.689907
0.061082 -0.166044 -0.176916 -0.028103 0.709785 -0.703857
0.179799 -0.300577 0.311711 -0.050257 -0.747000 -0.662922
-1.505006 -0.056392 0.082494 -0.285260 -0.563386 0.773777
0.489838 0.108598 0.108965 0.089798 0.720974 -0.687119
0.613913 -0.100356 0.042009 0.000204 -0.940798 0.336853
-0.310375 0.103538 0.033405 0.000659 0.957749 0.285216
0.403920 -0.103947 0.092857 0.089798 -0.720974 -0.687119
0.329013 -0.420163 0.443873 -0.028103 0.709785 0.703857
-0.314416 -0.100336 -0.042056 -0.000577 -0.930782 -0.363496
1.018392 0.103361 -0.033948 -0.000004 0.957335 -0.286552
-1.610879 -0.039602 -0.013104 -0.687330 -0.694558 -0.203526
0.019966 0.103362 -0.033945 0.000001 0.957324 -0.286582
-0.718686 -0.071165 -0.082289 -0.000111 -0.636430 -0.770481
1.444895 0.172503 0.195864 -0.000000 -0.723898 0.689907
0.773542 -0.039076 -0.101534 -0.000201 -0.388242 -0.920745
0.142014 0.253230 0.261224 -0.050257 0.747000 -0.662922
0.527966 0.406716 0.426755 0.050289 -0.722982 0.689034
-0.365246 0.064927 0.087296 0.000558 0.572956 0.818743
1.397289 0.106041 0.096404 -0.000000 0.723898 -0.689907
0.272185 0.391948 -0.407667 -0.050257 0.747000 0.662922
0.958441 -0.048426 -0.097421 0.000601 -0.468459 -0.882756
1.358065 0.201700 0.196777 -0.000000 0.723898 -0.689907
1.473564 -0.136610 -0.128479 0.000000 -0.723898 0.689907
1.165958 -0.033443 -0.103526 -0.000551 -0.331613 -0.942975
-0.420137 -0.089453 0.061921 0.000085 -0.812593 0.581664
1.249514 0.025466 -0.105771 -0.000222 0.206819 -0.977725
1.396136 -0.192325 -0.216662 0.000000 0.723898 -0.689907
1.003633 -0.100354 0.042014 0.000033 -0.940957 0.336456
-0.559986 -0.076169 0.077680 0.000042 -0.716524 0.696578
-0.764639 -0.025644 0.105728 -0.000168 -0.260961 0.964636
1.535962 0.183823 0.178019 -0.000000 0.723898 -0.689907
1.215376 0.068566 -0.086805 0.000000 -0.723898 -0.689907
-1.539904 0.082606 -0.029335 -0.416917 0.859072 -0.292398
0.565627 -0.074880 -0.078924 -0.000222 -0.664853 -0.746063
1.038364 -0.033935 0.103365 -0.000001 -0.286535 0.957339
0.326572 -0.231605 -0.222865 -0.050257 -0.747000 0.662922
0.868632 -0.000000 -0.108793 -0.000006 0.026454 -0.998949
1.183603 0.129456 -0.150695 -0.000000 -0.723898 -0.689907
-1.430940 -0.101472 0.039236 -0.000598 -0.933308 0.357046
1.448380 -0.203963 -0.228874 0.000000 0.723898 -0.689907
0.342676 -0.150552 -0.171493 0.050289 0.722982 -0.689034
-0.927556 -0.048986 0.097141 0.000172 -0.429145 0.902602
0.318604 0.354204 -0.376943 -0.028103 -0.709785 -0.703857
0.440503 0.113297 -0.125263 0.050289 -0.722982 -0.689034
0.075726 0.188055 -0.192808 -0.050257 0.747000 0.662922
1.238315 -0.176769 -0.170617 -0.070277 -0.841234 0.530906
1.268013 0.103361 -0.033949 -0.000195 0.957092 -0.287293
0.698912 -0.017183 -0.107428 0.000291 -0.128381 -0.991089
-0.529192 0.107423 0.017214 -0.000471 0.990551 0.131806
0.373553 0.373308 -0.378978 -0.050257 0.747000 0.662922
1.262999 -0.025658 0.105725 0.000008 -0.209797 0.977029
0.269505 -0.381121 -0.402126 -0.028103 0.709785 -0.703857
1.431701 -0.038028 0.101931 0.000196 -0.352727 0.934985
0.972341 0.041346 0.100631 -0.000083 0.402242 0.914842
-1.441558 -0.100107 -0.042597 0.000036 -0.910494 -0.411977
-1.531073 -0.040268 -0.081943 -0.369941 -0.481424 -0.792290
-0.688910 -0.107427 0.017190 -0.000334 -0.990493 0.132273
1.083404 -0.057553 0.092324 -0.000136 -0.505100 0.862247
0.527966 0.351440 -0.368755 0.089798 0.720974 0.687119
0.416916 -0.406508 -0.433612 -0.028103 0.709785 -0.703857
0.527966 -0.102696 -0.107755 0.089798 -0.720974 0.687119
1.550212 -0.082960 -0.087048 0.299021 0.745700 -0.595414
-0.903289 -0.100102 0.042611 0.000201 -0.897956 0.438549
1.455370 -0.230448 0.226941 -0.067748 -0.837167 -0.536777
0.350074 -0.453108 -0.477936 -0.028103 0.709785 -0.703857
1.577548 0.276250 -0.289861 -0.104757 0.889748 0.444269
1.268342 0.103364 0.033940 0.000044 0.931579 0.361586
1.410338 -0.076413 -0.065316 0.000000 0.689907 0.723898
-0.497282 -0.017096 0.107442 -0.000997 -0.125732 0.991418
0.527966 0.482722 0.506505 0.050289 -0.722982 0.689034
0.527966 0.164882 0.173005 0.050289 -0.722982 0.689034
0.527966 -0.468902 0.492005 0.089798 -0.720974 -0.687119
0.527966 0.151063 -0.158505 0.089798 0.720974 0.687119
0.446048 0.461847 -0.490580 -0.001967 -0.714575 -0.699296
1.081579 0.076413 -0.065316 -0.000000 -0.689907 0.723898
0.183273 0.351360 0.368672 -0.028103 -0.709785 0.703857
1.050226 -0.145840 -0.153025 -0.104757 -0.889748 0.444269
0.956061 -0.122552 -0.128590 -0.104757 -0.889748 0.444269
0.861896 -0.099265 -0.104155 -0.104757 -0.889748 0.444269
1.313887 -0.211045 0.221443 -0.104757 0.486515 0.867369
1.144390 -0.169127 -0.177460 -0.104757 -0.889748 0.444269
0.247375 0.213913 -0.208933 -0.050257 0.747000 0.662922
-0.604022 -0.070958 -0.082468 -0.000072 -0.632420 -0.773747
1.417773 0.107423 -0.017213 0.000003 0.990556 -0.131908
0.673898 0.108451 0.008621 0.000005 0.997904 0.052828
0.349449 0.103370 0.033921 -0.000001 0.957376 0.286413
1.328404 -0.121441 0.142286 -0.000000 0.723898 0.689907
1.496910 0.017132 0.104787 0.053190 0.134843 0.988702
-1.156098 -0.065539 0.086837 0.000076 -0.577318 0.815717
-1.218090 0.049931 0.096659 -0.000008 0.411011 0.910861
-1.465523 0.105751 -0.019008 -0.126226 0.972301 -0.192065
0.429324 0.107430 0.017172 -0.000003 0.990591 0.131656
1.228872 -0.024046 -0.106103 -0.000462 -0.238841 -0.970430
0.482114 -0.091652 -0.090176 0.089798 -0.720974 0.687119
0.192921 -0.226491 -0.227234 -0.050257 -0.747000 0.662922
0.167290 -0.077060 -0.076846 -0.000000 0.689907 0.723898
1.168160 0.107430 0.017172 -0.000000 0.990597 0.131615
1.360991 0.084336 0.068728 -0.000046 0.753994 0.655812
0.527966 -0.261616 0.274505 0.089798 -0.720974 -0.687119
-1.307934 0.107423 0.017214 0.000003 0.990555 0.131914
-0.180446 0.090150 -0.060902 0.000383 0.810880 -0.584061
-0.064790 0.108890 0.114255 -0.028103 -0.709785 0.703857
0.272783 -0.095790 0.114523 -0.028103 0.709785 0.703857
-1.242988 0.100323 0.042088 -0.000189 0.931053 0.362888
-1.017341 -0.088157 -0.063753 0.000063 -0.824987 -0.563925
0.534505 0.084198 0.068896 -0.000139 0.754503 0.655482
1.300371 0.084795 -0.103834 -0.000000 -0.723898 -0.689907
-0.037678 0.058605 -0.091660 -0.000009 0.519454 -0.853686
-1.447720 0.080421 -0.073270 -0.046658 0.763369 -0.642803
-0.513543 0.082472 -0.070953 0.000352 0.790324 -0.611503
0.070674 -0.194359 0.200295 -0.050257 -0.747000 -0.662922
1.467874 0.238736 -0.240591 -0.104757 0.889748 0.444269
0.300054 0.190923 -0.179033 -0.050257 0.747000 0.662922
-0.691441 -0.051799 0.095670 -0.000178 -0.522127 0.852064
0.269441 -0.360623 0.372577 -0.050257 -0.747000 -0.662922
0.380724 0.396141 -0.421713 -0.028103 -0.709785 -0.703857
-1.166353 0.050786 0.096212 -0.001084 0.488953 0.871546
0.399800 -0.253245 0.275076 0.050289 0.722982 0.689034
0.093567 0.233260 -0.242394 -0.050257 0.747000 0.662922
1.544317 0.166172 -0.189221 0.000000 -0.723898 -0.689907
0.948611 0.103082 0.034788 -0.000152 0.939174 0.341331
0.086394 0.124927 -0.120865 -0.050257 0.747000 0.662922
0.413468 0.248718 -0.269329 0.050289 -0.722982 -0.689034
0.135768 0.295522 -0.309354 -0.050257 0.747000 0.662922
0.174735 -0.008646 0.108449 0.000387 -0.051166 0.997937
0.426338 0.417703 -0.425002 -0.003537 0.739607 0.672167
1.403724 -0.095050 0.114594 0.000000 0.723898 0.689907
-1.497138 0.048854 -0.089471 -0.257234 0.488881 -0.832055
0.399237 -0.332455 -0.358231 -0.001967 0.714575 -0.699296
-0.240857 0.081638 -0.071912 0.000269 0.757249 -0.652083
0.494581 0.213713 -0.226679 0.050289 -0.722982 -0.689034
0.477806 0.183885 -0.186390 0.089798 0.720974 0.687119
0.376776 0.130840 -0.148321 0.050289 -0.722982 -0.689034
0.337293 -0.189627 0.211726 -0.028103 0.709785 0.703857
-0.104887 0.105730 -0.025635 -0.000025 0.982246 -0.183843
1.536690 -0.057780 0.086548 0.054502 -0.565941 0.821778
1.426885 0.238990 0.250765 -0.104757 0.889748 -0.444269
-0.019940 0.049855 0.096698 0.000203 0.410626 0.911012
1.315373 -0.090756 0.080367 0.000000 -0.723898 -0.689907
0.131386 -0.173854 0.187599 -0.028103 0.709785 0.703857
1.336628 -0.160560 -0.183332 -0.000000 0.723898 -0.689907
0.017395 -0.146899 0.155866 -0.028103 0.709785 0.703857
1.535687 -0.177949 -0.201577 -0.000000 0.723898 -0.689907
0.024939 -0.008641 -0.108450 0.000006 -0.052927 -0.997896
-0.019940 -0.049855 0.096698 0.000012 -0.410286 0.911188
0.262128 -0.082005 -0.100197 -0.028103 0.709785 -0.703857
0.304701 -0.156638 -0.140047 -0.050257 -0.747000 0.662922
1.396136 -0.192325 0.216662 -0.000000 0.723898 0.689907
0.998407 0.103370 0.033922 -0.000125 0.940667 0.337266
1.154111 0.115949 -0.106800 -0.000000 0.723898 0.689907
0.527966 0.358349 0.376005 0.050289 -0.722982 0.689034
1.469067 -0.073120 -0.091584 -0.000000 0.723898 -0.689907
0.476252 -0.361157 0.382725 0.050289 0.722982 0.689034
0.799547 0.018637 -0.107185 -0.001618 0.136013 -0.989859
0.343817 -0.283546 -0.306697 -0.028103 0.709785 -0.703857
0.444332 -0.105739 0.025599 -0.000016 -0.964586 0.261105
1.391804 0.142809 0.134985 -0.000000 0.723898 -0.689907
0.472498 -0.503963 0.532842 0.050289 0.722982 0.689034
0.219528 -0.146153 0.163184 -0.028103 0.709785 0.703857
0.431212 0.472617 0.500849 -0.028103 -0.709785 0.703857
0.362129 -0.192671 -0.180491 0.089798 -0.720974 0.687119
0.384927 0.537657 0.563309 -0.050257 0.747000 -0.662922
1.415368 0.197921 0.222534 0.000000 -0.723898 0.689907
0.338188 -0.354919 0.360938 -0.050257 -0.747000 -0.662922
1.241806 -0.101397 0.091531 -0.000000 -0.723898 -0.689907
1.079023 -0.082237 -0.071427 0.000000 -0.723898 0.689907
0.906277 -0.088310 -0.063540 -0.001339 -0.824641 -0.564633
-0.379428 -0.017214 -0.107423 0.000008 -0.131981 -0.990544
0.460703 0.244931 0.261908 0.050289 -0.722982 0.689034
-1.373441 0.094377 -0.054121 0.000780 0.858186 -0.511882
0.127411 0.176466 -0.175831 -0.050257 0.747000 0.662922
0.417815 0.286861 0.309034 0.050289 -0.722982 0.689034
0.185260 0.118459 0.106081 -0.050257 0.747000 -0.662922
0.987715 0.095084 -0.084907 0.000000 0.723898 0.689907
0.946591 -0.082755 0.101693 0.000000 0.723898 0.689907
0.507409 -0.533578 -0.557181 0.089798 -0.720974 0.687119
0.154698 -0.302784 -0.316101 -0.050257 -0.747000 0.662922
1.536690 -0.010139 0.103568 0.054422 -0.030856 0.997084
0.352717 0.364913 0.389104 -0.028103 -0.709785 0.703857
0.434618 0.167346 -0.182404 0.050289 -0.722982 -0.689034
0.416466 -0.327415 0.328975 0.089798 -0.720974 -0.687119
0.501066 -0.476454 -0.501892 0.050289 0.722982 -0.689034
0.454275 -0.008646 -0.108449 -0.000283 -0.054274 -0.997787
0.194811 -0.362638 0.380505 -0.050257 -0.747000 -0.662922
1.114849 0.125231 0.146263 0.000000 -0.723898 0.689907
0.964855 0.101904 0.118071 -0.104757 -0.486515 0.867369
0.268164 0.388052 0.409062 -0.028103 -0.709785 0.703857
0.322142 -0.095688 -0.115425 0.050289 0.722982 -0.689034
0.832640 0.094708 -0.053539 0.000209 0.859134 -0.510273
0.305939 0.334316 0.356382 -0.028103 -0.709785 0.703857
1.262948 0.098270 0.088251 0.000000 0.723898 -0.689907
0.183751 0.048795 -0.097237 -0.001315 0.494177 -0.868625
1.098270 0.107430 0.017172 -0.000000 0.990597 0.131616
0.289955 0.221577 0.242055 -0.028103 -0.709785 0.703857
0.155673 -0.145551 -0.160027 -0.028103 0.709785 -0.703857
0.444696 -0.263766 0.265880 0.089798 -0.720974 -0.687119
1.033744 -0.113095 -0.103807 0.000000 -0.723898 0.689907
-0.149764 -0.017172 0.107430 0.000000 -0.131615 0.990597
0.484239 0.184818 0.197115 0.050289 -0.722982 0.689034
-0.254630 0.108450 0.008633 0.000024 0.997901 0.052858
1.201819 0.099801 0.119579 0.000000 -0.723898 0.689907
-0.086666 -0.071150 0.082303 0.000215 -0.642135 0.765685
0.908015 0.095084 -0.084907 -0.067748 0.837167 0.536777
-0.868614 0.103367 0.033929 -0.000006 0.957371 0.286430
0.229867 -0.201469 0.219379 -0.028103 0.709785 0.703857
-0.079874 -0.000000 -0.108793 -0.000007 0.026473 -0.998947
0.958506 -0.107427 -0.017191 -0.000007 -0.990581 -0.131725
1.420301 0.076413 0.065316 0.000000 -0.689907 -0.723898
0.948506 -0.000000 0.108793 -0.000003 -0.026393 0.998954
0.244609 -0.025656 -0.105725 -0.000560 -0.210952 -0.976746
0.284552 0.008633 0.108450 0.000001 0.026460 0.998948
1.172965 -0.057691 0.092238 0.000305 -0.549870 0.834429
-0.514169 -0.105726 0.025650 -0.001254 -0.976055 0.213884
-0.174771 0.025623 0.105733 -0.000003 0.209645 0.977063
1.377831 0.017178 -0.107429 -0.000001 0.131664 -0.990590
0.111939 -0.070755 0.082855 -0.000000 0.689907 -0.723898
-1.337893 0.000000 -0.108793 0.000003 0.026469 -0.998947
0.228902 -0.128150 -0.145403 -0.028103 0.709785 -0.703857
1.487133 0.185310 0.209301 -0.000000 -0.723898 0.689907
-0.244606 -0.025644 0.105728 -0.000016 -0.183848 0.982242
0.177474 0.111705 -0.099061 -0.050257 0.747000 0.662922
0.609432 0.018800 -0.107157 0.000459 0.204586 -0.977879
0.299492 0.077991 0.075851 0.000274 0.695801 0.717314
-0.434326 -0.008646 -0.108449 -0.000006 -0.052922 -0.997896
1.033147 -0.097510 0.117175 0.000000 0.723898 0.689907
-1.392852 0.108452 0.008613 -0.000002 0.997906 0.052802
1.337895 0.103343 0.034002 -0.000999 0.955681 0.291657
-1.238050 -0.000000 0.108793 0.000006 -0.026475 0.998947
-1.462842 -0.012621 -0.106987 -0.083979 -0.104724 -0.990326
0.154803 -0.108452 0.008613 -0.000000 -0.997907 0.052779
1.227903 0.166459 0.159800 -0.000000 0.723898 -0.689907
0.594011 0.105717 0.025690 0.000063 0.977069 0.209646
0.505887 0.226146 0.238900 0.050289 -0.722982 0.689034
-1.073259 -0.100352 0.042018 0.000066 -0.931348 0.362149
0.893603 -0.008646 0.108449 0.000001 -0.052893 0.997898
1.113201 0.025641 0.105729 -0.000326 0.210329 0.976901
-0.853465 -0.092503 0.057265 -0.000038 -0.876380 0.480195
-1.285434 0.097155 -0.048959 0.000460 0.878437 -0.476486
1.124222 -0.131029 0.122623 -0.000000 -0.723898 -0.689907
0.097365 0.043987 -0.099505 -0.001003 0.415928 -0.908722
0.325266 -0.248280 0.270393 -0.028103 0.709785 0.703857
0.918553 0.108793 0.000000 0.000004 0.998952 -0.026411
1.258000 -0.147363 -0.139762 0.000000 -0.723898 0.689907
0.420030 -0.227208 -0.224296 0.089798 -0.720974 0.687119
0.260302 0.174336 0.193232 -0.028103 -0.709785 0.703857
-1.103309 0.108452 0.008613 0.000004 0.997908 0.052776
0.394038 0.356633 0.358635 -0.050257 0.747000 -0.662922
1.288064 -0.107430 0.017172 0.000000 -0.990597 0.131615
-0.589072 -0.108793 0.000000 -0.000000 -0.998954 -0.026390
-1.293000 -0.105730 0.025635 0.000005 -0.977047 0.209718
0.054868 -0.105732 -0.025627 0.000058 -0.977034 -0.209766
1.095781 0.120489 -0.141287 -0.000000 -0.723898 -0.689907
-0.524174 -0.008633 -0.108450 -0.000006 -0.026468 -0.998947
0.472197 -0.392098 0.415487 0.050289 0.722982 0.689034
1.508804 -0.064321 -0.067490 -0.609480 0.546959 0.573908
0.747685 0.066788 0.085880 -0.000268 0.592861 0.804472
-0.998428 0.000000 -0.108793 0.000003 0.026470 -0.998947
