-1.036801 0.016977 -0.083381 -0.001610 0.169425 -0.984319
1.386349 0.072560 -0.044448 0.000180 0.837484 -0.544374
0.760634 -0.084612 -0.009017 -0.000411 -0.990949 -0.126761
0.391048 -0.082872 -0.019309 0.000029 -0.955470 -0.291032
1.483432 0.125346 0.141446 -0.000000 0.790197 -0.612853
-0.289517 -0.160615 0.186030 -0.064848 -0.808158 -0.585385
1.175169 -0.073485 -0.074578 -0.111073 -0.914897 0.382486
0.393136 0.022539 -0.082052 -0.000351 0.322255 -0.945599
1.743373 0.154177 -0.198792 0.368812 0.739130 0.563617
1.470616 0.006571 0.084837 -0.001075 0.121369 0.991664
-0.213654 0.054147 -0.065689 -0.000000 -0.612853 0.790197
-1.459444 -0.084472 0.010247 -0.000025 -0.980430 0.189905
-0.216458 -0.468111 0.602453 -0.064848 -0.808158 -0.585385
-0.352394 -0.260405 0.338675 -0.040611 0.776824 0.628407
1.272382 0.064887 0.103836 0.000000 -0.790197 0.612853
-1.358136 0.084837 0.006570 -0.003084 0.990702 0.130465
1.597741 -0.082416 0.021169 0.000230 -0.954156 0.295351
1.373546 0.087592 -0.133111 -0.000000 -0.790197 -0.612853
-0.550927 0.074014 -0.095432 -0.064848 0.808158 0.585385
0.968485 0.084952 -0.004874 -0.001538 0.993038 -0.110953
-0.757617 -0.034957 0.077579 0.000087 -0.426703 0.903139
0.975341 -0.083659 0.015546 0.002048 -0.978131 0.201495
-1.636446 -0.017219 0.083331 0.000041 -0.235120 0.970785
1.603373 -0.101085 0.150508 -0.000000 0.790197 0.612853
-0.278470 -0.303888 -0.382604 -0.064848 -0.808158 0.585385
-0.410535 0.016926 0.083391 -0.001529 0.253750 0.966168
-1.154439 -0.081018 0.026013 0.000484 -0.936977 0.346404
1.525585 0.092792 0.099471 -0.000000 0.790197 -0.612853
-0.193722 -0.051191 -0.079901 0.064883 0.788532 -0.611562
-1.760008 0.008928 0.073502 -0.313048 0.157965 0.934569
1.708374 0.051835 0.046662 -0.000000 0.790197 -0.612853
1.244787 -0.062957 -0.057245 -0.000065 -0.768462 -0.638116
0.241060 0.073861 0.042250 -0.000524 0.880334 0.472193
-0.013635 -0.048994 0.069571 -0.000133 -0.599479 0.798955
-0.326113 -0.080505 0.079488 -0.064848 -0.808158 -0.585385
-0.217053 -0.334978 0.439608 -0.040611 0.776824 0.628407
-1.730238 -0.049038 0.064731 -0.157315 -0.628962 0.758967
0.705787 -0.023743 0.081712 0.000247 -0.287516 0.956630
-0.238791 -0.395116 0.504153 -0.064848 -0.808158 -0.585385
1.424402 -0.069265 -0.049426 -0.000320 -0.834093 -0.549896
-0.714214 0.076340 0.037587 -0.000023 0.890799 0.451868
1.611130 0.073500 0.042875 -0.000060 0.835241 0.547691
-0.115321 0.329192 0.415528 0.103435 0.785958 -0.609566
-0.204935 0.414721 0.527469 -0.064848 0.808158 -0.585385
1.680777 0.043356 -0.049100 -0.188143 -0.601909 0.776085
1.287858 -0.021128 -0.082427 -0.000225 -0.277783 -0.959696
-0.442657 0.141248 0.176258 -0.064848 0.808158 -0.585385
-0.346678 -0.282212 -0.366002 -0.040611 0.776824 -0.628407
-0.106669 0.256018 -0.322648 0.103435 0.785958 0.609566
-1.423031 0.057918 0.062338 0.000164 0.630867 0.774481
-1.355834 -0.084911 0.005536 0.003071 -0.990374 0.131496
-0.190975 0.272677 0.329822 0.047388 0.795322 -0.602978
-0.222868 -0.376396 -0.490431 -0.040611 0.776824 -0.628407
-0.163973 -0.544126 0.701582 -0.064848 -0.808158 -0.585385
0.465393 0.085091 -0.000000 -0.002945 0.994159 -0.088157
1.403733 0.083952 0.088073 -0.000000 0.790197 -0.612853
-0.458478 -0.091043 0.122458 -0.040611 0.776824 0.628407
-0.310104 0.095546 -0.137613 -0.040611 -0.776824 -0.628407
-1.478989 -0.007770 -0.084736 0.000090 -0.123565 -0.991274
1.677699 0.132011 -0.190383 0.000000 -0.790197 -0.612853
-0.249199 0.066586 0.052980 0.000086 0.820986 0.568987
0.208568 -0.062493 0.057751 0.000034 -0.760791 0.647362
-0.293817 -0.360329 -0.462223 -0.064848 -0.808158 0.585385
1.541138 0.076244 -0.037781 0.001134 0.876089 -0.479725
1.457637 0.039767 -0.075227 -0.000759 0.428892 -0.901923
0.095510 -0.050775 0.068282 -0.000001 -0.648647 0.759601
-1.003867 0.044226 0.072695 -0.000430 0.561579 0.826081
0.341575 -0.056692 -0.063455 0.000052 -0.640817 -0.766200
-0.371710 0.082131 0.022249 0.000050 0.944581 0.324787
1.373546 -0.107129 0.117958 0.000000 -0.790197 -0.612853
-0.062736 -0.291988 -0.376481 0.103435 -0.785958 0.609566
-0.122634 -0.207483 -0.257359 0.103435 -0.785958 0.609566
-0.105534 0.156697 0.206582 0.064883 -0.788532 0.611562
0.030416 0.053030 0.066546 0.000147 0.589790 0.806149
0.542259 -0.022012 -0.082195 -0.000636 -0.272575 -0.960506
-0.971151 0.074270 -0.041526 0.000113 0.902033 -0.429035
-0.101360 -0.028186 -0.080287 0.000034 -0.393807 -0.917955
-0.778244 0.069078 0.049687 -0.000096 0.786935 0.615332
-0.307204 0.332237 -0.424924 -0.064848 0.808158 0.585385
0.519156 0.020744 0.082524 -0.001434 0.256211 0.965384
0.921630 -0.070212 -0.048071 -0.000097 -0.833717 -0.550121
-1.099187 0.069582 -0.048978 0.000099 0.794442 -0.605355
1.696544 -0.047980 -0.041692 -0.188143 0.601909 0.776085
1.192883 -0.066022 0.053681 0.000133 -0.733208 0.678350
-0.410487 -0.163722 0.203721 -0.064848 -0.808158 -0.585385
0.446058 -0.073479 -0.042911 -0.000032 -0.845897 -0.531213
-0.188613 -0.129130 -0.145138 0.103435 -0.785958 0.609566
1.041469 -0.058646 -0.061654 0.000099 -0.717120 -0.695563
-0.186156 -0.318637 -0.392739 -0.064848 -0.808158 0.585385
1.483660 0.075195 -0.117127 -0.000000 -0.790197 -0.612853
0.852345 0.078290 0.033335 -0.000211 0.918440 0.392770
-0.531638 -0.026135 0.080978 -0.001408 -0.313432 0.948303
-0.062736 -0.513378 0.661936 0.103435 -0.785958 -0.609566
-0.860390 -0.049138 0.069469 0.000025 -0.537707 0.841791
1.271176 -0.109780 0.141548 -0.145651 -0.942174 -0.301818
-0.221365 0.213081 -0.288641 -0.040611 -0.776824 -0.628407
1.009308 0.016255 0.083524 0.000325 0.181599 0.981914
0.755638 0.085091 -0.000000 0.000789 0.996880 -0.059450
1.626024 0.174506 -0.204832 -0.000000 0.790197 0.612853
1.530850 -0.025980 -0.081028 -0.000237 -0.276677 -0.959817
-0.424942 -0.227074 -0.292783 -0.064848 -0.808158 0.585385
-0.226966 0.467596 -0.602906 -0.064848 0.808158 0.585385
1.359319 -0.023617 0.081748 0.000063 -0.252707 0.966433
1.324708 -0.077341 -0.035482 0.000223 -0.891390 -0.450931
1.119218 -0.084680 0.008358 0.000426 -0.997247 0.059829
-1.261290 0.060707 -0.059625 0.000101 0.756415 -0.652358
1.741936 0.196858 -0.253824 0.368812 0.739130 0.563617
1.741936 0.196858 0.253824 0.368812 0.739130 -0.563617
-0.490881 0.026257 0.080939 0.001026 0.287863 0.956453
-1.631452 0.041450 0.074313 0.000069 0.515669 0.855444
1.693414 -0.093552 0.100452 0.000000 -0.790197 -0.612853
-0.456050 -0.073577 0.042742 0.000004 -0.846479 0.530305
-0.410816 0.071692 -0.101616 -0.040611 -0.776824 -0.628407
0.702029 -0.082988 -0.018802 0.000881 -0.962897 -0.265405
0.038306 -0.026242 -0.080944 0.000734 -0.330416 -0.942668
1.202811 0.063671 0.056450 0.000188 0.785226 0.617342
-1.452600 0.046672 -0.071150 -0.000014 0.561730 -0.825963
-0.217354 0.400899 -0.521077 -0.040611 -0.776824 -0.628407
-1.638270 0.084029 -0.013406 0.000856 0.988357 -0.145451
1.347247 -0.081118 -0.124764 0.000000 0.790197 -0.612853
0.574248 -0.071993 -0.045360 -0.000190 -0.807537 -0.587928
0.342755 -0.071393 0.046299 0.000189 -0.858796 0.510116
1.280382 -0.112205 -0.144674 -0.145651 -0.942174 0.301818
-1.380328 -0.045027 -0.072202 0.000124 -0.584132 -0.810259
-0.917639 -0.023224 -0.081861 -0.000021 -0.336425 -0.940525
-0.280959 0.401999 -0.518327 -0.064848 0.808158 0.585385
-0.296342 0.163526 -0.222538 -0.040611 -0.776824 -0.628407
-0.099223 0.378910 0.482365 0.103435 0.785958 -0.609566
-1.832268 0.009794 0.037698 -0.551415 0.242290 0.794251
-0.157951 -0.400510 0.524435 -0.040611 0.776824 0.628407
0.763015 -0.051579 0.067677 0.000289 -0.568115 0.821677
-0.357317 -0.128833 0.175710 -0.040611 0.776824 0.628407
-1.723643 0.040481 -0.071655 -0.129848 0.532499 -0.834066
-1.211901 -0.008052 0.084710 0.000844 -0.162361 0.985609
1.260730 -0.027976 0.080361 0.000108 -0.347978 0.936339
-0.206330 0.311621 0.385287 -0.064848 0.808158 -0.585385
-0.224547 -0.273926 0.335266 -0.064848 -0.808158 -0.585385
0.921443 0.069981 0.048406 0.000045 0.821109 0.568780
-0.111471 -0.365440 -0.476360 0.064883 0.788532 -0.611562
1.693142 -0.159071 0.184930 0.000000 -0.790197 -0.612853
-0.190073 0.219041 0.260819 0.103435 0.785958 -0.609566
-0.062736 -0.248940 0.320976 0.103435 -0.785958 -0.609566
1.257677 0.076487 -0.037286 -0.001022 0.908947 -0.414013
-1.018389 -0.072563 0.044442 0.000017 -0.809511 0.584543
-0.062736 0.119795 -0.154461 0.103435 0.785958 0.609566
-1.576791 -0.064149 -0.055906 0.000150 -0.733133 -0.678425
-0.829232 -0.084644 -0.008717 0.000966 -0.988616 -0.141910
-1.186361 0.079126 0.031299 0.000361 0.924314 0.378369
-0.097091 -0.446165 0.578919 0.064883 0.788532 0.611562
1.382057 0.017944 -0.083178 0.000465 0.231478 -0.971592
-0.116059 0.267346 0.335661 0.103435 0.785958 -0.609566
1.296190 0.070055 0.048300 -0.000904 0.795748 0.603866
1.376914 -0.068550 0.050412 -0.000007 -0.816499 0.575368
1.064286 0.053078 -0.066508 -0.000079 0.674091 -0.737251
-0.492803 0.023027 -0.081916 0.000088 0.310050 -0.949417
-0.340689 0.142043 -0.193115 -0.040611 -0.776824 -0.628407
0.395334 -0.000000 0.085091 -0.001043 0.050274 0.997359
-0.371285 -0.077261 0.035655 0.000056 -0.892118 0.449271
-1.543499 0.055036 0.064897 -0.000082 0.596831 0.801143
1.450077 -0.101478 0.110670 0.000000 -0.790197 -0.612853
-0.785857 0.064330 -0.055697 -0.000304 0.788225 -0.613446
0.134572 0.014453 0.083855 0.000563 0.212605 0.976014
0.186300 0.083473 0.016515 0.000849 0.971297 0.233254
-0.816534 -0.026669 -0.080804 -0.000285 -0.341793 -0.938563
-0.455384 -0.073288 -0.043236 0.000056 -0.880471 -0.472162
0.331129 0.084815 -0.006853 -0.002543 0.990921 -0.128572
-0.214190 0.281591 -0.373796 -0.040611 -0.776824 -0.628407
-0.342004 0.087898 -0.091455 -0.064848 0.808158 0.585385
-1.726455 0.057171 0.058583 -0.139140 0.666734 0.729732
0.711067 -0.005278 -0.084927 0.001356 -0.114527 -0.992644
-0.110580 0.209495 0.261999 0.103435 0.785958 -0.609566
-0.695587 -0.000000 0.085091 -0.000745 0.031827 0.998761
-0.135188 -0.347946 0.456319 0.064883 0.788532 0.611562
-0.755638 -0.085091 0.000000 -0.001781 -0.995209 -0.083813
-0.303457 0.374667 0.483086 -0.064848 0.808158 -0.585385
1.593040 0.119947 0.134485 0.000000 0.790197 -0.612853
-0.815689 0.085091 -0.000000 -0.003754 0.995700 -0.075264
-0.321320 0.077280 -0.035615 -0.000034 0.884959 -0.463203
-0.167385 -0.275538 -0.337514 0.103435 -0.785958 0.609566
-0.936769 -0.055513 0.064489 0.000334 -0.667133 0.743432
-0.101682 -0.547327 -0.699100 0.000671 -0.801374 0.596183
1.707303 -0.102866 -0.112460 0.000000 -0.790197 0.612853
0.195165 -0.000000 0.085091 -0.000100 0.087573 0.994472
-0.220105 -0.205688 0.240567 -0.064848 -0.808158 -0.585385
-0.302464 0.049281 0.069463 -0.000000 -0.612853 -0.790197
1.522439 -0.153602 0.177879 -0.000000 -0.790197 -0.612853
-1.676416 -0.075333 -0.039566 0.003795 -0.910529 -0.410201
-1.357134 0.022347 -0.082104 0.000215 0.310001 -0.949550
-0.298488 0.215671 -0.263033 -0.064848 0.808158 0.585385
1.737051 -0.036712 0.040611 -0.188143 0.601909 -0.776085
-0.191066 0.202961 -0.239916 0.103435 0.785958 0.609566
-1.556019 0.082408 -0.021200 -0.000290 0.972463 -0.228869
0.807781 -0.046472 -0.071280 0.000038 -0.559191 -0.827655
-0.055293 -0.073516 -0.042848 0.000360 -0.878126 -0.475923
0.708365 0.067809 -0.051405 -0.000014 0.755938 -0.652893
1.390236 -0.120008 -0.168688 -0.145651 0.526759 -0.837443
-0.093814 -0.071491 0.046148 -0.000529 -0.851646 0.521741
-0.495121 -0.071734 0.086102 -0.064848 -0.808158 -0.585385
-0.982062 0.010968 -0.084381 0.000845 0.202931 -0.977526
-0.357184 0.211197 0.277535 -0.040611 -0.776824 0.628407
0.611830 0.029843 -0.079687 -0.000003 0.409059 -0.911256
-0.302057 -0.026923 0.080720 -0.000053 -0.379457 0.923996
1.450429 -0.069344 -0.109582 0.000000 0.790197 -0.612853
0.434759 0.071666 0.045876 -0.001571 0.823901 0.565309
-0.045164 0.078230 0.033476 -0.000040 0.890047 0.453344
-0.072393 -0.484433 -0.625639 0.064883 0.788532 -0.611562
-0.102949 0.477834 -0.609283 0.103435 0.785958 0.609566
-0.109638 0.434454 -0.552215 0.103435 0.785958 0.609566
1.658968 0.121360 -0.136306 0.000000 0.790197 0.612853
1.578618 0.042287 -0.074696 -0.000000 -0.790197 -0.612853
-0.062736 -0.070598 0.091027 0.103435 -0.785958 -0.609566
-1.477094 0.081716 -0.023729 -0.000331 0.944614 -0.324655
-0.115892 -0.253874 -0.318319 0.103435 -0.785958 0.609566
-1.140476 -0.080324 -0.028083 -0.000244 -0.953866 -0.296296
-0.110199 0.373534 -0.486661 0.064883 -0.788532 -0.611562
1.543543 0.051567 0.067686 0.000568 0.601759 0.797369
-0.393953 0.209130 -0.264578 -0.064848 0.808158 0.585385
-1.512273 -0.008216 0.084694 0.001487 -0.156652 0.986661
-1.752688 -0.055688 -0.051944 -0.239914 -0.726683 -0.640988
1.567268 0.100103 -0.149242 0.000000 -0.790197 -0.612853
-1.585932 0.014749 -0.083803 -0.001423 0.158338 -0.986243
-0.951485 0.016902 0.083396 0.000417 0.264831 0.963090
1.482921 -0.082957 -0.018940 -0.000038 -0.965769 -0.254809
0.658263 -0.065808 0.053943 0.000235 -0.747900 0.662280
1.731852 -0.197626 -0.261258 0.368812 0.729803 -0.575643
0.304589 0.036908 -0.076670 0.000338 0.413070 -0.909638
-0.265286 -0.247508 0.303308 -0.064848 -0.808158 -0.585385
-1.440194 -0.046552 -0.071228 0.000005 -0.602552 -0.796623
0.313932 0.021661 0.082288 0.000405 0.266926 0.962472
0.641303 0.084516 0.009882 -0.000051 0.990989 0.126850
-0.243601 0.166574 -0.189171 -0.064848 0.808158 0.585385
-0.260797 -0.083429 -0.016740 0.000129 -0.972766 -0.226835
-0.190263 -0.117931 0.165586 0.064883 0.788532 0.611562
1.630930 -0.165127 -0.233082 0.000000 0.790197 -0.612853
-0.164658 -0.235347 0.314263 0.064883 0.788532 0.611562
-1.721463 0.082113 0.009158 -0.154525 0.966765 0.194022
1.282827 0.082007 -0.085566 -0.000000 0.790197 0.612853
0.507154 0.054232 -0.065570 -0.000050 0.686168 -0.725896
0.264195 -0.082200 -0.021994 -0.000558 -0.953722 -0.296855
1.747478 -0.026035 -0.048493 1.000000 0.000000 0.000000
-0.199339 0.077428 0.035291 -0.000402 0.916450 0.397117
-0.111063 0.420542 0.547364 0.064883 -0.788532 0.611562
0.458887 -0.058742 0.061562 -0.000110 -0.666624 0.743935
-0.255581 0.336404 -0.438880 -0.040611 -0.776824 -0.628407
1.341311 0.117243 0.130997 -0.097980 0.901974 -0.411018
1.000830 -0.028566 -0.080153 0.000048 -0.394345 -0.917783
1.185500 0.033172 -0.078359 0.000015 0.336765 -0.940389
-1.099225 0.067233 0.052157 0.000435 0.812431 0.581036
-0.093727 0.189962 -0.248221 0.064883 -0.788532 -0.611562
-0.140846 0.476296 0.619227 -0.040611 -0.776824 0.628407
-0.244964 -0.445731 -0.574713 -0.064848 -0.808158 0.585385
-0.367267 -0.091516 0.128937 -0.040611 0.776824 0.628407
1.430993 0.134716 0.153527 -0.000000 0.790197 -0.612853
1.590298 -0.026233 0.080947 -0.000742 -0.362910 0.930558
-0.244171 -0.109056 0.109827 -0.008707 -0.802721 -0.594917
0.069451 0.080500 0.027573 0.000260 0.931658 0.360074
-0.541928 0.084947 0.109528 -0.064848 0.808158 -0.585385
-0.199307 0.461547 0.597216 -0.040611 -0.776824 0.628407
0.541378 0.073727 0.042483 0.000208 0.869282 0.492322
-1.333097 -0.068431 0.050574 0.000015 -0.765630 0.641705
0.584674 -0.030918 0.079276 -0.000105 -0.424368 0.904252
1.684411 0.084575 0.129221 -0.000000 -0.790197 0.612853
1.571529 -0.151899 -0.216027 0.000000 0.790197 -0.612853
0.859076 0.078068 -0.033852 -0.000073 0.896152 -0.441338
-0.265923 -0.181756 -0.212604 -0.064848 -0.808158 0.585385
-0.200905 -0.425675 0.552768 -0.040611 0.776824 0.628407
1.324368 -0.082460 0.020998 -0.000709 -0.950024 0.308057
0.930551 -0.067213 0.052182 -0.000003 -0.746155 0.664050
-0.194889 0.366445 0.479938 -0.040611 -0.776824 0.628407
-0.599670 -0.022620 -0.082030 -0.000066 -0.298217 -0.953328
1.564854 -0.117669 -0.171892 0.000000 0.790197 -0.612853
-0.161756 -0.476364 0.617959 -0.040611 0.776824 0.628407
-0.100596 0.024853 -0.081381 0.000010 0.351420 -0.935069
1.481806 -0.007060 -0.084798 0.000184 -0.054674 -0.997737
-0.865336 0.033642 0.078159 -0.000096 0.453676 0.889899
-0.182556 -0.053346 0.081495 0.064883 0.788532 0.611562
-0.062736 0.316587 -0.408198 0.103435 0.785958 0.609566
-0.201681 0.436804 -0.557595 -0.064848 0.808158 0.585385
-0.507520 0.065212 -0.054662 0.000118 0.801847 -0.595426
-0.386875 0.141544 0.170487 -0.064848 0.808158 -0.585385
-0.478936 -0.161477 -0.208204 -0.064848 -0.808158 0.585385
-0.350894 -0.073456 -0.107669 -0.040611 0.776824 -0.628407
-1.155976 0.000000 -0.085091 0.000443 -0.040043 -0.997968
-0.555469 -0.085091 0.000000 -0.000027 -0.998610 -0.029104
-0.159562 0.513910 0.659378 -0.064848 0.808158 -0.585385
-1.106868 -0.071737 0.045764 -0.000268 -0.816438 0.575486
-0.062736 -0.150544 0.194108 0.103435 -0.785958 -0.609566
1.506399 0.129806 -0.187541 0.000000 -0.790197 -0.612853
-0.276460 0.407466 0.525376 -0.064848 0.808158 -0.585385
0.351934 -0.010255 -0.084471 0.000022 -0.151728 -0.987147
-1.832639 -0.009853 -0.037415 -0.563430 -0.315224 -0.758813
-0.282112 0.299288 0.391283 -0.040611 -0.776824 0.628407
0.927569 -0.024371 0.081527 0.000049 -0.311116 0.949159
-0.351117 0.256979 0.334522 -0.040611 -0.776824 0.628407
-1.441981 -0.046012 0.071578 -0.000576 -0.509241 0.859407
-1.835564 -0.035665 0.008285 -0.570186 -0.770961 0.264917
-0.081605 -0.316931 0.410644 0.064883 0.788532 0.611562
-0.114176 0.534281 0.692630 -0.040611 -0.776824 0.628407
-0.094959 -0.171540 -0.215712 0.103435 -0.785958 0.609566
-0.755484 -0.036097 -0.077055 -0.000165 -0.480237 -0.875890
1.731495 -0.195249 0.258474 0.368812 0.729803 0.575643
-1.113940 -0.010424 0.084450 0.001396 -0.154867 0.986534
-0.440545 0.034545 -0.077764 -0.000047 0.463499 -0.884809
-0.264411 -0.359313 0.457563 -0.064848 -0.808158 -0.585385
-0.303065 -0.072942 -0.043818 -0.000357 -0.876321 -0.479434
0.724437 0.074546 0.041029 -0.000039 0.844748 0.533058
1.413474 0.122619 -0.137929 0.000000 0.790197 0.612853
-0.124956 0.082727 0.019918 -0.000554 0.966305 0.252834
-0.465459 0.111338 0.137492 -0.064848 0.808158 -0.585385
-0.108991 -0.095390 -0.127901 0.064883 0.788532 -0.611562
-0.106730 -0.262614 0.343275 0.064883 0.788532 0.611562
1.580976 -0.009366 -0.084574 -0.000058 -0.141566 -0.988725
0.932725 0.072138 -0.045129 -0.000062 0.819798 -0.570664
-0.394517 -0.157621 -0.193529 -0.064848 -0.808158 0.585385
0.242445 -0.009716 -0.084535 -0.000174 -0.145437 -0.988148
1.633235 -0.142643 0.163747 0.000000 -0.790197 -0.612853
-0.338720 0.141271 0.192287 -0.040611 -0.776824 0.628407
-0.144401 -0.052116 -0.067264 0.000689 -0.662206 -0.747917
-0.208575 -0.100088 -0.104304 0.103435 -0.785958 0.609566
-1.238010 0.079759 0.029647 -0.000918 0.925897 0.374322
-0.421458 0.069722 0.098492 -0.040611 -0.776824 0.628407
-0.334953 -0.336402 0.433748 -0.064848 -0.808158 -0.585385
-0.155400 -0.156142 0.211156 0.064883 0.788532 0.611562
-0.229109 0.094041 -0.093023 0.103435 0.785958 0.609566
0.862960 -0.076127 0.038017 -0.000082 -0.875050 0.481661
-1.167339 0.081919 -0.023019 -0.000201 0.948189 -0.314235
1.316759 -0.084274 0.128833 0.000000 0.790197 0.612853
1.403256 -0.057634 -0.094484 0.000000 0.790197 -0.612853
0.820109 0.037905 0.076182 -0.000219 0.442768 0.895399
-0.896166 -0.081182 -0.025496 -0.000073 -0.939408 -0.339457
-0.511942 -0.065126 -0.054765 0.000006 -0.718876 -0.693508
-0.276249 0.163459 0.223753 -0.040611 -0.776824 0.628407
1.140459 -0.076217 -0.037835 -0.000611 -0.871779 -0.487650
-0.118892 0.132962 0.161908 0.103435 0.785958 -0.609566
1.702434 -0.143124 -0.164368 0.000000 -0.790197 0.612853
1.535660 0.075967 -0.118123 0.000000 -0.790197 -0.612853
0.025136 -0.084320 -0.011433 -0.000264 -0.976087 -0.210159
-0.089772 -0.423561 -0.548997 0.064883 0.788532 -0.611562
-0.131671 0.095573 -0.130543 0.064883 -0.788532 -0.611562
1.351648 0.035616 0.077279 0.000440 0.475285 0.878547
1.676416 0.030115 0.079584 -0.001577 0.410873 0.910398
-0.107716 0.022655 0.082020 -0.000401 0.218479 0.974794
1.231455 -0.081892 0.023113 0.000023 -0.956366 0.288217
-0.115287 -0.197170 0.259801 0.064883 0.788532 0.611562
-0.397836 -0.202123 -0.255334 -0.064848 -0.808158 0.585385
1.381653 -0.138877 0.179064 -0.145651 -0.942174 -0.301818
-0.062736 0.488779 0.630219 0.103435 0.785958 -0.609566
-0.062736 0.316587 0.408198 0.103435 0.785958 -0.609566
-0.062736 -0.113646 -0.146532 0.103435 -0.785958 0.609566
-0.176495 0.126727 -0.144095 0.103435 0.785958 0.609566
-0.283180 -0.235328 -0.288474 -0.064848 -0.808158 0.585385
1.087047 0.061285 0.079020 -0.145651 0.942174 -0.301818
1.482924 -0.165549 -0.213455 -0.145651 -0.942174 0.301818
1.547369 0.182522 -0.235340 -0.145651 0.942174 0.301818
-0.409862 -0.096980 -0.132938 -0.040611 0.776824 -0.628407
-0.716671 0.025038 -0.081324 -0.001989 0.349556 -0.935817
1.349652 0.083196 -0.087099 0.000000 0.790197 0.612853
-0.352951 0.314537 0.405555 -0.064848 0.808158 -0.585385
-0.433941 -0.216141 0.278687 -0.064848 -0.808158 -0.585385
-0.112488 -0.419539 0.532501 0.103435 -0.785958 -0.609566
1.497046 0.131041 0.189133 0.000000 -0.790197 0.612853
-0.335056 -0.203961 0.250916 -0.064848 -0.808158 -0.585385
-0.614379 -0.067224 0.052167 -0.000014 -0.799582 0.598694
1.285567 -0.067298 0.052073 -0.000133 -0.748449 0.661469
-0.189648 -0.363891 -0.455601 -0.064848 -0.808158 0.585385
-0.347933 -0.140031 -0.190159 -0.040611 0.776824 -0.628407
-0.254816 -0.144720 -0.160243 -0.064848 -0.808158 0.585385
-0.289726 0.123245 0.134462 -0.064848 0.808158 -0.585385
1.437022 0.080864 0.026488 0.000704 0.965314 0.256790
1.643747 0.200567 -0.245157 -0.145651 0.942174 0.301818
1.631805 -0.067460 -0.051863 0.000001 -0.748974 -0.660872
1.735211 0.084869 -0.116153 0.368812 -0.729803 -0.575643
-0.335952 0.097837 0.104506 -0.064848 0.808158 -0.585385
-1.204288 -0.067255 -0.052128 -0.000183 -0.769398 -0.637014
-0.410564 0.084687 -0.008289 -0.000724 0.997061 -0.064008
-0.168344 0.245772 -0.328096 0.064883 -0.788532 -0.611562
-0.214772 0.039145 0.075553 0.000019 0.419146 0.906674
1.620779 0.089915 -0.136107 0.000000 -0.790197 -0.612853
-1.469918 0.077943 0.034138 -0.000011 0.886066 0.461140
-0.156910 0.316728 -0.392400 0.103435 0.785958 0.609566
1.588028 0.023100 0.081896 0.000032 0.322178 0.945392
-0.681391 -0.084879 0.006015 0.001117 -0.992774 0.113965
-0.243573 -0.145676 0.203881 -0.040611 0.776824 0.628407
-0.273615 0.212112 0.284067 -0.040611 -0.776824 0.628407
1.639255 0.188172 0.222452 -0.000000 0.790197 -0.612853
-0.406669 -0.035504 0.077330 -0.000046 -0.386518 0.921041
-0.687368 0.046489 0.071269 0.000014 0.556086 0.829740
-0.099783 -0.317431 -0.403001 0.103435 -0.785958 0.609566
-0.893672 0.064938 -0.054987 0.000319 0.805566 -0.590243
-0.075144 0.098566 0.128405 0.064883 -0.788532 0.611562
1.714035 0.077215 -0.036658 -0.010243 0.926256 -0.373803
1.427685 -0.151001 0.194696 -0.145651 -0.942174 -0.301818
1.704126 0.152430 0.176367 0.000000 0.790197 -0.612853
-0.141197 -0.022810 0.081977 -0.000454 -0.292489 0.955122
-0.111022 0.219510 -0.288153 0.064883 -0.788532 -0.611562
0.293674 -0.028087 0.080322 0.000619 -0.366580 0.929186
-0.551379 -0.038004 -0.076133 0.000356 -0.414118 -0.908751
1.505249 -0.072718 0.044189 -0.000032 -0.865067 0.499607
0.654761 -0.009889 -0.084515 -0.000225 -0.169632 -0.984104
-1.517525 -0.080338 0.028043 -0.000019 -0.919021 0.391362
1.441176 0.053313 0.066319 0.000114 0.672803 0.738299
1.747478 0.022993 0.047815 1.000000 0.000000 0.000000
0.400224 0.068085 -0.051038 -0.000407 0.812641 -0.580967
0.144594 0.073312 0.043196 -0.000822 0.841366 0.538239
-0.236465 -0.308856 -0.406061 -0.040611 0.776824 -0.628407
1.747478 0.039357 -0.028032 1.000000 0.000000 0.000000
1.255451 -0.069556 -0.109855 0.000000 0.790197 -0.612853
1.180120 -0.028020 0.080345 0.000242 -0.346212 0.937024
1.445165 -0.039009 0.075623 -0.000027 -0.482175 0.874790
1.253561 0.026773 0.080770 -0.000081 0.293330 0.954537
-0.315531 -0.299068 0.380054 -0.064848 -0.808158 -0.585385
0.435368 0.000000 -0.085091 -0.000168 -0.078776 -0.995410
1.500423 -0.100399 0.109280 -0.000000 -0.790197 -0.612853
-0.124611 -0.410450 -0.518724 0.103435 -0.785958 0.609566
0.242739 -0.033819 0.078082 -0.000187 -0.366926 0.929230
1.455305 0.158275 -0.204076 -0.145651 0.942174 0.301818
1.528956 -0.177673 -0.229087 -0.145651 -0.942174 0.301818
-0.594847 0.029142 -0.079945 0.000130 0.357604 -0.932640
1.517278 -0.115095 -0.168573 -0.000000 0.790197 -0.612853
-0.266650 -0.305691 0.383782 -0.064848 -0.808158 -0.585385
1.700865 -0.168072 -0.236880 0.000000 0.790197 -0.612853
-0.365016 -0.228501 0.298420 -0.040611 0.776824 0.628407
-0.379948 0.281738 0.363266 -0.064848 0.808158 -0.585385
1.578741 -0.097598 0.105668 -0.000000 -0.790197 -0.612853
1.542430 -0.077771 -0.080104 0.000000 -0.790197 0.612853
-0.170287 -0.193767 -0.261248 0.064883 0.788532 -0.611562
1.390859 0.141302 0.182191 -0.145651 0.942174 -0.301818
1.494449 0.064855 -0.055085 -0.000335 0.742270 -0.668535
-0.232479 -0.027167 0.080638 0.000142 -0.286536 0.956949
-0.105948 -0.467221 -0.595089 0.103435 -0.785958 0.609566
1.500000 0.051516 0.086596 0.000000 -0.790197 0.612853
1.581294 -0.160910 0.227646 -0.049430 0.710335 0.696472
-0.348360 -0.250830 -0.327099 -0.040611 0.776824 -0.628407
-0.152176 -0.084562 -0.009473 -0.000440 -0.987861 -0.146890
-0.109632 0.285375 -0.372931 0.064883 -0.788532 -0.611562
1.160749 -0.027974 -0.080362 0.000026 -0.348812 -0.936097
-0.169391 -0.292537 0.388505 0.064883 0.788532 0.611562
-0.288051 -0.071134 -0.108860 -0.040611 0.776824 -0.628407
-0.279980 -0.329766 -0.429098 -0.040611 0.776824 -0.628407
1.634541 0.081771 0.125606 -0.000000 -0.790197 0.612853
1.660533 -0.059904 0.097410 0.000000 0.790197 0.612853
0.576302 0.084655 -0.008608 -0.000433 0.991785 -0.120195
-1.773077 -0.067278 0.018121 -0.348428 -0.882621 0.310398
-0.289001 0.269131 0.335786 -0.064848 0.808158 -0.585385
0.147200 -0.029823 -0.079694 0.000044 -0.381393 -0.923241
-0.262319 -0.278134 -0.345260 -0.064848 -0.808158 0.585385
-1.556368 -0.034564 0.077755 -0.000024 -0.435752 0.898795
-1.080573 0.084704 -0.008109 0.001467 0.997071 -0.061103
-0.302545 0.276263 -0.347132 -0.064848 0.808158 0.585385
1.638952 -0.107148 0.117981 0.000000 -0.790197 -0.612853
-0.550927 -0.074014 0.095432 -0.064848 -0.808158 -0.585385
1.631213 0.067850 -0.067311 0.000000 0.790197 0.612853
1.458362 0.114105 -0.126951 0.000000 0.790197 0.612853
-0.100860 0.295968 0.385658 0.064883 -0.788532 0.611562
-0.201393 0.187127 0.217748 0.103435 0.785958 -0.609566
-0.138845 -0.519647 -0.665003 -0.064848 -0.808158 0.585385
1.271176 0.109780 -0.141548 -0.145651 0.942174 0.301818
-0.171404 0.089330 0.126708 0.064883 -0.788532 0.611562
-0.308424 -0.167780 -0.227015 -0.040611 0.776824 -0.628407
-1.627128 -0.079921 0.029208 0.000027 -0.926317 0.373695
-0.180684 -0.139276 -0.192092 0.064883 0.788532 -0.611562
1.038615 -0.022883 0.081957 0.000832 -0.327222 0.943888
-0.279064 -0.037143 -0.076557 0.000206 -0.493012 -0.868786
1.560547 0.160921 0.187315 -0.000000 0.790197 -0.612853
-1.266668 0.059324 0.061002 0.001211 0.676091 0.735195
1.637581 -0.054902 0.050617 -0.188143 0.601909 -0.776085
-0.375516 -0.037508 -0.076378 0.000650 -0.409037 -0.911253
0.286781 -0.062507 -0.057736 0.000146 -0.756766 -0.652008
0.845714 -0.000000 0.085091 -0.000710 0.013382 0.998980
1.619843 -0.108781 -0.160432 0.000000 0.790197 -0.612853
-0.062736 -0.378084 0.487491 0.103435 -0.785958 -0.609566
1.167989 0.039313 0.075465 0.000676 0.470680 0.881064
0.680909 0.016145 0.083546 -0.000809 0.189731 0.980320
0.770931 -0.012174 -0.084216 0.001103 -0.217463 -0.974192
-0.816995 0.036911 -0.076669 -0.000073 0.449808 -0.891847
-0.861179 0.084572 -0.009388 -0.000220 0.988045 -0.146517
1.500423 -0.100399 -0.109280 -0.000000 -0.790197 0.612853
-0.247970 0.097369 0.094113 0.047388 0.795322 -0.602978
0.834946 0.049659 -0.069098 0.000054 0.593235 -0.803622
0.752260 -0.009750 0.084531 -0.000169 -0.152310 0.986928
-1.015858 0.085091 -0.000000 0.000812 0.996487 -0.067995
1.206019 0.085091 -0.000000 0.000496 0.996801 -0.063260
-0.196675 -0.255146 -0.306251 -0.008707 -0.802721 0.594917
1.432038 0.068814 -0.050051 -0.001138 0.767697 -0.639170
1.430087 -0.101757 -0.151374 -0.000000 0.790197 -0.612853
-1.462578 -0.006938 0.084808 0.000588 -0.138377 0.989569
-0.110788 -0.292066 0.381680 0.064883 0.788532 0.611562
1.215937 -0.095232 0.122789 -0.145651 -0.942174 -0.301818
-0.162146 0.481378 -0.624132 -0.040611 -0.776824 -0.628407
-0.254613 -0.221826 0.266669 -0.064848 -0.808158 -0.585385
-0.219473 0.164090 -0.228202 0.029730 -0.785384 -0.617775
-0.172722 -0.346609 0.429868 -0.064848 -0.808158 -0.585385
0.633711 -0.064225 -0.055818 -0.000015 -0.782092 -0.621331
0.015412 0.079559 -0.030180 0.000016 0.919239 -0.390852
-0.269202 -0.066928 0.052547 -0.000329 -0.806246 0.589929
-1.168754 0.007573 0.084754 -0.000053 0.070134 0.996204
-0.153451 0.154135 -0.183344 0.103435 0.785958 0.609566
0.833938 -0.044854 0.072309 -0.000190 -0.581540 0.812132
-0.279140 -0.089299 0.131891 -0.040611 0.776824 0.628407
-0.252038 0.280963 -0.348026 -0.064848 0.808158 0.585385
1.282827 -0.062469 0.100719 0.000000 0.790197 0.612853
-1.676416 -0.084480 0.010182 0.001533 -0.987705 0.149486
0.435368 -0.085091 0.000000 -0.001400 -0.997815 -0.042483
1.343567 0.075864 0.038539 -0.000261 0.889304 0.454852
1.426727 0.088715 0.134559 0.000000 -0.790197 0.612853
-0.479779 -0.120015 0.151057 -0.064848 -0.808158 -0.585385
1.087476 -0.018603 -0.083033 -0.000076 -0.277403 -0.959414
0.423729 0.037877 0.076196 0.000070 0.398932 0.915731
1.584317 -0.068049 -0.107913 -0.000000 0.790197 -0.612853
1.311369 0.080791 0.124343 0.000000 -0.790197 0.612853
-0.204274 -0.212869 -0.289484 -0.005435 0.781482 -0.623390
0.762504 0.071591 -0.045992 -0.000261 0.864170 -0.500868
0.204899 0.042146 -0.073921 0.000133 0.506265 -0.861108
0.663119 0.071691 -0.045835 0.000019 0.812698 -0.580710
1.555987 -0.113692 0.166763 -0.000000 0.790197 0.612853
-0.233822 0.359115 0.453901 -0.064848 0.808158 -0.585385
1.701840 0.181881 0.214340 0.000000 0.790197 -0.612853
1.625965 0.050045 0.084698 0.000000 -0.790197 0.612853
-0.062736 -0.365784 -0.471633 0.103435 -0.785958 0.609566
0.357272 0.078280 0.033358 -0.000017 0.898094 0.437201
-0.031164 -0.042288 -0.073839 0.000048 -0.553582 -0.831426
-0.280106 0.028639 -0.080127 -0.000082 0.350241 -0.935443
1.115942 0.085091 -0.000000 -0.002864 0.994917 -0.079829
-0.989638 -0.071926 -0.045467 -0.000009 -0.856656 -0.513720
-0.423877 -0.038062 -0.076104 -0.000834 -0.414897 -0.908574
0.937840 0.029675 -0.079749 0.000080 0.397309 -0.916416
0.895757 0.000000 -0.085091 0.001041 -0.034820 -0.998700
1.574577 0.169324 0.231770 -0.145651 -0.526759 0.837443
-0.103144 -0.072942 -0.087192 0.103435 -0.785958 0.609566
1.587360 0.158418 -0.224432 -0.000000 -0.790197 -0.612853
-0.073386 0.063693 -0.056425 0.000113 0.763898 -0.643637
-1.547723 0.039083 -0.075585 -0.000083 0.500774 -0.864291
0.521592 -0.074821 0.040525 0.000002 -0.844009 0.534217
1.017402 -0.084207 -0.012233 0.001629 -0.974230 -0.218553
-1.251858 -0.079948 0.029135 -0.000152 -0.923389 0.381188
-0.014901 0.055044 0.064890 -0.000002 0.613984 0.787899
0.679807 0.070823 0.047166 -0.000182 0.800417 0.597566
1.639842 0.128495 0.185851 0.000000 -0.790197 0.612853
0.173335 -0.080506 0.027556 -0.000429 -0.934797 0.352132
-0.405158 0.178185 -0.233626 -0.040611 -0.776824 -0.628407
-0.468226 0.059682 0.060651 -0.000040 0.668109 0.742524
-0.254717 0.123207 0.175386 -0.040611 -0.776824 0.628407
-0.152441 -0.463446 -0.602592 -0.040611 0.776824 -0.628407
-1.280855 0.081445 -0.024642 0.000043 0.935402 -0.350342
1.015280 0.032693 -0.078560 0.000237 0.373384 -0.926415
-0.163981 0.311947 0.412958 0.064883 -0.788532 0.611562
-0.000617 0.007786 -0.084734 -0.000147 0.061332 -0.997093
0.461572 -0.043715 -0.073003 0.000132 -0.569420 -0.820661
0.072764 -0.084914 0.005492 -0.002835 -0.992746 0.115231
-0.155014 0.431333 -0.544873 -0.064848 0.808158 0.585385
1.413734 -0.082755 0.019802 -0.000147 -0.954592 0.293858
-1.042342 -0.012890 0.084109 -0.000084 -0.218154 0.974833
-0.246767 -0.203369 -0.274994 -0.040611 0.776824 -0.628407
1.676416 -0.020376 0.082616 -0.008741 -0.287920 0.956115
-0.276460 -0.407466 0.525376 -0.064848 -0.808158 -0.585385
1.478005 -0.128483 -0.185834 0.000000 0.790197 -0.612853
-1.391062 0.077040 0.036130 0.000292 0.889501 0.454503
1.696224 -0.083340 0.018146 -0.009242 -0.978004 0.200495
-0.280455 0.347208 0.450628 -0.040611 -0.776824 0.628407
-0.219799 -0.071290 0.108583 0.064883 0.788532 0.611562
-0.146796 0.157623 0.188971 0.103435 0.785958 -0.609566
-0.147773 0.362295 0.476156 0.064883 -0.788532 0.611562
-0.706557 0.084897 -0.005752 -0.000500 0.992356 -0.115400
-0.169839 0.046646 -0.071507 -0.000000 -0.612853 0.790197
-0.515598 -0.073812 0.042335 0.000303 -0.849186 0.526076
-1.685960 -0.034195 0.078067 -0.018692 -0.335230 0.939785
-1.531325 -0.059192 -0.061130 -0.000182 -0.723393 -0.688812
1.224718 0.057999 -0.094955 0.000000 -0.790197 -0.612853
-0.818132 0.046472 0.071280 0.000108 0.558139 0.828376
-0.550423 0.068444 0.050557 0.000198 0.810971 0.583193
1.146339 0.051712 -0.067575 -0.000855 0.585362 -0.809193
-0.480975 0.127554 -0.166138 -0.040611 -0.776824 -0.628407
-0.589762 0.052731 0.066783 -0.000206 0.626498 0.777994
-0.108953 0.463315 0.589544 0.103435 0.785958 -0.609566
-0.062736 0.248940 -0.320976 0.103435 0.785958 0.609566
-1.216224 0.058409 -0.061879 -0.000142 0.693978 -0.718454
-1.056423 -0.075989 -0.038292 -0.000674 -0.899836 -0.434315
0.972584 0.075903 0.038462 0.000009 0.863982 0.501248
1.669661 0.007102 -0.084794 -0.000820 0.061162 -0.997173
-0.089138 0.071754 0.045738 0.000349 0.818090 0.573061
-0.960779 -0.037716 -0.076276 0.000048 -0.500720 -0.864336
0.127928 -0.081075 -0.025834 0.000674 -0.931495 -0.361058
-0.114023 -0.476810 0.606084 0.103435 -0.785958 -0.609566
1.747478 0.072648 0.045678 -0.006776 0.874214 0.483320
1.582270 -0.082626 -0.020335 0.000177 -0.978480 -0.199114
0.881560 -0.079082 -0.031410 -0.000176 -0.937004 -0.346207
-0.191566 -0.165144 -0.226601 0.064883 0.788532 -0.611562
-1.740446 -0.009546 -0.078594 -0.198323 -0.158209 -0.965386
1.395062 0.062059 -0.100189 0.000000 -0.790197 -0.612853
0.809607 0.084556 0.009527 -0.000087 0.982041 0.180741
1.700865 -0.168072 0.236880 0.000000 0.790197 0.612853
1.373325 0.076976 0.119423 0.000000 -0.790197 0.612853
0.230224 0.069689 -0.048826 0.000058 0.788537 -0.613252
-1.661152 -0.023357 -0.081823 -0.000428 -0.304252 -0.951418
-0.288797 -0.112114 -0.159470 -0.040611 0.776824 -0.628407
-0.179843 -0.439171 -0.558444 -0.064848 -0.808158 0.585385
-0.422416 0.170658 0.223206 -0.040611 -0.776824 0.628407
1.366020 -0.064887 0.103836 -0.000000 0.790197 0.612853
1.704394 -0.052407 -0.087744 0.000000 0.790197 -0.612853
-0.062736 0.531827 -0.685724 0.103435 0.785958 0.609566
1.703086 0.060160 0.097742 0.000000 -0.790197 0.612853
0.114016 -0.054768 -0.065123 -0.000613 -0.610306 -0.790594
0.307133 0.073959 -0.042079 -0.000167 0.843664 -0.534804
0.511254 -0.083331 -0.017218 0.001077 -0.983603 -0.173116
-0.273980 0.122581 -0.131801 -0.064848 0.808158 0.585385
1.337518 0.117071 -0.157672 -0.145651 -0.526759 -0.837443
-0.610175 0.084552 -0.009567 -0.001382 0.984451 -0.168155
-0.312323 -0.125183 0.174105 -0.040611 0.776824 0.628407
-0.509402 0.084893 -0.005801 0.000655 0.993693 -0.105327
0.788263 -0.074363 -0.041361 0.000155 -0.848674 -0.526691
1.645904 -0.177927 0.249587 -0.049430 0.710335 0.696472
0.379986 -0.045198 0.072095 -0.000043 -0.586131 0.808763
1.738817 -0.075019 -0.041487 -0.006776 -0.874214 -0.483320
-0.253192 0.125363 -0.178150 -0.040611 -0.776824 -0.628407
-1.113781 -0.027808 -0.080419 0.000304 -0.359345 -0.932031
-0.081587 -0.220203 -0.280725 0.103435 -0.785958 0.609566
-0.085072 -0.085091 0.000000 -0.000235 -0.999186 -0.020846
-0.661997 -0.077919 -0.034192 0.000887 -0.928206 -0.369365
-0.636864 0.071788 0.045684 -0.000109 0.849092 0.526099
1.236779 0.077676 0.079981 0.000000 0.790197 -0.612853
1.125740 0.067280 0.052096 -0.000165 0.751677 0.657880
1.664061 -0.099472 -0.108084 -0.000000 -0.790197 0.612853
-1.717136 -0.076547 0.032612 -0.155576 -0.893405 0.415894
1.078685 -0.079951 0.029126 0.000754 -0.949031 0.311921
0.080567 0.032055 -0.078823 0.001220 0.330106 -0.942716
-1.341041 -0.028121 -0.080310 -0.000202 -0.363401 -0.930395
1.146616 -0.074736 0.040683 0.000843 -0.861249 0.505889
1.657235 0.052595 0.047642 0.000000 0.790197 -0.612853
-0.800693 -0.040469 0.074852 -0.000046 -0.531024 0.846013
-0.189735 0.434564 0.564479 -0.040611 -0.776824 0.628407
1.081521 -0.069694 -0.048818 -0.000252 -0.832837 -0.551662
-1.310072 -0.014330 0.083876 -0.001396 -0.234637 0.971034
1.289984 -0.062912 -0.057294 0.000003 -0.707640 -0.704958
0.276965 0.051629 0.067639 -0.000013 0.565416 0.823420
1.616236 -0.033871 -0.078060 0.000020 -0.429214 -0.901939
0.190218 -0.035330 -0.077410 -0.000180 -0.381287 -0.923411
-0.448474 0.172883 -0.220576 -0.064848 0.808158 0.585385
-1.193565 -0.026041 -0.081009 0.000026 -0.368915 -0.928248
-0.105534 0.156697 -0.206582 0.064883 -0.788532 -0.611562
-0.031573 0.084789 -0.007166 0.000547 0.987267 -0.152458
-0.211963 0.145358 0.162099 0.103435 0.785958 -0.609566
-0.659619 0.078124 -0.033723 -0.000709 0.907502 -0.417767
-0.741746 0.068736 -0.050159 0.000026 0.799668 -0.598564
-0.047795 -0.025130 0.081296 -0.000270 -0.310179 0.949482
-1.364217 -0.074097 -0.041836 -0.000188 -0.834218 -0.549352
-0.979629 -0.060714 0.059619 0.000589 -0.680167 0.731644
0.359393 0.027025 0.080686 0.000011 0.377583 0.924739
-0.426071 0.071345 -0.046373 0.000381 0.849489 -0.525218
-0.381194 0.096177 0.107226 -0.064848 0.808158 -0.585385
0.488302 -0.030430 0.079464 0.000276 -0.390930 0.919295
-0.449224 -0.141668 0.185637 -0.040611 0.776824 0.628407
1.648185 -0.143712 -0.165126 -0.000000 -0.790197 0.612853
-0.238788 -0.069473 -0.108255 0.064883 0.788532 -0.611562
1.223744 -0.081721 -0.023710 -0.000642 -0.955762 -0.290301
1.309297 -0.037543 0.076361 0.000057 -0.457913 0.887723
-0.210703 0.324809 0.427447 -0.040611 -0.776824 0.628407
-1.253749 -0.018339 0.083092 0.000654 -0.250888 0.966919
-1.331771 0.074897 0.040385 -0.000004 0.865181 0.499287
-0.202654 0.006873 -0.084813 0.002264 0.134134 -0.990190
1.503143 0.084817 0.006822 -0.000126 0.996693 0.066955
-0.362685 -0.063976 0.095188 -0.040611 0.776824 0.628407
-1.645391 0.067063 -0.052375 -0.000032 0.797667 -0.601204
-0.699735 -0.049320 0.069341 0.000060 -0.592252 0.804340
0.899224 0.007869 0.084727 0.000274 0.135652 0.989709
0.768613 0.036276 0.076971 -0.000250 0.479199 0.876430
0.036062 -0.049579 0.069155 0.000072 -0.608374 0.792216
-0.062736 0.156694 0.202037 0.103435 0.785958 -0.609566
-0.278010 0.078937 -0.031773 -0.000684 0.900634 -0.431981
-1.621666 -0.055695 0.064332 0.000021 -0.627401 0.777224
1.747478 -0.042299 -0.008687 1.000000 0.000000 -0.000000
-0.411305 -0.068610 0.050332 0.000065 -0.825467 0.562425
-0.334331 0.130536 -0.149469 -0.064848 0.808158 0.585385
0.595503 -0.085091 0.000000 0.001885 -0.994991 -0.082209
-1.586988 0.049092 0.069502 0.000023 0.546976 0.835848
-1.588657 -0.084401 0.010815 -0.000184 -0.985357 0.161587
0.576665 0.068298 -0.050754 0.000114 0.770577 -0.635570
-0.355300 0.000000 -0.085091 -0.001855 -0.087548 -0.994642
-1.436313 0.073811 -0.042337 0.000030 0.858372 -0.510816
0.141169 0.075851 -0.038563 -0.001371 0.908354 -0.415771
-1.066310 -0.013955 -0.083939 0.000476 -0.155244 -0.986969
0.423877 -0.038062 0.076104 0.000834 -0.414897 0.908574
-0.114472 0.345744 -0.451283 0.064883 -0.788532 -0.611562
-0.065152 0.026971 0.080704 0.000312 0.353042 0.934446
-0.614490 -0.078427 -0.033012 -0.000176 -0.906341 -0.419931
-0.891716 0.080976 0.026143 0.000193 0.929008 0.367015
0.219985 0.036056 0.077075 0.000091 0.435959 0.898706
-0.956805 0.055895 0.064158 -0.000173 0.703030 0.709582
0.945440 -0.083787 -0.014840 -0.000512 -0.971367 -0.233672
-0.920513 -0.083650 0.015596 0.000301 -0.971977 0.230786
1.254589 0.095229 0.129510 -0.145651 -0.526759 0.837443
-0.106425 -0.109423 0.145723 0.064883 0.788532 0.611562
1.692881 0.087441 -0.132916 -0.000000 -0.790197 -0.612853
1.694672 -0.221318 0.285362 -0.145651 -0.942174 -0.301818
1.694672 0.221318 0.285362 -0.145651 0.942174 -0.301818
0.161438 0.046165 -0.071480 0.000790 0.550519 -0.833578
-0.512009 -0.022934 -0.081942 0.000295 -0.209917 -0.976693
1.042507 0.044119 0.072760 -0.000015 0.516746 0.854852
1.418161 -0.090159 0.136421 0.000000 0.790197 0.612853
1.146216 -0.053959 0.084702 -0.000000 0.612853 -0.790197
-1.004055 0.049301 -0.069354 0.000071 0.615047 -0.787023
-0.168177 0.328718 -0.435027 0.029730 -0.785384 -0.617775
1.040802 0.083128 0.018174 -0.000322 0.977523 0.202601
-0.186904 -0.174637 0.238346 0.064883 0.788532 0.611562
-0.783799 0.006976 0.084805 0.000634 0.145962 0.988273
1.105460 0.066135 -0.085272 -0.145651 0.942174 0.301818
-0.482094 -0.071465 -0.084288 -0.064848 -0.808158 0.585385
0.679372 -0.083358 0.017090 -0.000221 -0.970166 0.237898
-0.461248 0.082169 0.022109 0.000141 0.945610 0.321370
-0.639036 -0.008261 0.084689 -0.000959 -0.139330 0.989062
-0.223237 0.138295 -0.151079 0.103435 0.785958 0.609566
0.203735 -0.075300 -0.039629 0.000125 -0.852810 -0.520198
1.694365 0.056287 -0.092747 0.000000 -0.790197 -0.612853
1.159285 0.078953 -0.031732 0.000145 0.900336 -0.432624
1.704945 -0.132476 0.150638 0.000000 -0.790197 -0.612853
-0.255275 -0.419912 -0.540212 -0.064848 -0.808158 0.585385
-1.307857 0.051938 0.067402 0.000150 0.585307 0.809597
0.560483 -0.065453 0.054373 0.000058 -0.809364 0.585396
-0.112606 0.354858 0.449082 0.103435 0.785958 -0.609566
0.280884 -0.082987 0.018807 -0.000248 -0.968773 0.243218
1.701488 0.186484 -0.260620 0.000000 -0.790197 -0.612853
-1.630163 -0.064717 -0.055247 0.000004 -0.740594 -0.670296
1.630227 -0.204345 -0.263477 -0.145651 -0.942174 0.301818
1.090322 -0.024104 0.081606 0.000961 -0.323892 0.944911
0.043741 -0.061680 -0.058618 0.000054 -0.744065 -0.666398
-0.568417 0.061051 -0.059273 -0.000307 0.728585 -0.683383
-1.299442 0.040404 -0.074887 -0.000125 0.490324 -0.870204
0.793000 0.045862 -0.071674 -0.000295 0.591350 -0.805021
-0.204523 0.103583 0.148599 0.064883 -0.788532 0.611562
-1.266281 -0.020173 -0.082666 0.000045 -0.264853 -0.963275
1.074781 0.082962 -0.018918 0.000375 0.958413 -0.281597
-0.333753 0.023827 0.081687 0.000589 0.295948 0.954069
0.095080 -0.000000 0.085091 -0.000070 0.057927 0.997228
-0.839341 -0.076292 0.037683 -0.000062 -0.921961 0.384222
0.477423 0.033775 0.078101 0.001170 0.434230 0.899972
-0.223949 -0.067104 -0.052322 -0.000038 -0.826510 -0.561079
1.747478 0.013247 -0.063380 1.000000 0.000000 0.000000
0.623058 0.016263 0.083523 0.000021 0.251988 0.966592
-0.321765 0.251024 -0.314418 -0.064848 0.808158 0.585385
-0.311998 -0.252176 0.331112 -0.040611 0.776824 0.628407
1.574803 -0.113791 -0.126547 -0.000000 -0.790197 0.612853
-0.336314 0.070684 0.047374 -0.000429 0.791238 0.609690
1.380392 0.060524 0.059811 -0.000499 0.746468 0.663650
-0.480264 0.102599 -0.127067 -0.064848 0.808158 0.585385
1.704394 -0.052407 0.087744 0.000000 0.790197 0.612853
-0.654539 -0.075420 0.039401 0.000026 -0.913608 0.403781
-1.417661 -0.084284 0.011694 0.000641 -0.984747 0.165598
-1.071189 0.047393 -0.070672 0.000367 0.605071 -0.794904
1.316265 0.066372 -0.105751 -0.000000 -0.790197 -0.612853
-1.044943 0.056507 0.063620 0.000419 0.628903 0.776031
-0.397369 -0.073708 -0.042516 -0.000166 -0.850137 -0.524558
1.724587 -0.088684 0.127795 0.368812 0.729803 0.575643
0.225190 0.085091 -0.000000 0.000508 0.997509 -0.054605
-0.248335 0.384324 -0.498586 -0.040611 -0.776824 -0.628407
1.381609 -0.064984 -0.054933 -0.000166 -0.781187 -0.622498
1.413213 0.084522 -0.009831 -0.000337 0.986856 -0.153138
1.677895 0.118159 0.172524 -0.000000 -0.790197 0.612853
0.607611 0.052818 0.066714 0.000073 0.576677 0.815674
-1.388821 0.082375 -0.021327 -0.000368 0.948816 -0.311988
-0.079123 -0.265321 -0.343837 0.064883 0.788532 -0.611562
-0.317172 0.298556 -0.388112 -0.040611 -0.776824 -0.628407
1.307662 0.051516 0.086596 -0.000000 -0.790197 0.612853
0.762212 -0.077432 0.035281 0.000110 -0.879846 0.472959
1.500008 0.086283 0.131423 0.000000 -0.790197 0.612853
-0.310908 -0.182042 0.217982 -0.064848 -0.808158 -0.585385
-0.186799 0.175808 -0.205630 0.103435 0.785958 0.609566
-1.285193 -0.071988 -0.045368 0.000582 -0.810363 -0.584403
-0.155479 -0.518389 0.670316 -0.040611 0.776824 0.628407
-1.393086 -0.033592 0.078180 -0.002366 -0.435488 0.898116
-0.383817 -0.237827 -0.303073 -0.064848 -0.808158 0.585385
0.277926 0.082256 0.021783 0.002788 0.976762 0.207412
-0.515095 0.085905 -0.112447 -0.040611 -0.776824 -0.628407
-0.260420 0.226945 -0.274380 -0.064848 0.808158 0.585385
1.747478 -0.028291 0.081018 -0.006749 -0.381392 0.923250
-1.372606 0.015504 0.083667 -0.000270 0.207024 0.977181
1.334658 -0.077942 -0.080324 0.000000 -0.790197 0.612853
1.403504 -0.024587 0.081462 -0.000510 -0.304220 0.951461
0.982516 0.008505 -0.084665 0.000775 0.148767 -0.987716
1.211623 -0.057008 -0.093677 0.000000 0.790197 -0.612853
-0.326174 -0.201418 -0.246423 -0.064848 -0.808158 0.585385
-0.376408 0.144067 -0.172810 -0.064848 0.808158 0.585385
-0.498585 -0.099768 -0.125188 -0.064848 -0.808158 0.585385
-0.388946 0.270805 -0.349169 -0.064848 0.808158 0.585385
1.648640 0.209195 0.269730 -0.145651 0.942174 -0.301818
0.240467 -0.078920 0.031815 0.000211 -0.915190 0.400411
-1.636901 0.079902 0.029262 -0.000008 0.925902 0.374721
-0.164659 -0.406566 -0.531488 -0.040611 0.776824 -0.628407
1.206339 -0.056774 0.093376 -0.054351 0.701238 0.703909
1.336128 -0.000000 -0.085091 -0.001237 -0.073134 -0.996014
-1.145388 0.072606 0.044372 -0.000346 0.816225 0.575744
-0.265422 -0.105240 -0.106913 -0.064848 -0.808158 0.585385
-0.318523 -0.085505 -0.085550 -0.064848 -0.808158 0.585385
1.182637 0.079122 0.088569 -0.145651 0.942174 -0.301818
-0.419906 -0.105241 0.124028 -0.064848 -0.808158 -0.585385
-1.054320 -0.080792 0.026706 -0.000214 -0.949298 0.311320
-1.247345 -0.079096 -0.031375 0.000365 -0.901218 -0.430922
-0.509975 0.101545 0.132111 -0.040611 -0.776824 0.628407
1.694672 -0.221318 -0.285362 -0.145651 -0.942174 0.301818
1.562901 0.103000 0.112633 0.000000 0.790197 -0.612853
0.360595 -0.084730 0.007835 0.000619 -0.997336 0.056804
-0.114863 0.404548 -0.512768 0.103435 0.785958 0.609566
-0.150919 -0.078609 0.086394 0.103435 -0.785958 -0.609566
1.461302 -0.148845 0.171745 -0.125336 -0.925647 -0.348823
-0.235269 -0.175121 -0.240818 -0.040611 0.776824 -0.628407
0.992094 0.076611 -0.037030 0.000217 0.903934 -0.425136
-1.676416 0.048296 0.070057 0.004465 0.624469 0.779357
-0.310363 0.321513 0.410469 -0.064848 0.808158 -0.585385
0.066113 0.028233 0.080271 0.000462 0.302785 0.951732
-0.589896 -0.081882 0.023149 -0.000476 -0.949974 0.308775
-0.187888 0.243737 0.293032 0.103435 0.785958 -0.609566
-0.158904 0.426875 0.539149 -0.064848 0.808158 -0.585385
0.129145 0.007913 -0.084723 -0.001576 0.152175 -0.987342
-0.127667 0.082575 -0.020541 0.000060 0.951427 -0.304462
-0.130252 0.206357 -0.254615 0.103435 0.785958 0.609566
-0.220965 -0.370812 0.468626 -0.064848 -0.808158 -0.585385
-0.393103 0.053631 0.066089 -0.000000 -0.612853 -0.790197
1.354659 0.083902 -0.014177 0.000621 0.971215 -0.233595
-0.429693 -0.167406 -0.210934 -0.064848 -0.808158 0.585385
-1.676416 0.085091 -0.000000 0.000839 0.997805 -0.040916
-0.654354 0.051957 -0.067387 0.000337 0.572096 -0.818782
1.657959 0.155730 -0.220967 -0.000000 -0.790197 -0.612853
-0.097171 -0.509602 -0.651225 0.103435 -0.785958 0.609566
-0.144098 -0.096769 0.133403 0.064883 0.788532 0.611562
-0.270138 0.238692 0.317149 -0.040611 -0.776824 0.628407
1.701633 -0.143351 -0.205005 0.000000 0.790197 -0.612853
-0.213709 -0.096044 0.139854 0.064883 0.788532 0.611562
1.583211 0.136560 -0.155905 -0.000000 0.790197 0.612853
-0.336766 -0.113459 -0.158033 -0.040611 0.776824 -0.628407
-0.268207 0.077487 -0.117996 -0.040611 -0.776824 -0.628407
-0.100693 -0.346148 -0.439874 0.103435 -0.785958 0.609566
-0.193305 -0.399480 0.505139 -0.064848 -0.808158 -0.585385
-0.409862 0.096980 -0.132938 -0.040611 -0.776824 -0.628407
1.415835 0.144210 -0.179217 -0.145651 0.942174 0.301818
-0.189411 -0.327313 -0.431919 -0.040611 0.776824 -0.628407
-0.307607 0.063576 -0.098253 -0.040611 -0.776824 -0.628407
-0.386465 0.232094 0.295451 -0.064848 0.808158 -0.585385
1.518732 -0.122322 0.137547 -0.000000 -0.790197 -0.612853
1.249386 -0.009751 -0.084531 -0.000824 -0.184308 -0.981542
0.585494 0.000000 -0.085091 -0.000974 -0.032986 -0.998468
-0.101763 -0.142980 0.188495 0.064883 0.788532 0.611562
-0.252467 0.088961 0.133197 -0.040611 -0.776824 0.628407
