-0.739853 -0.008872 -0.101826 0.000485 -0.112570 -0.992856
0.168132 -0.442076 -0.448215 -0.040254 0.691879 -0.720890
1.119630 -0.165208 0.154730 -0.129291 -0.829791 -0.542891
-0.028046 0.279130 -0.280873 -0.040254 -0.691879 -0.720890
0.471397 -0.528183 -0.531481 0.052485 0.708326 -0.703931
-0.071844 0.024493 -0.099233 0.000129 0.212351 -0.976469
-0.075731 0.041413 0.093446 0.000356 0.354440 0.934254
0.404644 -0.261310 -0.256450 0.068386 -0.707643 0.703253
0.251232 -0.197623 -0.215272 0.052485 0.708326 -0.703931
0.461225 0.111675 -0.113131 0.052485 -0.708326 -0.703931
-0.047620 -0.059240 0.083293 -0.000011 -0.601407 0.797949
-1.003359 0.009915 0.101729 -0.000055 0.125823 0.991112
0.938354 0.095528 -0.036352 0.000061 0.943510 -0.328956
-0.521780 0.058057 -0.084122 -0.000054 0.585921 -0.809458
1.496180 0.068373 -0.068612 0.132857 0.719740 -0.680317
-1.465980 -0.021509 -0.099532 -0.082418 -0.192077 -0.976238
0.156856 -0.114091 0.090003 -0.052460 -0.729691 -0.681761
1.124739 -0.119962 -0.105365 0.000000 -0.709304 0.704903
-0.035031 -0.100776 -0.017070 0.000035 -0.992998 -0.111268
0.382871 -0.275404 0.268515 0.068386 -0.707643 -0.703253
0.036008 0.138224 -0.149214 -0.040254 -0.691879 -0.720890
1.455188 0.213971 -0.199960 -0.000000 0.709304 0.704903
0.404139 -0.595313 -0.604045 0.052485 0.708326 -0.703931
0.230738 -0.042557 -0.092930 -0.000373 -0.396400 -0.917291
0.239531 -0.163414 -0.141887 0.068386 -0.707643 0.703253
0.263304 -0.375185 -0.389331 -0.040254 0.691879 -0.720890
0.386983 0.615665 -0.611300 0.068386 0.707643 0.703253
-1.126395 0.016968 0.100793 -0.001973 0.218357 0.975062
-0.585596 0.102211 -0.000000 -0.000152 0.999144 -0.022029
0.449683 -0.214168 -0.213394 0.068386 -0.707643 0.703253
0.176306 -0.273420 0.286804 -0.040254 0.691879 0.720890
-0.495834 -0.054064 0.086742 0.001604 -0.513054 0.857513
0.082157 0.262825 -0.271377 -0.040254 -0.691879 -0.720890
0.175367 -0.476571 0.476543 -0.052460 -0.729691 -0.681761
0.313233 -0.217989 -0.203970 0.068386 -0.707643 0.703253
0.262764 0.321525 -0.337800 -0.040254 -0.691879 -0.720890
1.199756 0.139116 -0.155331 -0.000000 -0.709304 -0.704903
0.168358 -0.313162 -0.302184 -0.052460 -0.729691 0.681761
-1.003830 -0.043881 -0.092312 0.000023 -0.449073 -0.892611
1.453313 -0.139251 -0.124775 0.000000 -0.709304 0.704903
0.992768 0.028025 0.098294 -0.000063 0.246531 0.968322
0.185188 -0.102211 -0.000000 0.000322 -0.997361 -0.055775
1.360082 -0.161792 -0.178149 -0.000000 0.709304 -0.704903
0.347441 0.642662 -0.650741 -0.040254 -0.691879 -0.720890
-0.097393 -0.162643 -0.161533 -0.052460 -0.729691 0.681761
1.084915 -0.041623 0.093352 -0.000112 -0.381389 0.923707
-1.334471 0.030126 0.097671 -0.000115 0.256590 0.965747
-0.565565 -0.050365 -0.088941 -0.000005 -0.516254 -0.855511
0.463166 -0.616665 -0.621128 0.052485 0.708326 -0.703931
-0.676211 -0.094615 -0.038668 -0.000034 -0.913929 -0.403915
-0.834655 0.097491 0.030703 0.000116 0.967089 0.251754
-1.368760 -0.078257 0.065749 -0.000005 -0.743949 0.667051
1.328412 -0.010186 0.101703 0.000159 -0.158055 0.986477
0.291154 0.574627 0.582302 -0.040254 -0.691879 0.720890
1.521139 -0.137377 0.138235 0.238005 -0.691055 -0.682493
0.287978 -0.134220 -0.117222 0.068386 -0.707643 0.703253
0.511507 0.101020 0.015561 -0.000100 0.983206 0.178263
-0.642474 0.096461 0.033799 0.000000 0.922840 0.383126
-1.302950 -0.033001 -0.096737 -0.000126 -0.300522 -0.952992
-0.272622 -0.046975 0.090777 0.000057 -0.488014 0.871942
-0.725607 0.064315 -0.079440 0.000011 0.650901 -0.758117
0.323541 0.219993 0.206989 0.068386 0.707643 -0.703253
0.471397 -0.626428 0.630339 0.068386 -0.707643 -0.703253
-0.843984 -0.090276 0.047932 0.000307 -0.906252 0.421038
0.082963 -0.162714 -0.147730 -0.052460 -0.729691 0.681761
0.385896 -0.080480 -0.063009 -0.000497 -0.805345 -0.591587
0.781596 0.045664 0.091444 0.000520 0.474465 0.878789
-0.406712 -0.015659 -0.101005 -0.001290 -0.195415 -0.979527
1.423029 -0.163982 0.180352 0.000000 0.709304 0.704903
0.879874 -0.014574 0.101167 0.000735 -0.156930 0.986680
1.434111 -0.017758 -0.100657 0.000558 -0.138282 -0.989663
1.322707 0.235126 0.251940 -0.086507 -0.604842 0.789606
1.322707 -0.235126 -0.251940 -0.043410 0.658595 -0.749108
-1.367849 0.044230 -0.092146 -0.000243 0.457232 -0.888474
-0.254999 -0.100560 -0.018299 0.000596 -0.987298 -0.153263
-0.463819 -0.068831 -0.075561 0.000059 -0.718906 -0.693577
0.739648 0.082096 0.060888 -0.000284 0.787323 0.615386
-0.965109 -0.082596 0.060208 -0.000134 -0.826393 0.561696
-0.630685 -0.008681 -0.101842 0.000015 -0.112861 -0.992808
-0.268274 -0.010586 -0.101662 -0.000463 -0.135740 -0.989699
1.281500 -0.050527 0.088849 -0.000097 -0.469850 0.881845
0.427232 0.468327 -0.466956 0.068386 0.707643 0.703253
-0.987032 0.075915 -0.068440 0.000003 0.762691 -0.645545
0.392855 0.095779 0.035686 -0.000540 0.947603 0.317255
0.182608 -0.123843 -0.098460 -0.052460 -0.729691 0.681761
0.154368 0.092259 -0.066827 -0.052460 0.729691 0.681761
-1.023509 0.092140 0.044241 -0.000080 0.912365 0.407452
-0.327550 -0.082132 0.060840 0.000093 -0.835385 0.548232
0.047606 -0.222221 -0.214142 -0.052460 -0.729691 0.681761
-0.211101 -0.088115 0.051798 0.000098 -0.888448 0.457338
0.189241 0.252777 -0.267713 -0.040254 -0.691879 -0.720890
-0.680709 -0.041956 -0.093203 0.000004 -0.384038 -0.922459
-0.839992 -0.009916 -0.101729 0.000038 -0.157155 -0.986617
0.982374 0.117308 -0.114204 -0.129291 0.829791 0.542891
-0.839789 0.058719 -0.083661 0.000076 0.548201 -0.835434
0.189985 0.541027 -0.544404 -0.040254 -0.691879 -0.720890
0.159562 0.504483 -0.507632 -0.040254 -0.691879 -0.720890
0.174773 -0.522755 -0.526018 -0.040254 0.691879 -0.720890
-0.535836 0.041826 0.093262 0.000093 0.430007 0.901943
0.228899 0.389943 -0.401574 -0.040254 -0.691879 -0.720890
-1.156177 -0.102211 0.000000 -0.000547 -0.996882 -0.067135
0.415027 0.689355 0.697861 0.052485 -0.708326 0.703931
0.411037 -0.338506 -0.334749 0.068386 -0.707643 0.703253
1.211064 0.098926 0.025707 0.000080 0.974067 0.222750
0.471397 -0.142224 0.143111 0.068386 -0.707643 -0.703253
-0.195504 0.028072 0.098281 -0.000167 0.245116 0.968635
1.166295 -0.091752 -0.045041 0.000140 -0.907703 -0.417755
0.039325 0.087463 -0.052891 0.000079 0.882690 -0.468271
0.364361 0.134024 0.142841 0.052485 -0.708326 0.703931
0.023497 -0.042858 0.092792 -0.000377 -0.401030 0.915170
0.471397 -0.415904 0.418501 0.068386 -0.707643 -0.703253
0.471397 0.675550 -0.679767 0.068386 0.707643 0.703253
0.471397 -0.472044 -0.474991 0.052485 0.708326 -0.703931
0.471397 0.198363 -0.199602 0.068386 0.707643 0.703253
0.471397 0.268538 -0.270214 0.068386 0.707643 0.703253
0.471397 0.149241 0.150173 0.068386 0.707643 -0.703253
1.321815 0.019716 -0.100292 -0.000131 0.220695 -0.974505
-0.790399 0.082644 -0.060142 0.000129 0.790679 -0.610942
0.140150 -0.038353 -0.094743 0.000304 -0.386585 -0.921460
0.744967 -0.019444 0.100345 0.000394 -0.243314 0.969102
1.140074 0.084570 -0.069752 0.000000 0.709304 0.704903
1.163402 -0.048039 0.090219 -0.000630 -0.445623 0.894254
1.391129 -0.104673 0.089980 -0.000000 -0.709304 -0.704903
-0.139925 0.064954 0.078918 -0.000179 0.589955 0.806449
0.136390 0.238916 0.251459 -0.040254 -0.691879 0.720890
-0.437119 0.036370 0.095522 0.000223 0.379046 0.924497
1.463700 -0.279752 -0.296844 -0.000000 0.709304 -0.704903
1.463700 0.295098 0.281594 0.000000 0.709304 -0.704903
-0.898626 -0.067298 0.076930 0.000796 -0.678106 0.733840
-0.168520 0.100180 0.020275 0.000058 0.974070 0.222431
1.369565 -0.095758 0.035743 -0.000000 -0.914900 0.401735
-1.006647 -0.051445 0.088321 -0.000138 -0.523877 0.851056
-0.113110 -0.098102 -0.102380 -0.040254 0.691879 -0.720890
-0.784067 -0.086278 -0.054802 0.000005 -0.811472 -0.583091
-0.025558 0.081569 -0.061592 0.001046 0.817268 -0.574946
1.518228 0.298425 -0.300288 0.238005 -0.686781 -0.686794
-1.529093 0.088408 0.017474 -0.327244 0.926080 0.180255
-0.252254 0.079012 -0.064841 0.000123 0.757070 -0.652143
0.671911 -0.039512 -0.094265 0.000821 -0.439501 -0.897318
0.333848 -0.221997 0.210008 0.068386 -0.707643 -0.703253
0.230996 0.506242 0.504018 -0.052460 0.729691 -0.681761
0.372843 0.224087 -0.215902 0.068386 0.707643 0.703253
-0.729738 -0.101056 -0.015326 -0.000174 -0.977954 -0.205204
-0.945213 -0.012027 -0.101501 -0.001114 -0.155450 -0.987017
-0.002694 0.309583 0.311516 -0.052460 0.729691 -0.681761
0.187349 0.293574 0.279758 -0.052460 0.729691 -0.681761
0.347164 0.104286 -0.092856 0.068386 0.707643 0.703253
-0.692883 -0.069648 0.074809 0.000555 -0.695429 0.717437
-0.489804 0.006434 0.102009 0.001368 0.092480 0.995080
0.036497 0.106549 0.091192 -0.052460 0.729691 -0.681761
0.302859 0.095449 0.079656 0.068386 0.707643 -0.703253
0.555011 -0.031395 -0.097270 -0.000227 -0.358926 -0.932530
-1.162899 -0.015656 -0.101005 -0.001219 -0.103128 -0.994006
0.141502 0.111262 0.129227 -0.040254 -0.691879 0.720890
1.236925 -0.143127 0.128674 -0.000000 -0.709304 -0.704903
-0.438906 0.090310 0.047867 -0.000908 0.873433 0.485912
0.311725 0.166371 0.179315 0.052485 -0.708326 0.703931
0.093397 0.156407 -0.140177 -0.052460 0.729691 0.681761
0.375119 -0.430206 0.440071 0.052485 0.708326 0.703931
1.290199 -0.218006 0.204020 0.000000 -0.709304 -0.704903
0.404278 -0.608426 0.617229 0.052485 0.708326 0.703931
-0.525535 -0.102211 0.000000 -0.000052 -0.999231 -0.019444
-1.337800 -0.101937 -0.007490 0.000470 -0.995252 -0.091015
0.209473 -0.241510 -0.222331 -0.052460 -0.729691 0.681761
0.308456 0.465008 0.453925 -0.052460 0.729691 -0.681761
0.554592 0.075808 -0.068559 -0.000326 0.719985 -0.692866
0.312638 -0.135172 0.147853 0.052485 0.708326 0.703931
0.359194 -0.498676 -0.490879 0.068386 -0.707643 0.703253
0.863418 -0.099643 0.022768 0.000115 -0.968617 0.245280
0.730457 0.076249 -0.068068 0.000197 0.727812 -0.684677
0.287154 -0.428477 0.441810 -0.040254 0.691879 0.720890
0.323483 -0.387252 -0.375286 0.068386 -0.707643 0.703253
0.175068 -0.223521 0.205725 -0.052460 -0.729691 -0.681761
1.083743 -0.084327 -0.057759 -0.000102 -0.834207 -0.550102
-1.494697 -0.075733 0.063012 -0.142540 -0.764802 0.626669
-1.039797 0.052292 0.087822 0.000091 0.487166 0.872404
0.235619 -0.595842 -0.599562 -0.040254 0.691879 -0.720890
0.205196 -0.559298 0.562790 -0.052460 -0.729691 -0.681761
0.471397 0.549236 -0.552665 0.068386 0.707643 0.703253
-0.696318 0.101938 0.007474 -0.001005 0.992863 0.113927
0.344802 -0.332070 -0.343583 0.052485 0.708326 -0.703931
1.419647 0.220423 0.206453 0.000000 0.709304 -0.704903
1.419647 -0.220423 -0.206453 0.000000 -0.709304 0.704903
-0.633292 0.063467 0.080119 -0.000126 0.596403 0.801752
0.188328 0.472335 0.478385 -0.040254 -0.691879 0.720890
0.067204 -0.218838 0.228326 -0.040254 0.691879 0.720890
0.232670 -0.094906 0.113298 0.052485 0.708326 0.703931
-1.354120 0.100859 0.016573 0.000077 0.975550 0.216358
0.172579 -0.427793 0.434756 -0.040254 0.691879 0.720890
0.840521 -0.054556 0.086434 0.001343 -0.553136 0.832211
1.333650 0.099807 0.115776 -0.000000 -0.709304 0.704903
1.423464 0.281075 -0.298176 -0.086507 -0.604842 -0.789606
0.688199 -0.101948 0.007330 0.000323 -0.991435 0.125282
1.262513 0.008725 -0.101838 0.001452 0.140635 -0.989222
1.469043 -0.097401 -0.024842 0.134233 -0.971002 -0.194325
0.419898 0.167692 0.172579 0.052485 -0.708326 0.703931
1.229487 0.202320 0.215599 -0.129291 -0.548045 0.826396
1.229487 -0.202320 -0.215599 -0.129291 0.548045 -0.826396
1.094973 0.077596 0.093427 -0.000000 -0.709304 0.704903
0.420910 0.541774 0.540247 0.068386 0.707643 -0.703253
0.320445 0.097579 -0.030420 -0.000462 0.945879 -0.321986
1.242389 0.093311 -0.041716 0.000222 0.896907 -0.440599
0.443560 0.090737 -0.047052 -0.000046 0.899878 -0.434274
1.181936 -0.099383 0.115349 0.000000 0.709304 0.704903
-1.221182 0.025692 0.098930 -0.000521 0.224495 0.973737
-0.083822 0.212133 0.213458 -0.052460 0.729691 -0.681761
0.253487 0.267801 -0.285720 -0.009336 -0.697897 -0.715782
0.104705 -0.116938 -0.097063 -0.052460 -0.729691 0.681761
0.471397 -0.212398 0.213724 0.068386 -0.707643 -0.703253
1.099555 0.095362 0.036788 0.000066 0.943493 0.328998
-0.097782 -0.030361 0.097598 -0.000199 -0.317966 0.947338
1.348050 0.074550 -0.090361 0.000000 -0.709304 -0.704903
1.306546 0.108234 -0.124256 0.000000 -0.709304 -0.704903
1.375954 0.250262 -0.267171 0.000000 -0.709304 -0.704903
0.241937 0.127132 -0.105612 0.068386 0.707643 0.703253
-0.385392 -0.000000 0.102211 -0.000422 0.031340 0.998759
1.247093 -0.127016 -0.143156 0.000000 0.709304 -0.704903
0.080902 0.339259 -0.336845 -0.052460 0.729691 0.681761
1.156350 0.095432 0.111374 -0.000000 -0.709304 0.704903
-1.050526 -0.006867 -0.101980 0.000120 -0.118926 -0.992267
0.250559 -0.433929 -0.444999 -0.040254 0.691879 -0.720890
1.483148 0.092801 0.033373 0.133591 0.942110 0.304876
1.317140 -0.271046 0.269462 -0.129291 -0.829791 -0.542891
0.211920 0.431265 0.440285 -0.040254 -0.691879 0.720890
0.024908 -0.013299 -0.101342 0.000265 -0.155072 -0.987210
0.271254 -0.074775 -0.069683 -0.000095 -0.767777 -0.639481
0.323606 -0.622461 -0.630023 -0.040254 0.691879 -0.720890
-0.021585 -0.101261 0.110522 -0.040254 0.691879 0.720890
1.339099 -0.118854 0.104249 0.000000 -0.709304 -0.704903
1.388803 0.076683 0.067579 -0.000225 0.767103 0.640367
0.206034 -0.352402 0.364267 -0.040254 0.691879 0.720890
0.187432 -0.142444 -0.161719 -0.040254 0.691879 -0.720890
0.234945 -0.336535 -0.322077 -0.052460 -0.729691 0.681761
1.448782 0.046001 -0.091275 -0.000992 0.479192 -0.876640
-0.069681 -0.093214 0.041933 -0.000017 -0.932882 0.357890
0.133479 0.097736 0.029914 0.000184 0.937600 0.345429
-0.390646 -0.100270 -0.019827 0.000129 -0.975813 -0.214767
1.407066 0.129942 -0.146099 -0.000000 -0.709304 -0.704903
0.289843 0.237091 -0.220917 0.068386 0.707643 0.703253
0.422129 -0.530783 0.537771 0.052485 0.708326 0.703931
-0.438543 -0.073090 0.071449 -0.000715 -0.676178 0.735744
-1.022984 -0.097711 -0.029994 0.000026 -0.937329 -0.346162
1.522783 0.015883 -0.053593 1.000000 0.000000 0.000000
1.299703 0.095360 -0.036791 0.000515 0.920194 -0.389641
0.320783 0.544247 0.537787 -0.052460 0.729691 -0.681761
0.471397 -0.675550 0.679767 0.068386 -0.707643 -0.703253
1.376811 0.256434 0.242689 0.000000 0.709304 -0.704903
1.376811 -0.256434 -0.242689 0.000000 -0.709304 0.704903
-0.691991 0.033655 0.096511 -0.000101 0.378450 0.924819
-0.397001 0.083252 -0.059299 0.000156 0.845429 -0.532597
0.391749 -0.092244 0.098758 0.052485 0.708326 0.703931
0.213589 -0.090641 -0.066137 0.068386 -0.707643 0.703253
1.198659 0.223288 -0.224682 -0.129291 -0.548045 -0.826396
-0.126150 0.101124 -0.014870 -0.000084 0.982907 -0.179933
1.231726 0.125267 -0.110703 -0.000000 0.709304 0.704903
0.147167 0.328705 0.320450 -0.052460 0.729691 -0.681761
0.379093 0.681621 -0.680332 -0.052460 0.729691 0.681761
0.411763 0.532669 -0.540441 0.052485 -0.708326 -0.703931
0.113928 -0.449667 -0.452475 -0.040254 0.691879 -0.720890
0.408793 0.587116 0.584694 0.068386 0.707643 -0.703253
0.336832 -0.151168 -0.139027 0.068386 -0.707643 0.703253
1.196851 -0.169575 0.185980 0.000000 0.709304 0.704903
-0.577402 -0.062589 0.080807 0.000271 -0.653815 0.755648
1.487454 -0.088851 0.041439 0.133525 -0.919800 0.366678
1.335425 0.043342 0.092567 -0.000543 0.402762 0.914543
0.006778 -0.287980 0.291311 -0.040254 0.691879 0.720890
1.281386 -0.092352 -0.043799 -0.000019 -0.877400 -0.478110
-0.585618 0.086166 -0.054978 0.000235 0.811649 -0.582851
-1.446675 -0.102007 -0.006454 0.001070 -0.992451 -0.116390
0.141014 -0.176469 -0.157986 -0.052460 -0.729691 0.681761
0.159604 -0.198247 -0.213723 -0.040254 0.691879 -0.720890
-0.864687 0.070767 0.073751 -0.000067 0.673174 0.738448
0.073364 -0.400942 -0.403446 -0.040254 0.691879 -0.720890
-1.152997 0.039120 -0.094429 -0.000063 0.411373 -0.910627
0.002945 -0.133089 -0.142439 -0.040254 0.691879 -0.720890
-0.834335 -0.098463 -0.027426 0.000293 -0.970576 -0.237743
-1.253888 0.051830 -0.088095 -0.000043 0.531117 -0.846363
0.841962 -0.057729 -0.084348 -0.000056 -0.535961 -0.843014
0.085792 0.210674 -0.221528 -0.040254 -0.691879 -0.720890
-0.006744 0.177960 0.184964 -0.040254 -0.691879 0.720890
0.417170 0.024113 -0.099326 -0.000223 0.256798 -0.965652
0.420463 0.140586 -0.136511 0.068386 0.707643 0.703253
0.784043 -0.057096 0.084777 0.000117 -0.601490 0.797991
0.134209 0.474030 0.476989 -0.052460 0.729691 -0.681761
1.397946 0.209721 -0.226377 0.000000 -0.709304 -0.704903
0.051102 -0.296585 -0.302045 -0.040254 0.691879 -0.720890
1.066363 0.043283 -0.092594 0.000800 0.372219 -0.927250
0.757677 -0.095463 0.036524 0.000228 -0.925585 0.376614
-0.935262 0.051943 -0.088029 0.000109 0.532825 -0.845284
0.624017 0.101097 -0.015053 0.000255 0.987655 -0.151541
-0.581289 -0.091335 -0.045881 0.000002 -0.904944 -0.423657
1.091875 -0.134646 0.120140 0.000000 -0.709304 -0.704903
1.098142 -0.177449 -0.178557 -0.129291 0.548045 -0.826396
-1.120504 -0.041612 0.093357 -0.000027 -0.457136 0.888535
0.213478 0.084606 -0.057350 -0.000043 0.809752 -0.585523
1.474484 0.268574 -0.285597 0.159246 -0.697669 -0.696200
0.433871 -0.282918 0.287482 0.052485 0.708326 0.703931
-1.137422 0.089538 0.049296 0.000121 0.859779 0.509165
0.507133 -0.093662 -0.040921 0.000118 -0.925676 -0.376321
1.028831 0.101108 0.117086 -0.086507 -0.604842 0.789606
-0.154779 -0.097571 0.030449 0.000311 -0.945990 0.321789
1.463907 0.095962 -0.032171 0.134292 0.944771 -0.296515
0.282710 0.626371 0.628614 -0.052460 0.729691 -0.681761
-0.478367 0.092498 -0.043490 0.000401 0.917629 -0.395643
0.345342 -0.045744 -0.091404 -0.000649 -0.475954 -0.878711
0.417149 0.371352 -0.377715 0.052485 -0.708326 -0.703931
0.106604 -0.072342 0.089926 -0.040254 0.691879 0.720890
-1.428020 0.076572 0.067704 0.000207 0.783872 0.619723
1.153405 0.166126 -0.151817 0.000000 0.709304 0.704903
-0.786176 -0.034969 -0.096043 -0.000000 -0.367954 -0.929003
1.004542 -0.098424 0.083692 0.000000 -0.709304 -0.704903
0.336413 -0.094450 0.105104 0.052485 0.708326 0.703931
-0.588998 0.027232 0.098517 0.000763 0.291981 0.955657
1.369630 0.101262 0.013897 -0.000660 0.980920 0.190758
0.795810 -0.102211 -0.000000 0.000569 -0.998751 -0.030996
0.931067 -0.091338 0.045875 0.000055 -0.882261 0.469074
0.164561 -0.381270 -0.389657 -0.040254 0.691879 -0.720890
0.301021 -0.366926 0.381920 0.052485 0.708326 0.703931
0.471397 0.380817 0.383194 0.068386 0.707643 -0.703253
-0.675364 0.076528 -0.067754 0.000001 0.709620 -0.703457
0.352571 -0.406727 -0.418126 0.052485 0.708326 -0.703931
0.219580 -0.505295 0.503883 -0.052460 -0.729691 -0.681761
1.334029 0.185375 0.171186 0.000000 0.709304 -0.704903
1.506070 -0.176031 -0.182109 0.238005 0.686781 -0.686794
0.888663 0.087778 -0.052365 0.000051 0.872063 -0.487767
1.074470 -0.096830 -0.112781 -0.000000 0.709304 -0.704903
0.226459 -0.047864 0.090312 -0.000036 -0.495357 0.867778
1.475253 0.241350 0.227510 0.079911 0.706611 -0.700792
1.475253 -0.241350 -0.227510 0.079911 -0.706611 0.700792
-0.515543 -0.035353 -0.095903 0.000100 -0.371340 -0.927659
1.000241 0.021347 -0.099957 -0.000216 0.233624 -0.971498
0.471397 -0.472044 0.474991 0.068386 -0.707643 -0.703253
-0.389421 -0.058676 0.083692 0.000109 -0.562221 0.826229
-1.110038 -0.086325 -0.054728 -0.000028 -0.826083 -0.562137
0.325863 0.691253 0.694737 -0.052460 0.729691 -0.681761
0.721676 0.101191 0.014407 0.000130 0.980202 0.194368
0.419104 -0.147459 0.143295 0.068386 -0.707643 -0.703253
1.455365 -0.206649 0.192593 -0.000000 -0.709304 -0.704903
0.251995 -0.094484 0.038987 0.000040 -0.914121 0.403475
-0.017442 -0.096175 -0.105873 -0.040254 0.691879 -0.720890
-0.249422 0.066751 0.077404 0.000030 0.694066 0.718814
0.849433 0.095342 0.036838 -0.000083 0.923338 0.381909
-0.060990 0.135014 0.140717 -0.040254 -0.691879 0.720890
1.409844 0.091959 -0.044618 0.000681 0.916249 -0.398497
1.051555 0.100898 0.016332 0.000054 0.982284 0.183287
1.512462 0.145842 -0.149706 0.238005 -0.686781 -0.686794
-0.939574 0.018800 0.100468 0.000035 0.237866 0.970449
0.257113 0.046505 0.091019 0.000125 0.425120 0.904256
0.211746 -0.173019 0.148851 0.032150 -0.715172 -0.697689
0.264607 0.602747 -0.604722 -0.052460 0.729691 0.681761
1.136156 0.102211 0.000000 -0.000070 0.999179 -0.022748
-0.528000 0.086324 0.054730 0.000474 0.812214 0.581953
-0.122974 -0.088143 -0.051749 -0.000067 -0.871731 -0.488718
0.266582 -0.250587 0.267422 0.052485 0.708326 0.703931
0.610515 -0.008627 0.101847 0.000016 -0.140248 0.989316
1.451294 -0.102521 0.087815 -0.000000 -0.709304 -0.704903
0.161472 0.180981 0.161241 -0.052460 0.729691 -0.681761
-1.201098 -0.089985 -0.048476 -0.000073 -0.895290 -0.443707
0.265244 0.528232 -0.524919 -0.052460 0.729691 0.681761
0.129428 -0.280077 -0.269769 -0.052460 -0.729691 0.681761
0.243666 0.259813 0.239290 -0.012168 0.723276 -0.689825
1.253779 0.121822 0.137929 0.000000 -0.709304 0.704903
0.078222 0.364546 0.368785 -0.040254 -0.691879 0.720890
0.137856 0.404141 0.401907 -0.052460 0.729691 -0.681761
0.347812 -0.188918 -0.178080 0.068386 -0.707643 0.703253
0.421683 -0.345604 0.351468 0.052485 0.708326 0.703931
1.036360 0.096337 -0.034153 -0.000345 0.921233 -0.386994
-1.615993 -0.033881 0.025584 -0.649359 -0.530954 0.537536
0.174388 0.314300 -0.325931 -0.040254 -0.691879 -0.720890
1.346358 -0.145238 -0.130798 0.000000 -0.709304 0.704903
0.666478 0.065101 -0.078798 -0.000197 0.618779 -0.784523
0.064412 -0.322669 0.320358 -0.052460 -0.729691 -0.681761
-1.555060 -0.051264 0.061782 -0.423188 -0.592350 0.684061
0.026729 0.234797 0.229208 -0.052460 0.729691 -0.681761
0.426082 0.691724 -0.699421 0.052485 -0.708326 -0.703931
0.452522 -0.040887 -0.093677 -0.000082 -0.451938 -0.891180
0.670568 0.057720 0.084354 0.000003 0.587052 0.808569
0.292088 -0.608651 0.615008 -0.040254 0.691879 0.720890
-0.891973 0.074018 -0.070487 -0.000209 0.746561 -0.664147
1.399497 -0.105654 -0.090967 0.000000 -0.709304 0.704903
-1.094723 -0.050143 -0.089066 0.000136 -0.472097 -0.880672
-1.254318 -0.016440 -0.100880 -0.000123 -0.186775 -0.981677
0.380754 0.408818 0.402556 0.068386 0.707643 -0.703253
1.290374 -0.103075 0.088373 0.000000 -0.709304 -0.704903
-1.225507 0.097230 0.031518 -0.000387 0.944076 0.327453
-1.250805 -0.095101 0.037455 0.000015 -0.917361 0.396119
1.332062 -0.158621 0.144265 0.000000 -0.709304 -0.704903
-0.789332 0.102001 -0.006558 -0.000103 0.993258 -0.111068
-0.084697 -0.144911 0.148892 -0.040254 0.691879 0.720890
-1.621559 0.037678 -0.000000 -0.645084 0.759193 -0.048966
0.125996 -0.143867 0.159655 -0.040254 0.691879 0.720890
1.312197 0.156586 -0.142217 -0.000000 0.709304 0.704903
0.190191 0.220156 0.200959 -0.052460 0.729691 -0.681761
-0.044063 0.098231 -0.106359 -0.040254 -0.691879 -0.720890
-1.197015 -0.089257 0.049804 -0.000356 -0.885380 0.463260
1.510485 -0.099808 -0.096479 0.238005 -0.691055 0.682493
-0.890196 0.100771 -0.017097 0.000058 0.979418 -0.197806
0.126163 -0.377747 0.374557 -0.052460 -0.729691 -0.681761
0.123498 -0.100011 -0.021096 -0.000063 -0.973313 -0.226093
1.297518 0.223639 -0.240381 -0.086507 -0.604842 -0.789606
0.248316 0.476109 -0.470434 -0.052460 0.729691 0.681761
1.394005 0.092364 -0.108287 0.000000 -0.709304 -0.704903
1.497501 0.220155 -0.229203 0.238005 -0.686781 -0.686794
0.357825 0.019773 0.100280 -0.000280 0.221948 0.974185
-1.391406 -0.077410 -0.066744 0.001239 -0.718845 -0.694115
0.513929 0.034462 -0.096227 0.000726 0.388006 -0.920854
-1.391350 0.035281 0.095929 -0.000003 0.397530 0.916748
0.045760 -0.058807 -0.083600 -0.000267 -0.620083 -0.783541
1.253675 0.086102 0.055078 -0.000115 0.816784 0.576094
1.477582 -0.041307 0.090376 0.133645 -0.389207 0.910476
0.225610 -0.309523 0.324206 -0.040254 0.691879 0.720890
1.462973 -0.302617 0.289159 -0.000000 -0.709304 -0.704903
-1.348901 -0.009284 -0.101789 -0.000199 -0.118528 -0.992107
-0.132704 0.093451 -0.096822 -0.040254 -0.691879 -0.720890
-0.238387 0.095852 0.035490 0.000220 0.926083 0.375287
0.024803 -0.175460 0.165848 -0.052460 -0.729691 -0.681761
1.173941 0.051923 -0.088040 -0.000072 0.555896 -0.830338
0.325425 -0.098031 -0.028931 0.000032 -0.951134 -0.306202
0.965330 -0.014212 0.101219 0.001511 -0.157550 0.986655
0.190137 0.366522 0.357620 -0.052460 0.729691 -0.681761
1.371790 -0.180965 0.166748 -0.000000 -0.709304 -0.704903
1.143826 0.051752 0.088141 -0.000169 0.528761 0.847768
0.010335 0.088884 0.050467 -0.000037 0.885229 0.463460
0.282113 -0.501934 -0.495474 -0.052460 -0.729691 0.681761
1.405073 -0.173223 -0.158959 -0.000000 -0.709304 0.704903
0.394496 0.251285 -0.258588 0.052485 -0.708326 -0.703931
-1.199411 -0.048352 -0.090051 0.000297 -0.499242 -0.865582
1.256079 -0.057576 -0.084452 -0.000031 -0.582152 -0.812104
0.362277 0.512295 0.523629 0.052485 -0.708326 0.703931
1.117024 -0.093493 0.041305 -0.000026 -0.904969 0.423615
0.095585 0.176490 0.189267 -0.040254 -0.691879 0.720890
0.331959 0.711564 -0.716006 -0.040254 -0.691879 -0.720890
1.150882 -0.009554 -0.101764 -0.000181 -0.151066 -0.987634
-0.059999 0.195488 -0.198812 -0.040254 -0.691879 -0.720890
1.012061 -0.048177 -0.090145 0.000865 -0.448379 -0.893181
0.320680 0.120971 -0.132964 0.052485 -0.708326 -0.703931
0.360476 0.461167 0.453259 0.068386 0.707643 -0.703253
1.100605 -0.016284 -0.100906 0.000287 -0.211155 -0.976737
-1.492778 0.031129 0.093813 -0.184357 0.273878 0.942751
1.522783 -0.047230 -0.026129 1.000000 0.000000 0.000000
-0.919175 0.064954 0.078919 -0.000111 0.656710 0.753103
0.299070 -0.339760 0.325124 0.068386 -0.707643 -0.703253
0.930614 -0.101050 0.101681 -0.129291 0.548045 0.826396
1.014378 -0.139249 0.140119 -0.129291 0.548045 0.826396
1.475081 0.349347 -0.351528 -0.129291 -0.548045 -0.826396
1.197131 -0.139458 -0.155675 0.000000 0.709304 -0.704903
0.174130 0.030616 0.097518 0.000063 0.319841 0.946644
0.420682 -0.098222 -0.093903 0.068386 -0.707643 0.703253
0.341782 -0.549022 -0.560554 -0.040254 0.691879 -0.720890
0.471397 -0.549236 0.552665 0.068386 -0.707643 -0.703253
1.416446 0.322607 -0.324621 -0.129291 -0.548045 -0.826396
0.422310 0.335990 0.341748 0.052485 -0.708326 0.703931
0.615627 -0.000000 -0.102211 0.002745 -0.024261 -0.999253
-1.506569 -0.045848 -0.084553 -0.194728 -0.444771 -0.872861
-0.304411 -0.074678 -0.069788 0.000022 -0.750725 -0.659412
1.389316 -0.259961 0.246238 0.000000 -0.709304 -0.704903
-0.431232 -0.099837 0.021903 0.000322 -0.971076 0.235171
0.824667 0.027161 -0.098536 -0.000086 0.290651 -0.955996
-0.528821 -0.085095 0.056622 0.000286 -0.862506 0.504590
0.182970 0.126441 -0.146112 -0.040254 -0.691879 -0.720890
1.346358 0.145238 0.130798 0.000000 0.709304 -0.704903
0.429117 -0.448409 -0.454361 0.052485 0.708326 -0.703931
-1.105620 -0.090028 0.048395 0.000279 -0.891921 0.450523
1.477582 -0.041307 -0.090376 0.133440 -0.389678 -0.910291
1.040315 0.112496 -0.097852 0.000000 0.709304 0.704903
0.432681 -0.146315 -0.150115 0.052485 0.708326 -0.703931
-1.539446 0.053210 -0.068297 -0.348051 0.626927 -0.695141
0.103787 0.437486 0.440217 -0.052460 0.729691 -0.681761
1.041906 0.024530 0.099224 0.000152 0.261506 0.964397
0.372843 0.224087 0.215902 0.068386 0.707643 -0.703253
-1.292854 0.053990 0.086789 0.000192 0.571357 0.819806
1.126616 -0.016738 0.100832 -0.000269 -0.187859 0.981479
0.081655 0.273613 0.266527 -0.052460 0.729691 -0.681761
-0.601092 -0.023911 0.099375 0.000330 -0.288575 0.956667
0.153448 -0.084552 -0.104260 -0.040254 0.691879 -0.720890
0.090766 -0.252864 0.262298 -0.040254 0.691879 0.720890
-0.185232 0.090321 -0.090885 -0.040254 -0.691879 -0.720890
1.498265 0.185537 0.179022 0.238005 0.691055 -0.682493
0.312415 0.446755 -0.434084 0.028114 0.715927 0.696989
-0.308730 0.100460 0.018842 -0.000094 0.976812 0.210293
0.454564 0.057326 -0.084622 0.000043 0.579728 -0.813849
0.429849 0.505335 0.504450 0.068386 0.707643 -0.703253
-0.674955 -0.030457 0.097568 -0.000463 -0.326548 0.944333
-0.008548 -0.239320 0.236764 -0.052460 -0.729691 -0.681761
-0.341846 -0.101187 0.014437 0.000778 -0.979801 0.196130
-1.317276 0.100936 -0.016094 0.000017 0.990098 -0.135159
1.220388 -0.094606 0.038688 0.000178 -0.914853 0.401874
0.425939 -0.686860 0.694538 0.052485 0.708326 0.703931
0.235568 -0.250336 -0.267958 -0.040254 0.691879 -0.720890
0.198326 0.097414 0.030947 -0.000026 0.944966 0.324744
-0.145778 -0.044169 0.092175 0.000044 -0.482079 0.875239
0.368501 0.366513 0.376473 0.052485 -0.708326 0.703931
0.285406 0.357337 0.373435 0.021577 -0.703379 0.710129
-0.804259 -0.072815 0.071729 -0.000600 -0.725979 0.686519
-0.835787 0.026969 0.098589 -0.000358 0.238645 0.970326
0.309552 0.172696 -0.158036 0.068386 0.707643 0.703253
0.071010 -0.335238 -0.340254 -0.040254 0.691879 -0.720890
0.376106 -0.471865 0.465545 0.068386 -0.707643 -0.703253
0.221568 0.178265 -0.198005 -0.009336 -0.697897 -0.715782
-0.015976 0.240769 -0.244729 -0.040254 -0.691879 -0.720890
1.321693 0.101832 0.008794 0.000546 0.988995 0.142375
0.192104 0.095616 0.117037 0.021577 -0.703379 0.710129
0.093470 0.074357 -0.070205 -0.000000 -0.704903 0.709304
0.233077 0.130123 0.148704 0.052485 -0.708326 0.703931
1.517596 0.333436 -0.335517 0.238005 -0.686781 -0.686794
1.463407 0.167561 -0.183954 -0.000000 -0.709304 -0.704903
0.193034 -0.485592 -0.484838 -0.052460 -0.729691 0.681761
0.220269 -0.378571 -0.368197 -0.052460 -0.729691 0.681761
0.254380 -0.197466 0.177596 0.068386 -0.707643 -0.703253
1.477561 0.113639 0.099002 0.079911 0.706611 -0.700792
1.413298 -0.286690 0.300309 -0.129291 0.548045 0.826396
-1.481485 0.067495 -0.074392 -0.133852 0.620731 -0.771035
0.298387 0.049536 -0.089406 0.000336 0.502732 -0.863630
0.194930 0.045985 -0.091283 0.000053 0.422732 -0.905383
-0.207882 -0.086266 -0.054821 -0.000040 -0.832144 -0.553117
1.466705 0.345527 0.347684 -0.129291 -0.548045 0.826396
1.466705 -0.345527 -0.347684 -0.129291 0.548045 -0.826396
1.363778 -0.010051 -0.101716 0.000479 -0.122735 -0.991546
0.923667 -0.042861 0.092790 0.000027 -0.469126 0.882239
0.053613 -0.109086 0.122232 -0.040254 0.691879 0.720890
0.408865 -0.416179 -0.412696 0.068386 -0.707643 0.703253
0.405690 0.089999 0.084171 0.068386 0.707643 -0.703253
0.148140 0.386989 -0.394229 -0.040254 -0.691879 -0.720890
1.431928 0.032870 0.096782 0.001661 0.333333 0.941761
1.376619 -0.028842 0.098058 -0.000066 -0.252788 0.966633
-0.894397 -0.019944 0.100247 -0.000723 -0.157776 0.986539
0.414368 0.268530 0.264661 0.068386 0.707643 -0.703253
1.522783 0.047152 -0.006162 1.000000 -0.000000 -0.000000
0.291991 0.270581 -0.254825 0.068386 0.707643 0.703253
0.347327 0.489932 -0.480926 0.068386 0.707643 0.703253
0.345675 -0.490770 0.503208 0.052485 0.708326 0.703931
-1.486488 0.099800 -0.000000 -0.158071 0.986031 -0.029360
0.805820 0.102211 0.000000 0.000158 0.996739 -0.067670
0.291949 -0.596712 -0.603543 -0.040254 0.691879 -0.720890
1.176197 -0.102211 -0.000000 -0.000888 -0.996604 -0.069305
1.287043 -0.156699 0.173024 0.000000 0.709304 0.704903
0.280683 0.293114 0.309164 0.052485 -0.708326 0.703931
0.615433 -0.086486 -0.054472 -0.000384 -0.861465 -0.505857
0.362777 0.407712 -0.418356 0.052485 -0.708326 -0.703931
-1.555744 0.077463 -0.019896 -0.387467 0.900570 -0.188623
1.475081 -0.349347 0.351528 -0.129291 0.548045 0.826396
0.139107 -0.305328 0.315350 -0.040254 0.691879 0.720890
0.153552 0.283689 -0.271779 -0.052460 0.729691 0.681761
1.206503 -0.062817 0.078556 0.000000 0.709304 0.704903
0.242281 0.569908 0.571292 -0.052460 0.729691 -0.681761
0.523506 0.095864 -0.035458 0.000126 0.930859 -0.363309
0.325943 0.367605 -0.355755 0.068386 0.707643 0.703253
0.363595 0.177588 -0.168214 0.068386 0.707643 0.703253
1.522783 0.008604 0.078380 1.000000 0.000000 -0.000000
-1.236482 -0.018622 0.100501 0.000268 -0.210032 0.976862
0.339102 0.281049 -0.292667 0.052485 -0.708326 -0.703931
0.445533 0.018282 0.100563 -0.000434 0.231595 0.972009
-0.631168 -0.096291 0.034281 0.000256 -0.931631 0.361207
1.089766 0.173629 -0.174713 -0.129291 -0.548045 -0.826396
1.188364 0.173861 0.190292 -0.086507 -0.604842 0.789606
1.188364 -0.173861 -0.190292 -0.043410 0.658595 -0.749108
0.222906 -0.274069 0.290029 -0.040254 0.691879 0.720890
0.381164 0.625945 0.636580 0.021577 -0.703379 0.710129
1.413098 0.149861 0.135450 0.000000 0.709304 -0.704903
0.369451 -0.679060 -0.678332 -0.052460 -0.729691 0.681761
0.281662 0.101366 0.013119 -0.000346 0.987155 0.153932
0.309533 -0.072905 0.071638 0.000141 -0.750468 0.659716
0.220327 0.423335 -0.433143 -0.040254 -0.691879 -0.720890
0.453801 0.288914 0.292030 0.052485 -0.708326 0.703931
-0.423065 0.029410 -0.097889 -0.000268 0.309404 -0.950141
0.431181 -0.074004 0.070556 0.068386 -0.707643 -0.703253
0.424446 0.467021 0.473437 0.052485 -0.708326 0.703931
0.435551 0.288554 -0.293028 0.052485 -0.708326 -0.703931
0.304754 -0.291322 0.276936 0.068386 -0.707643 -0.703253
1.477304 0.112483 -0.128531 0.159246 -0.697669 -0.696200
0.421344 0.650058 0.657849 0.052485 -0.708326 0.703931
-0.123318 -0.110241 0.113461 -0.040254 0.691879 0.720890
0.459466 0.341793 -0.344817 0.052485 -0.708326 -0.703931
0.187193 -0.081842 0.103543 0.024671 0.703917 0.709552
0.366187 0.533881 -0.526983 0.068386 0.707643 0.703253
0.043552 0.308158 0.312730 -0.040254 -0.691879 0.720890
1.134880 -0.124036 0.140157 0.000000 0.709304 0.704903
0.143059 0.218056 -0.202339 -0.052460 0.729691 0.681761
0.425240 -0.414053 0.420079 0.052485 0.708326 0.703931
0.340674 0.584402 0.579234 -0.052460 0.729691 -0.681761
0.184001 -0.280858 -0.266405 -0.052460 -0.729691 0.681761
0.529917 -0.025636 0.098944 0.000051 -0.279376 0.959357
1.071378 -0.049907 -0.089199 0.000312 -0.502202 -0.863329
0.081638 0.301476 -0.296350 -0.052460 0.729691 0.681761
0.833392 0.036777 0.095366 -0.001279 0.388626 0.920499
0.044396 -0.352182 0.353486 -0.052460 -0.729691 -0.681761
-1.568959 -0.065630 -0.033392 -0.448274 -0.769216 -0.452905
0.993759 -0.096297 -0.108408 -0.129291 0.548045 -0.826396
1.426895 -0.109930 0.125962 -0.000000 0.709304 0.704903
1.075685 0.078163 -0.063305 0.000000 0.709304 0.704903
-0.521402 0.009777 -0.101743 0.000014 0.123406 -0.991462
0.135702 0.104443 0.081304 -0.052460 0.729691 -0.681761
0.332499 -0.444768 -0.434038 0.068386 -0.707643 0.703253
-0.041369 -0.131653 0.138587 -0.040254 0.691879 0.720890
1.158512 -0.087807 -0.103702 -0.000000 0.709304 -0.704903
-0.773630 -0.039340 0.094337 0.000688 -0.380304 0.923998
0.095706 0.130582 0.112359 -0.052460 0.729691 -0.681761
-0.349860 -0.070520 -0.073987 0.000057 -0.712157 -0.700893
-0.296104 0.086843 -0.053903 0.000035 0.836845 -0.545992
1.290800 0.265308 0.266964 -0.129291 -0.548045 0.826396
1.290800 -0.265308 -0.266964 -0.129291 0.548045 -0.826396
0.157806 -0.087954 0.052069 0.000055 -0.829948 0.556427
0.422721 -0.253471 0.250321 0.068386 -0.707643 -0.703253
-0.077380 -0.036401 -0.095510 0.000503 -0.382622 -0.923082
0.536098 -0.086895 0.053818 -0.000009 -0.834564 0.549467
0.074228 0.032553 0.096889 -0.000719 0.279356 0.959141
0.231389 -0.226431 0.204506 0.028114 -0.715927 -0.696989
1.306316 -0.106344 -0.122355 0.000000 0.709304 -0.704903
0.630247 -0.056918 0.084897 -0.000094 -0.508409 0.860214
0.138166 0.092133 -0.110682 -0.040254 -0.691879 -0.720890
-0.125523 0.151887 -0.152185 -0.052460 0.729691 0.681761
0.346536 -0.718009 0.721783 -0.000000 -0.704903 0.709304
0.471397 0.633445 0.637400 0.068386 0.707643 -0.703253
-0.083684 0.084117 0.076431 -0.052460 0.729691 -0.681761
0.565036 0.094626 0.038640 -0.000012 0.902301 0.429264
-0.334868 0.020837 -0.100065 -0.000367 0.226500 -0.973191
1.354585 -0.212982 0.198966 -0.000000 -0.709304 -0.704903
-1.141647 0.100898 -0.016332 -0.000054 0.982284 -0.183287
-1.401564 -0.054500 0.086469 0.000005 -0.559853 0.827642
0.432604 0.404785 0.410205 0.052485 -0.708326 0.703931
-1.084615 0.045440 0.091555 -0.000117 0.468577 0.882533
0.355837 -0.376025 0.386989 0.052485 0.708326 0.703931
0.471397 0.114154 0.114866 0.068386 0.707643 -0.703253
0.274598 -0.322181 -0.305055 0.068386 -0.707643 0.703253
0.963968 0.072858 -0.071686 0.000078 0.690879 -0.721884
1.040051 -0.070132 0.085916 -0.000000 0.709304 0.704903
0.461400 0.406227 -0.407791 0.068386 0.707643 0.703253
0.158198 -0.149896 0.128222 -0.052460 -0.729691 -0.681761
-1.379839 -0.098650 0.026745 0.000115 -0.972211 0.230639
0.035036 -0.000000 0.102211 -0.000565 0.053689 0.997626
0.381104 -0.688940 0.688010 -0.052460 -0.729691 -0.681761
0.215153 -0.414413 0.424291 -0.040254 0.691879 0.720890
-0.095298 -0.131214 -0.127733 -0.052460 -0.729691 0.681761
-0.993657 -0.078748 -0.065161 0.000031 -0.790238 -0.611501
1.438632 -0.011675 0.101542 -0.000873 -0.155462 0.986867
0.944867 -0.062817 -0.078556 -0.058537 0.639226 -0.762824
0.780138 0.018522 -0.100519 0.000386 0.208709 -0.977194
-1.617256 0.007236 -0.040758 -0.644837 0.226645 -0.726480
-1.109252 0.049619 -0.089359 -0.000305 0.513168 -0.857372
0.142347 0.436380 -0.441309 -0.040254 -0.691879 -0.720890
0.106604 -0.072342 -0.089926 -0.040254 0.691879 -0.720890
-1.279208 -0.072994 0.071547 -0.000066 -0.731095 0.681118
1.247139 0.216010 -0.202012 -0.043410 0.753193 0.653920
1.209714 0.132457 0.148630 0.000000 -0.709304 0.704903
-1.093634 0.087523 -0.052790 -0.000006 0.837063 -0.545676
0.263319 -0.191275 -0.172235 0.068386 -0.707643 0.703253
-1.615138 0.015228 0.040390 -0.656741 0.260388 0.702695
0.461039 0.643423 -0.648213 0.052485 -0.708326 -0.703931
0.520849 0.041905 0.093226 -0.000012 0.357510 0.933071
0.481210 -0.091401 0.045749 0.000031 -0.905973 0.421461
1.361441 -0.087627 -0.052618 -0.000103 -0.884055 -0.465724
0.471397 0.472044 -0.474991 0.068386 0.707643 0.703253
1.261946 0.181702 -0.167490 0.000000 0.709304 0.704903
1.522783 -0.052443 0.018820 1.000000 0.000000 0.000000
0.019055 0.168723 -0.177539 -0.040254 -0.691879 -0.720890
0.239466 0.350195 -0.364015 -0.040254 -0.691879 -0.720890
0.392370 -0.470636 -0.479466 0.052485 0.708326 -0.703931
-0.060271 0.094632 0.038626 0.000082 0.933046 0.357678
0.209990 0.062304 0.082183 0.052485 -0.708326 0.703931
-0.300642 -0.009737 0.101746 0.000264 -0.155993 0.986804
1.444356 -0.217883 0.234590 0.000000 0.709304 0.704903
0.471397 0.226433 0.227847 0.068386 0.707643 -0.703253
1.273392 0.108872 -0.094205 -0.000000 0.709304 0.704903
1.297069 0.062817 0.078556 0.000000 -0.709304 0.704903
0.142262 -0.326607 -0.335949 -0.040254 0.691879 -0.720890
0.231389 0.205815 0.224994 0.021577 -0.703379 0.710129
-0.490345 -0.097252 -0.031452 0.000104 -0.943336 -0.329483
1.491681 0.049180 0.084153 0.133232 0.471358 0.870853
1.476535 -0.155053 0.171367 0.085612 0.704601 0.701767
1.010574 -0.093659 -0.040929 -0.000404 -0.925970 -0.375582
0.233556 -0.141394 0.119148 0.068386 -0.707643 -0.703253
-0.011504 -0.286267 -0.287238 -0.052460 -0.729691 0.681761
-0.980331 0.099716 -0.022449 0.000301 0.960995 -0.273529
0.188222 -0.054057 -0.086747 -0.000022 -0.507169 -0.860925
0.646233 0.017818 0.100646 -0.000014 0.201051 0.978769
-0.012610 0.048584 0.089926 -0.000343 0.418342 0.907178
0.366004 -0.611730 -0.622092 -0.040254 0.691879 -0.720890
1.313973 -0.074558 -0.069916 -0.000013 -0.766014 -0.641596
0.126528 -0.236437 -0.223284 -0.052460 -0.729691 0.681761
0.231534 0.142750 -0.161526 0.052485 -0.708326 -0.703931
0.684751 -0.063201 0.080329 0.000144 -0.640453 0.767033
0.352245 -0.585809 0.579849 -0.052460 -0.729691 -0.681761
1.476663 -0.147958 -0.164228 0.164947 0.697094 -0.695731
1.271958 0.164852 0.181227 -0.000000 -0.709304 0.704903
1.271958 -0.164852 -0.181227 -0.000000 0.709304 -0.704903
-0.058158 -0.231754 -0.232483 -0.052460 -0.729691 0.681761
-0.290080 0.038160 0.094821 -0.000158 0.424456 0.904548
0.464655 -0.086603 -0.087646 0.052485 0.708326 -0.703931
1.322585 -0.183836 -0.169637 0.000000 -0.709304 0.704903
-1.191118 -0.055014 0.086143 -0.000180 -0.558792 0.828415
-0.295301 -0.102211 -0.000000 0.001048 -0.998941 -0.024877
1.193365 0.109686 -0.095025 -0.000000 0.709304 0.704903
1.071247 0.111750 0.127794 0.000000 -0.709304 0.704903
-0.078668 0.154710 -0.151601 -0.052460 0.729691 0.681761
1.429666 0.091826 0.107746 -0.000000 -0.709304 0.704903
0.322036 -0.008407 0.101865 0.000322 -0.112003 0.992856
-0.150110 -0.100523 -0.018499 0.000250 -0.977995 -0.204750
1.188438 0.093250 0.078486 0.000000 0.709304 -0.704903
-0.206989 0.101831 -0.008807 -0.001960 0.992480 -0.118269
-0.170055 -0.076433 0.067861 0.000761 -0.735163 0.676929
1.094456 0.142218 0.154616 -0.129291 -0.548045 0.826396
-1.342923 0.077107 -0.067094 0.000277 0.773094 -0.633251
0.405413 -0.000000 0.102211 0.000099 0.064381 0.996863
0.332499 -0.444768 0.434038 0.068386 -0.707643 -0.703253
1.153195 -0.122800 -0.138913 -0.000000 0.709304 -0.704903
-0.860503 -0.101909 0.007858 -0.000218 -0.990164 0.134373
-0.003039 0.098274 0.108692 -0.040254 -0.691879 0.720890
0.362804 -0.518576 -0.529910 0.052485 0.708326 -0.703931
-0.049414 0.112852 0.104549 -0.052460 0.729691 -0.681761
0.424991 -0.671711 -0.671392 0.068386 -0.707643 0.703253
0.237139 0.325411 0.310002 -0.052460 0.729691 -0.681761
-0.342625 0.074579 0.069894 -0.000112 0.706559 0.706647
0.014422 0.262745 -0.267518 -0.040254 -0.691879 -0.720890
0.892927 0.101620 -0.010980 0.001051 0.989807 -0.135711
0.341973 -0.111264 -0.121608 0.052485 0.708326 -0.703931
0.235239 -0.000000 -0.102211 -0.002040 -0.037182 -0.998214
1.474997 0.255540 -0.241789 0.079911 0.706611 0.700792
1.021752 -0.094336 0.039343 0.000003 -0.912850 0.406358
0.293064 -0.518172 0.528225 -0.040254 0.691879 0.720890
-0.727902 -0.097686 0.030078 0.000044 -0.937564 0.345689
-1.398856 0.095779 0.035688 -0.000331 0.946035 0.320981
-1.184133 0.065421 -0.078532 0.000253 0.665148 -0.745797
-1.396127 0.071533 -0.073008 0.000921 0.720073 -0.692805
1.429886 -0.063303 -0.080249 -0.000028 -0.637916 -0.769084
0.272668 0.412484 -0.400463 -0.052460 0.729691 0.681761
0.319701 -0.644077 0.644718 -0.052460 -0.729691 -0.681761
-1.295090 -0.069837 -0.074632 0.000455 -0.663161 -0.747371
0.699591 -0.090249 0.047983 -0.000415 -0.870221 0.491175
0.378655 -0.527059 0.537264 0.052485 0.708326 0.703931
0.277298 0.009338 0.101784 -0.000226 0.131391 0.990481
0.813930 0.091451 -0.045650 -0.000214 0.882155 -0.469205
0.335099 0.640921 0.648382 -0.040254 -0.691879 0.720890
0.064745 0.073037 0.071517 -0.000000 -0.704903 -0.709304
0.210519 -0.452111 -0.447657 -0.052460 -0.729691 0.681761
0.182286 -0.237080 0.252259 -0.040254 0.691879 0.720890
-1.259658 0.092714 -0.043027 0.000007 0.892223 -0.449476
0.904409 0.027633 -0.098405 0.000042 0.296651 -0.954152
0.152217 -0.347748 0.356795 -0.040254 0.691879 0.720890
0.575400 0.064006 0.079689 -0.000001 0.580821 0.813056
1.352334 0.142413 -0.158648 0.000000 -0.709304 -0.704903
-0.405827 0.099955 0.021358 0.000612 0.971175 0.234534
0.275118 -0.458937 0.470372 -0.040254 0.691879 0.720890
-1.431295 -0.051800 -0.088113 0.000251 -0.481563 -0.875479
0.219779 0.335677 -0.322326 -0.052460 0.729691 0.681761
0.150918 -0.187433 0.202860 -0.040254 0.691879 0.720890
1.474740 0.254384 0.271318 0.159246 -0.697669 0.696200
0.902410 0.081252 0.062010 0.000056 0.778582 0.626283
-1.027970 0.084961 -0.056822 -0.000090 0.816366 -0.576153
0.703724 -0.010937 -0.101624 -0.000242 -0.151679 -0.987666
0.372799 0.280939 0.290044 0.052485 -0.708326 0.703931
-0.377785 0.099831 -0.021928 0.000144 0.962613 -0.267884
1.223060 0.019594 0.100316 -0.002048 0.140766 0.989170
-1.123927 0.060994 0.082018 -0.000121 0.618581 0.784713
0.233020 0.409100 0.399891 -0.052460 0.729691 -0.681761
0.070271 -0.181345 -0.192513 -0.040254 0.691879 -0.720890
0.087037 -0.278192 -0.286399 -0.040254 0.691879 -0.720890
1.504012 -0.082753 -0.048283 0.133441 -0.856018 -0.497550
-0.112280 -0.058997 -0.083466 0.000127 -0.599672 -0.799289
-0.544957 0.101128 0.014842 -0.000081 0.984122 0.173461
1.247139 -0.200664 0.217263 -0.043410 0.658595 0.749108
-0.058469 0.242586 0.244101 -0.052460 0.729691 -0.681761
0.017600 -0.085454 0.097539 -0.040254 0.691879 0.720890
-1.052149 -0.101948 0.007338 -0.000294 -0.998083 0.049516
-0.349376 0.068264 -0.076073 0.000088 0.708221 -0.704863
1.237377 -0.086340 -0.054704 0.000032 -0.856849 -0.514028
1.411095 0.063814 -0.079843 -0.000153 0.581286 -0.812810
0.052360 -0.287663 0.283819 -0.052460 -0.729691 -0.681761
0.103252 0.387120 -0.386351 -0.052460 0.729691 0.681761
-1.072278 -0.095872 -0.035436 0.000112 -0.924947 -0.378009
0.157938 0.168808 -0.148483 -0.052460 0.729691 0.681761
1.476663 0.163304 0.148977 0.079911 0.706611 -0.700792
0.010314 0.071163 -0.083417 -0.040254 -0.691879 -0.720890
-0.136138 0.086630 -0.054245 0.000097 0.834112 -0.550169
0.259769 -0.070520 0.073987 -0.000057 -0.712157 0.700893
0.541428 -0.068359 -0.075988 -0.000036 -0.624572 -0.779964
0.700108 -0.009644 0.101755 0.000374 -0.150125 0.987800
0.436662 -0.491646 0.491338 0.068386 -0.707643 -0.703253
-1.179707 0.095706 -0.035882 -0.000226 0.926578 -0.373932
0.738646 -0.085542 -0.055944 -0.000711 -0.854015 -0.518655
0.495526 0.086166 0.054978 -0.000235 0.811649 0.582851
0.213386 0.105162 0.080729 0.068386 0.707643 -0.703253
1.080043 -0.084595 0.100470 -0.000000 0.709304 0.704903
0.335700 0.067131 0.077075 -0.000655 0.686450 0.725955
0.510820 -0.008037 -0.101895 -0.000075 -0.051544 -0.997933
0.765759 0.099232 0.024500 -0.000191 0.962890 0.267315
1.014611 0.094865 0.038050 -0.000100 0.935849 0.350114
0.260675 -0.570808 0.570840 -0.052460 -0.729691 -0.681761
-0.235497 -0.064977 0.078900 -0.000023 -0.659515 0.750737
-0.187600 0.022349 -0.099738 -0.000057 0.193849 -0.980340
-1.216724 0.101469 -0.012299 0.001588 0.981734 -0.184798
0.607489 0.041199 -0.093541 0.000555 0.429022 -0.902418
1.415249 -0.084176 0.057979 -0.000027 -0.806101 0.590463
0.433532 -0.542141 -0.548349 0.052485 0.708326 -0.703931
1.226489 -0.092263 -0.108185 0.000000 0.709304 -0.704903
0.409956 -0.099050 -0.025223 -0.000200 -0.980679 -0.191612
0.665678 0.102211 0.000000 0.001677 0.997137 -0.064359
-0.571243 0.056316 -0.085297 0.000039 0.575175 -0.817101
0.240210 0.550865 -0.551070 -0.052460 0.729691 0.681761
-0.158870 -0.038584 -0.094649 -0.000331 -0.399244 -0.916022
0.276215 0.399038 0.385798 -0.052460 0.729691 -0.681761
0.069402 -0.188056 0.198905 -0.040254 0.691879 0.720890
-1.057362 0.100304 0.019653 0.000057 0.975153 0.217809
-0.928350 0.102032 0.006059 -0.002100 0.994968 0.096464
0.178317 0.168640 -0.186352 -0.040254 -0.691879 -0.720890
0.267058 0.135686 0.116663 0.068386 0.707643 -0.703253
-0.068782 -0.097905 -0.104666 -0.040254 0.691879 -0.720890
0.299070 0.339760 -0.325124 0.068386 0.707643 0.703253
0.227022 -0.167292 -0.186557 0.052485 0.708326 -0.703931
0.479012 0.099087 -0.025078 -0.000055 0.976201 -0.213546
-0.477764 0.036004 -0.095660 0.000251 0.375763 -0.925914
0.026778 0.157734 0.167423 -0.040254 -0.691879 0.720890
1.120009 0.112485 -0.097841 -0.000000 0.709304 0.704903
0.225362 0.272513 -0.254291 -0.052460 0.729691 0.681761
-0.002694 0.309583 -0.311516 -0.040254 -0.691879 -0.720890
0.203435 -0.119956 0.094647 0.068386 -0.707643 -0.703253
0.390218 -0.097437 0.030874 0.000236 -0.941507 0.334782
1.392214 0.188221 0.204742 0.000000 -0.709304 0.704903
1.392214 -0.188221 -0.204742 0.000000 0.709304 -0.704903
0.124810 0.063470 0.080117 0.000150 0.603672 0.796251
0.250588 0.085793 -0.102792 0.052485 -0.708326 -0.703931
0.129428 -0.280077 0.269769 -0.052460 -0.729691 -0.681761
0.048320 0.124016 -0.108978 -0.052460 0.729691 0.681761
-0.030322 -0.067186 -0.077331 -0.000000 0.704903 0.709304
0.217782 0.263989 0.280068 -0.040254 -0.691879 0.720890
1.179967 0.170032 -0.186439 -0.086507 -0.604842 -0.789606
0.263590 -0.287967 -0.269557 0.068386 -0.707643 0.703253
0.367375 0.082681 -0.060092 -0.000781 0.823394 -0.566365
0.331751 0.256572 0.244594 0.068386 0.707643 -0.703253
0.383116 0.107401 -0.114654 0.052485 -0.708326 -0.703931
0.193254 -0.021593 0.099904 -0.000473 -0.238647 0.970191
0.049833 -0.100751 -0.083960 -0.052460 -0.729691 0.681761
-0.923745 -0.100250 -0.019927 0.000153 -0.967759 -0.248749
0.929220 -0.009720 -0.101748 -0.000207 -0.151570 -0.987558
0.429691 -0.206716 0.211116 0.052485 0.708326 0.703931
0.175028 0.138729 0.157461 -0.040254 -0.691879 0.720890
0.915651 -0.090846 -0.046841 -0.000077 -0.912306 -0.407576
0.271324 0.499763 0.493981 -0.052460 0.729691 -0.681761
-0.001601 0.254907 0.252912 -0.052460 0.729691 -0.681761
0.246038 0.175780 0.193680 0.052485 -0.708326 0.703931
0.241149 -0.380352 0.368497 -0.052460 -0.729691 -0.681761
1.331854 0.196935 -0.213511 0.000000 -0.709304 -0.704903
-0.365232 -0.009134 -0.101802 -0.000563 -0.117151 -0.992191
1.149820 0.189465 0.184616 -0.129291 0.829791 -0.542891
-1.488320 -0.091011 -0.040307 -0.169687 -0.917365 -0.355738
