0.274676 -0.144535 -0.124839 0.066674 -0.692345 0.718479
0.095931 0.451274 0.434860 -0.067501 0.717270 -0.693519
1.378350 -0.165573 0.174322 0.000000 0.693889 0.720082
0.339425 -0.392640 -0.369928 0.066674 -0.692345 0.718479
1.554980 0.290410 0.279846 -0.091399 0.820727 -0.563963
1.473294 -0.263483 0.253899 -0.091399 -0.820727 -0.563963
0.336937 0.303172 -0.283484 0.066674 0.692345 0.718479
0.303145 0.633281 -0.617165 -0.068379 -0.666095 -0.742726
-0.348662 -0.100332 -0.047996 0.000093 -0.902200 -0.429781
0.062550 0.316371 0.298585 -0.067501 0.717270 -0.693519
1.064864 -0.128852 0.124165 -0.091399 -0.820727 -0.563963
1.473294 0.263483 0.253899 -0.091399 0.820727 -0.563963
0.358701 -0.454566 0.431391 0.066674 -0.692345 -0.718479
0.337756 0.507992 -0.498212 0.067543 -0.692305 -0.718437
0.825254 -0.110081 -0.015881 -0.000223 -0.984897 -0.169992
0.135091 -0.096512 -0.055277 0.000178 -0.858861 -0.511029
1.164702 0.161762 0.155878 -0.091399 0.820727 -0.563963
1.449086 -0.198364 -0.176377 -0.000000 -0.693889 0.720082
0.235934 -0.284202 0.292134 0.067543 0.692305 0.718437
1.554980 -0.290410 0.279846 -0.091399 -0.820727 -0.563963
0.183607 -0.192978 0.163069 0.066674 -0.692345 -0.718479
-0.058617 0.100261 -0.048144 -0.000948 0.875274 -0.482082
0.114058 0.226854 0.200989 -0.067501 0.717270 -0.693519
-1.036453 0.067557 0.088352 0.000279 0.640272 0.767377
1.444545 -0.072008 -0.069389 0.000000 0.720082 0.693889
0.136905 0.401751 -0.394218 -0.068379 -0.666095 -0.742726
1.529353 0.157620 0.166658 -0.000000 -0.693889 0.720082
-0.003550 0.018263 0.109711 -0.000369 0.211780 0.976605
-0.254446 -0.110169 -0.015259 0.000106 -0.983014 -0.180181
0.088734 0.114203 -0.131903 -0.068379 -0.666095 -0.742726
-1.194988 0.074906 0.082214 0.000034 0.704620 0.708677
-1.197028 0.079696 -0.077580 0.000003 0.746330 -0.664583
0.358801 -0.682606 0.664496 0.067543 0.692305 0.718437
0.141062 -0.167680 -0.137161 -0.067501 -0.717270 0.693519
1.066444 0.079389 0.061730 0.000000 -0.720082 -0.693889
0.016651 0.175716 -0.157580 -0.067501 0.717270 0.693519
0.352019 0.019373 -0.109521 0.000392 0.214782 -0.976063
0.354765 0.130572 0.118817 0.066674 0.692345 -0.718479
0.926047 0.107294 -0.029294 -0.000100 0.955666 -0.292431
-0.074680 0.140201 -0.140174 -0.068379 -0.666095 -0.742726
-1.127490 -0.110515 0.012510 -0.000472 -0.986358 0.159986
0.237865 -0.350486 0.355826 0.067543 0.692305 0.718437
-1.325406 0.057627 0.095127 0.000005 0.479580 0.876682
0.385712 0.213657 0.201751 0.066674 0.692345 -0.718479
1.226629 -0.176148 0.171728 -0.091399 0.533180 0.841050
-1.069484 -0.032372 -0.106405 0.000019 -0.335765 -0.941237
0.003028 -0.203878 -0.188033 -0.067501 -0.717270 0.693519
1.563802 -0.105394 -0.033242 0.054582 -0.951450 -0.300204
-0.264150 0.068375 0.087721 -0.000030 0.642578 0.765366
0.430265 -0.680553 -0.655798 0.066674 -0.692345 0.718479
0.128941 -0.371584 -0.349227 -0.067501 -0.717270 0.693519
-1.316613 -0.048370 0.100152 0.000034 -0.475601 0.878904
0.207434 -0.478734 0.452407 -0.067501 -0.717270 -0.693519
0.157135 -0.015319 0.110161 -0.000427 -0.179400 0.983110
1.540122 -0.176692 0.155493 0.000000 -0.693889 -0.720082
1.645074 0.000000 -0.020769 1.000000 0.000000 0.000000
1.110836 0.069489 -0.081732 -0.000000 -0.693889 -0.720082
-1.318915 -0.032992 -0.106215 0.000126 -0.290892 -0.956105
0.875018 -0.044288 0.102023 0.000903 -0.362096 0.931597
0.346518 -0.518205 0.491584 0.066674 -0.692345 -0.718479
1.503254 -0.129205 -0.109734 -0.000000 -0.693889 0.720082
1.459285 -0.210729 0.188293 0.000000 -0.693889 -0.720082
1.459285 0.210729 0.188293 -0.000000 0.693889 -0.720082
0.003060 -0.323279 -0.311520 -0.068379 0.666095 -0.742726
0.206553 0.338863 -0.307832 -0.067501 0.717270 0.693519
0.020555 -0.224533 0.207689 -0.067501 -0.717270 -0.693519
1.166264 -0.053650 -0.097426 -0.000131 -0.520785 -0.852955
-0.947679 -0.034487 0.105739 0.000029 -0.352533 0.935138
-0.038732 -0.265681 -0.256017 -0.068379 0.666095 -0.742726
0.349778 -0.254705 -0.237972 0.066674 -0.692345 0.718479
1.316836 -0.103204 0.041461 0.000048 -0.909930 0.413131
0.385712 -0.213657 0.201751 0.066674 -0.692345 -0.718479
0.258876 -0.056599 0.095743 0.000668 -0.536513 0.843156
0.755079 0.000000 -0.111221 0.000508 -0.051025 -0.998247
-1.546541 0.110405 0.013444 -0.019436 0.991089 0.125925
1.244710 0.071619 -0.083785 0.000000 -0.693889 -0.720082
0.982507 -0.094735 0.058270 -0.000185 -0.872626 0.486776
1.605132 0.052235 0.093524 0.082048 0.527285 0.844949
-0.426216 -0.108507 -0.024421 0.000034 -0.974986 -0.219154
0.100574 -0.457674 -0.441027 -0.068379 0.666095 -0.742726
0.284691 0.231868 -0.209925 0.066674 0.692345 0.718479
-0.956358 0.110013 0.016344 -0.001011 0.982398 0.184359
1.138941 -0.111029 0.006525 -0.000019 -0.995354 0.090558
-0.212566 0.096733 -0.054889 -0.000013 0.866389 -0.498032
0.258752 0.099811 -0.112305 0.067543 -0.692305 -0.718437
0.357644 0.180901 -0.167582 0.066674 0.692345 0.718479
0.006299 0.020752 -0.109268 -0.000260 0.183493 -0.982355
1.487042 0.018029 -0.109750 0.000422 0.162676 -0.985946
-0.807040 -0.067824 -0.088148 0.000006 -0.615282 -0.787458
0.430265 -0.557566 0.537285 0.066674 -0.692345 -0.718479
0.218058 0.295340 0.264904 0.066674 0.692345 -0.718479
1.466277 0.128666 -0.138757 -0.000000 -0.693889 -0.720082
-0.509117 0.053217 0.097663 0.000025 0.513346 0.857400
-1.102855 0.098428 0.051788 -0.000263 0.865928 0.499089
-0.308666 0.104661 -0.037632 0.000444 0.920567 -0.388666
-0.043375 0.259281 -0.249850 -0.067501 0.717270 0.693519
-1.290073 -0.110742 0.010307 -0.001179 -0.994817 0.096655
0.050956 0.261058 0.242507 -0.067501 0.717270 -0.693519
0.179514 -0.566470 -0.545865 -0.068379 0.666095 -0.742726
0.430265 0.094557 -0.091118 0.066674 0.692345 0.718479
1.636016 0.079011 -0.078906 0.219520 -0.673008 -0.706308
0.188561 0.472174 -0.447460 -0.067501 0.717270 0.693519
1.001330 0.107910 0.103985 -0.091399 0.820727 -0.563963
1.638644 -0.260263 0.250797 0.219520 0.673008 0.706308
1.638644 0.260263 0.250797 0.219520 0.680899 -0.698704
1.560247 0.139225 -0.119390 -0.000000 0.693889 0.720082
0.143738 0.252297 -0.260813 -0.068379 -0.666095 -0.742726
0.242531 -0.177875 -0.189054 0.067543 0.692305 -0.718437
1.572442 0.108134 0.019073 0.082060 0.981588 0.167935
-0.169211 0.042951 0.102593 0.000008 0.377420 0.925312
1.551301 0.220641 -0.227387 0.000000 -0.693889 -0.720082
1.309922 0.209631 0.202006 -0.091399 0.820727 -0.563963
-1.695806 -0.045253 0.041287 -0.604598 -0.629885 0.482974
-0.810117 -0.093767 0.059815 0.000256 -0.862885 0.504272
0.042287 -0.135550 0.113544 -0.067501 -0.717270 -0.693519
-0.865090 -0.111221 0.000000 0.000401 -0.998904 -0.032902
1.001244 0.030203 0.107041 0.000022 0.312441 0.949248
0.355594 -0.448909 -0.425651 0.066674 -0.692345 0.718479
0.082853 -0.319160 -0.315172 -0.068379 0.666095 -0.742726
0.215675 0.513705 0.487773 -0.067501 0.717270 -0.693519
-1.178382 -0.011245 0.110651 0.000458 -0.108362 0.993481
0.119734 -0.264173 -0.239034 -0.067501 -0.717270 0.693519
1.001865 -0.110186 -0.015136 -0.001648 -0.981223 -0.188456
-0.755682 0.021959 0.109032 -0.000870 0.254953 0.965830
1.428037 0.189360 -0.167701 -0.000000 0.693889 0.720082
0.349515 0.743761 -0.720515 -0.000000 0.720082 -0.693889
0.187395 -0.538361 0.516027 -0.067501 -0.717270 -0.693519
1.384637 0.105508 -0.035186 0.000176 0.946284 -0.321260
1.616730 -0.069809 -0.076132 0.219520 0.673008 -0.706308
0.797614 0.093202 0.060692 -0.000508 0.836783 0.546254
0.230262 0.100952 0.046676 0.000737 0.903457 0.426637
1.353393 -0.055106 -0.096609 -0.000442 -0.455857 -0.889301
0.473331 0.107246 -0.029470 0.000013 0.964157 -0.262835
-0.600650 0.025613 0.108231 0.000105 0.275244 0.960684
-1.452874 -0.079340 -0.077944 0.000205 -0.743368 -0.667888
0.975795 -0.016622 -0.109972 -0.000917 -0.185761 -0.982009
0.078354 -0.089549 -0.108837 -0.068379 0.666095 -0.742726
-1.376691 0.102474 -0.043233 0.000102 0.903413 -0.427344
0.430265 0.687787 0.662770 0.066674 0.692345 -0.718479
1.594156 0.172636 -0.181128 0.073624 -0.689735 -0.718419
-0.050885 0.232834 0.225440 -0.068379 -0.666095 0.742726
0.075883 0.108482 0.024531 -0.000226 0.963731 0.264503
-0.065174 0.093436 0.060330 -0.000139 0.831742 0.553979
0.091629 -0.360088 0.340969 -0.067501 -0.717270 -0.693519
-1.195332 -0.109102 -0.021606 0.000003 -0.971093 -0.235912
0.401721 -0.211046 -0.200721 0.066674 -0.692345 0.718479
0.361597 -0.624565 0.608303 0.067543 0.692305 0.718437
0.256676 -0.070002 -0.086428 -0.000061 -0.644824 -0.763519
1.036997 -0.050405 0.099143 0.000052 -0.415926 0.908688
-0.898699 -0.017069 -0.109903 0.000226 -0.166764 -0.985328
1.472330 0.233122 -0.209872 -0.061120 0.781557 0.618638
-0.073535 -0.202712 0.194280 -0.067501 -0.717270 -0.693519
1.187337 0.102013 -0.044311 -0.000076 0.917751 -0.395456
0.725288 -0.105208 -0.036074 -0.000124 -0.944687 -0.325908
-0.495233 -0.058272 -0.094734 -0.000053 -0.523804 -0.851058
0.249809 -0.242930 0.217347 0.066674 -0.692345 -0.718479
0.111191 0.352404 0.347595 -0.068379 -0.666095 0.742726
-0.585061 0.111221 -0.000000 -0.000980 0.998989 0.021586
-0.184648 -0.063620 0.091228 -0.000344 -0.531350 0.846216
0.529312 0.071307 0.085355 -0.000559 0.677573 0.734396
1.305153 0.128904 0.109444 0.000000 0.693889 -0.720082
1.390360 0.101052 0.112147 0.000000 -0.693889 0.720082
0.430265 0.210309 -0.202660 0.066674 0.692345 0.718479
1.514327 -0.216217 -0.223123 -0.000000 0.693889 -0.720082
0.316837 0.105220 -0.036039 0.000006 0.929898 -0.365989
1.588832 0.272738 -0.272322 -0.091399 -0.533180 -0.841050
0.272169 -0.139422 0.119679 0.066674 -0.692345 -0.718479
1.144306 0.044207 0.102058 -0.000422 0.411689 0.910590
0.209943 0.558378 -0.541410 -0.068379 -0.666095 -0.742726
-0.650613 0.092477 0.061790 0.001772 0.835261 0.548845
1.207979 -0.117421 0.127921 0.000000 0.693889 0.720082
1.055335 -0.121846 -0.115514 -0.091399 -0.820727 0.563963
-1.069754 -0.106549 -0.031895 0.000293 -0.956401 -0.289634
0.002080 -0.292133 0.279403 -0.067501 -0.717270 -0.693519
0.357963 0.566947 0.539615 0.066674 0.692345 -0.718479
0.179637 0.085880 -0.071164 0.000000 -0.720082 0.693889
0.266516 -0.574936 0.546153 -0.067501 -0.717270 -0.693519
-0.542396 -0.084315 0.072533 -0.000151 -0.784916 0.618540
1.275162 -0.109626 -0.018764 -0.000417 -0.976969 -0.210353
-0.363167 0.058520 -0.094581 0.000074 0.486325 -0.873023
1.385188 -0.224183 -0.219410 -0.091399 0.533180 -0.841050
0.588174 0.104820 -0.037185 0.000045 0.955100 -0.294026
-1.608938 -0.076915 -0.068363 -0.240040 -0.750589 -0.614007
0.138897 -0.135097 0.155259 -0.068379 0.666095 0.742726
0.430265 0.326062 0.314201 0.066674 0.692345 -0.718479
-0.062263 -0.127382 0.115272 -0.067501 -0.717270 -0.693519
0.383226 0.552094 -0.536434 0.067543 -0.692305 -0.718437
0.389926 0.098556 0.051544 0.000098 0.887324 0.459733
0.037905 0.103454 -0.040832 0.000443 0.912813 -0.406478
0.056423 -0.097207 0.054044 0.000301 -0.853611 0.519764
0.203349 -0.250571 -0.262789 0.067543 0.692305 -0.718437
0.275490 0.328844 -0.331433 0.067543 -0.692305 -0.718437
0.351561 -0.143916 -0.146080 0.067543 0.692305 -0.718437
-1.454106 0.037637 0.104659 -0.000809 0.356405 0.933677
-0.187164 0.099303 0.050090 -0.000042 0.913646 0.404889
1.572695 -0.107500 -0.118361 0.000000 0.693889 -0.720082
0.148957 -0.044091 -0.102108 0.000196 -0.409808 -0.911523
-0.672451 -0.035025 0.105562 -0.000270 -0.352573 0.935232
0.863873 0.092786 -0.061325 -0.000584 0.807798 -0.588361
0.408380 -0.053670 -0.097414 0.000513 -0.502870 -0.863714
0.141088 -0.293852 0.267651 -0.067501 -0.717270 -0.693519
0.221886 -0.327208 -0.295968 0.066674 -0.692345 0.718479
0.370299 -0.715350 -0.694967 0.067543 0.692305 -0.718437
0.620054 -0.069413 -0.086902 -0.000331 -0.620843 -0.783109
0.057946 0.330130 -0.322718 -0.068379 -0.666095 -0.742726
-1.611104 -0.091883 0.045023 -0.285863 -0.857110 0.426151
1.524388 -0.125545 0.106207 0.000000 -0.693889 -0.720082
1.352247 0.185646 -0.164122 -0.000000 0.693889 0.720082
1.410100 -0.110722 0.010521 -0.000141 -0.988352 0.146196
0.203488 -0.103676 -0.040266 0.000099 -0.920563 -0.388870
0.311842 0.421214 -0.394903 0.066674 0.692345 0.718479
0.430265 0.268185 -0.258430 0.066674 0.692345 0.718479
1.240906 -0.091952 -0.103378 -0.000000 0.693889 -0.720082
0.212019 0.611268 0.589034 -0.067501 0.717270 -0.693519
0.170227 0.553670 0.533531 -0.067501 0.717270 -0.693519
0.489624 -0.058256 0.094743 0.000158 -0.558796 0.828552
0.197560 -0.384398 -0.355802 -0.067501 -0.717270 0.693519
0.581754 -0.040404 0.103622 -0.000050 -0.362246 0.931387
-1.588190 0.019014 0.105805 -0.179757 0.241712 0.952144
0.430265 -0.340531 -0.328144 0.066674 -0.692345 0.718479
0.116478 -0.239922 0.214270 -0.067501 -0.717270 -0.693519
-0.729468 0.110933 -0.008000 -0.000773 0.992336 -0.118504
0.167394 0.453750 0.443659 -0.068379 -0.666095 0.742726
1.575143 -0.000000 -0.109582 0.078841 -0.047866 -0.995174
0.363125 0.281466 0.277540 0.067543 -0.692305 0.718437
0.068830 0.058686 -0.094478 -0.000156 0.488592 -0.871764
0.513982 0.020171 -0.109376 0.000264 0.182987 -0.982450
1.629354 -0.084919 0.061986 0.081954 -0.808390 0.581540
-1.077378 0.097417 -0.053666 -0.000163 0.896387 -0.441797
0.212492 0.179461 -0.152724 0.066674 0.692345 0.718479
0.049757 -0.040658 0.103523 -0.000862 -0.380666 0.923942
-1.393651 -0.016270 -0.110024 -0.000468 -0.188354 -0.981448
-0.122164 -0.108160 -0.025914 0.000132 -0.971016 -0.236423
1.245192 0.095461 0.057073 0.000068 0.856184 0.515421
-0.817695 0.109682 0.018438 0.000864 0.977156 0.209240
0.430265 0.463517 -0.446657 0.066674 0.692345 0.718479
-1.529773 0.025260 -0.108314 0.000319 0.262885 -0.964269
-1.555162 -0.055626 0.096311 -0.052936 -0.537841 0.840201
0.214593 0.163842 0.178158 0.067543 -0.692305 0.718437
-0.967625 -0.088302 0.067622 -0.000039 -0.764233 0.643939
-1.436101 0.054879 -0.096739 0.000152 0.493767 -0.868904
0.933920 -0.092468 -0.061804 0.000118 -0.832143 -0.553349
0.270774 0.309300 0.313044 0.067543 -0.692305 0.718437
0.140408 -0.440721 0.429490 -0.068379 0.666095 0.742726
0.365808 0.613836 -0.597568 0.067543 -0.692305 -0.718437
0.245380 -0.102986 0.041999 -0.000149 -0.905253 0.423355
0.029433 0.076265 0.081143 0.000000 -0.720082 -0.693889
-0.523221 0.106939 0.030565 -0.000156 0.948835 0.313664
0.277341 0.218169 0.224611 0.067543 -0.692305 0.718437
-0.840097 -0.047825 0.100413 -0.000662 -0.467144 0.883460
0.069391 0.153469 0.165336 -0.068379 -0.666095 0.742726
-1.247660 -0.058056 0.094866 0.000041 -0.482343 0.875218
0.883406 0.019176 -0.109555 0.000086 0.180671 -0.982980
0.925167 0.104266 0.038713 0.000140 0.951090 0.306804
0.268725 0.402960 0.403489 0.067543 -0.692305 0.718437
0.468381 0.045740 0.101380 -0.001271 0.433938 0.900394
1.614181 -0.175224 -0.177370 0.219520 0.673008 -0.706308
0.430265 0.109026 0.105060 0.066674 0.692345 -0.718479
1.368086 -0.167671 -0.146801 -0.000000 -0.693889 0.720082
-1.026666 0.047888 -0.100383 -0.000740 0.467435 -0.883337
1.321429 0.111002 -0.006973 -0.000300 0.994939 -0.094599
1.179640 -0.113988 -0.124613 -0.000000 0.693889 -0.720082
-0.504912 0.064086 -0.090901 0.000059 0.616653 -0.786392
-0.394607 0.108159 0.025917 0.000056 0.975115 0.218748
0.724970 -0.061608 0.092599 -0.000268 -0.518226 0.854469
0.175963 -0.471604 -0.448096 -0.067501 -0.717270 0.693519
0.867528 0.083929 0.072979 -0.000072 0.724973 0.687818
0.825471 -0.026288 -0.108069 -0.002015 -0.253207 -0.966641
0.006232 0.213607 -0.213455 -0.068379 -0.666095 -0.742726
0.353823 -0.290145 0.286778 0.067543 0.692305 0.718437
0.285639 -0.686628 -0.659809 -0.067501 -0.717270 0.693519
1.435323 0.095349 0.057259 -0.000076 0.833503 0.551439
-0.821910 0.077989 0.079295 0.000017 0.700319 0.712900
-0.327562 0.038622 0.104299 -0.000074 0.389502 0.920390
1.618301 -0.273217 -0.257029 0.219520 -0.680899 0.698704
0.270491 -0.609039 -0.581037 -0.067501 -0.717270 0.693519
0.869547 -0.098299 0.052033 0.000141 -0.900731 0.432867
-1.350819 -0.109826 -0.017556 0.000369 -0.978269 -0.203755
-0.736473 -0.093537 -0.060173 -0.000253 -0.840987 -0.540015
0.177158 0.103183 0.123225 0.067543 -0.692305 0.718437
0.253811 0.668866 -0.644537 -0.067501 0.717270 0.693519
-0.741526 -0.101240 0.046048 -0.000139 -0.890357 0.453861
-1.228849 -0.040204 -0.103700 0.000043 -0.365336 -0.930159
0.687238 0.032453 0.106381 0.000059 0.331073 0.943023
-1.578395 -0.108556 -0.010418 -0.156555 -0.978749 -0.124067
0.175018 0.111221 -0.000000 -0.000027 0.999197 0.024724
0.650699 -0.096331 0.055592 -0.000030 -0.869550 0.492520
-0.452878 0.094794 -0.058173 -0.001162 0.832105 -0.553874
1.597090 -0.041072 0.099650 0.081722 -0.377233 0.921799
-1.710799 0.048106 -0.010907 -0.637733 0.742705 -0.193627
0.385208 -0.110766 0.102556 0.066674 -0.692345 -0.718479
0.364654 -0.544813 -0.531164 0.067543 0.692305 -0.718437
1.143119 0.124604 -0.105301 -0.061120 0.781557 0.618638
-0.053931 -0.024309 0.108532 -0.000146 -0.255438 0.966154
1.255465 -0.191680 -0.184708 -0.091399 -0.820727 0.563963
0.278369 0.503116 0.470720 0.021949 0.701788 -0.711296
0.291823 0.690053 0.662749 -0.067501 0.717270 -0.693519
0.298661 -0.306699 -0.307916 0.067543 0.692305 -0.718437
-1.397567 0.067865 0.088116 0.000058 0.618697 0.784882
0.335035 -0.111221 -0.000000 -0.000069 -0.999043 -0.022227
1.055110 0.111221 -0.000000 -0.001040 0.998223 0.046738
0.154791 0.366666 -0.341625 -0.067501 0.717270 0.693519
0.369691 0.730520 0.698327 0.066674 0.692345 -0.718479
0.328198 0.384102 0.360659 0.066674 0.692345 -0.718479
-1.618609 0.099595 0.010418 -0.314513 0.939019 0.128777
1.594646 0.173245 0.152172 0.146797 0.688051 -0.708742
-1.537843 0.063766 0.091126 0.000039 0.573360 0.818528
0.158731 0.175622 -0.193429 -0.068379 -0.666095 -0.742726
-0.951473 -0.053450 -0.097535 0.000040 -0.523076 -0.851526
-0.257772 -0.006825 -0.111011 0.000035 -0.092574 -0.995185
1.575504 -0.226891 -0.203867 -0.000000 -0.693889 0.720082
-0.834470 0.071728 -0.085001 -0.000149 0.635616 -0.771140
0.277502 -0.399660 0.370946 0.066674 -0.692345 -0.718479
-0.087077 0.140541 0.139338 -0.068379 -0.666095 0.742726
-0.921720 0.054769 -0.096801 0.000295 0.524888 -0.850421
0.423372 -0.604319 0.581698 0.066674 -0.692345 -0.718479
0.421463 -0.697365 0.672826 0.067543 0.692305 0.718437
1.106047 -0.032050 -0.106503 -0.000227 -0.289759 -0.956388
0.163603 -0.076069 0.081346 0.000000 0.720082 -0.693889
0.841918 -0.083831 -0.073092 0.000780 -0.780279 -0.624405
1.180273 0.108686 0.023612 -0.001105 0.978319 0.203822
0.211494 -0.028962 -0.107384 0.000338 -0.277076 -0.960158
-1.613617 0.050299 -0.088296 -0.295410 0.480437 -0.824502
-0.007130 -0.102862 -0.042303 0.000012 -0.905775 -0.422217
0.806949 -0.031847 0.106564 0.000026 -0.325513 0.944851
0.299383 -0.483115 0.453396 0.066674 -0.692345 -0.718479
-0.494919 -0.102213 -0.043848 0.000038 -0.919658 -0.391047
0.329445 -0.194186 0.177767 0.066674 -0.692345 -0.718479
0.776404 0.082948 -0.074093 -0.000122 0.771805 -0.634793
0.292293 -0.474735 -0.470438 0.067543 0.692305 -0.718437
0.274773 -0.233165 -0.210254 0.066674 -0.692345 0.718479
0.099935 -0.409851 -0.391628 -0.067501 -0.717270 0.693519
1.341583 0.007143 -0.110991 0.000374 0.099783 -0.994447
1.235709 0.181209 -0.172671 -0.091399 0.820727 0.563963
0.192155 0.294021 -0.262856 -0.067501 0.717270 0.693519
-0.031148 0.180437 0.180266 -0.068379 -0.666095 0.742726
0.412350 -0.116433 -0.110535 0.066674 -0.692345 0.718479
0.206666 -0.164750 -0.138008 0.066674 -0.692345 0.718479
-1.263113 0.069335 0.086964 -0.000195 0.620004 0.783764
-1.385055 -0.056907 0.095560 -0.000351 -0.471047 0.881333
0.423092 -0.447221 0.430288 0.066674 -0.692345 -0.718479
-1.537938 -0.037752 -0.104617 0.000032 -0.381975 -0.923469
0.118268 -0.110944 0.007843 0.000306 -0.993653 0.107505
1.296260 -0.083274 -0.073725 0.000397 -0.719365 -0.693718
0.168268 0.232977 0.245745 -0.068379 -0.666095 0.742726
0.338653 0.236809 0.236808 0.067543 -0.692305 0.718437
1.504673 -0.095923 -0.056292 0.000041 -0.863126 -0.503715
0.071909 -0.310628 0.306512 -0.068379 0.666095 0.742726
1.537843 0.104528 -0.038000 0.000000 0.939227 -0.341442
0.293559 0.531249 0.524778 -0.023072 -0.675954 0.735836
-0.043932 -0.017756 -0.109794 -0.000366 -0.181689 -0.982488
-0.066701 -0.094265 0.059027 0.000016 -0.861995 0.505624
0.295616 -0.531069 -0.499257 0.066674 -0.692345 0.718479
0.626174 0.095456 0.057081 -0.000083 0.834103 0.550420
0.293877 0.110207 0.119021 0.067543 -0.692305 0.718437
1.390070 0.065090 -0.090185 0.000018 0.586936 -0.808809
1.408249 0.175490 0.183877 -0.000000 -0.693889 0.720082
1.119732 0.102447 0.083950 0.000000 0.693889 -0.720082
0.309271 -0.033399 -0.106088 -0.000702 -0.252696 -0.966893
-0.141260 -0.112514 0.109214 -0.068379 0.666095 0.742726
1.308493 0.098070 0.052463 0.000878 0.865648 0.499355
0.296133 0.049985 0.099356 0.000030 0.447652 0.893512
1.221286 -0.016771 -0.109949 0.000429 -0.160091 -0.986472
-1.240199 0.103664 -0.040297 -0.000234 0.914059 -0.404011
0.422123 -0.096563 0.055187 -0.000240 -0.860398 0.508298
-0.133655 0.099676 -0.049343 0.000053 0.873119 -0.486116
1.236284 0.109914 0.120687 0.000000 -0.693889 0.720082
0.150741 0.045411 0.101528 -0.000200 0.449789 0.892401
1.392344 -0.101755 -0.083283 0.000000 -0.693889 0.720082
0.369671 0.465889 0.443320 0.066674 0.692345 -0.718479
-0.614631 -0.076062 -0.081146 0.000162 -0.715249 -0.698011
-0.140959 0.052018 -0.098307 -0.000525 0.504194 -0.862801
-0.897577 0.007503 0.110967 0.001180 0.105431 0.993833
-0.124482 -0.019832 -0.109438 0.000009 -0.220990 -0.974591
0.000913 -0.108358 0.025070 0.000109 -0.984878 0.168184
0.299991 0.055645 -0.096300 0.000026 0.499951 -0.865285
0.301136 0.484755 -0.455140 0.066674 0.692345 0.718479
-1.495147 0.074780 -0.082329 0.000027 0.674492 -0.737389
0.923379 -0.074021 0.067300 -0.091399 -0.820727 -0.563963
-0.663031 0.088421 -0.067466 0.000216 0.822660 -0.567375
-0.776079 0.057735 -0.095062 0.000015 0.485673 -0.873381
0.776460 0.050665 0.099011 0.000137 0.417112 0.908122
-1.428799 0.110139 0.015472 0.000242 0.989949 0.135485
-1.319434 0.110652 0.011235 -0.000014 0.987126 0.153841
-1.136603 0.083229 -0.073777 -0.000034 0.747919 -0.662788
-0.409605 0.075283 0.081869 -0.000012 0.710512 0.702778
1.645074 0.042185 0.047341 1.000000 0.000000 0.000000
0.364541 0.638066 0.608758 0.066674 0.692345 -0.718479
0.372878 0.402016 -0.392789 0.067543 -0.692305 -0.718437
-0.211969 -0.054350 -0.097037 -0.000024 -0.490519 -0.870666
0.496183 -0.108803 -0.023062 0.000020 -0.976265 -0.212735
0.704784 -0.073753 -0.083250 0.000109 -0.663932 -0.746919
0.430265 0.702256 -0.676712 0.066674 0.692345 0.718479
0.430265 0.637146 -0.613970 0.066674 0.692345 0.718479
-1.067587 -0.072936 0.083966 -0.000058 -0.652666 0.756761
0.213175 0.381173 0.382785 -0.068379 -0.666095 0.742726
-0.389236 -0.042114 0.102939 -0.000016 -0.414782 0.909191
0.326490 0.684492 -0.653624 -0.067501 0.717270 0.693519
1.236987 0.052069 0.098279 -0.000025 0.510091 0.859348
-1.191675 0.108446 0.024691 0.000034 0.974845 0.219801
0.130401 0.159021 -0.129243 -0.067501 0.717270 0.693519
-0.655517 0.040520 -0.103577 -0.000113 0.408019 -0.912253
0.016991 0.342478 0.330021 -0.067501 0.717270 -0.693519
0.207375 -0.604869 -0.582867 -0.068379 0.666095 -0.742726
0.077356 0.425675 -0.410192 -0.067501 0.717270 0.693519
0.484231 -0.031921 -0.106542 -0.000236 -0.277319 -0.960147
-1.191146 -0.079249 -0.078036 0.000098 -0.716037 -0.697118
1.046407 -0.055236 -0.096535 0.000163 -0.534656 -0.844299
0.225949 -0.630468 0.607535 -0.067501 -0.717270 -0.693519
1.404221 -0.144549 0.124520 -0.000000 -0.693889 -0.720082
1.182855 -0.167746 -0.161644 -0.091399 -0.820727 0.563963
1.346227 0.221598 -0.213538 -0.091399 -0.533180 -0.841050
1.500000 0.079389 0.061730 0.009426 -0.720031 -0.693840
1.006401 0.050990 -0.098844 -0.000073 0.452966 -0.890779
0.026487 -0.115288 -0.094126 -0.067501 -0.717270 0.693519
-1.419728 -0.101130 0.046291 -0.000126 -0.910471 0.411976
-0.711090 -0.110855 -0.009008 0.000390 -0.990462 -0.131768
-1.513215 -0.110479 -0.012823 0.001497 -0.992706 -0.115126
-1.092583 -0.024081 0.108583 0.000352 -0.259564 0.965029
0.091873 0.288563 -0.266971 -0.067501 0.717270 0.693519
-0.673265 -0.059588 -0.093911 -0.000226 -0.538896 -0.841610
0.108207 0.218343 -0.227091 -0.068379 -0.666095 -0.742726
0.908719 0.008973 0.110858 0.001375 0.043018 0.998396
0.677572 0.034855 -0.105618 -0.000305 0.310905 -0.949797
0.128163 0.063692 -0.091178 -0.000163 0.534495 -0.844395
0.254206 -0.391648 -0.393954 0.067543 0.692305 -0.718437
-0.220524 0.046622 -0.100978 -0.000025 0.461218 -0.886526
1.357283 -0.055524 0.096370 -0.000031 -0.499078 0.865878
1.359416 0.052220 0.098199 0.000433 0.421460 0.905941
-1.010074 -0.031142 -0.106772 0.000013 -0.311349 -0.949731
-0.138324 -0.006897 0.111007 0.000285 -0.094369 0.995026
-1.309008 0.053840 -0.097320 0.000262 0.484418 -0.874134
0.771864 -0.110804 0.009620 0.000140 -0.989425 0.139063
0.273617 0.378154 -0.379126 0.067543 -0.692305 -0.718437
0.140060 -0.179372 -0.195074 -0.068379 0.666095 -0.742726
0.222254 0.050924 -0.098878 -0.000020 0.457728 -0.888338
-0.545239 0.005456 0.111087 0.000332 0.092367 0.995216
-0.877484 0.060425 0.093375 -0.000027 0.507048 0.861164
0.145779 -0.378827 0.355079 -0.067501 -0.717270 -0.693519
0.290097 -0.291035 0.267442 0.066674 -0.692345 -0.718479
0.377655 0.067879 -0.088105 0.000133 0.606855 -0.793980
0.378350 0.336119 -0.328774 0.067543 -0.692305 -0.718437
0.166979 0.203225 0.171400 0.021949 0.701788 -0.711296
0.217491 -0.433920 -0.430487 -0.068379 0.666095 -0.742726
0.533260 -0.068733 -0.087441 0.000594 -0.660266 -0.749852
-0.088429 0.095175 -0.098528 -0.068379 -0.666095 -0.742726
0.643060 0.094703 -0.058322 0.000150 0.828809 -0.558548
-1.293454 -0.089775 0.065655 0.000445 -0.803271 0.594562
-0.180936 0.110997 -0.007049 0.000938 0.994214 -0.102629
-0.978223 0.088337 0.067577 0.000229 0.792282 0.608803
0.283009 0.543954 -0.512505 -0.067501 0.717270 0.693519
-0.483031 -0.082237 0.074881 -0.000238 -0.709351 0.703883
1.594401 -0.165560 0.174309 0.073624 0.689735 0.718419
0.093105 0.407898 0.395698 -0.068379 -0.666095 0.742726
-1.005660 -0.109516 -0.019397 -0.001034 -0.974788 -0.220092
-1.512119 0.106046 -0.033530 -0.000014 0.953232 -0.300067
0.262554 0.585865 -0.570904 -0.068379 -0.666095 -0.742726
1.489065 -0.152938 -0.162147 0.000000 0.693889 -0.720082
1.010407 -0.110902 0.106868 -0.091399 -0.820727 -0.563963
0.625065 0.000000 -0.111221 0.000375 -0.047225 -0.998260
0.129238 -0.108234 -0.130279 -0.068379 0.666095 -0.742726
0.298212 -0.646701 -0.617291 -0.067501 -0.717270 0.693519
1.058961 -0.108175 -0.025851 -0.000155 -0.962082 -0.270725
-0.396064 -0.108254 0.025518 -0.000091 -0.960704 0.275354
1.602316 0.101589 -0.034706 0.082177 0.929288 -0.358277
0.186784 0.421410 -0.416441 -0.068379 -0.666095 -0.742726
1.289111 0.031554 -0.106651 0.000091 0.288252 -0.956867
0.367742 0.167611 0.167393 0.067543 -0.692305 0.718437
1.507090 0.118084 -0.099018 0.000000 0.693889 0.720082
0.131106 0.134327 0.103635 -0.067501 0.717270 -0.693519
-1.705334 -0.050291 -0.019358 -0.637733 -0.742705 -0.193627
0.140713 -0.186371 0.201410 -0.068379 0.666095 0.742726
-0.399844 -0.010216 -0.110751 0.000065 -0.144000 -0.988724
1.444258 -0.094421 0.058777 -0.000076 -0.870833 0.490210
-0.555448 -0.045296 -0.101579 -0.000043 -0.407517 -0.912468
0.307970 0.644551 0.627717 -0.068379 -0.666095 0.742726
-0.123416 0.077710 0.079643 -0.000000 -0.720082 -0.693889
1.340130 0.118979 -0.099880 -0.000000 0.693889 0.720082
1.193223 0.095928 -0.107210 0.000000 -0.693889 -0.720082
-0.042412 -0.102889 -0.088008 -0.067501 -0.717270 0.693519
0.234407 0.234626 -0.244505 0.067543 -0.692305 -0.718437
0.294406 0.452335 0.448654 0.067543 -0.692305 0.718437
0.149070 -0.129176 0.098383 0.066674 -0.692345 -0.718479
1.196665 -0.055082 0.096623 -0.000025 -0.498336 0.866232
0.098681 0.075929 0.081270 -0.000013 0.682685 0.729850
-0.328269 -0.063564 -0.091267 -0.000252 -0.537075 -0.843040
0.354596 -0.051417 0.098622 -0.000907 -0.468316 0.882885
0.400165 0.509225 0.487909 0.066674 0.692345 -0.718479
1.272553 -0.099896 0.111033 0.000000 0.693889 0.720082
0.044852 -0.380877 0.367023 -0.067501 -0.717270 -0.693519
1.148576 -0.012422 0.110525 0.000829 -0.130773 0.990512
-0.949162 -0.094926 -0.057957 0.000123 -0.856463 -0.514877
0.407111 -0.502516 -0.482088 0.066674 -0.692345 0.718479
0.882570 -0.104396 -0.038360 -0.000006 -0.928381 -0.370403
-0.464600 0.111126 -0.004591 0.000257 0.995986 -0.085491
0.237178 0.192378 -0.203533 0.067543 -0.692305 -0.718437
0.315573 -0.663052 0.632512 -0.067501 -0.717270 -0.693519
1.289546 -0.166140 -0.145326 0.000000 -0.693889 0.720082
-0.465903 0.012092 0.110562 0.000578 0.156054 0.987024
0.099042 0.363951 -0.356832 -0.068379 -0.666095 -0.742726
1.127137 -0.123939 0.106923 -0.091399 -0.820727 -0.563963
0.043862 -0.159393 0.168299 -0.068379 0.666095 0.742726
0.122839 0.309553 0.310238 -0.068379 -0.666095 0.742726
0.313600 0.257304 -0.258913 0.067543 -0.692305 -0.718437
0.449452 -0.007360 0.110977 0.001569 -0.045305 0.998342
-0.695073 0.000000 -0.111221 -0.000082 -0.048905 -0.998043
0.595062 -0.111221 -0.000000 0.002644 -0.998375 -0.045991
-1.478008 -0.103024 0.041907 0.000144 -0.925420 0.377213
-0.031800 0.062874 -0.091744 0.000345 0.526792 -0.849277
-1.320336 -0.086651 -0.069726 0.000043 -0.776763 -0.628922
1.588779 -0.107012 0.017688 0.081822 -0.973495 0.210333
0.372073 0.705447 -0.685258 0.067543 -0.692305 -0.718437
1.170090 -0.097040 0.054345 -0.000177 -0.847858 0.529102
0.279226 0.110907 0.008345 -0.000383 0.993060 0.110897
0.402855 -0.580998 -0.557321 0.066674 -0.692345 0.718479
-0.703825 0.080374 0.076877 -0.000453 0.718241 0.694919
-1.454430 -0.018720 0.109634 0.000894 -0.127631 0.991099
1.537843 0.055579 0.096338 0.000000 0.499397 0.865640
0.040222 -0.235204 -0.216811 -0.067501 -0.717270 0.693519
1.581436 0.247936 0.253689 0.000000 -0.693889 0.720082
1.270058 0.006812 0.111012 -0.000254 0.040836 0.998584
0.340995 0.110248 0.014678 -0.000993 0.983937 0.174641
-0.055462 0.110957 0.007649 -0.000666 0.992726 0.115510
0.527930 0.110928 -0.008063 -0.000681 0.999124 -0.024771
0.242092 0.084459 0.099077 0.067543 -0.692305 0.718437
1.355139 -0.112984 0.123645 -0.000000 0.693889 0.720082
1.503826 -0.096523 0.055257 -0.000046 -0.843957 0.535190
1.485155 0.000000 0.111221 -0.001376 0.042929 0.998451
0.983178 0.101926 -0.098219 -0.091399 -0.533180 -0.841050
-1.187800 -0.071157 0.085479 0.000203 -0.637197 0.769834
0.389903 -0.368255 0.351115 0.066674 -0.692345 -0.718479
1.124079 -0.096081 -0.107357 -0.000000 0.693889 -0.720082
-0.136796 -0.100513 -0.098862 -0.068379 0.666095 -0.742726
0.230137 -0.168862 0.144149 0.066674 -0.692345 -0.718479
0.233135 0.242459 0.252172 0.067543 -0.692305 0.718437
0.395461 0.368667 0.352028 0.066674 0.692345 -0.718479
0.210818 -0.029851 0.107140 -0.000017 -0.313529 0.948887
-0.340075 0.110938 0.007932 0.000399 0.998537 0.041312
0.371032 -0.629484 -0.601091 0.066674 -0.692345 0.718479
-0.834917 -0.101416 -0.045661 0.000245 -0.913459 -0.405230
0.420771 -0.299918 -0.289901 0.067543 0.692305 -0.718437
1.620446 0.091545 0.053173 0.081715 0.853352 0.513154
0.707963 0.110021 0.016294 -0.000682 0.981584 0.187776
0.054144 0.190923 -0.197523 -0.068379 -0.666095 -0.742726
-1.663815 0.030971 -0.075263 -0.481888 0.285504 -0.826528
1.511082 -0.192187 0.199968 -0.000000 0.693889 0.720082
-0.553742 0.083511 -0.073457 0.000484 0.773697 -0.632740
0.565550 0.039278 -0.104054 -0.000063 0.352069 -0.935265
0.536645 -0.108649 0.023779 0.000281 -0.965596 0.257403
-1.639357 0.035272 0.085812 -0.376128 0.301041 0.875264
0.409590 0.580881 0.557834 0.066674 0.692345 -0.718479
0.377054 -0.728300 0.696871 0.066674 -0.692345 -0.718479
0.265830 0.617118 0.599234 -0.068379 -0.666095 0.742726
0.389940 0.126729 -0.118377 0.066674 0.692345 0.718479
1.577455 0.121056 0.131424 0.000000 -0.693889 0.720082
0.306049 -0.539561 0.531613 0.067543 0.692305 0.718437
1.483928 0.099301 0.110460 -0.000000 -0.693889 0.720082
-0.868817 0.110904 -0.008393 -0.000731 0.991601 -0.124056
-0.485051 0.000000 -0.111221 0.000051 -0.026503 -0.999194
-0.645067 -0.111221 0.000000 -0.002273 -0.999020 -0.025432
0.136600 0.121437 -0.089768 0.021949 0.701788 0.711296
-0.078091 -0.165141 -0.155865 -0.067501 -0.717270 0.693519
-0.103741 0.176084 -0.169680 -0.067501 0.717270 0.693519
1.440812 0.109599 -0.018924 -0.000334 0.973644 -0.224248
1.146550 0.155779 -0.150112 -0.091399 -0.533180 -0.841050
-0.872423 0.033032 -0.106202 -0.001095 0.277967 -0.960043
1.125182 0.019912 -0.109424 -0.000008 0.222157 -0.974316
0.170942 -0.349403 -0.322199 -0.067501 -0.717270 0.693519
0.387205 -0.366654 -0.349322 0.066674 -0.692345 0.718479
0.197358 -0.285013 0.253033 -0.021496 -0.709824 -0.703179
1.529278 -0.051604 0.098525 -0.000124 -0.423353 0.905240
0.214287 -0.533409 -0.519417 -0.068379 0.666095 -0.742726
0.573244 0.025273 0.108311 0.000106 0.239938 0.970107
-0.031557 0.061683 0.092548 0.000175 0.516229 0.855566
0.480100 0.066536 -0.089124 -0.000160 0.596181 -0.802085
0.218664 -0.198727 0.211392 0.067543 0.692305 0.718437
0.255817 0.199210 0.175775 0.066674 0.692345 -0.718479
0.095949 -0.143496 0.116539 -0.067501 -0.717270 -0.693519
0.391326 0.425704 0.413880 0.067543 -0.692305 0.718437
0.039863 0.142763 -0.121240 -0.067501 0.717270 0.693519
-0.765080 0.000000 -0.111221 -0.000336 -0.017663 -0.999289
0.400347 -0.523601 0.507368 0.067543 0.692305 0.718437
0.206553 -0.338863 0.307832 -0.067501 -0.717270 -0.693519
0.222569 -0.214988 -0.226694 0.067543 0.692305 -0.718437
0.379646 -0.413169 0.402899 0.067543 0.692305 0.718437
-0.619585 -0.093458 0.060296 -0.000356 -0.815920 0.577053
-1.312881 0.007395 0.110975 0.000005 0.084749 0.995896
0.403003 -0.428077 -0.409976 0.066674 -0.692345 0.718479
1.324399 -0.164071 0.172874 0.000000 0.693889 0.720082
1.219954 -0.110887 0.008606 -0.001105 -0.994768 0.095880
-1.200939 0.030825 -0.106864 0.000472 0.284247 -0.958008
0.379633 0.491186 -0.468621 0.066674 0.692345 0.718479
0.323463 -0.344161 -0.341683 0.067543 0.692305 -0.718437
1.252159 -0.149071 0.128877 -0.000000 -0.693889 -0.720082
0.005745 0.237308 0.222344 -0.067501 0.717270 -0.693519
0.540284 -0.078468 0.078822 0.000177 -0.672698 0.739034
0.101874 0.246055 0.251360 -0.068379 -0.666095 0.742726
1.645074 -0.044120 0.010044 1.000000 0.000000 0.000000
1.152316 -0.096303 -0.055640 0.000006 -0.841027 -0.539776
1.455801 -0.034114 -0.105860 0.000173 -0.253732 -0.966400
0.203335 0.432958 0.405462 -0.067501 0.717270 -0.693519
-1.305288 0.093531 0.060184 0.000016 0.816233 0.576562
0.346906 0.065042 0.090220 -0.000052 0.617858 0.785491
0.981306 0.071919 0.069481 -0.000000 -0.720082 -0.693889
1.572001 -0.101489 0.112568 -0.000000 0.693889 0.720082
-1.072109 -0.079244 -0.078042 0.000034 -0.682093 -0.730350
1.330961 0.008527 0.110893 -0.000869 0.124174 0.991577
-0.086175 -0.115007 -0.116521 -0.068379 0.666095 -0.742726
1.588549 0.104993 -0.086403 0.000000 0.693889 0.720082
0.409784 -0.092982 -0.061027 -0.000007 -0.844742 -0.534046
-0.309923 -0.079363 0.077921 0.000694 -0.704915 0.708264
0.099154 -0.155603 -0.169990 -0.068379 0.666095 -0.742726
-0.596511 -0.106197 -0.033049 0.000118 -0.939199 -0.341530
-0.118793 -0.106851 0.030870 0.000029 -0.953670 0.298612
1.584511 0.197719 0.205298 0.000000 -0.693889 0.720082
0.317423 0.152050 -0.136048 0.066674 0.692345 0.718479
-1.666741 0.077799 0.017793 -0.476358 0.840570 0.253724
1.291708 0.096426 -0.055427 0.000001 0.842600 -0.537299
0.228159 0.341110 0.309947 0.066674 0.692345 -0.718479
1.141655 0.122150 0.128261 -0.091399 -0.533180 0.841050
0.214599 0.128138 -0.103463 0.066674 0.692345 0.718479
0.041499 0.291002 -0.286112 -0.068379 -0.666095 -0.742726
-1.249384 0.072982 -0.083927 -0.000101 0.621709 -0.782430
1.417478 -0.045428 0.101520 0.000087 -0.364642 0.930410
1.058264 0.065688 -0.089750 -0.000094 0.589468 -0.806964
-1.122160 -0.045807 -0.101350 0.000209 -0.410528 -0.911105
-0.546640 -0.110170 -0.015249 0.000499 -0.983568 -0.177289
-0.796221 -0.013338 0.110418 -0.000187 -0.117599 0.992439
-0.933877 0.106626 -0.031639 0.000473 0.947270 -0.318919
1.358981 -0.210356 0.195110 -0.091399 -0.820727 -0.563963
-1.586800 0.102930 -0.031847 -0.153138 0.952022 -0.261045
0.378318 -0.251418 0.247156 0.067543 0.692305 0.718437
0.808824 0.106939 -0.030564 -0.000053 0.960103 -0.277236
0.312504 -0.553273 -0.544219 0.067543 0.692305 -0.718437
1.581436 -0.262697 0.238371 0.000000 -0.693889 -0.720082
0.143918 0.489487 -0.473548 -0.068379 -0.666095 -0.742726
0.635066 0.000000 0.111221 0.001054 0.010127 0.999566
-0.305032 -0.111221 0.000000 -0.002027 -0.998700 -0.037071
1.584615 -0.155998 -0.135552 -0.000000 -0.693889 0.720082
0.026703 0.151425 0.131480 -0.067501 0.717270 -0.693519
0.106577 -0.030174 0.107050 -0.000006 -0.266313 0.963184
-0.846600 -0.037289 -0.104784 -0.000013 -0.373531 -0.926894
-0.281621 0.009967 0.110773 0.000317 0.139231 0.989378
0.434037 0.110851 0.009067 -0.000891 0.995640 0.087904
1.428615 -0.179933 0.158617 -0.000000 -0.693889 -0.720082
-1.095114 0.111221 -0.000000 -0.002220 0.998491 0.043704
0.336279 -0.293154 -0.273769 0.066674 -0.692345 0.718479
1.090450 -0.043691 0.102280 0.000710 -0.346939 0.937225
0.184850 0.163573 0.134849 0.066674 0.692345 -0.718479
-0.739874 0.092629 -0.061563 -0.000001 0.810118 -0.585124
0.311515 -0.711538 0.683053 -0.067501 -0.717270 -0.693519
0.983348 0.106687 -0.031431 0.000086 0.970131 -0.240763
0.391110 0.291431 -0.284511 0.067543 -0.692305 -0.718437
1.307351 0.155828 -0.164931 0.000000 -0.693889 -0.720082
-0.034394 -0.224393 -0.219388 -0.068379 0.666095 -0.742726
-1.008538 0.027678 0.107722 0.000115 0.297730 0.953865
0.321858 -0.429529 0.403845 0.066674 -0.692345 -0.718479
-1.066607 0.029188 0.107323 0.000019 0.312156 0.949321
0.309332 0.347270 0.323416 0.066674 0.692345 -0.718479
-0.695037 0.106416 0.032338 -0.000104 0.957706 0.285441
1.078847 0.098318 -0.051997 0.000234 0.880929 -0.471832
-0.211068 0.070107 0.086342 -0.000026 0.639508 0.767929
-0.597613 0.026466 -0.108026 -0.000105 0.245985 -0.968569
0.312346 -0.106535 0.113746 0.067543 0.692305 0.718437
0.375039 0.000000 0.111221 0.000534 0.014720 0.999437
-0.276590 -0.046229 0.101158 -0.000030 -0.408524 0.912026
0.306217 0.578088 0.545549 0.021949 0.701788 -0.711296
0.378947 -0.482992 0.470249 0.067543 0.692305 0.718437
1.630443 0.007954 0.104745 0.081748 0.118683 0.988774
-0.925159 0.082657 0.074417 0.000298 0.714763 0.698391
1.363083 0.204622 0.186101 -0.091399 0.820727 -0.563963
-0.440552 -0.033623 0.106017 0.000560 -0.338882 0.940067
-1.162239 -0.099367 0.049962 0.000078 -0.891207 0.452195
-0.297447 0.104837 0.037139 0.000353 0.923225 0.382563
-0.074589 -0.100709 -0.047200 -0.000210 -0.901339 -0.431636
-1.401781 -0.107763 -0.027517 0.000103 -0.956496 -0.289536
1.638397 0.267397 -0.257671 0.219520 0.680899 0.698704
1.582209 -0.299385 -0.288495 -0.091399 -0.820727 0.563963
0.227737 0.347897 -0.354283 -0.023072 -0.675954 -0.735836
1.399201 -0.178508 -0.186786 -0.000000 0.693889 -0.720082
1.236284 0.124675 -0.105369 -0.000000 0.693889 0.720082
1.568484 0.080696 0.062990 0.026507 -0.719829 -0.693646
0.377009 -0.169095 0.167951 0.067543 0.692305 0.718437
-0.064921 -0.158079 0.157106 -0.068379 0.666095 0.742726
0.299365 -0.090102 -0.065205 -0.000290 -0.776742 -0.628738
1.596791 0.049739 -0.095647 0.081841 0.458580 -0.884142
-1.503446 -0.055852 0.096180 0.000028 -0.500519 0.864986
0.222294 -0.439844 0.410739 -0.067501 -0.717270 -0.693519
-1.086367 -0.101584 0.045285 -0.000299 -0.893730 0.447159
-1.246766 -0.109790 -0.017782 0.000656 -0.978710 -0.201802
0.216349 -0.079630 0.077648 0.000244 -0.709525 0.703921
-0.288712 -0.098350 -0.051936 -0.000230 -0.883694 -0.466720
1.467389 -0.117635 0.098585 -0.000000 -0.693889 -0.720082
-0.999598 -0.058298 0.094718 0.000114 -0.562918 0.825723
1.499158 -0.266076 -0.258354 -0.091399 0.533180 -0.841050
1.247545 -0.048213 0.100228 -0.000044 -0.431965 0.901150
-0.457535 0.060468 0.093347 -0.000172 0.509373 0.859771
0.374126 -0.105322 0.035740 0.000059 -0.957895 0.284798
0.101114 -0.281959 -0.283491 -0.068379 0.666095 -0.742726
1.511082 0.192187 0.199968 -0.000000 -0.693889 0.720082
0.073825 -0.208637 0.215221 -0.068379 0.666095 0.742726
1.423075 0.103250 -0.114265 -0.000000 -0.693889 -0.720082
1.500000 0.079389 -0.061730 -0.000000 0.693889 0.720082
0.322754 0.311060 0.289769 0.066674 0.692345 -0.718479
1.412175 0.057650 0.095113 -0.000410 0.480695 0.876154
-1.479323 0.111092 0.005355 -0.001292 0.995725 0.087059
0.006593 0.264531 -0.259158 -0.068379 -0.666095 -0.742726
1.537843 -0.109540 0.019265 0.000308 -0.985011 0.167911
0.360219 -0.038375 -0.104391 -0.000379 -0.327181 -0.944335
1.401999 0.151315 0.131040 -0.000000 0.693889 -0.720082
0.312124 0.191396 -0.195541 0.067543 -0.692305 -0.718437
-0.016894 0.147474 -0.131637 -0.067501 0.717270 0.693519
0.299989 -0.355095 0.354426 0.067543 0.692305 0.718437
-0.229425 -0.090919 -0.064061 -0.000407 -0.817042 -0.575542
-0.021821 -0.198458 0.197287 -0.068379 0.666095 0.742726
-1.152066 0.043994 -0.102150 0.000420 0.355617 -0.934011
1.495834 0.146171 0.126083 0.000000 0.693889 -0.720082
1.307725 0.164103 0.172905 -0.030654 -0.642838 0.763609
-0.616518 0.101927 -0.044508 0.000163 0.921218 -0.387440
-0.008344 -0.134057 0.116928 -0.067501 -0.717270 -0.693519
0.925235 -0.012251 -0.110544 -0.000392 -0.150439 -0.987914
0.232304 -0.388213 0.390860 -0.068379 0.666095 0.742726
-0.160190 -0.055636 -0.096305 -0.000011 -0.536926 -0.842828
0.003683 -0.154463 -0.160179 -0.068379 0.666095 -0.742726
0.115129 -0.092745 0.061388 0.000031 -0.806114 0.590658
0.079128 0.190339 0.199299 -0.068379 -0.666095 0.742726
0.179832 0.289379 0.297392 -0.068379 -0.666095 0.742726
1.197988 0.142691 0.122729 -0.061120 0.781557 -0.618638
1.645074 0.029076 -0.061986 1.000000 0.000000 0.000000
1.645074 -0.029076 -0.061986 1.000000 0.000000 0.000000
-0.227659 -0.107812 0.027325 0.000206 -0.977664 0.207052
-0.891004 -0.041751 0.103087 0.000471 -0.373954 0.926764
-0.196495 -0.109488 -0.019558 0.000127 -0.983947 -0.175130
0.270213 0.147538 0.157219 0.067543 -0.692305 0.718437
0.577429 0.081802 0.075356 -0.000092 0.738043 0.673906
0.897403 0.067199 -0.088625 0.000171 0.563400 -0.825404
0.430265 0.427345 -0.411800 0.066674 0.692345 0.718479
0.430265 0.355000 -0.342087 0.066674 0.692345 0.718479
0.430265 0.232013 0.223574 0.066674 0.692345 -0.718479
1.093045 -0.098532 0.080177 -0.000000 -0.693889 -0.720082
0.169778 0.374153 0.347910 -0.067501 0.717270 -0.693519
0.947724 -0.055835 -0.096190 -0.000094 -0.499493 -0.865568
-0.126959 0.144086 -0.138845 -0.067501 0.717270 0.693519
0.252792 -0.478517 0.473733 -0.068379 0.666095 0.742726
0.111800 0.186589 0.159565 -0.067501 0.717270 -0.693519
0.072161 0.153579 -0.165691 -0.068379 -0.666095 -0.742726
1.522971 -0.264837 0.247818 -0.091399 -0.820727 -0.563963
1.522971 0.264837 0.247818 -0.091399 0.820727 -0.563963
0.430265 -0.297123 0.286316 0.066674 -0.692345 -0.718479
-1.169867 0.037711 0.104633 -0.000076 0.335774 0.941266
-1.119709 0.006568 -0.111027 -0.000068 0.098365 -0.994558
0.356544 -0.100982 -0.046612 -0.000682 -0.924930 -0.378341
-1.722923 0.006969 -0.037590 -0.698375 0.215547 -0.679432
-1.145762 0.081182 0.076024 -0.000189 0.755480 0.654291
0.295114 -0.208146 0.213281 0.067543 0.692305 0.718437
1.054796 0.100889 0.105344 -0.091399 -0.533180 0.841050
-1.671134 -0.009326 0.076781 -0.480696 -0.138174 0.864466
0.350771 -0.337650 0.332842 0.067543 0.692305 0.718437
1.592929 -0.222777 0.199903 0.073624 -0.692381 -0.715868
-1.656156 -0.059310 -0.061295 -0.425102 -0.616530 -0.661616
0.125013 0.111221 -0.000000 0.000367 0.999463 0.019171
1.028559 0.116885 -0.112634 -0.091399 -0.533180 -0.841050
1.464218 0.260492 -0.251016 -0.091399 -0.533180 -0.841050
-0.992886 0.109810 -0.017659 -0.000551 0.980009 -0.195798
0.378424 -0.180381 -0.169009 0.066674 -0.692345 0.718479
0.235191 -0.123078 -0.100499 0.066674 -0.692345 0.718479
1.448572 -0.106663 -0.031513 0.001029 -0.971033 -0.235501
1.367468 -0.105336 0.035700 -0.000321 -0.959548 0.279092
0.048240 -0.191038 -0.170353 -0.067501 -0.717270 0.693519
0.603029 -0.098996 -0.050694 0.000144 -0.891925 -0.450929
1.642106 -0.160387 0.154553 0.219520 0.673008 0.706308
0.430265 0.195840 0.188717 0.066674 0.692345 -0.718479
0.430265 -0.195840 0.188717 0.066674 -0.692345 -0.718479
1.278181 -0.079389 0.061730 -0.000000 -0.693889 -0.720082
-0.009796 0.107769 -0.027493 -0.000100 0.969927 -0.240791
1.641117 0.188923 -0.182051 0.219520 0.680899 0.698704
1.435150 0.000000 0.111221 -0.000298 0.048667 0.998363
-0.264675 0.094630 -0.058441 -0.000437 0.831647 -0.554005
0.256070 -0.335482 0.307114 0.066674 -0.692345 -0.718479
0.430265 -0.123495 0.119003 0.066674 -0.692345 -0.718479
-0.445602 -0.107717 0.027697 0.000121 -0.956440 0.289732
0.742741 0.046890 -0.100853 0.000274 0.430650 -0.901833
0.014137 -0.258387 0.243328 -0.067501 -0.717270 -0.693519
0.240731 0.132362 -0.145366 0.067543 -0.692305 -0.718437
1.402759 -0.051551 -0.098552 0.000451 -0.511433 -0.858246
0.259447 0.423644 -0.392382 0.066674 0.692345 0.718479
1.440713 -0.231503 0.230085 -0.091399 0.533180 0.841050
1.440713 0.231503 0.230085 -0.091399 -0.533180 0.841050
0.177105 -0.230488 0.198611 -0.022776 -0.710096 -0.702975
-0.070043 0.105299 0.109299 -0.068379 -0.666095 0.742726
1.477721 0.162396 0.171260 -0.000000 -0.693889 0.720082
1.390028 0.191232 -0.199047 -0.061120 -0.589269 -0.803932
1.563593 -0.073222 -0.070559 0.026507 0.719829 0.693646
-1.723480 0.000000 0.037685 -0.714855 -0.049509 0.693790
-1.495468 -0.060220 -0.093507 -0.000078 -0.577688 -0.815468
0.313811 -0.587665 0.577238 -0.023072 0.675954 0.735836
0.693257 0.105156 -0.036226 -0.000467 0.956509 -0.289670
0.027580 0.284399 0.278909 -0.068379 -0.666095 0.742726
0.163630 -0.285078 -0.256383 -0.067501 -0.717270 0.693519
-0.414578 0.073827 -0.083185 0.000743 0.628823 -0.776757
-0.452033 -0.090428 -0.064752 -0.000022 -0.811769 -0.582871
1.096711 0.055046 0.096644 -0.001295 0.517082 0.855168
0.752925 0.104943 0.036837 0.000010 0.942448 0.332685
1.460208 -0.097237 -0.108472 -0.000000 0.693889 -0.720082
0.294990 -0.106062 0.033480 0.000370 -0.950913 0.307425
0.273808 0.088798 -0.066970 -0.000023 0.798014 -0.601523
0.776409 -0.104256 -0.038739 0.000056 -0.936761 -0.348221
0.207515 -0.074387 -0.082684 -0.000055 -0.682143 -0.730319
1.277254 -0.127481 -0.108072 0.000000 -0.693889 0.720082
1.438362 0.044069 -0.102118 -0.000392 0.397704 -0.916837
0.192676 -0.365687 0.367010 -0.068379 0.666095 0.742726
1.317146 -0.110471 0.091682 -0.000000 -0.693889 -0.720082
0.041284 -0.344696 -0.334246 -0.068379 0.666095 -0.742726
0.146273 0.226426 -0.197411 -0.067501 0.717270 0.693519
0.190319 -0.183393 -0.199281 0.067543 0.692305 -0.718437
0.447302 -0.108523 -0.024346 0.001023 -0.976018 -0.214636
0.191555 0.068429 0.087678 0.000056 0.618632 0.784853
-1.344551 0.082756 -0.074307 0.000786 0.771024 -0.635758
1.342839 0.106518 0.087873 0.000000 0.693889 -0.720082
0.066411 0.105769 -0.080395 -0.067501 0.717270 0.693519
0.267139 -0.010902 0.110685 -0.000878 -0.140930 0.989408
0.288512 -0.162979 -0.170378 0.067543 0.692305 -0.718437
-0.720959 -0.017045 0.109907 -0.000313 -0.150675 0.987883
0.388390 0.247818 0.242740 0.067543 -0.692305 0.718437
0.301375 -0.103593 -0.111943 0.067543 0.692305 -0.718437
0.758967 -0.091385 0.063394 0.000832 -0.794969 0.605682
-0.376126 -0.086976 0.069320 0.001016 -0.784450 0.619058
0.214748 -0.339967 -0.345975 -0.068379 0.666095 -0.742726
0.102210 0.125331 0.143123 -0.068379 -0.666095 0.742726
1.236693 0.029804 -0.107153 0.000101 0.259856 -0.964956
1.408317 -0.212022 0.189539 -0.030654 -0.739278 -0.670678
0.137799 -0.411721 0.389876 -0.067501 -0.717270 -0.693519
1.139557 0.098297 -0.052037 -0.000858 0.861015 -0.507270
-0.631564 0.060055 0.093613 -0.000017 0.506939 0.861455
1.463186 -0.215347 -0.222285 -0.030654 0.642838 -0.763609
0.519225 0.103293 0.041239 0.000047 0.911379 0.409924
1.516796 0.133933 -0.143832 0.000000 -0.693889 -0.720082
1.433805 0.118796 0.099704 -0.000000 0.693889 -0.720082
1.490620 -0.224390 0.230999 -0.030654 0.642838 0.763609
1.490620 0.224390 0.230999 -0.030654 -0.642838 0.763609
0.135727 -0.219202 -0.230395 -0.068379 0.666095 -0.742726
0.148331 0.448872 -0.427275 -0.067501 0.717270 0.693519
-0.695695 -0.072080 0.084703 0.000589 -0.648587 0.760250
1.641859 0.167521 0.161427 0.219520 0.680899 -0.698704
