0.090876 0.791059 0.652258 -0.442994 0.000051 -0.000035
1.897936 1.362880 1.308122 0.051257 -0.011558 0.011736
2.737436 0.844588 0.798906 0.029098 -0.014782 0.012359
1.596187 0.622530 0.684318 0.000000 -0.991186 -0.000002
2.716650 0.602022 0.586433 0.029098 0.014782 -0.012359
0.695421 0.683306 0.601581 -0.000001 -0.408445 -0.000016
1.055727 0.640777 0.637220 -0.000000 -0.813005 -0.000003
2.963873 0.448198 0.970183 0.029100 -0.010741 -0.011647
0.650383 0.683379 0.794635 -0.000001 -0.385622 0.000004
1.440194 0.588667 0.573732 -0.051235 -0.007951 0.007716
2.827002 0.469045 0.449307 0.029100 -0.012275 0.013073
1.647859 0.330291 1.084834 -0.025242 0.004954 0.005207
1.673635 1.329438 1.275991 -0.025244 -0.012018 0.011623
1.452324 0.903347 0.858290 -0.051237 0.004969 -0.004857
1.455397 1.051615 1.009053 -0.025243 -0.005929 0.006182
1.667921 0.562210 0.563464 -0.051237 -0.014168 0.013411
1.802614 1.364426 0.094007 -0.051237 0.005189 0.005070
1.370996 0.830521 0.669922 0.000001 0.859162 -0.000001
1.786907 0.413089 0.387640 0.051258 0.006246 -0.006453
2.923412 0.844253 0.601344 0.000001 -0.692836 -0.000327
3.168645 0.635568 0.609305 -0.058822 -0.005871 0.005958
1.309905 0.589549 0.831094 -0.051234 -0.007951 -0.007716
2.700462 0.519996 0.498262 0.029097 -0.013259 0.013947
1.030206 0.729420 0.804405 -0.000000 0.024501 0.000010
3.065332 0.609278 0.821181 -0.058823 -0.012134 -0.012121
2.624735 0.829567 0.787682 0.029101 -0.011730 0.010202
2.474434 0.834257 0.700821 0.000000 0.999700 0.000000
3.143352 1.114282 0.326920 0.029100 0.012275 0.013073
1.956493 0.816932 0.756372 -0.000000 0.843126 0.000005
1.806793 0.298776 1.097290 0.103753 -0.002303 -0.002396
1.866417 0.632329 0.651611 -0.000001 -0.900960 -0.000007
0.200000 0.735678 0.804161 -0.087330 0.000007 0.000119
0.474734 0.723961 0.591841 0.000000 -0.024121 -0.000020
1.636967 1.036159 0.980018 -0.051236 0.002971 -0.002913
2.953542 1.037855 0.995831 0.029101 0.021473 -0.019977
2.698124 0.834238 0.694559 0.000000 0.999709 -0.000000
2.947336 0.705026 0.801935 0.000000 -0.227488 0.000031
1.983516 0.729099 0.591771 0.000000 0.024121 -0.000020
2.447382 0.621898 0.800012 0.029099 -0.014028 -0.014607
3.140417 0.655378 0.740005 0.361484 -0.000102 0.000056
2.674968 0.621335 0.790927 0.029095 0.013688 0.011614
1.306441 0.729099 0.591771 0.000000 0.023750 -0.000020
1.590084 1.083450 0.364574 -0.051236 0.005608 0.005474
2.812221 0.785510 0.608660 -0.000001 0.537674 -0.000045
3.143352 0.341668 1.069264 0.029099 -0.012276 -0.013073
3.143352 1.114282 1.069264 0.029101 0.012275 -0.013073
3.037902 0.384127 0.367716 0.029099 -0.015343 0.015689
0.911605 0.621661 0.699537 0.000000 -0.999709 0.000000
1.800164 1.112517 0.321656 0.051257 -0.005500 -0.005692
1.596187 0.798497 0.777695 -0.000000 0.672340 0.000008
3.038858 0.984102 0.443576 0.029098 0.010742 0.011648
3.141547 0.809225 0.618008 -0.058824 0.004485 0.004561
1.334154 0.897269 0.860754 -0.025241 -0.023136 0.018274
1.642053 0.940058 0.911341 -0.025241 -0.013156 0.012496
2.091608 0.825661 0.740119 0.000002 0.665623 0.000001
0.650383 0.808418 0.628542 0.000000 0.756105 -0.000003
1.796552 0.099240 1.294762 -0.051234 -0.005189 -0.005070
1.461072 0.788649 0.785429 0.000001 0.565754 0.000005
3.226536 1.063308 0.375897 -0.058822 -0.010375 -0.010853
0.875574 0.735678 0.592023 0.000000 0.060114 -0.000060
2.136647 0.622793 0.682408 0.000000 -0.987715 -0.000001
2.892971 0.540378 0.887698 0.029099 -0.012275 -0.013073
2.960227 0.630040 0.618969 0.000000 0.692839 -0.000654
2.405203 0.817067 0.783694 0.029099 0.014028 -0.014607
3.204270 0.969875 0.465669 -0.058823 -0.004323 -0.004580
3.173098 0.839068 0.804833 -0.058824 -0.005748 0.006076
3.208723 0.467388 0.447715 -0.058824 -0.008830 0.008907
3.037902 1.071822 0.367716 0.029098 0.015344 0.015689
2.361838 0.687871 0.599595 0.000000 -0.388538 -0.000017
1.926468 0.728938 0.804417 -0.000010 0.001302 0.000370
0.925116 0.729420 0.804405 0.000000 0.024121 0.000080
1.858717 1.002730 0.439774 0.103756 0.003270 0.003402
2.915210 0.511845 0.482942 0.029098 -0.013259 0.013946
2.915210 0.951586 0.490729 0.029096 -0.014783 -0.012359
2.939829 0.834218 0.702427 0.000000 0.999709 0.000000
2.632068 0.625428 0.669922 0.000000 -0.942756 -0.000001
2.316800 0.641566 0.760077 -0.000001 -0.815792 0.000021
1.713084 1.202522 0.252325 -0.051239 0.002134 0.002094
3.082450 0.815498 0.758505 0.362124 0.000112 0.000079
1.821378 0.672823 0.789013 0.000000 -0.517269 0.000024
1.789117 1.063203 1.004444 0.103753 0.002855 -0.002971
0.785498 0.625201 0.725408 0.000000 -0.967920 0.000002
2.587029 0.678552 0.792259 0.000000 -0.475339 0.000027
0.200000 0.637635 0.641978 -0.049651 -0.000359 -0.000217
1.664607 0.881185 0.820178 -0.051246 0.002197 -0.002155
1.802374 0.324519 0.324268 0.103753 -0.002487 0.002588
1.669585 1.261981 0.183317 -0.025243 -0.014616 -0.013549
1.475642 0.524715 0.498830 -0.025242 0.027481 -0.019923
1.093259 0.729741 0.591786 0.000000 0.024492 -0.000020
2.091608 0.797221 0.617386 -0.000000 0.653909 -0.000017
0.191891 0.816595 0.640033 -0.053456 0.000660 -0.000410
2.779006 0.645003 0.792787 -0.000001 -0.692840 -0.000654
2.632068 0.781262 0.606064 -0.000000 0.496486 -0.000051
1.897936 0.579260 0.840980 0.051257 0.007737 0.007963
1.897936 1.236831 0.209172 0.051259 -0.008017 -0.008244
1.897936 1.146795 0.295680 0.051259 -0.010253 -0.010465
1.897936 1.380887 0.070760 0.051261 -0.008575 -0.008803
3.230989 0.373955 0.357942 -0.058823 -0.014127 0.014011
1.596187 0.828397 0.663098 -0.000000 0.946856 -0.000005
1.235881 0.640800 0.758996 0.000000 -0.815991 0.000010
3.230989 0.373955 1.038241 -0.058824 -0.014127 -0.014011
1.528143 1.144223 0.298152 -0.025246 -0.004954 -0.005206
2.271761 0.831112 0.724009 0.000000 0.968010 0.000001
1.100766 0.656144 0.776507 -0.000000 -0.672146 0.000016
0.740459 0.720913 0.804199 -0.000001 -0.059894 0.000121
1.897936 0.858683 0.572505 0.051258 -0.004428 -0.004592
2.763732 0.961429 0.922399 0.029098 0.012276 -0.013074
2.595012 0.893494 0.857126 0.029098 0.017534 -0.017361
1.512479 1.020085 0.423420 -0.051236 0.006277 0.006118
1.897936 0.327161 1.083202 0.051260 0.010253 0.010465
1.540268 1.159658 1.112862 -0.025245 -0.019158 0.016349
1.714032 0.194564 0.192452 -0.051235 -0.003599 0.003525
1.776340 0.834094 0.691230 -0.000001 0.996399 -0.000001
1.676090 0.928972 0.528183 -0.051236 0.013556 0.012871
1.370996 0.639376 0.639279 0.000000 -0.829760 -0.000005
0.515268 0.804521 0.624272 0.000000 0.723970 -0.000028
3.096627 0.557053 0.526379 -0.058822 -0.003091 0.003148
1.676526 0.275653 0.272282 -0.051236 -0.009206 0.008898
3.065332 0.846671 0.575003 -0.058824 0.012133 0.012121
1.641225 0.665465 0.612054 0.000001 -0.597496 -0.000078
1.686264 0.810892 0.631498 0.000000 0.772063 -0.000048
0.335115 0.814616 0.759750 -0.000000 0.816022 0.000010
2.892901 0.599143 0.559334 0.000000 -0.692839 0.000654
2.763732 0.494521 0.922399 0.029098 -0.012276 -0.013074
1.416561 0.591415 0.833036 -0.025244 0.007715 0.007902
1.593115 0.368640 0.360867 -0.051236 -0.002804 0.002749
1.856507 0.497603 0.482739 0.103753 -0.003408 0.003545
0.290077 0.666644 0.611219 0.000000 -0.577996 -0.000041
1.145804 0.818480 0.753931 0.000000 0.855785 0.000009
0.740459 0.834315 0.698734 -0.000000 0.999925 0.000000
2.975274 0.584181 0.821277 0.000002 0.692838 0.001090
1.956493 0.624269 0.674557 0.000001 -0.972235 -0.000003
1.235881 0.794568 0.781009 -0.000000 0.635629 0.000018
0.069771 0.665872 0.719943 -0.525579 -0.000042 0.000014
1.832755 1.124970 1.070104 0.103753 0.002487 -0.002588
0.515268 0.809309 0.766608 0.000001 0.743005 0.000003
2.136647 0.728296 0.804432 0.000000 0.024121 0.000080
0.605345 0.646512 0.629731 0.000000 -0.767242 -0.000003
1.858717 0.993727 0.947758 0.103755 0.006540 -0.006793
2.915445 0.916263 0.867773 0.029097 -0.014783 0.012359
0.605345 0.787688 0.786085 0.000001 0.557939 0.000043
1.744926 0.816280 0.793828 0.051255 -0.004195 0.004352
2.947336 0.626045 0.728424 0.000002 -0.876008 0.000001
1.370527 0.943573 0.490940 -0.025242 -0.015428 -0.014101
1.010689 0.826066 0.657026 0.000000 0.921187 -0.000006
2.541991 0.766135 0.598831 -0.000001 0.364563 -0.000018
1.897936 0.858683 0.823679 0.051258 -0.004428 0.004592
0.920613 0.659893 0.616400 0.000000 -0.635518 -0.000035
0.785498 0.717152 0.592301 0.000000 -0.108527 -0.000265
3.116205 0.933463 0.494103 -0.058824 0.010596 0.010636
0.245038 0.660389 0.780192 -0.000001 -0.635484 0.000070
1.552554 0.919842 0.528436 -0.051237 0.014168 0.013411
3.143352 0.341668 0.326920 0.029097 -0.012276 0.013074
1.055727 0.808339 0.767733 0.000001 0.750670 0.000006
1.641225 0.710070 0.802922 0.000000 -0.180388 0.000020
2.881719 0.792602 0.775162 -0.000001 0.721089 0.000513
2.361838 0.785713 0.608789 0.000000 0.537878 -0.000045
1.273532 0.820096 0.609580 -0.025242 -0.015428 -0.014101
0.515268 0.650709 0.625027 0.000001 -0.723592 -0.000028
0.335115 0.645670 0.765430 -0.000001 -0.771920 0.000024
1.489875 0.635727 0.794196 -0.025241 0.009644 0.009650
1.461072 0.786521 0.609314 -0.000001 0.556264 -0.000011
2.812221 0.696951 0.596375 0.000000 -0.297428 -0.000093
1.821933 0.033586 0.036422 -0.051237 -0.007700 0.007477
1.501383 0.655487 0.620040 -0.025242 0.019282 -0.016416
1.145804 0.657453 0.618489 0.000000 -0.672095 -0.000032
1.691233 0.568016 0.864372 -0.025241 0.006396 0.006641
2.226723 0.621835 0.704633 0.000001 -0.987795 0.000000
1.663170 1.097302 1.040364 -0.051236 0.005273 -0.005151
3.042863 0.624473 0.588047 -0.058826 -0.004053 0.004124
1.863136 0.377207 0.358590 0.051258 0.011745 -0.011916
2.541991 0.818480 0.753931 -0.000001 0.849113 0.000004
0.245038 0.804021 0.772434 0.000000 0.707107 0.000002
1.776340 0.781992 0.606485 0.000000 0.517269 -0.000024
1.661314 0.210294 1.197338 -0.025242 0.015266 0.013993
1.190842 0.810534 0.631064 -0.000000 0.772085 -0.000012
2.992374 0.786187 0.609092 0.000000 0.537979 -0.000006
0.290077 0.782989 0.607088 0.000000 0.517290 -0.000048
1.455397 0.404334 1.009053 -0.051237 -0.011883 -0.011368
1.235881 0.627127 0.664354 0.000001 -0.923022 -0.000001
2.271761 0.701202 0.801007 0.000000 -0.251009 0.000112
1.813422 1.191287 1.131026 0.103754 0.002119 -0.002204
3.142924 0.403820 1.002995 -0.058822 0.010375 0.010853
1.639844 0.524500 0.492956 -0.025243 0.013155 -0.012496
0.515268 0.650792 0.771243 -0.000000 -0.723969 0.000007
1.809242 1.384712 1.332283 -0.025238 -0.009422 0.009455
1.802614 0.097062 0.088242 -0.025244 0.009420 -0.009453
1.693483 0.987236 0.470124 -0.051236 0.006444 0.006279
3.159739 0.725795 0.621803 0.355724 -0.000005 -0.000118
1.632832 1.017423 0.412926 -0.025245 -0.005928 -0.006181
1.560723 0.510763 0.913320 -0.025242 0.026296 0.019514
1.789117 1.051469 0.379526 0.051257 -0.005780 -0.005978
1.731302 0.653462 0.622216 0.000000 -0.706921 -0.000007
0.143868 0.749165 0.602205 -0.236295 0.000031 -0.000159
1.868107 0.074228 1.328349 0.051257 0.009695 0.009915
1.370996 0.779164 0.604880 -0.000000 0.475110 -0.000027
3.101773 0.637679 0.657889 0.361721 -0.000492 -0.000251
1.742700 0.146955 1.250115 -0.051233 -0.006529 -0.006360
1.821378 0.624534 0.722761 -0.000000 -0.973726 0.000007
1.823917 0.418481 0.984752 0.103754 -0.003040 -0.003162
2.181685 0.654038 0.621657 -0.000001 -0.615893 -0.000002
0.920613 0.653689 0.774195 0.000000 -0.707292 0.000007
1.431149 1.020746 0.416791 -0.025242 -0.006254 -0.006501
0.650383 0.833182 0.713617 0.000000 0.987657 0.000001
1.497761 0.858077 0.808863 -0.051237 0.004969 -0.004857
2.587029 0.759151 0.799761 0.000000 0.297511 0.000093
2.803356 0.602527 0.590662 0.029099 0.014782 -0.012359
2.316800 0.795281 0.780422 -0.000000 0.635518 0.000018
1.810660 0.941823 0.909774 0.051257 -0.007364 0.007587
1.829165 0.906538 0.536473 0.103754 0.003823 0.003976
1.744926 0.639670 0.793828 0.051258 0.004195 0.004352
1.810660 0.532133 0.892473 0.051258 0.014726 0.014732
2.064585 0.726530 0.591779 0.000000 -0.024121 -0.000040
1.806241 0.549349 0.519938 0.051258 0.007737 -0.007963
1.826679 1.242826 1.197844 0.051257 -0.004009 0.004159
2.521776 0.652659 0.632145 -0.000000 -0.721092 -0.000235
3.142924 1.045583 1.009808 -0.058824 0.010596 -0.010636
2.824564 0.844253 0.794840 0.029099 -0.014782 0.012359
1.813293 0.001517 1.393051 0.000000 -0.721082 0.000268
1.700933 0.463394 0.962392 -0.025242 0.023703 0.018514
2.677106 0.666022 0.611660 0.000000 -0.577947 -0.000020
3.085513 0.544201 0.883323 -0.058822 -0.006182 -0.006270
1.504207 0.456658 0.434299 -0.025242 0.006254 -0.006502
0.740459 0.635508 0.645572 -0.000000 -0.837533 -0.000001
2.458120 0.818136 0.613602 0.029098 -0.015641 -0.012919
3.195364 0.523448 0.894605 -0.058823 -0.005299 -0.005382
3.204270 0.969875 0.930514 -0.058824 -0.004323 0.004580
3.235442 1.100681 1.056196 -0.058823 -0.013832 0.014303
3.007344 0.662254 0.774024 0.000000 -0.721091 0.000556
2.915562 0.885509 0.533626 0.029106 0.006629 0.007470
1.416034 0.827950 0.734333 0.000002 0.850494 0.000001
0.461222 0.727172 0.804430 0.000000 -0.012249 0.000039
1.730576 1.288913 1.240120 -0.025241 -0.026621 0.019629
3.076626 0.933944 0.905819 -0.058822 0.005299 -0.005382
2.001532 0.684917 0.795327 -0.000002 -0.295456 0.000006
1.565552 0.412064 0.993115 -0.051234 -0.002971 -0.002913
1.581375 0.639910 0.759932 -0.051239 -0.002197 -0.002155
1.416034 0.633389 0.746691 -0.000000 -0.887933 0.000002
1.841593 0.261486 0.258030 0.103753 -0.002119 0.002205
1.715012 1.039456 1.006668 -0.025243 -0.011207 0.010971
1.820050 0.247951 1.164852 0.051258 0.004381 0.004544
1.414146 0.895870 0.533974 -0.025242 -0.003858 -0.004085
2.995294 0.463263 0.450303 0.029099 0.011976 -0.010385
0.830536 0.761599 0.798978 -0.000000 0.320321 0.000043
2.914248 0.968907 0.923970 0.029098 -0.013686 0.011614
1.723384 0.934929 0.909362 0.051258 -0.007364 0.007587
1.670025 1.218561 1.163344 -0.051235 0.004269 -0.004177
0.494250 0.834311 0.697128 0.000000 0.999925 -0.000000
0.056378 0.780449 0.719457 -0.578073 0.000031 0.000014
1.641225 0.759611 0.596566 0.000001 0.297492 -0.000186
3.140417 0.719212 0.781460 0.361482 -0.000015 0.000116
0.605345 0.637531 0.754034 0.000000 -0.855376 0.000004
1.552554 0.547060 0.517036 -0.025242 0.027482 -0.019923
1.582841 0.594531 0.835872 -0.025242 0.027482 0.019923
1.460499 0.496740 0.914578 -0.051236 -0.014168 -0.013411
2.181685 0.794315 0.614977 0.000000 0.616453 -0.000018
1.911455 0.788977 0.610987 0.000001 0.577496 -0.000020
1.701288 0.848847 0.567959 0.051258 -0.004195 -0.004352
2.741305 0.893661 0.862903 0.029096 0.006631 -0.007472
1.821378 0.673236 0.606921 -0.000000 -0.517585 -0.000012
0.425191 0.779164 0.604880 -0.000000 0.475014 -0.000013
1.736835 1.364979 1.311358 -0.025247 -0.010068 0.010017
2.758160 0.655866 0.628808 0.000001 -0.721092 -0.000513
1.370996 0.752096 0.801660 0.000000 0.227537 0.000062
1.897936 0.183105 1.221614 0.051259 0.014540 0.014560
1.897936 0.147091 0.139966 0.051259 0.013049 -0.013162
1.897936 0.453210 0.962091 0.051257 0.013236 0.013339
0.695421 0.758114 0.596107 0.000001 0.273068 -0.000025
1.780279 1.011716 0.442488 0.103753 0.003270 0.003402
2.316800 0.622158 0.687508 0.000001 -0.990028 -0.000002
0.830536 0.831883 0.675458 0.000001 0.977565 -0.000003
3.007344 0.806472 0.760727 0.000002 0.721071 0.000197
1.823641 0.863105 0.817180 0.103753 0.003892 -0.004048
2.648316 0.847829 0.576516 0.029099 0.021036 0.019710
2.389482 0.656400 0.767932 -0.000001 -0.720946 0.000039
2.812221 0.626186 0.728885 -0.000001 -0.951979 0.000002
1.778069 0.452603 0.450849 0.103754 -0.006448 0.006698
2.271761 0.708095 0.593624 0.000001 -0.176430 -0.000020
1.747119 0.130215 0.129346 -0.051236 -0.005859 0.005716
1.668999 0.621628 0.698012 0.000000 -0.999700 -0.000000
1.598228 0.428244 0.404522 -0.025242 0.023702 -0.018514
1.718198 0.314640 1.101877 -0.025243 0.009258 0.009310
0.053122 0.727975 0.643859 -0.604615 0.000001 -0.000015
2.993681 0.862597 0.583719 -0.058820 -0.003969 -0.004206
3.031509 1.016122 0.969335 0.029101 -0.010264 0.009077
2.542480 0.605983 0.578741 0.029098 -0.014029 0.014607
1.710009 0.080207 1.320480 -0.051236 -0.010377 -0.009988
1.419024 0.450638 0.964563 -0.051236 -0.013222 -0.012573
1.540268 0.296292 1.112862 -0.051237 -0.009875 -0.009523
1.637262 0.172815 0.164683 -0.051235 -0.007198 0.007000
1.722133 1.391177 0.060873 -0.025242 -0.009421 -0.009454
1.576641 1.205961 1.157351 -0.025238 -0.004305 0.004546
2.471431 0.621685 0.695683 0.000000 -0.999709 -0.000000
0.362138 0.621652 0.700180 0.000000 -0.999920 0.000000
1.551360 0.812559 0.607019 -0.025242 -0.012790 -0.012221
1.055727 0.789862 0.611613 0.000001 0.577496 -0.000020
1.802926 0.211124 0.194729 0.051258 0.004009 -0.004159
3.121094 0.818808 0.688545 0.361715 0.000463 -0.000073
2.992374 0.692601 0.597800 0.000000 -0.343278 -0.000158
1.956493 0.664209 0.612990 -0.000001 -0.596999 -0.000039
1.716116 0.398221 0.399997 -0.051238 -0.002804 0.002749
2.181685 0.819228 0.752693 -0.000000 0.855683 0.000009
0.380153 0.661257 0.615277 0.000000 -0.635499 -0.000004
2.706989 0.800618 0.629364 0.000001 0.721091 -0.000471
1.359586 0.629535 0.795476 -0.025241 0.007716 0.007903
1.832755 0.356016 1.060117 0.051258 0.010999 0.011194
1.526813 1.043889 0.995956 -0.051238 0.002971 -0.002913
0.470230 0.624001 0.720411 0.000000 -0.978987 0.000006
1.730888 1.174851 1.133633 -0.025240 -0.008610 0.008728
0.740459 0.654271 0.774749 -0.000001 -0.688428 0.000015
1.729912 1.081606 0.349646 -0.025245 -0.004954 -0.005206
1.600125 1.153890 0.293579 -0.051234 0.004938 0.004827
2.857259 0.823499 0.651357 -0.000000 0.899066 -0.000002
1.734046 0.211155 1.199047 -0.025241 0.014617 0.013549
1.723384 0.521021 0.909362 0.051259 0.007364 0.007587
1.458585 1.000796 0.957068 -0.051234 0.013222 -0.012574
3.031296 0.479787 0.945447 0.029098 -0.021475 -0.019977
1.826679 1.250510 0.206337 0.103753 0.001934 0.002013
2.763732 0.494521 0.473784 0.029098 -0.012276 0.013074
2.984017 0.893494 0.872100 0.029098 0.026501 -0.022658
1.751441 1.161047 0.297369 -0.051237 0.002302 0.002258
0.360637 0.834218 0.693757 0.000000 0.999709 -0.000000
2.424891 0.729741 0.804397 0.000000 0.024121 0.000010
1.085753 0.621669 0.699858 0.000000 -0.999709 0.000000
1.686264 0.774202 0.793859 0.000001 0.431957 0.000030
1.190842 0.683965 0.794899 0.000001 -0.409535 0.000032
0.136044 0.632948 0.684216 -0.266764 -0.000135 -0.000016
1.411103 0.854995 0.812070 -0.051236 0.007951 -0.007715
1.235881 0.671455 0.608012 -0.000001 -0.536862 -0.000023
1.503895 0.342596 0.327812 -0.051237 -0.002636 0.002586
1.847669 0.594108 0.576741 0.103753 -0.003892 0.004048
1.819723 1.413994 0.044784 -0.051237 0.008369 0.008111
2.406876 0.643844 0.633047 0.000000 -0.786375 -0.000006
1.537410 0.932624 0.900785 -0.025241 -0.027482 0.019923
1.821378 0.742545 0.803430 0.000000 0.132305 0.000054
1.528047 0.814143 0.761906 0.000001 -0.721090 -0.000523
2.847343 0.838462 0.576959 0.029098 0.026500 0.022658
2.892901 0.856806 0.836850 0.029097 0.013259 -0.013947
2.857259 0.688208 0.796721 0.000001 -0.360692 0.000009
3.131330 0.500996 0.485621 -0.058824 0.005188 -0.005489
2.091608 0.675734 0.790718 0.000000 -0.496539 0.000013
2.718644 0.590991 0.837195 0.029098 -0.013259 -0.013946
1.736364 0.562733 0.527824 0.051256 0.003822 -0.003967
1.297781 0.850965 0.816264 -0.025244 -0.015427 0.014101
1.405644 0.839797 0.599191 -0.051237 0.005963 0.005817
1.658751 1.070704 0.362283 -0.025241 -0.005279 -0.005535
1.648524 0.278010 1.133671 -0.025242 0.004467 0.004711
2.767183 0.825095 0.654778 0.000002 0.910593 -0.000013
3.082636 0.432522 0.421234 0.029098 0.008555 -0.007696
3.159739 0.692825 0.683237 1.000000 0.000000 -0.000000
1.443273 0.419769 0.401961 -0.051237 -0.012552 0.011973
3.132677 0.863551 0.571571 -0.058823 -0.006790 -0.007165
3.110207 0.606039 0.586232 -0.058824 0.011880 -0.012369
0.920613 0.833687 0.709633 -0.000000 0.993952 0.000003
1.923465 0.834307 0.697450 0.000000 0.999709 -0.000000
1.736364 0.893216 0.527824 0.051258 -0.003822 -0.003967
2.648316 0.608121 0.576516 0.029095 -0.010524 0.011439
0.392163 0.732310 0.804335 0.000000 0.024492 0.000020
2.982937 0.523732 0.490621 0.029101 -0.013257 0.013945
1.770630 0.003034 0.001554 -0.000000 -0.721087 -0.000134
1.486594 0.727493 0.804428 -0.000010 -0.001040 0.000463
1.491770 1.097919 1.053542 -0.025245 -0.021754 0.017656
1.351109 0.603088 0.581894 -0.051235 -0.007951 0.007716
2.677106 0.624406 0.722213 -0.000001 -0.973383 0.000007
0.224020 0.834323 0.698092 0.000000 0.999927 0.000000
2.679855 0.871715 0.841549 0.029102 0.006138 -0.006941
3.082450 0.663404 0.782594 0.364543 -0.000084 0.000107
1.325957 0.831708 0.721509 0.000000 0.973183 0.000003
0.965651 0.629478 0.657988 0.000000 -0.930671 -0.000023
1.692816 0.370228 1.026400 -0.051236 -0.005440 -0.005312
2.795602 0.935103 0.495335 0.029100 0.006138 0.006942
2.688463 0.891964 0.536784 0.029097 0.013259 0.013946
3.082450 0.777397 0.603925 0.363468 0.000065 -0.000120
0.143868 0.697629 0.791486 -0.236297 -0.000054 0.000152
2.574501 0.824520 0.611747 0.029098 -0.009777 -0.008690
1.619319 0.456150 0.944284 -0.051236 -0.006277 -0.006118
2.468858 0.802221 0.765151 0.000001 0.721080 0.000157
3.003071 1.028429 0.406601 0.029100 0.009207 0.010146
2.849711 0.937311 0.904842 0.029099 0.006139 -0.006942
2.680530 0.793671 0.774050 0.000001 0.721091 0.000471
1.624648 0.601060 0.599858 -0.051233 -0.003296 0.003230
1.859269 1.315444 1.256951 0.103752 0.006263 -0.006507
3.137089 0.878326 0.846296 -0.058824 0.007064 -0.007154
2.982352 0.967553 0.476557 0.029099 -0.013686 -0.011614
2.828199 0.521689 0.890680 0.029102 0.007391 0.006717
2.271761 0.826004 0.656878 -0.000001 0.921251 -0.000012
2.495317 0.653194 0.764595 0.000000 -0.721089 0.000078
2.600767 0.610734 0.805391 0.029098 0.009777 0.008690
2.936300 0.495872 0.913614 0.029099 0.029546 0.019451
1.845460 0.611481 0.802430 0.103753 -0.003892 -0.004048
2.848797 0.577744 0.853668 0.029097 -0.013259 -0.013946
2.992374 0.754747 0.801007 0.000000 0.251037 0.000112
2.747666 0.724282 0.804351 0.000000 -0.024130 0.000020
1.647859 0.330291 0.311350 -0.025242 0.019810 -0.016695
1.654616 0.393408 0.370048 -0.025243 0.010882 -0.010703
1.897936 1.110781 1.065900 0.051259 -0.010999 0.011193
1.747119 1.321565 0.125006 -0.025242 -0.012019 -0.011623
0.167697 0.686757 0.603472 -0.143610 -0.000118 -0.000253
0.143868 0.779789 0.781510 -0.236293 0.000089 0.000135
3.116666 0.982987 0.445584 -0.058824 0.004415 0.004491
2.902297 0.670642 0.608530 -0.000001 -0.537224 -0.000023
1.145804 0.772021 0.601301 0.000000 0.410247 -0.000032
1.596146 0.370768 1.045255 -0.025239 0.010559 0.010433
2.091608 0.831580 0.674127 -0.000000 0.972817 -0.000002
2.884282 0.621731 0.702427 0.000000 -0.999709 0.000000
2.849711 0.518639 0.491342 0.029099 -0.006139 0.006942
1.400826 0.515050 0.495881 -0.051237 -0.004969 0.004857
0.845549 0.621681 0.695844 -0.000000 -0.999709 -0.000000
1.485093 0.727493 0.591755 -0.000000 -0.024121 -0.000010
1.751441 0.306369 0.285435 -0.025242 0.008609 -0.008727
2.741305 0.562288 0.533281 0.029099 -0.006630 0.007472
1.174328 0.834288 0.696647 0.000010 0.048534 -0.000000
1.524477 0.964967 0.465647 -0.025242 -0.006579 -0.006818
2.767183 0.787321 0.786332 0.000000 0.558121 0.000011
0.200000 0.621906 0.705795 -0.087329 -0.000119 0.000007
2.995722 0.401111 1.012150 0.029099 -0.018409 -0.017985
0.425191 0.830125 0.727652 0.000000 0.961249 0.000002
1.776340 0.718151 0.592203 0.000001 -0.084494 -0.000341
1.686264 0.666481 0.784849 -0.000001 -0.577964 0.000082
1.683537 0.624086 0.584429 -0.025241 0.008528 -0.008654
0.965651 0.785408 0.608595 0.000001 0.536214 -0.000023
1.385067 0.929087 0.889426 -0.051236 0.007951 -0.007715
1.820603 1.313691 0.129819 0.051257 -0.013049 -0.013163
2.915680 0.589972 0.845663 -0.000001 -0.692840 -0.000654
1.443237 0.548854 0.873697 -0.025239 0.004823 0.005074
1.691273 0.493077 0.461841 -0.025243 0.024999 -0.019033
3.072091 0.436768 0.970870 0.029098 0.010266 0.009078
2.018046 0.621654 0.696968 0.000000 -0.999709 -0.000000
1.833583 0.947851 0.482250 0.051258 -0.006898 -0.007116
1.614322 0.910279 0.513605 -0.025242 -0.027481 -0.019923
1.745479 0.418498 0.973388 0.103755 -0.006079 -0.006316
2.857259 0.742624 0.592764 0.000001 0.132436 -0.000217
1.832341 0.820336 0.604680 0.051259 -0.004428 -0.004592
2.762513 0.882622 0.542017 0.029097 0.026502 0.022658
2.632068 0.831011 0.724398 0.000001 0.898860 0.000001
2.721247 0.531206 0.889023 0.029100 -0.012275 -0.013073
0.621859 0.621708 0.694720 0.000000 -0.999709 -0.000000
1.490786 0.907499 0.520468 -0.025242 -0.027482 -0.019923
1.614616 1.117387 1.075963 -0.025243 -0.009908 0.009878
0.650383 0.746274 0.802850 0.000001 0.180172 0.000079
2.136647 0.788748 0.785359 0.000004 0.217671 0.000007
1.325957 0.671184 0.608184 0.000000 -0.537979 -0.000006
2.451915 0.678058 0.604192 0.000000 -0.475482 -0.000027
2.902297 0.785036 0.608357 -0.000000 0.537623 -0.000023
0.113033 0.815636 0.706592 -0.356465 0.000090 0.000007
2.001532 0.832905 0.715362 -0.000000 0.987646 0.000002
0.335115 0.815126 0.637155 0.000000 0.815959 -0.000005
1.672234 0.229019 0.224478 -0.051235 -0.004101 0.004014
1.010689 0.832096 0.719703 0.000000 0.977061 0.000002
1.416034 0.623202 0.679871 0.000001 -0.979677 -0.000003
1.629465 0.553509 0.844396 -0.051237 -0.014168 -0.013411
3.132612 0.628584 0.796699 -0.058823 -0.012134 -0.012121
2.654587 0.724603 0.591825 0.000000 -0.024121 -0.000010
1.614459 0.281531 0.266977 -0.025243 0.008933 -0.009020
1.714407 0.586845 0.807142 0.103757 -0.002072 -0.002157
2.722144 0.669965 0.787222 -0.000001 -0.531696 0.000006
1.866417 0.831479 0.722487 0.000001 0.958610 0.000001
1.656953 0.995610 0.937262 -0.051237 0.003139 -0.003076
1.911455 0.786655 0.786780 0.000000 0.558121 0.000022
3.214097 1.106295 0.332722 -0.058824 0.007065 0.007154
1.647998 0.823838 0.803034 -0.025242 -0.008528 0.008653
1.235881 0.771655 0.601136 0.000000 0.408618 -0.000008
3.141225 0.799162 0.768335 0.787810 0.000045 0.000043
3.037412 0.633206 0.649850 0.000001 -0.890890 -0.000029
1.010689 0.671319 0.608098 0.000000 -0.537824 -0.000045
1.596187 0.830920 0.724748 0.000001 0.898860 0.000001
1.675647 1.272260 1.217616 -0.051239 0.007197 -0.006999
2.001532 0.787588 0.786153 0.000000 0.558121 0.000005
1.551149 0.762360 0.798720 0.000000 0.320565 0.000021
3.071942 0.890496 0.532579 -0.058825 0.007064 0.007154
3.042863 0.842066 0.797115 -0.058826 -0.003969 0.004206
1.618214 0.460335 0.456081 -0.051236 -0.003222 0.003158
0.260051 0.723158 0.804324 0.000000 -0.024121 0.000020
1.426850 0.638536 0.606788 -0.025242 0.015428 -0.014101
1.687986 1.145564 1.087693 -0.051238 0.002385 -0.002340
0.335115 0.634782 0.646868 0.000000 -0.879529 -0.000004
1.565552 1.037541 0.396467 -0.025242 -0.011532 -0.011235
1.497761 0.608483 0.576278 -0.025236 0.004823 -0.005074
0.285573 0.724201 0.591824 0.000067 -0.017441 -0.002100
0.043589 0.715718 0.743108 -0.628283 -0.000006 0.000022
1.754060 1.233327 0.207152 -0.025242 -0.014617 -0.013549
2.406876 0.820920 0.646408 0.000000 0.868038 -0.000017
1.581375 0.656886 0.618583 -0.025242 0.017051 -0.015136
1.536887 0.621628 0.698172 0.000000 -0.999700 0.000000
2.677073 0.564831 0.545084 0.029101 0.013685 -0.011613
1.852088 0.905592 0.862118 0.103754 0.003823 -0.003976
2.904055 0.544272 0.532817 0.029094 0.014784 -0.012360
1.010689 0.674060 0.789761 0.000000 -0.517331 0.000012
1.374150 0.557258 0.859273 -0.051237 -0.005963 -0.005817
1.300196 0.634905 0.785617 -0.051238 -0.007950 -0.007715
2.587345 0.865108 0.569005 0.029101 -0.009776 -0.008689
1.461072 0.825408 0.655474 -0.000000 0.911231 -0.000003
2.406876 0.830819 0.725136 -0.000000 0.967944 0.000004
2.196697 0.726208 0.804397 0.000000 -0.024121 0.000020
2.078097 0.621630 0.698252 0.000000 -0.999709 0.000000
2.001532 0.784088 0.607752 0.000000 0.517603 -0.000012
1.100766 0.777397 0.792259 -0.000000 0.475339 0.000027
0.875574 0.791773 0.613014 0.000001 0.595963 -0.000019
2.136647 0.630953 0.741625 0.000001 -0.905340 0.000003
0.785498 0.795901 0.779911 0.000000 0.635324 0.000009
0.875574 0.795839 0.779962 -0.000001 0.634008 0.000018
1.460499 0.954969 0.918992 -0.025243 -0.027480 0.019923
1.763155 0.366072 0.340775 0.051258 0.010813 -0.011012
2.091608 0.675385 0.605665 0.000001 -0.494822 -0.000013
1.847117 1.422469 1.358025 -0.051238 0.007699 -0.007477
1.902447 0.621646 0.698895 0.000000 -0.999709 0.000000
2.902297 0.743499 0.803299 0.000000 0.156404 0.000183
0.650383 0.720271 0.592023 0.000000 -0.084427 -0.000171
1.325957 0.814059 0.635647 0.000000 0.816083 -0.000005
0.695421 0.827688 0.661135 0.000000 0.939240 -0.000011
1.696043 1.303782 0.147961 -0.051235 0.013055 0.012424
2.316800 0.745800 0.593249 -0.000002 0.144518 -0.000025
2.226723 0.745879 0.593262 0.000000 0.156420 -0.000091
0.290077 0.773224 0.794328 0.000001 0.431942 0.000030
1.597984 0.853941 0.797313 -0.051236 0.014168 -0.013411
1.813293 1.452169 0.000777 -0.025243 -0.027268 -0.019851
1.837174 1.153164 0.285236 0.051257 -0.005127 -0.005310
1.819723 0.046304 1.355926 -0.025243 0.008121 0.008280
1.813293 1.452169 1.395407 -0.025242 -0.027269 0.019851
1.606153 0.581968 0.547777 -0.025242 0.027481 -0.019923
1.613014 1.252265 0.194342 -0.025242 -0.015266 -0.013993
2.600960 0.630895 0.612303 0.029098 0.019549 -0.015218
3.170027 0.486997 0.932436 -0.058823 -0.004415 -0.004491
1.600125 0.302060 1.102605 -0.051236 -0.004938 -0.004827
0.425191 0.693970 0.597335 0.000000 -0.320515 -0.000171
3.155362 0.448678 0.434417 -0.058823 0.006917 -0.007297
2.451915 0.679554 0.792769 0.000002 -0.406863 0.000008
0.875574 0.632242 0.744392 0.000001 -0.900991 0.000007
2.632068 0.638758 0.755966 0.000000 -0.842958 0.000002
2.722144 0.822871 0.746083 -0.000000 0.890222 0.000004
0.932623 0.725727 0.591798 0.000000 -0.024121 -0.000020
1.531614 1.102100 0.341302 -0.051236 0.002804 0.002749
1.776340 0.632329 0.651611 -0.000001 -0.901534 -0.000014
3.119065 1.075134 0.361726 0.029098 0.024539 0.021691
3.013616 0.423274 0.402522 0.029098 -0.018410 0.017985
1.866417 0.706402 0.802221 -0.000002 -0.202028 0.000070
0.965651 0.769447 0.796012 0.000001 0.387561 0.000034
1.744926 0.832779 0.619528 0.103756 0.002072 0.002157
1.863688 1.350191 0.105207 0.103755 0.005527 0.005744
0.560306 0.679125 0.603633 -0.000000 -0.453936 -0.000028
2.881279 0.834222 0.702267 0.000000 0.999700 0.000000
1.872526 0.054271 0.054459 0.103754 -0.004790 0.004980
1.280919 0.818314 0.754205 -0.000000 0.855785 0.000004
2.923831 0.465475 0.449620 0.029097 0.014783 -0.012359
2.923831 0.986734 0.445727 0.029100 0.013258 0.013946
2.532983 0.834321 0.697931 0.000000 0.999929 -0.000000
0.605345 0.781262 0.606064 -0.000000 0.496449 -0.000051
2.927277 0.645003 0.792787 0.000001 -0.692838 -0.000327
1.225372 0.729420 0.804405 -0.000000 0.024501 0.000020
1.726881 1.090881 1.029160 -0.051237 0.002636 -0.002585
1.648524 1.177940 0.262512 -0.025240 -0.004467 -0.004712
1.736835 0.089124 0.086748 -0.051237 -0.005189 0.005070
2.526759 0.623501 0.801681 0.029098 -0.014029 -0.014607
2.632209 0.581042 0.842476 0.029098 -0.010522 -0.011438
1.820603 0.142259 1.266365 0.051259 0.013049 0.013163
1.776340 0.822469 0.746870 0.000001 0.890799 0.000015
3.090199 1.030899 0.982597 0.029096 -0.008555 0.007696
2.632068 0.821034 0.646620 0.000001 0.870459 -0.000004
1.652778 0.899106 0.873476 -0.025242 -0.027482 0.019923
3.037412 0.744570 0.593054 0.000001 0.156448 -0.000365
2.947336 0.821473 0.647433 0.000001 0.878985 -0.000008
1.423843 0.556338 0.530145 -0.025244 0.009643 -0.009649
3.067725 1.039559 0.403395 0.029100 -0.008554 -0.007695
1.581685 1.003989 0.444878 -0.051236 0.012553 0.011974
1.727526 0.868156 0.808128 0.103750 0.002073 -0.002157
1.780279 1.008032 0.975552 0.051257 -0.006619 0.006832
2.947336 0.817342 0.755729 0.000000 0.843034 0.000037
2.574308 0.840405 0.810396 0.029099 0.017533 -0.017361
2.136647 0.818916 0.642975 -0.000000 0.855683 -0.000009
1.860926 1.047114 0.396810 0.103755 0.006171 0.006412
3.037046 0.947517 0.500254 -0.058823 -0.005188 -0.005489
3.101773 0.758518 0.792095 0.367767 0.000141 0.000525
1.897936 0.615274 0.589806 0.051258 0.008856 -0.009082
0.530281 0.731507 0.591829 0.000000 0.024121 -0.000040
1.325957 0.684002 0.794915 0.000001 -0.398836 0.000008
0.596337 0.731668 0.804351 -0.000000 0.024492 0.000010
1.010689 0.621906 0.690389 0.000000 -0.998175 -0.000002
1.596187 0.705655 0.594118 -0.000000 -0.203986 -0.000139
1.871974 1.224017 1.170944 0.103752 0.002165 -0.002252
3.047299 0.562461 0.845889 -0.058824 0.006790 0.007164
3.112425 0.585939 0.840178 -0.058825 -0.003468 -0.003530
1.100766 0.705813 0.802098 0.000001 -0.203720 0.000070
2.952495 0.608315 0.568146 0.000000 -0.692839 0.000872
1.714545 0.920272 0.856325 -0.051236 0.013556 -0.012871
2.947336 0.624689 0.672758 -0.000000 -0.973666 -0.000007
1.926468 0.727011 0.591767 0.000010 -0.001040 -0.000463
1.145804 0.635887 0.751274 -0.000000 -0.867666 0.000008
2.767183 0.755990 0.595501 -0.000001 0.266246 -0.000013
1.409925 0.972221 0.462831 -0.025242 -0.009644 -0.009649
2.396367 0.730383 0.591802 0.000000 0.024130 -0.000010
2.812221 0.624516 0.673501 -0.000000 -0.973772 -0.000007
1.608039 0.798597 0.618098 0.000001 -0.721082 0.000314
0.245038 0.807577 0.627570 0.000000 0.741149 -0.000002
3.037046 0.508432 0.500254 -0.058823 0.010375 -0.010853
1.821378 0.752331 0.594578 -0.000001 0.224309 -0.000016
2.496953 0.708332 0.593580 -0.000001 -0.180054 -0.000079
3.033035 0.918552 0.868333 -0.058824 -0.006053 0.006395
1.869764 1.194602 0.247741 0.051256 -0.004755 -0.004927
0.605345 0.823898 0.743993 0.000001 0.901534 0.000014
0.098155 0.681635 0.765226 -0.414553 -0.000041 0.000057
2.316800 0.809437 0.629731 -0.000001 0.770597 -0.000012
2.995377 0.834206 0.702909 0.000000 0.999709 0.000000
1.509292 0.387160 1.026950 -0.025243 0.011531 0.011235
1.496541 0.831777 0.614014 -0.051239 0.004969 0.004857
2.911362 0.435078 0.979513 0.029097 -0.013259 -0.013947
0.037437 0.689671 0.682496 -0.652462 -0.000020 -0.000008
1.325957 0.626067 0.667682 0.000000 -0.961639 -0.000008
1.865345 1.108872 0.336832 0.103754 0.002717 0.002827
1.811764 1.288550 1.224239 -0.051235 0.006528 -0.006359
1.686264 0.634419 0.647539 0.000000 -0.880042 -0.000001
0.605345 0.825177 0.654961 -0.000000 0.911894 -0.000013
2.496953 0.823777 0.651937 -0.000001 0.901311 -0.000014
1.536216 0.606573 0.797186 -0.051237 -0.014168 -0.013411
3.016086 0.612790 0.795977 -0.058820 0.003969 0.004206
1.641225 0.632086 0.744066 0.000001 -0.859676 0.000001
1.956493 0.658637 0.778719 0.000001 -0.653688 0.000033
1.641225 0.834214 0.693596 0.000000 0.999709 -0.000000
2.849711 0.942922 0.497182 0.029100 -0.006844 -0.006246
1.768960 0.173264 0.174784 -0.051238 -0.006863 0.006680
0.290077 0.828655 0.732325 0.000000 0.947272 0.000010
3.173175 1.082018 0.362599 -0.058825 -0.006917 -0.007297
0.245038 0.628552 0.735841 -0.000001 -0.917460 0.000001
2.226723 0.679017 0.603688 0.000001 -0.449652 -0.000014
0.191891 0.774929 0.603120 -0.049658 0.000191 -0.000374
0.191891 0.672074 0.788089 -0.053458 -0.000426 0.000650
0.560306 0.674897 0.790239 -0.000001 -0.494822 0.000013
1.852088 0.550357 0.862118 0.103753 -0.003823 -0.003976
1.559528 0.862642 0.587195 -0.051237 0.014168 0.013411
1.760393 0.537570 0.861139 0.103754 -0.001796 -0.001869
1.766624 0.245009 1.148511 -0.051237 -0.008202 -0.007953
1.776340 0.771801 0.794981 -0.000000 0.410555 0.000008
2.136647 0.833565 0.710751 -0.000001 0.978033 0.000001
1.506110 0.631365 0.742541 -0.000001 -0.909378 0.000003
1.776412 1.154631 1.090452 -0.051237 0.002302 -0.002258
0.830536 0.765158 0.598462 0.000000 0.342673 -0.000020
2.046570 0.809896 0.765895 -0.000001 0.764508 0.000006
0.871071 0.725887 0.804390 0.000000 -0.024121 0.000080
1.363489 0.727172 0.591763 0.000000 -0.024121 -0.000040
1.564516 0.265423 0.253662 -0.051235 -0.009206 0.008898
1.723384 0.953752 0.506412 -0.051236 0.003306 0.003240
3.121094 0.682308 0.618994 0.361714 -0.000255 -0.000393
3.184269 1.007260 0.964095 -0.058822 -0.006917 0.007297
3.184269 1.004922 0.429655 -0.058823 0.007065 0.007154
2.632068 0.706756 0.802295 -0.000000 -0.203891 0.000139
1.277916 0.621634 0.697771 -0.000000 -0.999709 -0.000000
1.872526 1.416945 0.034306 0.051256 -0.008204 -0.008431
2.271761 0.627821 0.733842 -0.000001 -0.932842 0.000003
1.856507 0.479596 0.930746 0.103754 -0.006908 -0.007174
1.614772 1.060356 1.022719 -0.025243 -0.022404 0.017953
1.672234 1.222612 0.219983 -0.025242 -0.003980 -0.004211
1.100766 0.830367 0.726803 0.000000 0.961580 0.000001
1.776340 0.635349 0.750333 0.000000 -0.868015 0.000008
2.361838 0.629243 0.658586 0.000001 -0.927307 -0.000003
0.098155 0.789034 0.752185 -0.414554 0.000056 0.000047
1.727526 0.587794 0.588055 0.103756 -0.002073 0.002157
0.159703 0.828696 0.683384 -0.174687 0.000227 -0.000028
2.782149 0.851370 0.827884 0.029097 0.013259 -0.013946
0.740459 0.820441 0.750612 0.000002 0.614561 0.000001
1.854850 1.276051 0.168422 0.051259 -0.014540 -0.014560
1.956493 0.626067 0.728502 0.000000 -0.961632 0.000008
1.280919 0.769558 0.795965 0.000000 0.388720 0.000004
2.782149 0.604579 0.827884 0.029098 -0.013259 -0.013946
2.361838 0.819644 0.752006 -0.000000 0.868006 0.000017
1.190842 0.769632 0.795934 0.000001 0.377654 0.000009
1.867555 1.153256 1.102316 0.103757 0.002533 -0.002636
1.850431 0.209999 1.188902 0.103755 -0.001934 -0.002013
1.461072 0.634113 0.648104 0.000000 -0.879803 -0.000016
0.695421 0.636389 0.752144 0.000000 -0.855785 0.000002
3.110207 0.849911 0.809951 -0.058823 -0.011881 0.012369
3.082450 0.816932 0.639812 0.365879 0.000114 -0.000073
3.082450 0.630475 0.740564 0.362660 -0.000126 0.000053
0.740459 0.621639 0.697048 0.000000 -0.999920 -0.000000
2.960158 0.923045 0.499433 0.029098 0.013259 0.013946
1.280919 0.827963 0.661889 -0.000001 0.925614 -0.000001
3.149105 0.547724 0.868005 -0.058824 0.006053 0.006395
0.965651 0.623608 0.718524 0.000000 -0.983608 0.000001
1.145804 0.704714 0.594322 -0.000001 -0.226590 -0.000062
2.587029 0.738838 0.592305 0.000001 0.106511 -0.000068
1.867555 0.293690 1.110967 0.103752 -0.002303 -0.002396
0.875574 0.631530 0.653277 0.000000 -0.911873 -0.000003
0.785498 0.667365 0.610708 -0.000000 -0.577441 -0.000005
3.173175 0.373931 0.362599 -0.058823 0.006917 -0.007297
3.173175 0.378607 1.038451 -0.058824 -0.007065 -0.007154
3.173175 1.082018 1.033584 -0.058828 -0.006917 0.007296
0.875574 0.683452 0.601516 -0.000002 -0.407282 -0.000032
2.824564 0.611697 0.794840 0.000001 0.692838 0.000654
1.190842 0.639286 0.639412 0.000000 -0.829760 -0.000002
2.226723 0.675524 0.790598 -0.000000 -0.496027 0.000013
3.159739 0.712122 0.732803 1.000000 -0.000000 0.000000
1.819498 0.443679 0.419352 0.051258 0.013236 -0.013339
1.552554 0.536108 0.867748 -0.051236 -0.014168 -0.013411
3.038491 0.813133 0.605672 -0.058826 0.004053 0.004124
1.956493 0.809258 0.629514 0.000000 0.756460 -0.000013
0.098155 0.726004 0.616542 -0.449707 -0.000002 -0.000032
1.641225 0.820282 0.750891 0.000002 0.614561 0.000001
0.740459 0.772790 0.794536 -0.000000 0.432309 0.000015
2.451915 0.631912 0.743704 0.000001 -0.900991 0.000007
3.126455 0.455680 0.966738 -0.058823 -0.007065 -0.007154
1.505929 0.883764 0.854078 -0.025242 -0.027481 0.019923
2.848797 0.566522 0.554195 0.029095 0.014784 -0.012359
3.177551 0.598194 0.573396 -0.058823 -0.006935 0.007025
3.222082 0.411328 0.393851 -0.058824 -0.010596 0.010636
3.195364 0.932501 0.501578 -0.058823 -0.005188 -0.005489
3.222082 0.411328 1.002332 -0.058822 -0.010596 -0.010637
3.199817 0.504761 0.483624 -0.058823 -0.010596 0.010637
3.239895 0.336582 0.322033 -0.058822 -0.007065 0.007154
3.239895 0.336582 1.074150 -0.058821 -0.007065 -0.007154
2.316800 0.663951 0.613182 0.000001 -0.597515 -0.000078
2.807584 0.807565 0.759589 0.000000 0.721091 0.000256
1.505929 0.562640 0.552040 -0.051237 -0.014168 0.013411
0.143868 0.798247 0.629498 -0.236299 0.000116 -0.000108
2.942783 1.002533 0.958617 0.029099 -0.013686 0.011614
1.767574 0.334798 1.057005 0.103755 -0.004974 -0.005171
1.763310 1.187872 0.249273 -0.025243 -0.007959 -0.008130
0.785498 0.625311 0.670348 -0.000001 -0.951274 -0.000002
0.965651 0.833218 0.682805 -0.000001 0.989879 -0.000002
2.548235 0.652125 0.763483 0.000001 -0.721088 0.000118
0.785498 0.830850 0.725020 -0.000001 0.967348 0.000008
2.226723 0.812788 0.633940 -0.000000 0.796944 -0.000003
1.100766 0.679268 0.603561 0.000001 -0.432172 -0.000004
2.722144 0.633961 0.747797 0.000000 -0.879653 0.000008
0.740459 0.782439 0.606755 0.000000 0.517104 -0.000024
0.650383 0.632016 0.652263 0.000001 -0.901468 -0.000014
1.596187 0.736358 0.804103 -0.000000 0.084511 0.000341
2.947336 0.779199 0.791285 -0.000001 0.473027 0.000013
1.764812 0.935120 0.877863 0.103753 0.007184 -0.007460
1.911455 0.680413 0.793206 -0.000001 -0.444966 0.000014
1.690168 0.481268 0.913517 -0.051237 -0.003222 -0.003158
0.470230 0.670642 0.608530 0.000001 -0.537785 -0.000045
0.793755 0.725325 0.804376 0.000002 -0.015163 0.000127
2.812221 0.652326 0.623352 -0.000000 -0.705817 -0.000007
1.647998 0.843283 0.613387 -0.051230 0.002197 0.002156
2.892196 0.481953 0.938218 0.029097 -0.013259 -0.013947
2.271761 0.753113 0.801423 0.000000 0.227664 0.000062
1.829441 1.348124 1.298819 0.051259 -0.011558 0.011735
1.461072 0.682725 0.601856 0.000002 -0.399485 -0.000008
0.965651 0.697488 0.799976 0.000000 -0.297461 0.000046
0.290077 0.681928 0.793946 0.000001 -0.432213 0.000060
1.611584 1.113528 0.323928 -0.025244 -0.005116 -0.005371
2.136647 0.772497 0.601516 0.000000 0.410473 -0.000016
0.380153 0.683015 0.794467 0.000002 -0.309038 0.000005
0.560306 0.632641 0.650959 0.000000 -0.901581 -0.000002
2.226723 0.631349 0.653679 0.000001 -0.907148 -0.000003
1.466858 0.587719 0.821465 -0.051235 -0.002485 -0.002437
1.911455 0.645874 0.630506 0.000000 -0.772102 -0.000001
2.587029 0.621708 0.694720 -0.000000 -0.999700 -0.000000
1.850431 0.191992 0.189981 0.103752 -0.003500 0.003641
0.734454 0.724924 0.591817 0.000010 -0.001297 -0.000372
2.749167 0.834228 0.702026 0.000000 0.999700 0.000000
1.596187 0.677492 0.791686 -0.000000 -0.474869 0.000003
2.722144 0.630607 0.655327 -0.000000 -0.908122 -0.000002
3.037412 0.778563 0.791629 -0.000001 0.475299 0.000107
2.541991 0.781750 0.789841 0.000000 0.496027 0.000013
0.191891 0.800125 0.775672 -0.053459 0.000542 0.000556
1.866417 0.653547 0.774053 0.000001 -0.701261 0.000007
1.776340 0.694959 0.799184 0.000001 -0.315529 0.000022
1.795745 1.086297 1.049649 0.051254 -0.005407 0.005597
1.689981 0.159885 0.155376 -0.051235 -0.006528 0.006359
1.780206 0.065866 1.329944 -0.051237 -0.009038 -0.008741
0.245038 0.627269 0.663935 -0.000001 -0.947026 -0.000020
0.515268 0.767929 0.796648 0.000000 0.365882 0.000018
3.137089 0.577623 0.549888 -0.058823 -0.007065 0.007154
1.010689 0.790485 0.784129 -0.000000 0.597488 0.000039
2.547996 0.725727 0.804386 0.000000 -0.024121 0.000020
1.042216 0.726530 0.591779 0.000000 -0.024121 -0.000020
1.754060 0.222622 0.207152 -0.025242 0.014617 -0.013549
3.131330 0.949343 0.916402 -0.058823 0.010596 -0.010636
1.100766 0.807577 0.627570 0.000000 0.740427 -0.000007
2.226723 0.638348 0.755323 0.000001 -0.833114 0.000002
3.173098 0.839068 0.591351 -0.058823 -0.005748 -0.006076
1.716115 0.249569 0.248618 -0.051236 -0.004268 0.004177
1.280919 0.637137 0.642803 0.000000 -0.855766 -0.000017
0.380153 0.799448 0.619353 0.000000 0.672045 -0.000016
1.057229 0.834296 0.699216 0.000000 0.999700 0.000000
2.091608 0.632896 0.650458 -0.000000 -0.890799 -0.000007
3.037412 0.670744 0.608465 0.000001 -0.537801 -0.000091
1.145804 0.823235 0.650816 0.000001 0.879311 -0.000004
3.159739 0.796464 0.664418 0.361480 0.000105 -0.000050
2.361838 0.628537 0.735803 0.000000 -0.939076 0.000001
2.001532 0.633079 0.650100 0.000001 -0.876265 -0.000004
1.977511 0.728617 0.804425 0.000000 0.024121 0.000080
2.801785 0.835081 0.610157 0.029097 -0.014783 -0.012359
1.731302 0.830037 0.668223 0.000000 0.961618 -0.000008
0.830536 0.644513 0.763990 -0.000000 -0.786870 0.000011
1.809003 0.299996 0.280551 0.051258 0.004661 -0.004831
1.736641 0.986578 0.438140 0.051257 -0.013049 -0.013163
1.847669 0.861842 0.576741 0.103753 0.003892 0.004048
0.380153 0.633152 0.746226 0.000000 -0.890915 0.000007
1.676090 0.526977 0.528183 -0.051236 -0.013556 0.012871
1.667921 0.893740 0.563464 -0.051235 0.014168 0.013411
2.229726 0.834276 0.696165 0.000000 0.999718 -0.000000
1.551149 0.632641 0.650959 0.000000 -0.901726 -0.000003
2.271761 0.656739 0.777047 -0.000001 -0.666260 0.000008
2.722144 0.767181 0.796941 -0.000001 0.364563 0.000018
2.316800 0.679840 0.792915 -0.000000 -0.453863 0.000028
1.593809 1.010489 0.975435 -0.025238 -0.005930 0.006183
2.496953 0.786321 0.609180 0.000000 0.558121 -0.000005
0.650383 0.663984 0.613158 -0.000001 -0.591291 -0.000005
2.632068 0.779867 0.790917 0.000001 0.493970 0.000013
0.470230 0.818314 0.641978 0.000000 0.842958 -0.000002
0.335115 0.686206 0.600296 -0.000000 -0.388291 -0.000137
3.140417 0.644607 0.689330 0.347994 -0.000121 -0.000002
1.755860 0.289152 1.126976 -0.025243 0.008609 0.008727
2.541991 0.625582 0.669381 -0.000001 -0.959628 -0.000004
1.866417 0.764140 0.798094 0.000001 0.334614 0.000010
2.046570 0.812501 0.633553 0.000001 0.691340 -0.000002
2.361838 0.775680 0.793134 -0.000000 0.454078 0.000014
1.821378 0.624757 0.672486 0.000001 -0.961984 -0.000002
0.151757 0.649914 0.635399 -0.205593 -0.000149 -0.000114
1.819498 0.461686 0.959531 0.051258 0.013236 0.013339
2.001532 0.683159 0.601647 0.000000 -0.432610 -0.000008
3.191496 1.124812 1.078446 0.029098 -0.013687 0.011614
3.045113 0.582855 0.547427 -0.058822 -0.006935 0.007025
1.775584 0.852436 0.826386 0.051258 -0.007877 0.008103
0.470230 0.821912 0.747938 -0.000002 0.539866 0.000002
1.686264 0.684404 0.601087 -0.000002 -0.253776 -0.000007
2.993681 0.862597 0.812465 -0.058826 -0.003969 0.004206
2.726046 0.615947 0.794499 0.029098 0.014782 0.012359
0.245038 0.685540 0.600577 0.000001 -0.322354 -0.000005
2.961238 0.899284 0.548469 0.029100 -0.014781 -0.012358
1.897936 0.966725 0.468696 0.051257 -0.013981 -0.014040
1.897936 0.363175 1.048599 0.051259 0.010999 0.011193
1.897936 0.183105 0.174569 0.051258 0.014540 -0.014560
1.897936 0.255133 0.243775 0.051259 0.004381 -0.004544
1.897936 0.345168 0.330283 0.051258 0.010999 -0.011194
1.897936 0.471217 0.451394 0.051257 0.006619 -0.006832
1.897936 0.039048 1.360027 0.051260 0.007084 0.007304
1.897936 1.416901 1.360027 0.051261 -0.007084 0.007304
1.897936 1.020746 0.979393 0.051256 -0.006246 0.006453
1.897936 0.966725 0.927488 0.051257 -0.013981 0.014040
1.897936 0.615274 0.806377 0.051258 0.008856 0.009082
1.897936 0.894697 0.537902 0.051258 -0.007737 -0.007963
1.897936 0.525239 0.503299 0.051258 0.007364 -0.007587
1.551149 0.833388 0.684079 0.000000 0.991241 -0.000000
0.470230 0.679482 0.792732 0.000001 -0.453479 0.000028
2.091608 0.769928 0.795809 -0.000001 0.387736 0.000034
2.313046 0.834267 0.695764 -0.000010 0.048534 -0.000000
0.740459 0.818228 0.641843 -0.000001 0.840630 -0.000005
1.370996 0.621704 0.701303 0.000000 -0.999709 0.000000
2.995294 0.986140 0.952694 0.029100 0.010741 -0.011647
2.900632 0.620869 0.610157 0.000000 0.692840 -0.000491
2.451915 0.632572 0.651104 0.000001 -0.898674 -0.000003
2.857259 0.823534 0.744754 -0.000001 0.901266 0.000014
1.823917 1.029487 0.993059 0.051258 -0.006246 0.006453
2.784752 0.911155 0.879711 0.029099 0.006630 -0.007472
2.756227 0.801774 0.612209 0.029099 0.013258 0.013946
0.875574 0.829333 0.730265 -0.000000 0.954617 0.000009
1.620903 0.229067 1.175415 -0.051230 -0.002135 -0.002094
1.416034 0.759956 0.596674 -0.000001 0.294734 -0.000023
1.860926 0.408835 0.396810 0.103754 -0.003086 0.003210
1.773650 0.977603 0.919960 0.103754 0.003408 -0.003545
1.547874 1.125578 1.077600 -0.051235 0.010545 -0.010143
1.256899 0.726690 0.591775 0.000000 -0.024492 -0.000039
2.046570 0.834241 0.694720 0.000000 0.999709 -0.000000
3.037412 0.829799 0.728770 0.000001 0.952057 0.000005
1.795193 0.818541 0.792423 0.051256 -0.007877 0.008104
0.470230 0.636306 0.644178 0.000000 -0.868015 -0.000004
1.846012 0.232338 0.218178 0.051258 0.008762 -0.008990
1.689064 0.970496 0.909336 -0.051237 0.006444 -0.006279
0.037437 0.762568 0.675428 -0.652460 0.000016 -0.000010
1.764542 1.258261 1.212674 -0.025244 -0.013317 0.012616
1.455554 0.459012 0.442823 -0.051237 -0.006612 0.006439
0.515268 0.625483 0.669729 0.000001 -0.957446 -0.000002
0.090876 0.653254 0.675795 -0.442993 -0.000062 -0.000017
