1.513598 0.977107 0.956386 -0.042933 -0.008177 0.008756
2.546250 0.698389 0.468933 0.025490 0.013522 0.013551
2.326519 0.591386 0.695110 0.000000 0.022502 0.000043
0.625879 0.469977 0.579848 0.000000 -0.999747 0.000000
1.827262 0.469899 0.576011 0.000000 -0.999289 -0.000000
1.527252 0.314671 0.318552 -0.055363 -0.002138 0.002005
2.914981 0.584379 0.457290 -0.000000 -0.022502 -0.000021
0.467613 0.669772 0.663436 -0.000000 0.682634 0.000016
1.404260 0.700342 0.617830 0.000001 0.927032 0.000003
1.856925 0.169900 0.165843 0.055414 0.004288 -0.004365
2.474714 0.484809 0.518514 0.000000 -0.874693 -0.000004
1.002840 0.700939 0.536172 -0.000001 0.936817 -0.000003
0.824431 0.563140 0.692342 -0.000000 -0.211397 0.000034
2.117896 0.707577 0.584514 -0.000000 0.996908 0.000001
3.041910 0.762232 0.413776 -0.058213 -0.004149 -0.004238
3.071789 0.427940 0.738710 -0.058212 -0.008322 -0.008388
3.071789 0.427940 0.413645 -0.058212 -0.004161 0.004226
3.101668 0.747245 0.728813 -0.058211 -0.004149 0.004238
2.742327 0.472719 0.601921 -0.000000 -0.977328 0.000002
1.856925 1.041265 1.019219 0.055415 -0.003752 0.003822
0.192081 0.515111 0.668686 -0.083780 -0.000160 0.000196
1.136647 0.519488 0.479527 0.000000 -0.578676 -0.000021
0.512216 0.610417 0.459156 -0.000001 0.187446 -0.000019
1.984089 0.564363 0.459748 -0.000000 -0.211638 -0.000069
1.448862 0.560459 0.460640 0.000000 -0.233424 -0.000124
2.729378 0.707790 0.579848 -0.000000 0.999747 0.000000
1.624472 0.387660 0.791304 0.055413 0.008441 0.008521
1.205304 0.687078 0.672344 -0.042932 -0.006814 0.007336
2.920736 0.560703 0.691774 -0.000001 -0.233451 0.000248
0.184186 0.547628 0.466251 -0.114436 -0.000135 -0.000337
1.820605 0.747628 0.417889 0.055412 -0.005360 -0.005447
1.638047 0.895442 0.293066 -0.055364 0.007840 0.007285
1.649897 0.449292 0.423386 0.055411 0.002512 -0.002563
1.856925 0.790785 0.773911 0.055414 -0.008039 0.008124
1.827869 1.036460 0.140755 0.071455 0.006650 0.006761
1.416021 0.758455 0.421033 -0.055365 0.002138 0.002005
1.761078 0.601418 0.694498 -0.000001 0.100454 0.000074
2.979726 0.707760 0.581182 0.000000 0.999747 0.000000
2.385509 0.707006 0.561903 0.000002 0.987040 -0.000002
1.681758 0.042462 0.041037 -0.055364 -0.006842 0.006373
1.681758 0.042462 1.111318 -0.055366 -0.006842 -0.006373
2.697725 0.575561 0.457937 -0.000000 -0.123122 -0.000120
1.555189 0.857664 0.825752 -0.055363 0.004276 -0.004002
1.668931 1.047124 1.018402 -0.055364 0.010262 -0.009471
1.761078 0.584713 0.457282 0.000000 -0.022324 -0.000333
0.690624 0.578842 0.457619 0.000001 -0.078243 -0.000095
2.940113 0.342359 0.334742 0.025492 -0.019010 0.017290
2.251702 0.471069 0.592810 0.000000 -0.989377 0.000001
0.646022 0.594722 0.695018 -0.000001 0.052101 0.000071
3.005624 0.469923 0.573674 -0.000000 -0.999935 -0.000000
2.983875 0.850633 0.832523 0.025493 0.015210 -0.014818
1.315056 0.475383 0.540483 -0.000000 -0.954357 -0.000005
1.448862 0.553707 0.689840 -0.000000 -0.298002 0.000024
0.333807 0.623742 0.462415 0.000000 0.298331 -0.000191
1.659710 0.254373 0.236723 -0.042932 0.002172 -0.002365
1.555638 0.161111 0.995119 -0.055364 -0.005702 -0.005323
2.699419 0.751674 0.735607 0.025495 0.010140 -0.010688
1.719353 0.707873 0.576178 0.000000 0.999755 0.000000
2.983875 0.327135 0.832523 0.025492 -0.015211 -0.014818
1.856925 0.236694 0.921096 0.055412 0.010718 0.010746
1.939487 0.583545 0.695046 0.000000 -0.022502 0.000331
0.333807 0.586631 0.695141 0.000000 -0.010714 0.000022
0.869033 0.698712 0.621941 0.000000 0.923465 0.000006
1.856925 0.119804 1.035573 0.055414 0.007503 0.007592
2.742327 0.600505 0.694591 -0.000000 0.100798 0.000294
2.117896 0.494114 0.504229 0.000001 -0.797871 -0.000006
1.625939 0.259888 0.884178 -0.055363 -0.001853 -0.001738
2.633775 0.448930 0.713242 0.025492 -0.013521 -0.013550
0.512216 0.519488 0.672828 0.000000 -0.578532 0.000005
1.856925 0.437078 0.427506 0.055413 0.003573 -0.003641
0.122792 0.652176 0.655544 -0.353418 0.000063 0.000076
1.447938 0.376601 0.774244 -0.055364 -0.002530 -0.002372
1.181249 0.478672 0.621016 0.000000 -0.923394 0.000006
1.002840 0.475196 0.541080 -0.000000 -0.953229 -0.000002
1.755227 0.445548 0.706356 0.071456 -0.005767 -0.005869
1.604251 0.588967 0.457191 0.000020 0.000171 -0.000705
0.779829 0.470078 0.582641 0.000000 -0.998360 0.000002
1.476223 0.413420 0.419632 -0.055364 -0.015285 0.013830
2.162498 0.613893 0.692501 0.000001 0.211485 0.000138
1.709785 1.161672 0.015215 -0.042932 -0.013626 -0.014159
2.940113 0.835408 0.334742 0.025491 0.019011 0.017290
1.476223 0.764348 0.732723 -0.055363 0.015285 -0.013830
2.611894 0.456542 0.446568 0.025492 -0.027025 0.021046
0.824431 0.666093 0.485649 -0.000001 0.648683 -0.000017
1.545261 0.707867 0.575927 0.000000 0.999739 -0.000000
2.430111 0.610294 0.459133 0.000000 0.189655 -0.000039
2.519316 0.700456 0.617517 0.000001 0.927032 0.000001
1.531967 0.807771 0.350241 -0.042933 -0.005707 -0.006167
2.929195 0.441394 0.442047 0.025492 0.014816 -0.011779
2.430111 0.499610 0.654838 -0.000000 -0.739213 0.000003
0.122792 0.668250 0.512885 -0.353418 0.000078 -0.000060
1.307862 0.589885 0.695144 -0.000000 0.022145 0.000011
2.117896 0.630771 0.464806 0.000001 0.356861 -0.000010
1.304984 0.590052 0.457215 0.000000 0.022494 -0.000005
0.556818 0.705834 0.554276 0.000000 0.981930 -0.000001
1.566355 0.975996 0.201428 -0.055362 0.003421 0.003205
1.715274 0.804669 0.773305 0.071455 0.003273 -0.003339
1.047442 0.667856 0.665173 0.000000 0.666289 0.000008
1.856925 1.141457 1.117343 0.055414 -0.008575 0.008653
3.054543 0.617958 0.460795 0.529013 0.000024 -0.000090
3.054543 0.617958 0.691560 0.529391 0.000022 0.000090
2.251702 0.697591 0.624546 0.000001 0.912368 0.000003
1.015789 0.586715 0.457237 0.000000 -0.022332 -0.000011
1.387478 0.319309 0.312168 -0.055362 -0.002281 0.002139
1.582669 0.588050 0.695148 0.000000 -0.022502 0.000331
2.916694 0.722954 0.456172 0.025491 -0.014816 -0.011779
1.448862 0.469970 0.572841 0.000000 -0.999747 -0.000000
1.965385 0.469921 0.575010 0.000000 -0.999751 -0.000000
1.704378 0.965416 0.195569 0.055413 -0.011522 -0.011519
1.485571 0.227027 0.221791 -0.055363 -0.007412 0.006895
0.101058 0.497523 0.567955 -0.438273 -0.000067 -0.000005
0.423011 0.699239 0.531686 -0.000000 0.923689 -0.000003
1.136647 0.706317 0.557029 0.000001 0.970830 -0.000001
2.608520 0.470011 0.581349 0.000000 -0.999747 0.000000
1.325822 0.742314 0.721432 -0.055364 0.005702 -0.005323
0.512216 0.488291 0.512626 0.000000 -0.840535 -0.000010
2.871817 0.469996 0.571673 -0.000000 -0.999747 -0.000000
2.852156 0.667748 0.638570 -0.000001 0.714441 0.000239
1.701183 0.134131 0.140282 -0.055363 -0.004989 0.004664
1.720722 0.820312 0.363184 0.071456 0.003117 0.003180
0.244602 0.471709 0.555507 0.000000 -0.985870 -0.000005
1.729802 0.317469 0.829243 0.071455 -0.002857 -0.002915
2.672969 0.722317 0.447682 0.025493 -0.009408 -0.008115
2.340907 0.496699 0.500955 0.000000 -0.774625 -0.000003
0.913636 0.485730 0.635476 -0.000000 -0.861605 0.000002
1.984089 0.685148 0.506238 0.000000 0.815659 -0.000001
2.793100 0.685975 0.471485 0.025492 0.013521 0.013550
1.284841 0.707846 0.575010 0.000000 0.999747 -0.000000
2.563918 0.573367 0.458209 -0.000000 -0.123044 -0.000120
2.946387 0.430879 0.721097 0.025493 0.012699 0.010452
2.028691 0.668073 0.664978 0.000001 0.664714 0.000017
1.535214 0.453423 0.725770 -0.042932 0.018265 0.018325
1.359451 0.832093 0.337990 -0.042932 -0.003024 -0.003288
1.716476 0.482790 0.522307 0.000001 -0.889652 -0.000004
2.823373 0.472325 0.699061 0.025492 -0.013521 -0.013550
0.943850 0.591386 0.695110 -0.000000 0.022153 0.000022
2.805315 0.492010 0.471263 0.025491 -0.013521 0.013550
1.813340 0.082134 0.084260 0.071455 -0.005611 0.005712
1.651106 0.951713 0.941109 -0.042931 -0.008007 0.008580
1.856925 0.941073 0.921096 0.055413 -0.005359 0.005447
1.664425 0.348633 0.360189 0.071455 -0.003273 0.003339
2.430111 0.649264 0.678701 0.000001 0.494992 0.000013
3.129349 0.503684 0.492736 -0.058212 -0.006825 0.006903
3.129349 0.503684 0.659619 -0.058212 -0.006825 -0.006902
1.181249 0.572581 0.694041 0.000000 -0.145371 0.000101
1.816972 0.247738 0.246080 0.071455 -0.004572 0.004659
1.550181 0.474928 0.491160 -0.055364 -0.003385 0.003172
1.784284 0.727632 0.704777 0.071456 0.005767 -0.005869
1.503298 0.680664 0.468517 -0.042933 -0.008092 -0.008668
1.378825 0.681177 0.500358 -0.000000 -0.714443 0.000424
2.251702 0.686693 0.508415 0.000000 0.815540 -0.000005
2.653122 0.672902 0.660432 0.000001 0.693519 0.000008
1.443531 0.911191 0.891831 -0.042928 -0.002513 0.002735
2.987028 0.731102 0.727247 -0.058211 0.006660 -0.006737
1.136647 0.634532 0.466301 0.000000 0.382645 -0.000036
1.671873 0.517839 0.671620 -0.000000 -0.596824 0.000080
3.074537 0.340946 0.338270 -0.058211 0.009957 -0.010050
3.134296 0.355933 0.804319 -0.058213 -0.006657 -0.006735
3.134296 0.821835 0.348036 -0.058211 -0.006639 -0.006754
1.850282 0.653873 0.476511 0.000000 0.541525 -0.000023
3.130448 0.706918 0.460581 -0.058211 -0.004979 -0.005080
1.233331 0.464324 0.454189 -0.055364 -0.005702 0.005323
1.493465 0.657088 0.673673 0.000002 0.549099 0.000011
1.762491 1.101313 1.068559 -0.055363 0.007697 -0.007156
0.423011 0.541278 0.467134 0.000000 -0.403253 -0.000017
0.735227 0.659627 0.671844 -0.000000 0.596702 0.000020
0.244602 0.652681 0.676612 0.000001 0.541034 0.000046
1.718906 0.696714 0.459852 0.055414 -0.007436 -0.007525
1.850282 0.519931 0.673142 0.000000 -0.578506 0.000010
1.722718 1.080810 0.102419 -0.055364 0.008837 0.008191
1.331424 0.372041 0.788543 -0.055359 -0.001426 -0.001338
3.110392 0.827829 0.808225 -0.058213 -0.009957 0.010050
1.751595 0.987601 0.974845 0.055414 -0.005225 0.005312
1.378631 0.458491 0.440365 -0.042934 0.004259 -0.004620
0.601420 0.682272 0.649905 -0.000000 0.788100 0.000006
3.009940 0.521088 0.478393 -0.000001 -0.578678 -0.000168
2.608520 0.706282 0.556823 -0.000001 0.985325 -0.000005
0.690624 0.503492 0.659033 0.000001 -0.692942 0.000004
1.751595 0.410902 0.393688 0.055413 0.007436 -0.007526
0.289204 0.526859 0.474642 -0.000000 -0.522477 -0.000049
0.646022 0.670930 0.490002 0.000000 0.683133 -0.000002
1.643943 0.111865 1.040434 -0.055365 -0.004561 -0.004267
2.540407 0.497536 0.663893 0.025496 0.007525 0.006636
1.755227 0.091745 1.052855 0.071456 -0.005611 -0.005712
0.333807 0.691911 0.635693 0.000001 0.864076 0.000035
0.073661 0.575377 0.501747 -0.545477 -0.000009 -0.000043
1.729802 0.254677 0.913360 0.055413 0.006297 0.006389
2.207100 0.520815 0.673769 0.000000 -0.578759 0.000021
1.850282 0.531842 0.471760 0.000001 -0.483496 -0.000027
1.856925 0.824183 0.345737 0.055413 -0.007503 -0.007592
0.601420 0.527214 0.474424 -0.000000 -0.522487 -0.000097
1.850282 0.652119 0.676972 -0.000001 0.513202 0.000006
1.833317 0.863186 0.846651 0.055414 -0.006967 0.007059
3.009940 0.513726 0.668415 0.000001 -0.632190 0.000073
0.080321 0.557449 0.649723 -0.519389 -0.000019 0.000043
0.913636 0.618603 0.460966 0.000000 0.254950 -0.000007
3.091396 0.683180 0.557421 0.526427 0.000327 -0.000048
1.687428 0.667313 0.666154 0.055413 -0.005024 0.005110
1.555189 0.320103 0.825752 -0.055364 -0.004276 -0.004002
0.289204 0.492620 0.646117 0.000000 -0.815564 0.000042
1.653529 0.853856 0.851480 0.055414 -0.001876 0.001914
2.697725 0.488675 0.512030 0.000000 -0.840384 -0.000005
0.244602 0.666188 0.485730 -0.000001 0.649293 -0.000070
2.876133 0.704266 0.547104 0.000000 0.970387 -0.000002
1.420865 0.457041 0.690730 -0.055364 -0.004276 -0.004002
1.813340 1.112332 0.067906 0.071454 0.009559 0.009675
2.340907 0.653873 0.476511 0.000000 0.541466 -0.000046
0.690624 0.492016 0.507088 0.000001 -0.814320 -0.000011
2.812827 0.590052 0.457202 -0.000003 0.004016 -0.000239
3.129349 0.674084 0.659619 -0.058213 -0.006806 0.006922
1.738883 0.877261 0.284584 0.055414 -0.001742 -0.001778
1.303462 0.763564 0.406470 -0.055359 0.002138 0.002005
2.656715 0.521368 0.650158 0.000001 -0.714437 0.000149
1.094922 0.469932 0.574509 -0.000000 -0.999747 -0.000000
1.624472 0.810786 0.382165 -0.055363 0.002281 0.002139
1.856925 0.437078 0.724849 0.055410 0.003573 0.003641
0.431644 0.584713 0.695073 0.000000 -0.022502 0.000085
2.776425 0.707918 0.685113 0.025495 -0.013169 0.010758
2.743181 0.410869 0.750517 0.025489 -0.011833 -0.012175
2.852588 0.372808 0.364563 0.025491 -0.013310 0.013384
3.049519 0.873469 0.297467 0.025492 0.015211 0.014818
0.423011 0.492620 0.646117 0.000000 -0.815557 0.000011
2.896350 0.820184 0.802702 0.025492 0.022808 -0.019288
2.965338 0.651692 0.677233 0.000001 0.521508 0.000024
2.340907 0.678046 0.654963 0.000001 0.745531 0.000027
1.747963 0.206485 0.193209 0.055413 0.005360 -0.005447
2.070416 0.587382 0.695133 0.000000 -0.022502 0.000021
1.761305 0.001456 1.148564 0.000001 -0.714437 0.000271
1.761305 0.001456 0.003791 0.000001 -0.714434 -0.000271
2.340907 0.480830 0.625991 0.000000 -0.905761 0.000014
1.649897 0.430876 0.710164 0.071452 -0.001948 -0.001989
2.474714 0.699048 0.531223 0.000001 0.922140 -0.000006
1.539797 0.906170 0.259517 -0.042934 -0.004685 -0.005077
0.869033 0.472313 0.552310 0.000000 -0.981851 -0.000001
1.582135 0.387781 0.400896 -0.055364 -0.009550 0.008833
1.359658 0.479538 0.623096 0.000000 -0.915023 0.000003
0.784145 0.586048 0.457252 0.000000 -0.022502 -0.000043
1.470902 0.820874 0.810573 -0.042931 -0.005707 0.006167
0.789900 0.707816 0.573675 0.000000 0.999747 -0.000000
0.958238 0.685727 0.645301 0.000000 0.815540 0.000011
1.805680 0.702845 0.541956 0.000000 0.960820 -0.000001
1.315056 0.676170 0.657035 -0.000001 0.709254 0.000004
1.261616 0.505989 0.661593 -0.042932 0.013626 0.014159
1.404260 0.634879 0.685910 -0.000003 0.278694 0.000012
1.667745 1.122122 1.098407 -0.042935 -0.004599 0.004985
1.387478 0.319309 0.840187 -0.055364 -0.009122 -0.008448
1.625705 0.095195 0.092681 -0.055364 -0.009122 0.008448
1.569651 1.029840 1.008030 -0.042932 -0.013626 0.014159
1.569808 0.911644 0.899610 -0.042933 -0.009369 0.009979
2.786944 0.782123 0.765427 0.025494 0.013520 -0.013549
2.960187 0.653445 0.499180 0.000001 0.714435 -0.000197
1.820605 0.967842 0.202222 0.055412 -0.005360 -0.005447
1.856925 0.370284 0.362090 0.055413 0.001876 -0.001914
2.834409 0.593388 0.695065 -0.000000 0.022137 0.000011
1.624472 0.790108 0.791304 0.055413 -0.008441 0.008521
1.541703 0.229192 0.923709 -0.055366 -0.001853 -0.001738
1.627271 0.700285 0.534368 0.000000 0.932460 -0.000001
1.569808 0.266123 0.252745 -0.042932 0.009369 -0.009979
2.474714 0.570146 0.693680 -0.000001 -0.165304 0.000022
0.913636 0.692037 0.516879 -0.000001 0.863850 -0.000017
1.773388 0.382273 0.770146 0.071451 -0.001637 -0.001671
2.885417 0.784635 0.387906 0.025493 -0.007409 -0.006541
2.207100 0.508027 0.488891 0.000001 -0.682233 -0.000016
0.556818 0.614709 0.692324 0.000000 0.211429 0.000069
2.705575 0.655527 0.501306 -0.000001 0.714427 -0.000179
1.939487 0.501056 0.656456 0.000000 -0.745643 0.000013
2.988581 0.400890 0.384698 0.025491 -0.009508 0.010105
0.779829 0.502996 0.493829 0.000000 -0.713476 -0.000007
2.162498 0.474691 0.609597 0.000001 -0.960360 0.000004
0.333807 0.703925 0.545813 0.000000 0.966843 -0.000004
0.735227 0.680647 0.500438 0.000000 0.774768 -0.000012
0.423011 0.635955 0.466899 0.000000 0.403269 -0.000068
1.212902 0.587549 0.457219 0.000000 -0.022137 -0.000043
0.060757 0.655187 0.579155 -0.614467 0.000015 0.000000
2.028691 0.487675 0.513619 0.000000 -0.847493 -0.000002
0.601420 0.511136 0.666245 0.000000 -0.649254 0.000017
0.735227 0.572912 0.694089 0.000000 -0.145021 0.000025
0.958238 0.521122 0.478368 0.000000 -0.578668 -0.000084
1.458449 0.474540 0.483315 -0.055364 -0.008552 0.007933
1.984089 0.706650 0.593140 -0.000000 0.988891 0.000001
1.225851 0.474391 0.543800 -0.000000 -0.960273 -0.000002
1.939487 0.667731 0.665284 0.000001 0.643692 0.000004
1.446726 0.846541 0.329667 -0.055365 0.002281 0.002139
3.091396 0.492741 0.576178 0.526425 -0.000660 0.000032
1.496033 0.492039 0.647350 -0.055364 -0.003386 -0.003172
1.639000 0.512335 0.484281 0.055413 0.006699 -0.006791
2.568131 0.706001 0.690877 0.025495 0.020274 -0.018004
1.809708 0.300626 0.862152 0.055413 0.001742 0.001778
3.037033 0.788707 0.779734 -0.058210 0.003329 -0.003384
1.637054 0.209689 0.955303 -0.042932 0.007496 0.008049
1.582669 0.681491 0.650883 -0.000000 0.774745 0.000024
1.671873 0.471744 0.597054 0.000000 -0.985626 0.000003
0.512216 0.472131 0.599103 0.000000 -0.981762 0.000006
0.824431 0.649408 0.678617 -0.000001 0.480292 0.000007
2.920736 0.489376 0.641412 0.000000 -0.840489 0.000010
2.251702 0.635341 0.685719 0.000000 0.382573 0.000036
2.162498 0.689002 0.511890 -0.000000 0.840710 -0.000019
2.073293 0.555865 0.461869 -0.000000 -0.276832 -0.000052
2.073293 0.689047 0.511960 -0.000000 0.839746 -0.000005
1.939487 0.499694 0.497424 0.000000 -0.745632 -0.000013
2.409968 0.469932 0.574509 -0.000000 -0.999747 -0.000000
2.714712 0.469147 0.688203 0.025493 0.011289 0.009491
0.160721 0.701091 0.591377 -0.205657 0.000191 0.000022
1.387736 0.382494 0.379511 -0.055366 -0.004276 0.004002
2.924490 0.377951 0.785702 0.025492 -0.011409 -0.011813
2.563918 0.489930 0.510109 -0.000001 -0.821282 -0.000005
1.092045 0.600214 0.694620 -0.000001 0.100787 0.000294
1.448862 0.703585 0.544522 -0.000001 0.964066 -0.000004
1.761078 0.482364 0.629188 0.000000 -0.895931 0.000007
3.068279 0.315912 0.841549 0.025490 0.016933 0.012970
1.856925 0.303489 0.296675 0.055409 0.001608 -0.001641
1.697114 0.741394 0.709515 0.071456 0.005767 -0.005869
2.340907 0.570270 0.458654 0.000000 -0.167526 -0.000175
1.824237 0.174001 0.979217 0.071455 -0.007481 -0.007597
1.784284 0.475184 0.472109 0.071454 -0.004156 0.004237
2.081926 0.469906 0.576678 0.000000 -0.999747 0.000000
1.647653 1.018650 0.162568 -0.055361 0.005702 0.005324
1.002840 0.480480 0.625234 0.000000 -0.915088 0.000002
2.707065 0.450239 0.437776 0.025491 -0.010142 0.010689
0.176323 0.594100 0.692321 -0.152601 0.000003 0.000134
1.457455 0.285191 0.281486 -0.055364 -0.008552 0.007933
1.626376 0.187592 0.191182 -0.055364 -0.006272 0.005849
1.396018 0.776637 0.752315 -0.055364 0.004276 -0.004002
2.608520 0.642904 0.470158 0.000000 0.463920 -0.000028
2.841804 0.434640 0.419442 0.025494 -0.003803 0.004267
2.906452 0.517439 0.506208 0.000000 -0.714444 -0.000328
1.630782 0.313449 0.292604 -0.042930 0.004685 -0.005077
2.519316 0.470492 0.588006 0.000000 -0.994486 0.000002
1.715274 0.303249 0.285437 0.055415 0.001742 -0.001778
1.047442 0.514437 0.483359 -0.000000 -0.632059 -0.000018
3.005772 0.383009 0.770926 0.025494 0.016930 0.012969
0.601420 0.608649 0.458849 -0.000000 0.167519 -0.000350
1.047442 0.659460 0.480387 0.000001 0.596034 -0.000020
1.805680 0.697624 0.624470 0.000000 0.915078 0.000003
2.660316 0.591887 0.695099 0.000000 0.022145 0.000087
3.054543 0.694904 0.630197 0.526761 0.000083 0.000043
0.824431 0.493865 0.647791 0.000000 -0.802321 0.000011
0.168499 0.487733 0.521746 -0.175403 -0.000207 -0.000106
2.876133 0.654294 0.476782 0.000000 0.541185 -0.000012
2.117896 0.674042 0.659271 -0.000000 0.714997 0.000015
1.906395 0.589885 0.457211 0.000000 0.022502 -0.000021
1.505718 0.754039 0.433006 -0.055364 0.007644 0.007107
1.359658 0.531403 0.472002 0.000000 -0.483597 -0.000027
2.028691 0.631588 0.465123 0.000000 0.361822 -0.000038
1.547320 0.793176 0.757679 -0.055364 0.002423 -0.002272
2.778865 0.523550 0.652386 -0.000001 -0.714442 0.000418
1.733357 0.089505 0.081184 -0.042932 0.004600 -0.004986
1.671873 0.631899 0.465244 0.000000 0.361810 -0.000019
1.523679 0.589217 0.457196 0.000000 0.022510 -0.000021
3.133196 0.388766 0.380192 -0.058214 -0.004993 0.005066
1.671873 0.594306 0.695042 -0.000001 0.055834 0.000133
1.733435 0.753636 0.405234 0.055412 -0.007436 -0.007526
1.467399 0.360189 0.345010 -0.042933 0.002896 -0.003150
2.474714 0.544585 0.465742 0.000000 -0.382662 -0.000018
0.176323 0.629735 0.467330 -0.144992 0.000105 -0.000263
3.045266 0.694596 0.479557 -0.058212 -0.010131 -0.010220
1.582669 0.661163 0.481661 -0.000001 0.614144 -0.000019
0.176323 0.475538 0.602048 -0.144987 -0.000277 0.000057
2.519316 0.644530 0.681346 0.000001 0.463432 0.000028
2.162498 0.565835 0.459449 -0.000000 -0.189583 -0.000077
1.136647 0.692615 0.634461 0.000000 0.875317 0.000004
1.359658 0.532647 0.681036 0.000000 -0.463847 0.000014
0.248919 0.591387 0.457217 0.000000 0.011071 -0.000022
2.296305 0.522296 0.674781 0.000001 -0.519538 0.000003
1.306078 0.697310 0.477273 -0.055364 0.004276 0.004002
0.483440 0.707777 0.580432 -0.000011 0.045536 0.000000
1.597837 0.498279 0.685038 0.055411 0.006699 0.006791
1.820605 0.050145 1.100152 0.071456 -0.009559 -0.009674
1.420865 0.720726 0.690730 -0.055364 0.004276 -0.004002
1.755227 0.847369 0.837226 0.055412 -0.007503 0.007592
0.556818 0.667420 0.486793 0.000000 0.643267 -0.000002
2.309254 0.707824 0.574009 0.000000 0.999755 -0.000000
1.653529 0.323911 0.851480 0.055414 0.001876 0.001914
0.378409 0.647314 0.679828 0.000001 0.480140 0.000014
1.547320 0.384591 0.757679 -0.055365 -0.004846 -0.004531
1.047442 0.705763 0.598448 0.000001 0.960928 0.000001
0.703574 0.469962 0.579180 0.000000 -0.999747 0.000000
2.805633 0.707779 0.580348 0.000000 0.999747 0.000000
1.225851 0.697759 0.528190 0.000000 0.915104 -0.000001
1.136647 0.515913 0.670156 0.000000 -0.614634 0.000019
1.894885 0.694978 0.522307 0.000000 0.896064 -0.000004
1.758859 1.012262 0.171374 0.071455 0.004052 0.004131
1.643842 0.947408 0.238166 -0.055364 0.003421 0.003205
1.693482 0.406897 0.767104 0.055413 0.007436 0.007526
1.404260 0.621421 0.461731 -0.000000 0.274077 -0.000007
2.920736 0.696425 0.627087 -0.000000 0.905783 0.000028
2.430111 0.698776 0.621787 0.000000 0.923887 0.000006
2.192712 0.707826 0.578263 0.000000 0.999755 0.000000
2.207100 0.640810 0.469120 0.000001 0.443573 -0.000030
0.244602 0.563018 0.692315 -0.000000 -0.211516 0.000138
2.786929 0.474947 0.541877 0.000000 -0.954480 -0.000001
1.270453 0.526147 0.475078 -0.000000 -0.522524 -0.000049
1.798812 1.177768 1.147076 -0.055364 0.010832 -0.009978
1.092045 0.575561 0.457937 0.000000 -0.123134 -0.000120
2.730005 0.665566 0.640799 -0.000002 0.714437 0.000358
2.852156 0.517003 0.645701 -0.000001 -0.714443 0.000478
1.565699 0.867552 0.316920 -0.055362 0.004277 0.004002
2.910443 0.704459 0.701154 0.025489 0.005253 -0.005836
3.109823 0.580580 0.491865 0.525832 -0.000009 -0.000073
3.109823 0.580580 0.660490 0.525832 -0.000009 0.000073
1.894885 0.473404 0.604846 -0.000001 -0.968757 0.000002
2.385509 0.547976 0.687906 -0.000001 -0.339747 0.000041
2.632285 0.520931 0.502643 0.000001 -0.714436 -0.000239
2.952630 0.785342 0.762685 0.025494 -0.010583 0.008987
1.824237 0.995417 0.971040 0.071455 0.003741 -0.003814
2.969829 0.755275 0.404380 0.025493 0.009508 0.010105
3.049519 0.873469 0.854888 0.025491 0.015211 -0.014818
3.005757 0.319523 0.312377 0.025491 -0.011409 0.011813
2.633775 0.728838 0.713242 0.025493 0.013520 -0.013550
1.675321 0.917822 0.880115 -0.055364 0.007270 -0.006765
2.519316 0.630693 0.464776 0.000000 0.362377 -0.000005
3.021395 0.827404 0.346510 0.025492 -0.012700 -0.010452
2.870575 0.420972 0.734729 0.025492 0.011693 0.009772
1.856925 0.723991 0.708495 0.055415 -0.003573 0.003641
1.559348 0.212240 0.203924 -0.042932 0.004089 -0.004437
2.988358 0.586715 0.457213 0.000000 -0.011239 -0.000171
2.739887 0.738947 0.426593 0.025491 0.011832 0.012174
1.377291 0.408177 0.746325 -0.055362 -0.003564 -0.003338
2.991236 0.583879 0.695054 0.000000 -0.022502 0.000021
0.624441 0.707794 0.579681 0.000000 0.999747 0.000000
1.015789 0.590719 0.695125 0.000000 0.022502 0.000043
1.573184 0.755513 0.395777 -0.042932 -0.006048 -0.006528
0.192081 0.695489 0.524839 -0.087513 0.000437 -0.000199
1.535214 0.724344 0.725770 -0.042931 -0.009135 0.009740
1.780652 0.837398 0.326869 0.055414 -0.003752 -0.003822
2.998219 0.454530 0.455419 -0.058212 0.003320 -0.003394
1.270453 0.472187 0.599390 -0.000000 -0.981448 0.000003
0.958238 0.524210 0.676047 0.000000 -0.541284 0.000023
0.945289 0.707816 0.578680 0.000000 0.999754 0.000000
0.423011 0.700541 0.617281 0.000001 0.936816 0.000005
1.761078 0.531805 0.680575 -0.000001 -0.482880 0.000027
1.359658 0.707175 0.563353 -0.000000 0.994596 -0.000002
1.769755 0.133625 0.123547 0.055412 0.004288 -0.004365
1.729802 0.243368 0.250542 0.071456 -0.004884 0.004975
1.512169 0.589051 0.695163 0.000000 0.022851 0.000011
1.740699 1.045101 1.032005 0.055413 -0.004288 0.004365
1.716476 0.532061 0.471639 -0.000000 -0.483693 -0.000027
1.303656 0.461593 0.456977 -0.055363 -0.004276 0.004002
1.247344 0.451140 0.711077 -0.055363 -0.005702 -0.005323
2.835696 0.743237 0.419553 0.025498 0.003803 0.004266
1.486861 0.335053 0.831539 -0.042932 0.005452 0.005895
1.753411 0.935043 0.247545 0.071455 0.004884 0.004975
1.856925 1.091361 1.068281 0.055411 -0.006432 0.006523
0.378409 0.533534 0.681500 0.000000 -0.463774 0.000028
1.627271 0.474553 0.543239 -0.000000 -0.960887 -0.000017
1.535214 0.453423 0.426585 -0.042932 0.009135 -0.009740
0.333807 0.488630 0.512100 0.000000 -0.840698 -0.000038
3.069930 0.472515 0.467139 -0.058212 0.010130 -0.010220
3.069930 0.472515 0.685216 -0.058212 0.010130 0.010220
1.361050 0.719805 0.440905 -0.042929 -0.004259 -0.004620
0.447470 0.469992 0.571840 0.000000 -0.999754 -0.000000
0.309347 0.470004 0.581015 0.000000 -0.999747 0.000000
1.761078 0.665458 0.667248 -0.000001 0.637392 0.000009
1.569651 1.029840 0.144325 -0.042932 -0.013626 -0.014159
1.667745 1.122122 0.053948 -0.042933 -0.004600 -0.004986
1.485571 0.950741 0.221791 -0.042932 -0.008858 -0.009457
1.317411 0.792543 0.775632 -0.042930 -0.006815 0.007337
1.247344 0.726627 0.711077 -0.042928 -0.006815 0.007337
1.401491 0.871642 0.853098 -0.042933 -0.010902 0.011519
1.625705 1.082573 1.059674 -0.042930 -0.010902 0.011520
0.512216 0.541431 0.467067 0.000000 -0.403253 -0.000017
0.942411 0.469932 0.574509 -0.000000 -0.999747 -0.000000
1.870425 0.588383 0.695155 0.000000 -0.022502 0.000021
2.677582 0.469901 0.576678 0.000000 -0.999939 0.000000
1.517924 0.469902 0.576511 -0.000003 -0.335381 0.000000
1.791548 1.162477 0.020982 -0.055363 0.010833 0.009978
3.132647 0.772584 0.396269 -0.058212 -0.003319 -0.003393
2.965338 0.484224 0.519573 -0.000000 -0.874409 -0.000004
2.742327 0.525898 0.475231 0.000000 -0.520880 -0.000006
1.627271 0.704578 0.603953 -0.000001 0.950304 0.000001
1.493465 0.699546 0.619893 -0.000000 0.932205 0.000003
0.048449 0.534598 0.591159 -0.644405 -0.000025 0.000006
1.225851 0.624260 0.689778 0.000001 0.294845 0.000024
2.050273 0.707839 0.574676 0.000000 0.999747 -0.000000
1.225851 0.703180 0.609236 -0.000001 0.955706 0.000002
0.130226 0.507321 0.641221 -0.324428 -0.000086 0.000066
0.423011 0.489172 0.511258 0.000000 -0.840684 -0.000010
3.128249 0.638446 0.522176 0.525982 0.000050 -0.000053
0.851768 0.591053 0.457237 0.000000 0.022502 -0.000021
1.404260 0.482327 0.523242 -0.000001 -0.894677 -0.000007
1.939487 0.647022 0.472365 0.000000 0.483837 -0.000013
0.122792 0.529216 0.494052 -0.353421 -0.000060 -0.000078
1.582223 0.965553 0.938515 -0.055360 0.003421 -0.003205
3.130998 0.454433 0.444503 -0.058212 -0.008322 0.008388
3.130998 0.454433 0.707852 -0.058211 -0.008322 -0.008389
1.708010 0.452575 0.457614 0.071456 -0.005767 0.005869
1.784284 0.687772 0.473688 0.055411 -0.003573 -0.003641
2.430111 0.670442 0.489546 0.000000 0.682874 -0.000016
2.117896 0.540629 0.684935 -0.000000 -0.403248 0.000017
1.677137 0.844076 0.312288 0.055408 -0.003953 -0.004026
3.132647 0.405183 0.756086 -0.058212 -0.003329 -0.003384
3.073438 0.378690 0.786944 -0.058212 -0.003329 -0.003384
3.135395 0.323100 0.315881 -0.058212 -0.003329 0.003384
2.910428 0.398037 0.394183 0.025489 0.006351 -0.005666
1.562543 0.282061 0.884566 -0.042933 0.009369 0.009979
1.447938 0.792443 0.369203 -0.042933 -0.006048 -0.006528
1.784284 0.216554 0.946463 0.055414 0.010718 0.010745
2.251702 0.568871 0.693464 0.000000 -0.167502 0.000175
1.633640 1.005467 0.976876 -0.055363 0.002851 -0.002672
0.913636 0.648759 0.678995 -0.000001 0.503180 0.000051
1.627271 0.642904 0.682197 0.000000 0.463909 0.000114
1.530151 0.360572 0.367694 -0.055364 -0.002388 0.002239
1.777020 0.952384 0.924161 0.071455 0.004468 -0.004553
1.225851 0.650518 0.474402 -0.000001 0.516407 -0.000012
0.042533 0.606807 0.623933 -0.667661 0.000008 0.000019
0.184186 0.677304 0.653428 -0.114433 0.000279 0.000233
1.460870 0.434606 0.738697 -0.042933 0.009135 0.009740
1.806076 0.823600 0.800950 0.071453 0.003065 -0.003127
2.939440 0.470000 0.580849 0.000000 -0.999751 0.000000
1.856925 0.119804 0.116782 0.055413 0.007503 -0.007592
0.497828 0.585047 0.695080 0.000000 -0.022502 0.000043
2.296305 0.474275 0.544201 0.000000 -0.960632 -0.000004
2.583424 0.657709 0.648821 -0.000001 0.714438 0.000179
1.435007 0.686970 0.466715 -0.042932 -0.002555 -0.002781
1.894885 0.475772 0.539250 0.000000 -0.947534 -0.000003
1.802444 0.799256 0.375611 0.071455 0.001559 0.001591
1.603799 0.363867 0.340430 -0.042932 0.005366 -0.005805
3.071400 0.296686 0.290012 0.025492 -0.015210 0.014818
2.841058 0.716294 0.691789 0.025494 -0.008467 0.007388
1.538067 0.530819 0.680030 0.000000 -0.483720 0.000027
2.207100 0.474066 0.544966 -0.000000 -0.966356 -0.000002
1.136647 0.646072 0.680515 -0.000000 0.483094 0.000013
0.779829 0.691575 0.636269 -0.000001 0.863640 0.000017
1.369009 0.788227 0.385502 -0.055363 0.003564 0.003338
2.028691 0.538126 0.683789 0.000001 -0.423635 0.000064
1.502819 0.864555 0.299850 -0.042932 -0.005111 -0.005532
2.028691 0.476025 0.613856 -0.000000 -0.947438 0.000010
1.704815 0.134563 1.028172 -0.042931 0.005963 0.006438
0.958238 0.660966 0.481507 0.000000 0.614756 -0.000010
2.653122 0.704626 0.603750 -0.000001 0.972149 0.000014
1.555217 0.725548 0.467373 -0.055364 0.003386 0.003172
0.735227 0.627551 0.463653 -0.000001 0.318491 -0.000022
0.601420 0.483116 0.521677 -0.000000 -0.885664 -0.000008
2.633699 0.585130 0.457273 -0.000000 -0.020279 -0.000024
1.825823 0.589384 0.457200 0.000000 0.022502 -0.000043
2.786929 0.644604 0.681307 -0.000000 0.463902 0.000028
0.378409 0.674072 0.493114 0.000000 0.714912 -0.000015
0.467613 0.674130 0.493173 0.000001 0.714600 -0.000015
2.653122 0.690136 0.513690 0.000001 0.844566 -0.000005
2.742327 0.621261 0.461685 0.000000 0.276663 -0.000026
1.092045 0.690419 0.514152 -0.000000 0.852488 -0.000009
1.761078 0.470315 0.566260 -0.000000 -0.996918 -0.000002
1.766123 0.149943 1.013110 0.055413 0.009379 0.009442
0.690624 0.690288 0.638416 0.000001 0.850465 0.000009
2.985718 0.698017 0.457494 -0.058210 0.006660 0.006737
2.998219 0.465350 0.707983 -0.058212 -0.003330 -0.003385
1.984089 0.628811 0.688262 -0.000001 0.340221 0.000041
1.092045 0.486150 0.636197 -0.000000 -0.864166 0.000017
0.913636 0.489579 0.510627 0.000000 -0.840737 -0.000002
3.054543 0.554663 0.690139 0.526760 -0.000028 0.000089
0.869033 0.706650 0.559215 0.000000 0.989377 -0.000002
1.136647 0.479891 0.528458 0.000001 -0.912368 -0.000003
2.207100 0.672216 0.661103 0.000000 0.699089 0.000015
2.808080 0.424033 0.741117 0.025493 -0.013521 -0.013550
1.624650 0.159616 0.991120 -0.055364 -0.005702 -0.005323
1.520464 0.892653 0.865845 -0.055365 0.004205 -0.003935
0.880544 0.591053 0.695118 0.000000 0.022145 0.000022
1.856925 1.074663 0.100428 0.055413 -0.006431 -0.006523
1.489155 0.719428 0.683814 -0.055363 0.007644 -0.007107
1.722538 0.357238 0.338875 0.055413 0.001976 -0.002017
2.714712 0.703382 0.693551 0.025495 0.010140 -0.010688
3.054543 0.480547 0.625386 0.527537 -0.000085 0.000038
3.054543 0.480547 0.526969 0.527537 -0.000085 -0.000038
1.289384 0.411591 0.749810 -0.055364 -0.004276 -0.004002
3.069930 0.700326 0.690247 -0.058212 0.010159 -0.010191
3.073438 0.799078 0.365411 -0.058212 0.003329 0.003384
1.780652 0.764863 0.754448 0.055412 -0.007436 0.007526
1.693482 0.274945 0.867246 0.071456 -0.002650 -0.002704
1.675321 0.773796 0.413292 0.071454 0.005767 0.005869
2.608520 0.539828 0.684581 0.000000 -0.403684 0.000017
2.865116 0.477292 0.478677 0.025494 0.004234 -0.003840
2.385509 0.529621 0.473003 0.000000 -0.502370 -0.000013
2.296305 0.529549 0.473045 -0.000001 -0.499019 -0.000013
1.856925 0.053009 0.051366 0.055414 0.010718 -0.010745
0.130226 0.588884 0.471855 -0.331703 0.000001 -0.000053
0.384164 0.588216 0.457196 0.000000 -0.011251 -0.000341
0.735227 0.537559 0.468831 0.000000 -0.423614 -0.000032
1.649897 0.689338 0.461715 0.055413 -0.005025 -0.005110
2.385509 0.609431 0.693373 0.000000 0.167179 0.000022
1.582669 0.533090 0.471087 0.000001 -0.463865 -0.000057
1.693482 0.392357 0.400097 0.071455 -0.005767 0.005869
1.595415 0.428145 0.444979 0.071456 -0.005195 0.005291
1.789732 0.291226 0.279445 0.055412 0.003417 -0.003482
0.067137 0.633219 0.520584 -0.571050 0.000025 -0.000030
2.895334 0.478565 0.696007 0.025491 -0.010505 -0.011017
2.611894 0.721226 0.446568 0.025492 0.027025 0.021046
0.779829 0.524456 0.676205 0.000000 -0.541443 0.000006
0.869033 0.524456 0.676205 0.000000 -0.541443 0.000006
3.128249 0.657919 0.600809 0.525329 0.000069 0.000026
1.538067 0.692331 0.517383 0.000000 0.864038 -0.000002
2.340907 0.694904 0.522158 0.000000 0.885692 -0.000002
1.808498 0.472356 0.694061 0.055412 0.003573 0.003641
1.671873 0.571302 0.458502 0.000001 -0.145068 -0.000102
1.777020 0.052981 0.045131 0.055413 0.012325 -0.012286
2.876133 0.636871 0.685053 0.000000 0.403253 0.000034
3.009940 0.698280 0.529374 0.000002 0.663906 -0.000001
2.767503 0.444735 0.439589 0.025493 0.013170 -0.010759
1.595415 0.451408 0.731129 0.055413 0.003350 0.003414
1.635368 0.402891 0.376814 0.055418 0.002512 -0.002562
1.493465 0.523195 0.476966 0.000001 -0.557438 -0.000011
0.646022 0.652190 0.676928 -0.000000 0.541651 0.000023
1.499624 0.936475 0.914226 -0.055364 0.001853 -0.001738
3.009411 0.703588 0.678658 -0.058210 -0.003321 0.003395
1.666241 0.344810 0.796092 0.071455 -0.003273 -0.003339
1.666241 0.832958 0.796092 0.071455 0.001637 -0.001671
1.401491 0.871642 0.299257 -0.042933 -0.010902 -0.011519
1.614567 0.833133 0.322158 -0.042933 -0.002513 -0.002735
3.072969 0.529123 0.486740 0.527141 -0.000051 -0.000078
0.512216 0.694323 0.631306 -0.000002 0.883551 0.000016
2.697725 0.545207 0.686854 0.000000 -0.361975 0.000038
2.608520 0.487654 0.638701 0.000001 -0.840385 0.000002
0.244602 0.496725 0.500923 -0.000001 -0.774754 -0.000049
1.813340 0.914035 0.890246 0.071455 0.004884 -0.004975
1.773388 1.052111 0.116025 0.055412 -0.004154 -0.004229
1.372900 0.685437 0.680612 -0.042932 -0.008518 0.009108
2.697725 0.639604 0.683807 0.000001 0.422235 0.000016
0.556818 0.471069 0.559545 -0.000000 -0.989368 -0.000002
0.779829 0.612424 0.692811 -0.000000 0.189655 0.000039
0.556818 0.554983 0.690232 0.000001 -0.269928 0.000013
1.510044 0.263203 0.262320 -0.055363 -0.003991 0.003736
0.556818 0.485898 0.635765 0.000000 -0.863544 0.000004
3.041635 0.754023 0.730540 -0.058209 -0.004979 0.005080
1.716476 0.693180 0.518916 -0.000002 0.850381 -0.000004
2.485704 0.518312 0.647038 -0.000001 -0.714379 0.000060
2.162498 0.696230 0.627503 0.000002 0.551951 0.000001
2.073293 0.696089 0.627805 -0.000000 0.905836 0.000007
1.368291 0.589217 0.695159 -0.000000 0.022502 0.000021
2.742327 0.695663 0.523690 -0.000000 0.895961 -0.000015
1.697473 0.086879 1.062720 -0.055365 -0.007982 -0.007415
1.642632 0.770738 0.732790 0.071455 0.003897 -0.003973
2.474714 0.678653 0.654275 -0.000000 0.760322 0.000013
2.251702 0.493367 0.647122 0.000000 -0.802402 0.000006
0.735227 0.481679 0.627805 0.000000 -0.905679 0.000014
0.108201 0.679438 0.605600 -0.410371 0.000072 0.000022
1.798812 1.048353 1.020334 0.071451 0.003221 -0.003286
1.829685 0.397694 0.765536 0.055415 0.002010 0.002051
0.958238 0.575976 0.457895 0.000000 -0.100803 -0.000147
2.251702 0.707183 0.563436 -0.000001 0.991354 -0.000001
2.296305 0.619289 0.461147 0.000000 0.255065 -0.000028
1.611063 0.330967 0.809649 -0.055361 -0.002138 -0.002005
1.611063 0.846800 0.809649 -0.055362 0.002138 -0.002005
1.404260 0.502594 0.658101 -0.000000 -0.730454 0.000028
1.214732 0.502963 0.493851 -0.055364 -0.011403 0.010482
1.611668 0.895997 0.862019 -0.055363 0.003920 -0.003670
1.679648 0.180997 0.168247 -0.042932 0.006644 -0.007157
1.780652 0.348719 0.817309 0.055413 0.001876 0.001914
1.701183 1.035236 0.131704 -0.042933 -0.011924 -0.012525
0.457542 0.587132 0.457208 0.000000 -0.011428 -0.000042
1.550181 0.474928 0.661195 -0.055364 -0.003385 -0.003172
1.627271 0.550849 0.688916 0.000001 -0.314913 0.000011
0.384164 0.707856 0.574676 0.000000 0.999935 -0.000000
0.115448 0.597711 0.674257 -0.382078 0.000010 0.000084
1.809708 0.410707 0.406414 0.071455 -0.005767 0.005869
2.763043 0.742535 0.729712 0.025493 0.011831 -0.012174
1.820605 0.209926 0.202222 0.055412 0.010718 -0.010746
1.744253 1.112168 0.058618 -0.042932 -0.004600 -0.004986
1.205304 0.490690 0.672344 -0.055363 -0.005702 -0.005323
0.601420 0.693483 0.519464 0.000000 0.875031 -0.000004
0.244602 0.475812 0.613224 -0.000000 -0.947151 0.000005
0.244602 0.692494 0.634680 0.000000 0.874896 0.000008
3.133196 0.789001 0.772163 -0.058212 -0.004979 0.005080
1.704378 0.978986 0.942930 -0.055364 0.012257 -0.011233
1.702562 0.908205 0.251458 0.055411 -0.003417 -0.003482
3.029214 0.365783 0.363577 0.025491 0.012701 -0.010453
1.939487 0.706282 0.556823 0.000000 0.985829 -0.000001
1.597873 0.908462 0.254028 -0.042933 -0.004429 -0.004803
1.416021 0.419312 0.421033 -0.055365 -0.002138 0.002005
0.333807 0.560703 0.460581 0.000000 -0.233437 -0.000248
1.689850 0.464188 0.681546 0.071454 -0.001948 -0.001989
1.181249 0.678268 0.497641 0.000000 0.745988 -0.000003
2.827726 0.667312 0.513339 -0.000001 0.714443 -0.000478
2.831531 0.475445 0.612071 0.000000 -0.953554 0.000002
0.289204 0.689635 0.512872 0.000000 0.840946 -0.000001
1.805680 0.565671 0.692874 0.000001 -0.189523 0.000154
2.949523 0.489870 0.464473 -0.058211 -0.007725 0.007798
1.366975 0.475146 0.696031 -0.042932 0.004259 0.004620
1.805680 0.481679 0.524550 0.000000 -0.905836 -0.000002
2.563918 0.695367 0.523092 0.000001 0.894930 -0.000007
2.519316 0.513790 0.483887 0.000000 -0.632142 -0.000018
1.793364 0.262384 0.900874 0.055413 0.006297 0.006389
1.391311 0.469914 0.577012 0.000000 -0.999751 0.000000
2.697725 0.485394 0.634899 0.000000 -0.875234 0.000002
1.732764 1.128669 1.108204 -0.042932 -0.015670 0.016048
1.489155 0.476271 0.702124 -0.042933 0.009135 0.009740
1.485571 0.227027 0.930564 -0.055364 -0.007412 -0.006895
2.786929 0.562814 0.692271 -0.000000 -0.211618 0.000034
1.844818 0.707899 0.460834 0.071453 0.002771 0.002827
2.920736 0.690964 0.515042 0.000000 0.852540 -0.000001
0.512216 0.694439 0.521271 0.000000 0.885839 -0.000008
0.289204 0.621020 0.690740 0.000001 0.276586 0.000052
0.646022 0.483212 0.630863 -0.000000 -0.885664 0.000008
1.448862 0.682221 0.649971 0.000000 0.787348 0.000003
1.627271 0.486738 0.637207 -0.000001 -0.864121 0.000035
0.467613 0.511992 0.485378 -0.000001 -0.648969 -0.000017
2.876133 0.544431 0.465806 0.000001 -0.369438 -0.000005
1.720722 0.357455 0.789171 0.071456 -0.003117 -0.003180
1.665030 0.247093 0.922621 -0.042931 0.008007 0.008580
0.378409 0.511865 0.485487 0.000001 -0.648969 -0.000017
1.345438 0.358858 0.350901 -0.055365 -0.007127 0.006634
1.493465 0.480547 0.526969 0.000000 -0.915055 -0.000007
0.036784 0.558933 0.541896 -0.690296 -0.000011 -0.000013
3.128249 0.522210 0.545729 0.523845 -0.000067 -0.000032
3.128249 0.522210 0.606626 0.526486 -0.000067 0.000029
2.786929 0.694091 0.631750 -0.000001 0.885445 0.000016
0.646022 0.539675 0.684514 0.000000 -0.423628 0.000016
1.697473 1.090889 1.062720 -0.055364 0.003991 -0.003736
0.556818 0.574899 0.458019 -0.000000 -0.122945 -0.000060
3.009940 0.649877 0.474011 0.000001 0.480293 -0.000003
2.556724 0.707863 0.577012 0.000021 0.011591 0.000000
3.079533 0.658314 0.504152 0.000010 0.161470 -0.000010
0.824431 0.483445 0.521049 -0.000000 -0.885777 -0.000008
1.349199 0.418747 0.415017 -0.055361 -0.002851 0.002672
1.471378 0.869114 0.854855 -0.042931 -0.005366 0.005805
1.649897 0.707754 0.671835 0.071450 0.002598 -0.002651
1.605101 0.482342 0.452273 0.055414 0.006699 -0.006791
1.315056 0.642977 0.470196 0.000000 0.463994 -0.000007
1.609944 0.397563 0.738783 0.071459 -0.002598 -0.002651
1.225851 0.541011 0.685103 0.000001 -0.402821 0.000034
1.315056 0.496461 0.651109 0.000001 -0.755379 0.000003
0.145337 0.550497 0.678458 -0.265543 -0.000053 0.000131
2.354575 0.469953 0.573592 0.000000 -0.999747 -0.000000
1.418442 0.805659 0.793556 -0.042937 -0.003024 0.003288
2.474714 0.707475 0.585804 -0.000000 0.996872 0.000002
2.466081 0.469951 0.573675 0.000000 -0.999747 -0.000000
2.251702 0.487479 0.513939 0.000000 -0.852576 -0.000018
2.073293 0.641184 0.683049 -0.000000 0.443124 0.000015
1.716476 0.562001 0.692086 -0.000001 -0.232259 0.000031
2.430111 0.504104 0.492696 0.000000 -0.714825 -0.000015
1.359658 0.584379 0.457290 0.000000 -0.022502 -0.000331
2.028691 0.526538 0.474838 0.000001 -0.519505 -0.000012
1.711642 0.879474 0.846200 0.071455 0.002857 -0.002915
0.378409 0.477482 0.617987 0.000000 -0.932460 0.000001
1.626298 0.132694 0.132684 -0.055364 -0.005132 0.004796
1.761078 0.638433 0.468000 0.000000 0.423565 -0.000032
1.802444 0.370162 0.367434 0.071454 -0.003117 0.003180
0.735227 0.477198 0.535152 0.000000 -0.939792 -0.000005
2.925052 0.707764 0.571340 0.000000 0.999747 -0.000000
2.949523 0.489870 0.687882 -0.058211 -0.007725 -0.007798
1.572964 0.306395 0.289505 -0.042933 0.002513 -0.002734
2.859381 0.716621 0.460901 0.025494 -0.004234 -0.003840
0.512216 0.644160 0.681539 -0.000000 0.463956 0.000057
1.716476 0.695422 0.629151 0.000001 0.884748 0.000002
2.668401 0.481561 0.466705 0.025493 -0.008452 0.009100
1.002840 0.642081 0.682605 -0.000000 0.443124 0.000015
0.869033 0.473853 0.606582 0.000001 -0.966718 0.000008
0.824431 0.698297 0.529412 0.000000 0.914957 -0.000002
1.315056 0.698856 0.530761 -0.000001 0.914829 -0.000003
2.385509 0.480446 0.527198 -0.000000 -0.915007 -0.000007
0.289204 0.533607 0.681539 0.000000 -0.463928 0.000057
1.270453 0.652190 0.676928 -0.000000 0.541443 0.000012
0.690624 0.624618 0.689666 -0.000001 0.297894 0.000048
1.516832 0.292760 0.857993 -0.055367 -0.002138 -0.002005
1.408062 0.493388 0.470663 -0.042932 0.004259 -0.004620
1.850282 0.484264 0.632855 -0.000001 -0.872587 0.000008
1.791548 0.161404 0.164079 0.071455 -0.003637 0.003709
1.315056 0.502879 0.493949 0.000000 -0.730503 -0.000028
1.388947 0.355984 0.800991 -0.055362 -0.002530 -0.002372
3.007926 0.665263 0.641108 0.000001 0.714438 0.000197
1.856925 0.941073 0.231259 0.055412 -0.010718 -0.010746
1.668057 0.275236 0.287943 0.071455 -0.001325 0.001353
2.510134 0.661638 0.507545 -0.000001 0.714170 -0.000030
1.438122 0.305493 0.850804 -0.055366 -0.002281 -0.002139
2.519316 0.541813 0.685456 0.000001 -0.403063 0.000034
0.690624 0.696443 0.525306 0.000001 0.905581 -0.000014
0.080321 0.526351 0.526309 -0.519397 -0.000039 -0.000030
1.533783 0.811755 0.805874 -0.042932 -0.002854 0.003104
1.533783 0.366012 0.805874 -0.042932 0.002854 0.003104
1.181249 0.545363 0.465440 0.000001 -0.357893 -0.000010
2.767503 0.449318 0.717446 0.025494 -0.011830 -0.012173
1.448862 0.480547 0.625386 0.000000 -0.914957 0.000002
1.448862 0.606837 0.693798 0.000001 0.145247 0.000203
1.984089 0.687254 0.643110 -0.000000 0.824130 0.000003
1.845966 0.707865 0.576511 0.000000 0.999747 0.000000
1.808498 0.688713 0.677707 0.055413 -0.007146 0.007237
1.041687 0.469914 0.577012 0.000000 -0.999751 0.000000
1.664963 1.085677 0.092554 -0.055363 0.004562 0.004267
1.092045 0.494419 0.503832 -0.000000 -0.788637 -0.000012
0.289204 0.674772 0.658526 -0.000001 0.692942 0.000004
2.876133 0.705454 0.600045 -0.000001 0.976466 0.000001
1.628104 0.758939 0.391858 0.055412 -0.005025 -0.005110
2.017181 0.588383 0.695155 0.000000 -0.022502 0.000043
1.601029 0.296007 0.847711 -0.055363 -0.003991 -0.003736
1.716476 0.629282 0.688091 0.000001 0.323478 0.000011
1.152473 0.469932 0.577846 0.000000 -0.999747 0.000000
1.697114 0.228289 0.210613 0.055413 0.005895 -0.005986
3.099540 0.863660 0.310021 -0.058211 -0.006639 -0.006754
0.289204 0.703169 0.609276 -0.000001 0.960730 0.000009
2.965131 0.798761 0.375545 0.025491 -0.010584 -0.008988
1.270453 0.692373 0.634899 -0.000000 0.875234 0.000004
1.833317 0.861112 0.311937 0.071455 0.001351 0.001379
2.162498 0.500055 0.655336 0.000000 -0.745682 0.000027
0.913636 0.548957 0.688262 0.000001 -0.339560 0.000021
0.646022 0.552114 0.463012 0.000000 -0.319654 -0.000044
0.244602 0.511072 0.666191 0.000001 -0.648678 0.000035
0.333807 0.511009 0.666137 -0.000000 -0.649259 0.000009
1.185565 0.707869 0.576344 0.000005 0.355075 0.000000
0.467613 0.543120 0.686006 -0.000001 -0.382361 0.000036
1.270453 0.486570 0.515437 0.000000 -0.864147 -0.000017
3.101393 0.736581 0.429074 -0.058212 0.008322 0.008388
0.869033 0.643754 0.470603 -0.000000 0.463857 -0.000028
1.538067 0.633414 0.686517 -0.000001 0.381093 0.000018
0.556818 0.505939 0.490873 -0.000000 -0.698509 -0.000008
2.563918 0.476172 0.614291 0.000001 -0.946906 0.000005
1.538067 0.638093 0.467841 0.000000 0.403253 -0.000008
1.894885 0.685679 0.645369 -0.000000 0.815265 0.000005
1.576430 0.733877 0.692137 -0.055364 0.003386 -0.003172
3.031522 0.707873 0.576178 0.000000 0.999937 0.000000
1.806076 0.101948 1.057010 0.055413 0.003752 0.003822
1.805680 0.628025 0.688542 -0.000001 0.317606 0.000022
1.002840 0.636108 0.466966 -0.000000 0.403326 -0.000068
1.894885 0.543429 0.686134 0.000000 -0.382561 0.000036
0.735227 0.702547 0.611354 0.000003 0.562383 0.000001
2.831531 0.485394 0.517456 0.000000 -0.875158 -0.000004
2.296305 0.658415 0.672731 -0.000000 0.578701 0.000010
2.608520 0.632483 0.686885 -0.000000 0.361822 0.000038
0.913636 0.550217 0.463653 0.000000 -0.319646 -0.000088
1.683280 1.004739 0.991629 -0.042935 -0.006643 0.007157
1.677137 0.333692 0.312288 0.055414 0.001976 -0.002017
1.716476 0.496593 0.651271 -0.000001 -0.769971 0.000006
2.117896 0.484769 0.633768 0.000000 -0.873422 0.000004
1.675602 0.077854 0.078247 -0.055364 -0.003991 0.003736
2.852592 0.787369 0.772284 0.025493 0.006656 -0.007305
2.028691 0.470689 0.562482 0.000000 -0.992344 -0.000000
0.556818 0.704096 0.605897 0.000000 0.966754 0.000004
1.791548 0.428137 0.738684 0.055413 0.007436 0.007526
1.618932 0.266479 0.274633 -0.055363 -0.001853 0.001738
2.525071 0.592220 0.695091 -0.000000 0.022153 0.000022
1.732764 0.045221 1.104246 -0.055365 -0.006842 -0.006373
3.079533 0.519453 0.648203 0.000008 -0.195013 0.000008
2.920736 0.612219 0.692851 -0.000000 0.189394 0.000039
0.467613 0.479773 0.623630 0.000000 -0.914808 0.000007
1.002840 0.698297 0.622943 -0.000000 0.923907 0.000012
0.690624 0.650731 0.474533 -0.000000 0.522482 -0.000024
1.831501 0.337177 0.332217 0.071454 -0.001455 0.001485
3.128249 0.624927 0.640001 0.525146 0.000037 0.000063
2.474714 0.621221 0.690682 -0.000000 0.276712 0.000052
1.786100 0.878573 0.865388 0.055415 -0.003484 0.003550
1.569987 0.194126 0.958779 -0.055364 -0.003136 -0.002939
3.072969 0.657123 0.659327 0.526424 0.000197 0.000265
1.493465 0.707659 0.569173 0.000000 0.998426 -0.000002
2.864623 0.593472 0.457292 0.000000 0.022510 -0.000021
0.556818 0.664882 0.667730 -0.000000 0.631991 0.000018
1.740699 0.292347 0.875620 0.055414 0.003417 0.003482
2.073293 0.606837 0.458557 0.000000 0.145371 -0.000051
2.117896 0.700164 0.534057 0.000000 0.932246 -0.000003
1.813340 1.112332 1.084449 0.071455 0.009559 -0.009675
2.117896 0.532979 0.471145 -0.000000 -0.463627 -0.000014
1.984089 0.486234 0.636342 0.000000 -0.864142 0.000017
1.939487 0.698952 0.621363 -0.000000 0.921597 0.000002
2.608520 0.696407 0.627125 -0.000000 0.905756 0.000014
0.869033 0.669223 0.663948 -0.000001 0.663144 0.000004
1.755227 0.732219 0.445999 0.071455 0.005767 0.005869
1.939487 0.540935 0.467286 -0.000000 -0.403327 -0.000034
0.824431 0.548486 0.464264 -0.000000 -0.340828 -0.000041
3.021395 0.354291 0.809856 0.025490 -0.011410 -0.011813
1.153912 0.587382 0.457222 -0.000000 -0.022324 -0.000043
1.671873 0.706499 0.558183 -0.000001 0.989022 -0.000004
2.965338 0.542349 0.466668 0.000000 -0.382753 -0.000018
3.099540 0.860714 0.845343 -0.058214 0.006657 -0.006735
0.646022 0.507996 0.488919 -0.000000 -0.682865 -0.000032
2.563918 0.471409 0.557276 0.000000 -0.984904 -0.000001
1.716476 0.608732 0.458863 -0.000000 0.167243 -0.000044
2.608520 0.478672 0.531339 -0.000000 -0.923883 -0.000003
1.619291 1.038482 1.013216 -0.055362 0.005132 -0.004796
3.123443 0.321084 0.839431 -0.058211 -0.006658 -0.006735
