1.758353 0.429477 0.741950 -0.048070 0.013584 0.012451
1.812174 0.508436 0.518227 0.000000 -0.411976 -0.000015
1.498695 0.466331 0.647870 0.000000 -0.863681 0.000008
3.133043 0.485894 0.682745 -0.000005 -0.670005 0.000111
2.886956 0.496484 0.679335 0.000000 -0.525854 0.000005
0.558261 0.563857 0.512138 0.000000 0.191605 -0.000017
1.722608 0.560883 0.511589 0.000000 0.166496 -0.000039
1.823714 0.240343 0.272495 -0.062870 -0.005420 0.004568
1.898762 0.161798 0.186963 -0.062870 -0.004267 0.003601
0.737391 0.524199 0.691099 -0.000000 -0.241385 0.000013
2.349565 0.461684 0.565274 -0.000000 -0.921333 -0.000011
1.090513 0.541998 0.693562 0.000000 -0.025457 0.000259
2.025375 0.703525 0.776412 0.062907 -0.002857 0.002582
1.988296 0.978731 1.075978 0.082246 0.009183 -0.008259
1.988296 0.112638 1.075978 0.082246 -0.009183 -0.008259
2.640478 0.453114 0.517706 0.000000 0.741481 -0.000536
0.916522 0.486064 0.532359 0.000000 -0.650350 -0.000031
1.867102 0.672045 0.756492 0.062905 -0.006488 0.005840
0.106104 0.599447 0.549589 -0.338539 0.000065 -0.000060
1.409130 0.561538 0.692270 -0.000000 0.166659 0.000078
1.677826 0.507361 0.685255 -0.000001 -0.412123 0.000058
1.863325 0.728061 0.385220 0.062906 -0.005713 -0.005149
1.718692 0.467389 0.504592 -0.048067 0.013585 -0.012452
1.846163 0.814784 0.317528 -0.062871 0.005881 0.004953
1.722608 0.468657 0.651679 0.000000 -0.836790 0.000017
1.230000 0.490516 0.528774 -0.000000 -0.609522 -0.000009
1.771147 0.691539 0.773970 -0.048066 -0.004791 0.004541
0.961304 0.530995 0.511503 -0.000002 -0.166264 -0.000157
2.758116 0.661594 0.455875 -0.000000 0.741482 0.000335
2.801834 0.673975 0.761776 0.000002 0.741473 -0.000402
3.045432 0.310093 0.323616 0.000000 -0.741482 0.000230
3.031984 0.345813 0.804840 0.000001 0.741457 0.000115
2.842174 0.625372 0.647297 -0.000000 0.863873 0.000008
2.707826 0.583201 0.518349 -0.000000 0.412039 -0.000015
1.140435 0.633122 0.574459 0.000000 0.956080 -0.000002
2.663043 0.597982 0.677266 -0.000000 0.568885 0.000076
2.901742 0.426289 0.715907 -0.000002 0.741464 0.000235
1.765146 0.815562 0.903770 -0.048068 -0.007580 0.007131
2.025375 0.960407 0.143681 0.062906 -0.010457 -0.009335
1.839535 0.745576 0.805273 -0.062871 0.001759 -0.001487
2.336350 0.637352 0.601616 0.000000 0.999916 -0.000000
3.043698 0.710477 0.766074 0.000000 -0.741482 0.000455
3.055723 0.487552 0.519724 0.000000 -0.670972 -0.000322
3.106611 0.698096 0.752392 0.000000 -0.741482 0.000909
3.056530 0.665080 0.715907 0.000001 -0.741481 0.000455
2.807546 0.466918 0.496921 0.000000 -0.741482 0.000335
1.909331 0.332578 0.380756 0.082246 -0.008739 0.007864
1.990356 0.801998 0.323043 0.082246 0.003777 0.003414
1.621411 0.665120 0.472532 -0.062870 0.003460 0.002922
0.030683 0.519751 0.618480 -0.633652 -0.000013 0.000008
1.907271 0.232813 0.958829 0.062904 0.004164 0.003760
2.025375 0.275458 0.303361 0.062905 0.009102 -0.008152
2.025375 0.307569 0.338846 0.062905 0.009876 -0.008829
1.722608 0.564364 0.691732 0.000000 0.191453 0.000017
1.588261 0.629214 0.639737 -0.000000 0.907928 0.000001
3.101096 0.618930 0.555961 0.145798 0.001019 -0.000563
0.468696 0.502083 0.682618 0.000001 -0.481189 0.000048
1.964607 0.366602 0.805595 0.062906 0.005713 0.005149
1.882179 0.200319 0.973086 -0.062871 -0.004728 -0.003988
2.036087 0.582395 0.685985 -0.000000 0.412174 0.000058
1.857832 0.379619 0.402730 0.062905 0.012200 -0.010838
1.949844 0.319002 0.843198 0.082246 -0.008147 -0.007336
1.879805 0.298661 0.857063 0.082246 -0.008146 -0.007336
2.483913 0.571517 0.689939 -0.000000 0.291741 0.000043
2.842184 0.444860 0.695384 0.000000 0.741482 0.000804
1.319565 0.564436 0.691718 -0.000000 0.217166 0.000119
3.066087 0.571306 0.513966 0.149634 0.000081 -0.000264
2.707826 0.564147 0.691775 -0.000000 0.192088 0.000017
0.558261 0.628955 0.640308 0.000000 0.910342 0.000003
3.127353 0.463328 0.606827 0.145797 -0.000529 0.000030
1.991304 0.462657 0.640846 0.000000 -0.910891 0.000001
1.751144 0.862187 0.951747 -0.048068 -0.007008 0.006605
1.751144 0.862187 0.252222 -0.048068 -0.007008 -0.006605
1.920318 0.794946 0.316661 0.062906 -0.004938 -0.004455
1.691038 0.749263 0.828988 -0.048068 -0.004505 0.004272
1.909331 0.345102 0.834546 0.062905 0.011425 0.010173
3.118601 0.590333 0.530927 0.145798 0.000654 -0.000921
2.618260 0.629168 0.564132 -0.000001 0.910918 -0.000012
1.991304 0.604857 0.671994 0.000000 0.650298 0.000015
2.025375 0.179128 1.007061 0.062906 0.006778 0.006098
2.025375 0.960407 1.060288 0.062907 -0.010457 0.009335
2.025375 0.130962 1.060288 0.062907 0.010457 0.009335
2.025375 0.912242 1.007061 0.062905 -0.006778 0.006098
2.754952 0.636832 0.720731 0.000000 0.741482 -0.000268
2.866262 0.462791 0.492360 0.000000 -0.741482 0.000402
2.663043 0.472318 0.547021 0.000001 -0.785835 -0.000002
0.098672 0.499476 0.546594 -0.367529 -0.000050 -0.000056
2.080869 0.463235 0.561928 0.000000 -0.900169 -0.000006
1.896285 0.251504 0.911202 0.082246 -0.006962 -0.006277
1.767391 0.505230 0.684241 0.000000 -0.435540 0.000027
3.094381 0.355490 0.373783 -0.000001 -0.741448 0.000115
3.098231 0.289458 0.903156 -0.000000 -0.741482 -0.000459
2.483913 0.518264 0.514515 0.000000 -0.291731 -0.000043
0.128896 0.610363 0.653176 -0.249724 0.000105 0.000079
1.808888 0.665696 0.713831 -0.062871 0.010954 -0.009129
2.622665 0.546717 0.693643 0.000000 0.012928 0.000067
1.319565 0.628423 0.641443 -0.000000 0.900169 0.000002
2.797391 0.618737 0.657358 0.000001 0.789469 0.000005
2.663043 0.574158 0.514853 -0.000000 0.316259 -0.000040
2.923807 0.686356 0.775458 0.000000 0.741482 -0.000268
0.692609 0.558185 0.511175 0.000001 0.141138 -0.000185
2.970176 0.640959 0.478678 -0.000000 0.741482 0.000151
1.677826 0.629886 0.638219 -0.000000 0.921293 0.000011
2.025375 0.002521 0.001742 0.000001 -0.670973 -0.000273
2.900468 0.389146 0.447016 0.000000 0.741482 -0.000268
1.759550 0.278814 0.311715 -0.062872 -0.006342 0.005338
1.050869 0.629107 0.563997 -0.000000 0.911050 -0.000012
2.842174 0.579773 0.516892 -0.000001 0.364356 -0.000068
1.991304 0.526069 0.691526 0.000000 -0.217134 0.000119
2.994254 0.640959 0.725291 0.000000 0.741482 -0.000302
1.938857 0.391888 0.780071 0.062906 0.006100 0.005495
2.998546 0.550109 0.693543 0.000000 0.025860 0.000017
1.319565 0.485867 0.671442 0.000000 -0.650327 0.000031
1.798622 0.220596 0.957266 -0.062870 -0.005420 -0.004568
1.798622 0.220596 0.246703 -0.062870 -0.010839 0.009036
1.882179 0.209583 0.222500 -0.048069 0.005864 -0.005544
2.837746 0.640959 0.478678 0.000000 0.741481 0.000402
2.349565 0.582395 0.517984 -0.000000 0.412164 -0.000058
2.931739 0.581409 0.686401 -0.000001 0.387987 0.000031
0.379130 0.623501 0.650432 -0.000001 0.849365 0.000008
2.955673 0.746197 0.362381 -0.000001 0.741452 0.000115
3.081415 0.382956 0.763794 0.000002 0.741477 0.000455
1.955337 0.780527 0.868085 0.062907 -0.004938 0.004455
0.084098 0.609872 0.615398 -0.424422 0.000057 0.000010
3.105422 0.766191 0.376326 0.000001 -0.741480 -0.000345
3.106866 0.790952 0.855007 0.000000 -0.741482 0.000230
1.140435 0.632875 0.630283 0.000000 0.948643 0.000002
2.080869 0.515011 0.688367 0.000000 -0.340835 0.000018
2.929086 0.385019 0.761513 -0.000000 0.741482 0.000151
1.984863 0.738114 0.809653 0.082246 0.004370 -0.003949
2.292302 0.547602 0.693607 -0.000000 0.025860 0.000017
0.121223 0.482759 0.651789 -0.279608 -0.000091 0.000068
2.976521 0.585675 0.684466 -0.000000 0.435499 0.000055
2.856112 0.708413 0.440175 -0.000002 -0.741467 -0.000235
1.856956 0.460565 0.636005 -0.000000 -0.930859 0.000003
1.961517 0.956287 1.047881 0.082247 0.002592 -0.002345
1.961517 0.135082 1.047881 0.082246 -0.002592 -0.002345
1.657283 0.694083 0.441793 -0.062872 0.005189 0.004375
3.128920 0.471045 0.501481 0.000000 -0.741483 0.000536
1.875342 0.716719 0.431430 0.082246 0.004666 0.004215
2.368653 0.547602 0.510362 0.000000 0.025860 -0.000033
3.130845 0.671270 0.481221 -0.402451 -0.000614 -0.000575
1.729007 0.374778 0.406636 -0.048068 0.004648 -0.004406
1.816880 0.460697 0.490715 -0.048068 0.004863 -0.004608
2.918116 0.618261 0.700208 0.000000 0.741482 -0.000117
3.069050 0.418035 0.478941 0.000001 0.741482 -0.000455
2.025375 0.815911 0.303361 0.062905 -0.009102 -0.008152
2.025375 0.848021 0.267877 0.062906 -0.008327 -0.007470
1.993103 0.257428 0.287406 0.082246 -0.003481 0.003147
1.588261 0.511699 0.516851 0.000002 -0.364059 -0.000068
2.842174 0.462611 0.640745 -0.000001 -0.898902 0.000002
2.170434 0.511149 0.517067 0.000000 -0.388454 -0.000008
0.168094 0.579606 0.518575 -0.097302 0.000135 -0.000358
2.228432 0.547749 0.693604 0.000000 0.025860 0.000255
3.162228 0.362438 0.804488 -0.402449 -0.000630 -0.000550
3.133733 0.720794 0.777476 -0.402453 -0.001227 0.001149
0.782174 0.510164 0.686487 -0.000000 -0.387561 0.000016
1.949844 0.756312 0.378513 0.082245 0.004370 0.003949
1.955337 0.310842 0.335884 0.062906 0.004938 -0.004455
2.842174 0.564544 0.691694 0.000001 0.213274 0.000015
1.749864 0.329974 0.371249 -0.062871 -0.003517 0.002971
1.779438 0.723212 0.419272 -0.062870 0.001874 0.001584
2.980629 0.341686 0.394569 0.000000 0.741482 -0.000455
1.364348 0.625820 0.557478 0.000002 0.590968 -0.000001
1.453913 0.560956 0.511601 0.000000 0.166423 -0.000039
3.076149 0.296290 0.859567 0.000000 0.741482 0.000230
3.113575 0.380251 0.401147 -0.000001 -0.741476 0.000115
0.468696 0.537875 0.510652 -0.000000 -0.089847 -0.000146
1.050869 0.455154 0.616383 0.000000 -0.986020 0.000001
2.943549 0.733175 0.791158 0.000000 -0.741482 0.000151
0.244783 0.459528 0.570687 0.000000 -0.940178 -0.000019
1.723192 0.296885 0.329531 -0.062870 -0.003402 0.002873
3.136620 0.770317 0.832203 -0.402457 -0.000614 0.000575
0.200000 0.627684 0.560999 -0.004496 0.003777 -0.001399
0.379130 0.473082 0.657942 0.000000 -0.792053 0.000010
1.319565 0.474756 0.543918 0.000000 -0.776118 -0.000005
1.274782 0.464362 0.644282 -0.000000 -0.885162 0.000002
0.737391 0.633445 0.628452 -0.000001 0.757603 0.000001
0.871739 0.508403 0.518242 0.000000 -0.410864 -0.000007
1.955337 0.287228 0.878987 0.082247 -0.007554 -0.006807
2.655681 0.428353 0.490343 0.000001 0.741481 -0.000804
1.993789 1.010505 0.092203 0.082247 0.007998 0.007204
1.993789 1.010505 1.111766 0.082246 0.007998 -0.007204
1.993789 0.080864 1.111766 0.082246 -0.007998 -0.007204
2.727643 0.703511 0.776397 0.202714 0.001610 -0.003155
1.364348 0.595378 0.679012 0.000001 0.534571 0.000010
1.364348 0.518582 0.689551 0.000001 -0.289974 0.000022
2.824638 0.362321 0.417372 0.000000 0.741482 -0.000938
2.824638 0.729048 0.786597 0.202714 -0.001651 0.000644
3.012949 0.468981 0.704768 0.000000 -0.741483 -0.000302
1.628020 0.706358 0.779543 -0.048069 -0.006436 0.006075
2.875377 0.761248 0.363768 0.202714 0.001610 0.003155
2.875377 0.330121 0.840201 0.202714 -0.001610 -0.003155
2.887997 0.753810 0.813961 0.202712 -0.001651 0.000644
3.139508 0.289458 0.300813 0.000000 -0.741482 0.000459
1.914824 0.782538 0.353839 0.082246 0.008146 0.007336
3.105903 0.316925 0.367205 0.000000 0.741482 -0.000345
2.972476 0.304544 0.850446 -0.000001 0.741481 0.000459
3.014715 0.785403 0.884914 -0.000001 0.741480 -0.000689
3.014715 0.785403 0.319055 0.000001 0.741483 0.000345
0.737391 0.585874 0.519600 0.000000 0.435540 -0.000014
3.168931 0.247489 0.931516 -0.402453 -0.001259 -0.001101
3.128636 0.231143 0.254389 0.202712 -0.001610 0.003155
3.128636 0.860226 0.949580 0.202712 0.001610 -0.003155
2.760869 0.471045 0.501481 0.000000 -0.741483 0.000268
0.684533 0.454092 0.605082 0.000000 -0.999671 0.000000
1.923832 1.026929 0.067201 -0.048071 -0.014298 -0.013054
1.901739 0.628986 0.563728 -0.000000 0.910958 -0.000006
1.946521 0.512420 0.516569 0.000000 -0.363991 -0.000017
3.153611 0.519015 0.573014 1.000000 -0.000000 0.000000
3.153611 0.511583 0.621673 1.000000 0.000000 0.000000
3.153611 0.565373 0.567883 1.000000 0.000000 0.000000
3.153611 0.548936 0.641227 1.000000 0.000000 0.000000
3.153611 0.584927 0.605236 1.000000 0.000000 0.000000
1.840401 0.874538 0.233026 -0.048068 -0.006436 -0.006075
1.840401 0.874538 0.970943 -0.048068 -0.012870 0.011842
1.274782 0.460766 0.567449 0.000000 -0.931100 -0.000003
0.916522 0.617566 0.658877 -0.000002 0.790778 0.000020
1.543478 0.634019 0.577501 -0.000001 0.935292 -0.000001
1.907271 0.858556 0.958829 0.062904 -0.004164 0.003760
1.843241 0.460577 0.713145 0.062905 0.003631 0.003281
1.896015 0.913337 1.015561 -0.048070 -0.005291 0.005009
1.896015 0.178032 1.015561 -0.048067 0.010583 0.009844
3.033188 0.748260 0.360101 0.000000 0.741482 0.000459
1.409130 0.484482 0.670225 -0.000000 -0.662443 0.000004
1.767391 0.461973 0.564636 0.000000 -0.909480 -0.000003
0.782174 0.455983 0.583089 0.000000 -0.976135 -0.000001
0.961304 0.629655 0.638762 0.000001 0.893184 0.000002
2.947577 0.654763 0.704505 0.000000 -0.741481 0.000268
2.776072 0.663016 0.490343 -0.000000 -0.741482 -0.000670
2.748830 0.453114 0.686263 0.000000 0.741483 0.000536
2.776072 0.446283 0.729852 0.000000 -0.741482 -0.000335
3.018657 0.397400 0.456138 -0.000001 0.741482 -0.000909
3.056374 0.691905 0.458418 -0.000002 -0.741478 -0.000455
3.031333 0.415972 0.727309 -0.000001 0.741480 0.000455
0.423913 0.572999 0.514482 0.000000 0.291869 -0.000011
2.001582 0.637338 0.601247 0.000000 0.999666 -0.000000
2.842174 0.521805 0.690486 -0.000000 -0.267038 0.000095
0.737391 0.462170 0.639770 0.000000 -0.910905 0.000006
2.707826 0.459302 0.632658 -0.000000 -0.940075 0.000005
1.898345 0.385754 0.790655 0.062906 0.006100 0.005495
1.140435 0.579877 0.687037 -0.000000 0.364552 0.000008
3.033188 0.343109 0.843868 0.000001 -0.741483 -0.000459
2.439130 0.481703 0.667636 0.000000 -0.707006 0.000007
1.935025 0.046865 0.054631 -0.062870 -0.010608 0.008849
1.757445 0.632367 0.524520 -0.062869 0.003921 0.003310
0.289565 0.581307 0.517525 0.000000 0.388635 -0.000063
3.066087 0.630603 0.567449 0.148934 0.000258 -0.000101
2.549251 0.454088 0.599035 -0.000000 -0.999666 -0.000000
1.960830 0.812894 0.300632 0.062906 -0.009102 -0.008152
1.881865 0.458772 0.711512 0.062905 0.012974 0.011499
1.818159 0.191487 0.214198 -0.062870 -0.009916 0.008286
1.940519 0.031146 1.167385 -0.062871 -0.008763 -0.007342
1.940519 1.060223 1.167385 -0.062871 0.008763 -0.007342
0.411433 0.454026 0.600952 0.000005 -0.168325 -0.000000
3.118601 0.624896 0.629702 0.145802 0.001012 0.000419
1.882179 0.881786 0.981469 -0.048070 -0.005863 0.005543
2.349565 0.461225 0.637608 -0.000000 -0.921332 0.000011
1.722608 0.458775 0.572846 0.000000 -0.944341 -0.000001
0.084098 0.557441 0.666496 -0.424430 0.000012 0.000056
2.483913 0.460809 0.567347 0.000000 -0.921346 -0.000001
1.070691 0.637315 0.603607 0.000000 0.999666 0.000000
2.003050 0.543325 0.510373 -0.000000 -0.025860 -0.000255
2.872794 0.711118 0.802822 -0.000000 0.741482 -0.000268
0.346828 0.454024 0.601099 0.000000 -0.999918 -0.000000
1.415738 0.454028 0.601395 0.000000 -0.999671 -0.000000
1.823714 0.844060 0.937778 -0.048069 -0.007008 0.006605
0.106104 0.618281 0.582866 -0.338531 0.000084 -0.000020
0.076971 0.574804 0.547295 -0.452277 0.000026 -0.000046
1.006087 0.471274 0.655518 0.000000 -0.801760 0.000002
1.818159 0.191487 0.989772 -0.062871 -0.004958 -0.004182
1.732886 0.637353 0.602132 -0.000000 0.999666 0.000000
2.506671 0.637292 0.599478 0.000000 0.999666 -0.000000
3.057181 0.717308 0.394306 -0.000001 0.741471 0.000144
3.031333 0.657467 0.460435 -0.000000 0.741482 0.000909
2.980941 0.678102 0.437632 -0.000000 0.741482 0.000603
3.005981 0.712540 0.435615 -0.000001 -0.741483 -0.000909
3.031022 0.711118 0.802822 -0.000001 0.741481 -0.000455
0.647826 0.536259 0.693171 0.000000 -0.115575 0.000057
1.185217 0.456606 0.580356 0.000000 -0.970237 -0.000002
2.663043 0.628375 0.562426 0.000002 0.897160 -0.000013
3.167973 0.827459 0.290600 -0.402452 0.000630 0.000550
1.995849 0.865883 0.952200 0.082245 0.003185 -0.002880
0.647826 0.467170 0.554667 0.000000 -0.850665 -0.000004
0.468696 0.611742 0.538431 0.000001 0.724594 -0.000025
1.364348 0.461775 0.638897 -0.000001 -0.864811 0.000001
1.718692 0.636468 0.515892 -0.062871 0.010954 0.009129
2.944926 0.378829 0.435615 0.000001 0.741474 -0.000302
2.260000 0.460067 0.634734 0.000000 -0.931046 0.000003
2.830145 0.628578 0.711609 0.000000 0.741482 -0.000402
3.166058 0.794616 0.326894 -0.402453 0.000630 0.000550
3.023111 0.272384 0.904006 0.202713 -0.001610 -0.003155
2.260000 0.459101 0.571866 0.000000 -0.948643 -0.000002
3.014715 0.288036 0.868689 0.000000 0.741482 0.000689
2.025375 0.767745 0.847381 0.062903 -0.004939 0.004455
2.025375 0.339679 0.829638 0.062906 0.010651 0.009503
2.993595 0.314220 0.328177 0.000001 -0.741481 0.000345
1.824873 0.635518 0.676598 -0.062870 0.007841 -0.006582
1.140435 0.579499 0.516784 -0.000000 0.364690 -0.000034
2.930237 0.770317 0.832203 0.202713 -0.001651 0.000644
2.080869 0.460067 0.634734 -0.000000 -0.921275 0.000001
2.909117 0.329305 0.823082 0.000002 0.741479 0.000603
3.005981 0.396759 0.419390 0.000000 -0.741483 0.000909
3.005981 0.712540 0.768354 0.000002 -0.741481 0.000909
2.866878 0.363744 0.382904 -0.000001 -0.741481 0.000536
1.543478 0.622470 0.652049 0.000001 0.828786 0.000004
2.886956 0.489259 0.529742 0.000000 -0.610452 -0.000009
3.073261 0.363744 0.821065 -0.000002 -0.741445 -0.000230
2.761279 0.405013 0.775458 0.000000 -0.741482 -0.000335
2.706538 0.396106 0.436687 0.202713 -0.001610 0.003155
2.685433 0.687015 0.758167 0.202712 0.001610 -0.003155
2.697921 0.429775 0.455875 -0.000000 -0.741482 0.000536
2.697921 0.661594 0.455875 0.000000 0.741482 0.000536
2.483913 0.459390 0.632900 -0.000000 -0.936066 0.000001
2.676801 0.653340 0.738973 0.000002 0.741477 -0.000402
1.956710 0.086006 1.116419 0.062904 0.010457 0.009335
1.956710 1.005363 1.116419 0.062905 -0.010457 0.009335
0.364448 0.541555 0.693550 0.000000 -0.025860 0.000033
3.080764 0.638255 0.517706 -0.000000 -0.741482 -0.000268
1.896285 0.265436 0.280160 0.062905 0.004551 -0.004108
2.579909 0.445595 0.712592 0.202712 -0.001610 -0.003155
2.592322 0.620324 0.702488 0.000000 0.741482 -0.000536
2.170434 0.511699 0.687118 0.000000 -0.365252 0.000008
1.953277 0.174470 0.184987 0.062906 0.003389 -0.003062
2.290833 0.543915 0.510358 -0.000000 -0.025860 -0.000033
1.718692 0.636468 0.688077 -0.062869 0.010954 -0.009129
1.230000 0.508772 0.685894 0.000001 -0.410651 0.000029
1.901739 0.545832 0.693653 0.000000 0.025860 0.000033
3.066087 0.469626 0.653160 0.146439 -0.000236 0.000154
1.588261 0.467093 0.554792 0.000000 -0.863808 -0.000002
1.274782 0.515566 0.515401 0.000000 -0.340835 -0.000005
0.468696 0.620820 0.654495 0.000000 0.822483 0.000009
0.692609 0.501566 0.682334 0.000000 -0.481795 0.000006
1.804654 0.382576 0.794424 -0.048068 0.002324 0.002211
1.645584 0.662839 0.726383 -0.062869 0.005189 -0.004375
3.160313 0.395281 0.768194 -0.402455 -0.000630 -0.000550
2.772430 0.454107 0.605671 0.000000 -0.999666 0.000000
2.518417 0.545021 0.693648 0.000000 -0.012115 0.000072
3.132770 0.387083 0.444736 -0.000000 0.741483 -0.000574
2.915773 0.365807 0.818784 -0.000000 -0.741482 -0.000603
2.932990 0.711118 0.401147 -0.000007 0.740822 0.000151
1.804468 0.323329 0.835250 -0.062872 -0.003402 -0.002873
2.976521 0.469626 0.550809 -0.000000 -0.822483 -0.000001
3.153611 0.516049 0.674949 0.140981 -0.000105 0.000248
2.394347 0.630359 0.637098 -0.000000 0.916207 0.000001
2.528695 0.596981 0.526010 0.000001 0.566851 -0.000019
1.863497 0.458214 0.525233 0.082248 -0.002777 0.002512
2.976793 0.772381 0.834484 0.000000 -0.741482 0.000459
3.006293 0.658890 0.494903 -0.000000 -0.741482 -0.000151
2.982215 0.450410 0.478678 0.000000 -0.741483 0.000302
1.946521 0.631728 0.633594 0.000000 0.939777 0.000002
2.766557 0.637273 0.598740 0.000000 0.999676 -0.000000
1.931304 0.845750 0.922012 0.082246 0.003481 -0.003147
2.968265 0.376766 0.770635 0.000000 0.741482 0.000302
1.815744 0.732188 0.384208 -0.048068 -0.004362 -0.004138
0.961304 0.508504 0.685772 0.000000 -0.412136 0.000058
1.409130 0.605614 0.532623 0.000001 0.642975 -0.000004
2.854654 0.545094 0.510320 0.000000 -0.012928 -0.000134
2.330477 0.454069 0.599772 -0.000000 -0.999666 -0.000000
1.196963 0.546422 0.510332 0.000000 0.025860 -0.000017
2.414169 0.547454 0.510358 0.000000 0.025860 -0.000033
3.106866 0.790952 0.348963 0.000001 -0.741476 -0.000230
2.618260 0.520632 0.513808 0.000000 -0.266395 -0.000006
1.677826 0.582395 0.517984 0.000000 0.411976 -0.000007
3.021304 0.605278 0.532335 -0.000000 0.650381 -0.000062
2.080869 0.568530 0.690759 0.000000 0.242155 0.000053
2.260000 0.629624 0.565140 0.000000 0.910974 -0.000003
2.186585 0.544062 0.510354 0.000000 -0.025860 -0.000033
2.483913 0.559500 0.511363 0.000000 0.141365 -0.000046
1.122081 0.543989 0.510356 -0.000000 -0.025860 -0.000017
2.573478 0.497143 0.524227 0.000000 -0.522389 -0.000005
3.107574 0.394696 0.786860 -0.000001 -0.741473 -0.000144
1.767391 0.507193 0.518790 -0.000001 -0.412029 -0.000058
1.902121 0.630791 0.523094 0.082247 0.009923 0.008916
1.572844 0.547307 0.510354 0.000000 0.025850 -0.000256
1.856956 0.583974 0.685271 0.000001 0.412059 0.000058
2.797391 0.508100 0.685590 0.000000 -0.412177 0.000029
1.856956 0.632384 0.631753 0.000001 0.948372 0.000009
1.918258 0.188628 0.983388 0.082246 -0.005777 -0.005215
1.185217 0.618017 0.545676 0.000001 0.790846 -0.000010
1.946521 0.582021 0.686143 0.000001 0.387948 0.000031
1.841352 0.428555 0.455260 0.062905 0.006488 -0.005840
2.909117 0.744133 0.364662 -0.000000 0.741482 0.000603
2.736996 0.671270 0.722748 0.000000 -0.741482 0.000268
2.899831 0.388505 0.410268 0.000000 -0.741483 0.000268
2.780715 0.407718 0.467539 0.000000 0.741482 -0.000335
0.084098 0.520981 0.662728 -0.424432 -0.000023 0.000053
1.841352 0.428555 0.748710 0.062906 0.006488 0.005840
3.101096 0.464034 0.573414 0.145797 -0.001086 -0.000313
1.831295 0.369371 0.425766 -0.062871 -0.001816 0.001536
3.130845 0.438029 0.464996 0.000000 -0.741483 0.000536
3.130845 0.653340 0.738973 -0.402454 0.000633 -0.000553
0.148348 0.545685 0.689009 -0.181709 0.000001 0.000049
1.979370 0.669264 0.461097 0.062905 -0.003244 -0.002932
1.979370 0.422105 0.742873 0.062906 0.003244 0.002932
0.498061 0.637262 0.598298 0.000000 0.999676 -0.000000
1.889246 0.631579 0.680162 0.082243 0.002777 -0.002512
1.846846 0.698394 0.455186 -0.062870 0.007495 0.006296
1.982116 0.397894 0.434599 0.062905 0.012199 -0.010838
2.935743 0.687778 0.740991 0.000000 -0.741482 0.000536
0.200000 0.633015 0.629863 -0.004502 0.004008 0.000913
0.379130 0.534207 0.511037 0.000000 -0.115753 -0.000057
1.960830 0.278475 0.300632 0.062906 0.004551 -0.004108
3.118601 0.564359 0.683801 0.145799 0.000183 0.001080
1.915345 0.123277 0.143042 -0.062871 -0.003575 0.003019
1.990356 0.317233 0.857733 0.062904 0.004939 0.004455
1.990356 0.790191 0.875475 0.062906 -0.009876 0.008829
3.094862 0.762064 0.823082 0.000000 -0.741482 0.000345
3.113816 0.733175 0.412812 -0.000000 -0.741481 -0.000459
2.349565 0.514457 0.688166 0.000000 -0.340615 0.000073
1.934051 0.237760 0.272934 0.082246 -0.006962 0.006277
1.987610 0.349471 0.381605 0.062905 0.005326 -0.004802
1.843291 0.155295 0.173864 -0.062871 -0.004497 0.003795
1.170534 0.547012 0.693622 0.000000 0.025457 0.000017
3.027667 0.742070 0.837027 0.000000 0.741482 -0.000115
2.930237 0.321052 0.371766 0.000000 0.741482 -0.000151
2.080869 0.625465 0.647138 -0.000000 0.876557 0.000007
1.779086 0.841664 0.279209 -0.062869 0.005881 0.004953
1.915345 0.961200 0.136805 -0.048070 -0.004719 -0.004473
1.909852 0.944888 1.049654 -0.048069 -0.004719 0.004473
1.909852 0.146481 1.049654 -0.048068 0.009439 0.008821
2.707826 0.631356 0.569372 -0.000001 0.929612 -0.000005
2.971552 0.638255 0.517706 -0.000000 -0.741481 -0.000268
1.140435 0.460632 0.636177 0.000000 -0.931046 0.000003
0.223492 0.547971 0.510342 0.000000 0.012933 -0.000008
1.657283 0.400621 0.438775 -0.048069 0.013584 -0.012452
1.230000 0.581002 0.686573 -0.000001 0.383172 0.000016
0.192008 0.465935 0.556849 -0.008303 -0.004009 -0.001922
0.782174 0.559062 0.511300 0.000000 0.141025 -0.000093
1.230000 0.630764 0.636108 -0.000000 0.930763 0.000005
2.707826 0.456463 0.580929 0.000000 -0.976144 -0.000003
0.587627 0.542293 0.510400 0.000000 -0.025860 -0.000008
2.631475 0.454020 0.602575 0.000000 -0.999919 0.000000
1.928168 0.546717 0.510339 0.000000 0.025850 -0.000034
2.923499 0.454537 0.720731 0.000000 -0.741482 -0.000134
2.912302 0.422162 0.483502 0.000002 0.741460 -0.000268
1.934051 0.237760 0.931035 0.082247 -0.003481 -0.003147
2.912302 0.651277 0.467276 -0.000000 0.741482 0.000268
1.882364 0.991995 0.106774 -0.048068 -0.008295 -0.007785
1.767391 0.460255 0.635215 0.000000 -0.930990 0.000005
2.947156 0.454123 0.606261 0.000000 -0.999666 0.000000
2.752608 0.606887 0.533744 0.000000 0.669794 -0.000007
0.379130 0.603493 0.530847 0.000000 0.630638 -0.000016
1.779086 0.837885 0.928180 -0.048069 -0.007294 0.006868
1.776424 0.442653 0.696926 -0.062871 -0.010954 -0.009129
0.334348 0.634334 0.625331 -0.000000 0.970166 0.000002
2.693143 0.637273 0.605229 0.000000 0.999666 0.000000
2.125652 0.631627 0.633871 -0.000000 0.939938 0.000002
1.857253 0.253783 0.912315 -0.062870 -0.011300 -0.009409
1.856956 0.514283 0.688103 0.000000 -0.340693 0.000073
0.244783 0.507361 0.685255 -0.000001 -0.412085 0.000058
1.843241 0.630792 0.490824 0.062905 -0.003631 -0.003281
1.837695 0.162378 1.022277 -0.062870 -0.004497 -0.003795
1.677826 0.631464 0.569647 0.000000 0.940382 -0.000001
2.170434 0.459554 0.570618 0.000000 -0.940143 -0.000010
1.901778 0.855584 0.274721 -0.062871 0.010377 0.008662
1.498695 0.587097 0.683764 0.000001 0.449177 0.000013
1.999626 0.622046 0.515180 0.062905 -0.007262 -0.006529
3.083591 0.535710 0.690513 0.153092 -0.000045 0.000266
1.095652 0.601993 0.529652 0.000000 0.609521 -0.000009
3.107814 0.700800 0.791421 0.000005 0.741404 -0.000287
3.006066 0.725562 0.385185 -0.000001 0.741479 0.000287
2.415637 0.637300 0.604197 0.000000 0.999666 0.000000
0.737391 0.633445 0.575517 0.000000 0.956527 -0.000002
2.842174 0.631903 0.570861 -0.000001 0.939975 -0.000019
1.999283 0.033035 1.165297 0.082247 -0.005629 -0.005082
1.999283 1.058334 1.165297 0.082247 0.005629 -0.005082
1.999283 0.049090 0.056414 0.082247 -0.006813 0.006145
0.024661 0.530390 0.581604 -0.657327 -0.000007 -0.000009
2.025375 0.468120 0.687700 0.062906 0.007262 0.006528
1.837695 0.928991 0.181692 -0.062871 0.004497 0.003795
3.049509 0.310734 0.360364 0.000001 0.741482 -0.000345
2.998153 0.324537 0.864391 -0.000000 -0.741483 -0.000345
1.806965 0.885716 0.974117 -0.062870 0.004959 -0.004182
1.806965 0.885716 0.229853 -0.062871 0.004958 0.004182
1.942290 0.215121 0.228878 0.062906 0.004164 -0.003760
2.922195 0.547307 0.693636 0.000000 0.012928 0.000067
0.782174 0.621197 0.653949 0.000000 0.822483 0.000005
1.660857 0.625074 0.507480 -0.048069 -0.003218 -0.003058
0.069960 0.487637 0.604977 -0.486481 -0.000021 0.000001
2.845450 0.403591 0.462979 0.000002 0.741478 -0.000469
2.845450 0.421521 0.757216 0.000002 -0.741475 -0.000469
1.660857 0.632855 0.689448 -0.062872 0.010377 -0.008662
1.260834 0.547602 0.510362 0.000000 0.025860 -0.000255
2.215217 0.599248 0.527596 0.000000 0.589544 -0.000009
3.033784 0.550256 0.693539 0.000000 0.025860 0.000017
2.573478 0.634379 0.578817 0.000000 0.970143 -0.000001
0.289565 0.631866 0.570757 0.000000 0.940185 -0.000010
1.999626 0.466544 0.517695 0.082249 -0.002777 0.002512
1.999626 0.656935 0.721759 0.082247 0.009923 -0.008916
0.334348 0.459667 0.633663 0.000000 -0.940190 0.000019
0.961304 0.576358 0.688367 -0.000000 0.340614 0.000073
2.726231 0.475172 0.506042 0.000001 -0.741481 0.000402
2.170434 0.460881 0.636792 0.000000 -0.921200 0.000006
1.783621 0.670427 0.482080 -0.062871 0.010954 0.009129
1.907614 0.662565 0.487305 0.082247 0.009924 0.008916
1.907614 0.428804 0.716664 0.082247 -0.009924 -0.008916
2.125652 0.584344 0.685103 -0.000000 0.412280 0.000007
3.044009 0.434543 0.497184 0.000000 0.741482 -0.000909
2.980941 0.413267 0.437632 0.000000 -0.741483 0.000151
2.748830 0.638255 0.686263 0.000000 -0.741481 0.000268
2.736996 0.438029 0.464996 0.000000 -0.741483 0.000268
2.870700 0.616198 0.697927 0.000000 0.741482 -0.000201
1.843706 0.353625 0.827547 -0.048071 0.002038 0.001939
3.101096 0.491750 0.669617 0.145799 -0.000776 0.000868
2.640478 0.620324 0.501481 0.000001 0.741483 0.000536
2.640478 0.471045 0.702488 0.000000 -0.741483 -0.000536
2.935743 0.669848 0.446753 -0.000000 0.741483 0.000536
2.634562 0.636832 0.720731 0.000001 0.741483 -0.000536
2.872794 0.362321 0.417372 0.000000 0.741482 -0.000536
2.724957 0.420099 0.722748 0.000000 0.741483 0.000268
3.155526 0.477387 0.526510 -0.402452 -0.000630 0.000550
2.872794 0.362321 0.786597 0.000000 0.741482 0.000268
1.907614 0.441513 0.475804 0.062906 0.012974 -0.011499
1.927871 0.645271 0.700043 0.082246 0.009924 -0.008916
1.857832 0.711750 0.801240 0.062905 -0.012199 0.010838
1.982803 0.132952 0.141880 0.062905 0.006004 -0.005408
1.857832 0.361537 0.784877 0.082246 -0.009331 -0.008390
2.866467 0.661594 0.748094 0.000000 0.741482 -0.000469
2.877664 0.426289 0.488062 -0.000005 0.741336 -0.000235
1.735925 0.351999 0.808042 -0.062870 -0.001816 -0.001536
2.842174 0.457587 0.576648 0.000000 -0.963654 -0.000007
1.882179 0.891050 0.230883 -0.062870 0.004728 0.003988
1.409130 0.637131 0.595646 0.000001 0.997220 -0.000002
0.168094 0.455760 0.606620 -0.105013 -0.000175 0.000005
1.797491 0.637347 0.602353 -0.000000 0.999666 0.000000
1.689748 0.385272 0.783576 -0.048069 0.004791 0.004541
1.185217 0.610918 0.666384 -0.000000 0.707107 0.000007
1.784416 0.633627 0.678309 -0.062870 0.003921 -0.003310
2.693278 0.658890 0.494903 0.000002 -0.741476 -0.000402
2.895188 0.391210 0.754672 0.000003 0.741334 0.000134
2.905748 0.704286 0.444736 0.000000 -0.741482 -0.000268
2.821270 0.438029 0.464996 0.000000 -0.741483 0.000402
2.821270 0.671270 0.481221 -0.000000 -0.741482 -0.000402
0.148348 0.545685 0.514960 -0.181709 0.000001 -0.000049
2.781240 0.541924 0.510409 0.000000 -0.025860 -0.000008
1.644055 0.543177 0.510377 0.000000 -0.025457 -0.000259
1.824873 0.455851 0.676598 0.082246 -0.005555 -0.005015
0.289565 0.487361 0.672703 -0.000000 -0.630243 0.000016
1.993103 0.825913 0.907692 0.082246 0.003481 -0.003147
3.081726 0.454537 0.720731 0.000000 -0.741482 -0.000268
3.031022 0.362321 0.417372 -0.000001 0.741482 -0.000455
3.132770 0.704286 0.444736 -0.402446 -0.000614 -0.000575
3.078074 0.810165 0.291691 0.000000 0.741484 0.000459
3.139508 0.271528 0.886931 0.000000 0.741483 0.000459
3.081726 0.454537 0.483239 -0.000001 -0.741479 0.000268
3.136620 0.338982 0.355541 -0.000001 -0.741481 0.000689
3.083591 0.593082 0.677418 0.145796 0.000580 0.001050
2.935435 0.453114 0.517706 0.000000 0.741481 -0.000134
1.160256 0.637345 0.602427 -0.000000 0.999666 0.000000
2.439130 0.602168 0.674182 -0.000001 0.606224 0.000009
3.049509 0.780635 0.843605 0.000001 -0.741479 0.000345
2.650563 0.542366 0.510398 0.000000 -0.022082 -0.000020
1.140435 0.508974 0.685985 0.000000 -0.412128 0.000015
0.570007 0.637281 0.599035 0.000000 0.999666 -0.000000
3.053104 0.337559 0.390008 -0.000001 0.741477 -0.000230
2.993595 0.795079 0.344402 0.202714 -0.001651 -0.000644
2.812394 0.678102 0.437632 0.000000 0.741482 0.000402
2.655681 0.645086 0.474117 -0.000000 0.741482 0.000804
3.139508 0.819841 0.886931 -0.402452 -0.001227 0.001149
3.118388 0.793657 0.309934 0.000000 0.741481 0.000459
2.800150 0.645086 0.729852 0.000000 0.741481 -0.000335
3.014715 0.288036 0.335281 -0.000001 0.741481 -0.000345
2.845758 0.719372 0.392026 0.000005 0.741329 0.000235
3.120313 0.844603 0.289674 0.202714 -0.001651 -0.000644
3.098231 0.289458 0.300813 0.000000 -0.741482 0.000459
2.676801 0.420099 0.722748 0.000003 0.741469 0.000402
2.791274 0.403591 0.740991 -0.000002 0.741478 0.000402
2.634562 0.454537 0.483239 0.000000 -0.741483 0.000536
2.803519 0.388505 0.410268 0.000000 -0.741482 0.000402
3.138545 0.288036 0.335281 0.000001 0.741481 -0.000459
3.055992 0.785403 0.319055 0.000000 0.741482 0.000459
3.099194 0.255020 0.298795 0.000000 0.741481 -0.000459
2.761279 0.405013 0.428511 0.000000 -0.741482 0.000335
3.077111 0.793657 0.894035 0.000000 0.741482 -0.000230
1.684068 0.740584 0.389433 -0.062872 0.003863 0.003262
1.753953 0.801396 0.315854 -0.048070 -0.003933 -0.003733
2.125652 0.633241 0.574847 0.000001 0.955996 -0.000008
1.409130 0.539051 0.510557 0.000000 -0.064642 -0.000102
2.866467 0.411845 0.731869 0.000000 0.741482 0.000469
2.845450 0.687778 0.740991 0.000000 -0.741482 0.000469
0.379130 0.455154 0.587586 -0.000001 -0.982652 -0.000001
0.907712 0.454066 0.599920 -0.000000 -0.999671 -0.000000
1.740283 0.701600 0.762967 -0.062872 0.001932 -0.001633
2.879349 0.676038 0.439912 -0.000000 0.741482 0.000469
2.349565 0.519499 0.514138 -0.000001 -0.290889 -0.000022
0.063070 0.589756 0.633316 -0.506653 0.000033 0.000024
1.185217 0.455795 0.619940 -0.000000 -0.981206 0.000001
1.846846 0.392975 0.748784 0.082245 -0.004962 -0.004482
0.811539 0.454071 0.604270 0.000000 -0.999666 0.000000
2.783468 0.448987 0.690823 0.000000 0.741483 0.000335
2.718630 0.487552 0.684245 0.000000 -0.670972 0.000322
2.709754 0.444860 0.695384 0.000000 0.741481 0.000402
2.685676 0.628578 0.711609 0.000002 0.741477 -0.000402
2.970176 0.450410 0.725291 0.000000 -0.741482 -0.000151
3.080764 0.638255 0.686263 0.000000 -0.741482 0.000268
3.056686 0.620324 0.501481 0.000000 0.741483 0.000536
2.800150 0.428353 0.490343 0.000000 0.741482 -0.000670
2.800150 0.645086 0.474117 -0.000000 0.741482 0.000670
1.823755 0.903778 0.203486 -0.048068 -0.005864 -0.005544
2.976793 0.318988 0.369485 -0.000000 0.741482 -0.000459
1.823755 0.906965 0.997599 -0.062872 0.004958 -0.004181
0.244783 0.460336 0.635421 -0.000000 -0.931057 0.000021
2.001343 0.913712 0.198238 0.082247 0.002592 0.002345
2.001343 0.161602 0.180496 0.082246 -0.002592 0.002345
2.900900 0.650636 0.504025 -0.000003 -0.741421 -0.000235
2.761279 0.686356 0.428511 0.000000 0.741483 0.000335
1.329843 0.543030 0.510381 0.000000 -0.025850 -0.000256
2.803519 0.370575 0.777476 0.000000 0.741482 0.000402
0.603043 0.633144 0.574529 -0.000000 0.956471 -0.000008
1.767391 0.577953 0.687789 0.000000 0.340835 0.000009
1.887358 0.411509 0.470685 0.082247 -0.004962 0.004482
0.277819 0.637329 0.604124 -0.000000 0.999916 0.000000
1.120613 0.454024 0.601542 0.000000 -0.999666 -0.000000
1.718692 0.454901 0.688077 -0.062870 -0.010954 -0.009129
1.808888 0.425673 0.713831 -0.062870 -0.010954 -0.009129
1.740283 0.389769 0.441002 -0.062870 -0.001932 0.001633
2.725445 0.542145 0.510404 0.000000 -0.025457 -0.000068
2.019202 0.546422 0.693638 -0.000000 0.025457 0.000017
3.073261 0.727625 0.821065 0.000000 0.741482 -0.000230
3.093418 0.354067 0.795718 -0.000001 0.741482 0.000230
3.137583 0.304544 0.850446 0.000000 0.741482 0.000230
3.120313 0.246766 0.914295 0.000001 0.741481 0.000459
3.098231 0.819841 0.886931 0.000000 -0.741482 0.000459
1.050869 0.493751 0.677518 0.000000 -0.568790 0.000010
3.104842 0.471045 0.702488 0.000000 -0.741483 -0.000536
3.081726 0.636832 0.720731 0.000000 0.741482 -0.000268
1.948127 0.463393 0.683423 0.082247 -0.009923 -0.008916
2.923807 0.405013 0.428511 0.000000 -0.741481 0.000268
1.006087 0.455313 0.586641 0.000000 -0.985512 -0.000001
1.726074 0.329949 0.835071 -0.062868 -0.001816 -0.001536
1.893269 0.905181 0.197163 -0.048071 -0.005291 -0.005009
2.304782 0.616427 0.543689 -0.000000 0.770254 -0.000003
2.854223 0.646509 0.508585 0.000000 -0.741482 -0.000402
2.955589 0.733175 0.412812 -0.000000 -0.741483 -0.000151
0.056309 0.526919 0.555842 -0.533126 -0.000013 -0.000030
1.816085 0.403963 0.465174 -0.062871 -0.001932 0.001633
0.826956 0.590255 0.521884 0.000001 0.478519 -0.000012
2.528695 0.633488 0.628311 0.000000 0.956011 0.000004
1.826833 0.755583 0.845099 -0.048071 -0.004076 0.003868
2.797391 0.460713 0.567587 0.000000 -0.926977 -0.000001
1.790817 0.692137 0.746852 -0.062873 0.001931 -0.001633
0.056309 0.511848 0.638541 -0.533128 -0.000023 0.000023
1.789206 0.737767 0.800950 -0.062872 0.003632 -0.003068
2.349565 0.632067 0.571312 -0.000000 0.940125 -0.000010
1.050869 0.574473 0.514958 0.000001 0.316259 -0.000079
2.980941 0.678102 0.766337 0.000000 0.741481 -0.000151
3.006293 0.432479 0.494903 0.000000 0.741483 -0.000151
1.948127 0.627976 0.520546 0.082247 0.009923 0.008916
0.826956 0.474128 0.544691 -0.000000 -0.776072 -0.000011
1.758353 0.661892 0.462019 -0.048070 -0.013584 -0.012451
1.852339 0.695438 0.420240 0.062905 -0.006100 -0.005495
0.152278 0.632390 0.588481 -0.158766 0.000223 -0.000029
3.128920 0.453114 0.686263 0.000000 0.741481 0.000536
1.823003 0.702737 0.756243 -0.062868 0.001874 -0.001585
0.423913 0.610866 0.666436 0.000000 0.707107 0.000026
1.677826 0.467752 0.553726 0.000001 -0.759880 -0.000001
1.823003 0.405566 0.771567 -0.048069 0.009295 0.008692
2.726231 0.616198 0.697927 0.000000 0.741482 -0.000402
0.961304 0.460578 0.636039 -0.000000 -0.931069 0.000010
3.127957 0.621747 0.535949 -0.000003 0.670601 -0.000111
3.021304 0.487160 0.531429 0.000000 -0.630634 -0.000016
2.394347 0.458833 0.572671 0.000001 -0.946573 -0.000004
1.812174 0.574403 0.689035 0.000000 0.315988 0.000020
0.160168 0.631769 0.624655 -0.128094 0.000276 0.000065
1.973685 0.454035 0.602869 0.000000 -0.999671 0.000000
0.024661 0.551537 0.626784 -0.657326 0.000004 0.000014
1.783621 0.654679 0.736139 -0.048068 -0.013585 0.012452
0.152278 0.471643 0.649080 -0.158760 -0.000193 0.000116
0.121223 0.477971 0.558915 -0.279605 -0.000100 -0.000060
1.947784 0.190781 1.001472 0.062903 0.003777 0.003411
0.113623 0.571238 0.675445 -0.309217 0.000035 0.000092
1.799161 0.707080 0.440266 -0.062870 0.001874 0.001584
1.936797 0.869496 0.948930 0.082246 0.003185 -0.002880
0.890093 0.637303 0.604049 -0.000000 0.999666 0.000000
3.132770 0.686356 0.775458 -0.402448 0.000633 -0.000553
2.036087 0.455449 0.585841 -0.000000 -0.985488 -0.000002
0.871739 0.619138 0.547140 -0.000000 0.807387 -0.000010
1.767391 0.635908 0.618201 0.000000 0.985805 0.000002
2.901742 0.665080 0.715907 0.000000 -0.741482 0.000235
1.799161 0.384289 0.440266 -0.062872 -0.003748 0.003165
3.021304 0.454938 0.589046 -0.000001 -0.989912 -0.000008
1.711495 0.489951 0.528784 -0.048067 0.013585 -0.012452
2.528695 0.482344 0.668245 -0.000001 -0.587865 0.000002
2.394347 0.607325 0.534140 0.000001 0.668125 -0.000015
0.916522 0.475675 0.661157 0.000000 -0.759542 0.000003
1.940519 1.060223 0.036584 -0.062871 0.008763 0.007342
2.803519 0.702864 0.410268 0.000000 0.741482 0.000402
3.105903 0.334855 0.852989 0.000000 -0.741483 -0.000345
3.056954 0.289458 0.300813 -0.000000 -0.741482 0.000459
2.592322 0.453114 0.517706 -0.000000 0.741483 -0.000536
0.113623 0.543682 0.524232 -0.316641 -0.000000 -0.000024
2.215217 0.528200 0.512003 0.000000 -0.191835 -0.000068
1.342323 0.454035 0.602869 0.000000 -0.999671 0.000000
2.980629 0.341686 0.809400 -0.000001 0.741482 0.000909
1.874312 0.776989 0.839016 -0.062871 0.006342 -0.005338
0.200000 0.573563 0.514655 -0.004500 0.001326 -0.003815
2.976832 0.451051 0.688543 0.000000 0.741482 0.000151
2.952959 0.435965 0.462716 -0.000000 -0.741482 0.000302
0.160168 0.485216 0.536654 -0.128098 -0.000198 -0.000203
1.767391 0.624121 0.554541 0.000000 0.850609 -0.000008
1.828496 0.372913 0.774290 -0.062870 -0.001816 -0.001536
1.953620 0.431619 0.484758 0.082246 -0.009924 0.008916
3.006547 0.357553 0.827906 0.000000 -0.741480 -0.000230
2.951356 0.778571 0.362644 0.202715 -0.001651 -0.000644
1.942290 0.885215 0.236993 0.082246 0.003185 0.002880
1.874312 0.330684 0.853770 0.062905 0.005326 0.004802
0.334348 0.562699 0.511911 0.000000 0.191900 -0.000270
2.870700 0.475172 0.697927 0.000000 -0.741483 -0.000402
0.938546 0.637298 0.599699 0.000000 0.999666 -0.000000
2.170434 0.635002 0.622608 -0.000001 0.972542 0.000003
1.453913 0.539346 0.693431 -0.000000 -0.064640 0.000102
1.953620 0.652006 0.477750 0.062905 -0.012974 -0.011499
2.899934 0.719372 0.392026 0.000000 0.741483 0.000134
2.394347 0.582089 0.686114 -0.000001 0.388161 0.000031
0.603043 0.558112 0.692804 0.000000 0.141148 0.000371
3.135658 0.337559 0.813961 0.000000 0.741482 0.000345
1.876372 0.459002 0.679449 0.082245 -0.002777 -0.002512
1.998596 0.196434 0.990452 0.062905 0.003776 0.003411
1.998596 0.894935 0.990452 0.062906 -0.003776 0.003411
3.066087 0.634906 0.623041 0.146614 0.000273 0.000068
1.902121 0.460578 0.523094 0.082247 -0.009923 0.008916
0.603043 0.479805 0.538243 0.000000 -0.724978 -0.000025
0.619929 0.545537 0.510314 0.000000 -0.012928 -0.000067
1.918258 0.902741 0.983388 -0.062872 0.004497 -0.003795
1.966323 0.230053 0.956332 0.062905 0.004164 0.003760
1.892851 0.695579 0.751331 0.082246 0.004962 -0.004482
0.334348 0.594696 0.679452 0.000002 0.352716 0.000004
0.229366 0.454039 0.604050 0.000000 -0.999918 0.000000
2.900900 0.458664 0.487799 -0.000002 -0.741467 0.000235
1.993103 0.257428 0.916563 0.082245 -0.003481 -0.003147
3.001482 0.541260 0.510426 -0.000000 -0.025860 -0.000017
3.002230 0.343109 0.360101 -0.000001 -0.741479 0.000459
0.757947 0.637311 0.600215 0.000064 0.032097 -0.000002
2.766786 0.612782 0.676133 0.000000 0.670972 0.000643
2.991670 0.744133 0.839307 0.000000 0.741482 -0.000230
1.868819 0.330099 0.383000 0.082246 -0.008739 0.007864
0.423913 0.626737 0.559163 0.000000 0.888586 -0.000014
0.168094 0.606849 0.535903 -0.097306 0.000265 -0.000271
1.740283 0.399700 0.771954 -0.048065 0.002396 0.002279
0.168094 0.511763 0.518575 -0.097304 -0.000135 -0.000358
1.637190 0.443602 0.485304 -0.048069 0.006436 -0.006075
1.684068 0.353267 0.387186 -0.048072 0.002324 -0.002211
3.012790 0.770317 0.371766 0.000000 -0.741482 -0.000230
1.951712 0.016980 0.020929 -0.062871 -0.008763 0.007342
1.881865 0.632597 0.711512 0.062905 -0.012974 0.011499
0.106104 0.473088 0.621103 -0.338539 -0.000087 0.000020
1.879805 0.298661 0.346907 0.082247 -0.008146 0.007336
3.153611 0.581140 0.641165 0.916618 0.000074 0.000082
2.834993 0.409140 0.433071 0.000000 -0.741482 0.000469
1.885298 0.808427 0.875109 -0.062870 0.005881 -0.004953
2.573478 0.635896 0.618274 0.000000 0.986053 0.000001
2.455281 0.543915 0.693611 0.000000 -0.025860 0.000033
2.571203 0.612071 0.510602 0.000000 0.741482 0.000536
1.751156 0.653447 0.704983 -0.062871 0.010954 -0.009129
1.725889 0.444826 0.480400 -0.048068 0.013584 -0.012452
2.111703 0.637319 0.603459 0.000000 0.999676 0.000000
2.036087 0.618354 0.657855 0.000000 0.791348 0.000005
3.023831 0.308671 0.845885 0.000000 0.741482 0.000345
1.050869 0.633434 0.628488 -0.000001 0.892403 0.000001
1.453913 0.600707 0.675308 -0.000000 0.610355 0.000009
1.274782 0.617927 0.545559 0.000001 0.784343 -0.000005
1.995849 0.857855 0.260641 0.082246 0.006369 0.005746
1.995849 0.233514 0.260641 0.082247 -0.003185 0.002880
3.066551 0.301839 0.889474 0.000000 -0.741482 -0.000230
3.036721 0.543619 0.510339 -0.000000 -0.012726 -0.000272
1.725889 0.658178 0.490929 -0.062871 0.010954 0.009129
1.751156 0.452039 0.717758 -0.048069 0.013584 0.012452
2.959411 0.469622 0.668020 0.000000 -0.670972 0.000322
1.999626 0.437213 0.479695 0.062907 0.003631 -0.003280
2.036087 0.487962 0.530777 0.000001 -0.628895 -0.000016
1.837695 0.928991 1.022277 -0.062873 0.008994 -0.007532
3.011827 0.337559 0.390008 0.000001 0.741476 -0.000115
3.074224 0.762064 0.380887 0.000000 -0.741482 -0.000230
3.136620 0.770317 0.371766 -0.402455 -0.000614 -0.000575
1.633043 0.468334 0.651185 0.000000 -0.836257 0.000001
1.633043 0.454771 0.590214 -0.000000 -0.993290 -0.000006
2.598239 0.621747 0.668020 0.000000 0.670972 0.000643
1.756969 0.359884 0.407300 -0.062871 -0.001816 0.001536
2.935538 0.636832 0.483239 -0.000000 0.741481 0.000268
2.876822 0.440733 0.699945 0.000000 0.741482 0.000469
2.900058 0.618261 0.503761 -0.000000 0.741483 0.000469
1.498695 0.530886 0.511521 -0.000000 -0.166462 -0.000078
1.140435 0.518547 0.514428 0.000001 -0.288492 -0.000022
0.692609 0.489026 0.529923 0.000000 -0.610452 -0.000009
2.761279 0.704286 0.759233 0.202715 -0.001651 0.000644
2.776072 0.663016 0.713627 0.000000 -0.741482 0.000335
2.783468 0.448987 0.513146 0.000000 0.741482 -0.000335
2.004776 0.017316 0.020625 0.082247 -0.005629 0.005082
0.076971 0.493405 0.568732 -0.452273 -0.000046 -0.000027
1.756969 0.722147 0.805119 -0.048069 -0.009295 0.008693
1.651687 0.407705 0.757367 -0.048068 0.006436 0.006075
1.829580 0.327631 0.350115 -0.048068 0.008152 -0.007655
2.687270 0.454100 0.605376 0.000000 -0.999671 0.000000
2.516595 0.470339 0.518721 0.202714 -0.001610 0.003155
0.349765 0.637254 0.598003 0.000000 0.999665 -0.000000
2.993595 0.795079 0.859567 0.202715 -0.001651 0.000644
1.751476 0.705836 0.416361 -0.048069 -0.009295 -0.008692
1.812174 0.456175 0.582225 0.000000 -0.976092 -0.000001
0.871739 0.570346 0.690270 0.000001 0.266032 0.000024
1.887358 0.426405 0.746764 0.062905 0.006488 0.005840
1.841352 0.682675 0.730737 -0.062873 0.001931 -0.001633
1.748357 0.292980 0.876600 -0.062870 -0.003171 -0.002679
1.953620 0.431619 0.719211 0.082246 -0.009924 -0.008916
1.850622 0.633943 0.525946 0.082246 0.005555 0.005015
1.887358 0.679860 0.470685 0.082247 0.002481 0.002244
1.922377 0.613497 0.539715 0.000001 -0.670968 0.000320
0.024661 0.566452 0.587220 -0.657322 0.000010 -0.000007
1.953620 0.652006 0.726219 0.062906 -0.012974 0.011499
1.850622 0.615082 0.695091 0.062905 -0.003631 0.003281
1.902121 0.473880 0.692913 0.062905 0.012974 0.011499
1.861609 0.443663 0.473859 0.062905 0.012974 -0.011499
2.693278 0.432479 0.494903 0.000001 0.741480 -0.000402
1.706537 0.364023 0.807058 -0.048071 0.004648 0.004406
3.105903 0.756514 0.852989 0.000000 0.741482 -0.000689
3.062701 0.367871 0.387465 0.000000 -0.741482 0.000115
2.292302 0.637354 0.601763 0.000000 0.999916 -0.000000
1.733086 0.411480 0.738004 -0.062871 -0.010954 -0.009129
1.677826 0.455078 0.615910 0.000001 -0.988274 0.000002
1.799161 0.384289 0.763703 -0.062868 -0.001874 -0.001585
0.313058 0.541408 0.693547 0.000000 -0.025860 0.000017
0.755011 0.454081 0.599330 -0.000000 -0.999666 -0.000000
1.675354 0.423728 0.729156 -0.062874 -0.002594 -0.002193
1.856956 0.526717 0.512299 -0.000000 -0.217358 -0.000015
1.655766 0.455189 0.707795 -0.048067 0.003218 0.003058
1.890791 0.267223 0.310814 0.082246 -0.007554 0.006807
1.824873 0.455851 0.527371 0.082246 -0.005555 0.005015
2.931739 0.612479 0.539206 0.000001 0.724968 -0.000050
0.826956 0.631665 0.570202 0.000000 0.940164 -0.000005
0.916522 0.555697 0.510867 -0.000001 0.090807 -0.000018
2.714397 0.649213 0.734413 0.000000 0.741482 -0.000268
1.588261 0.456087 0.621348 0.000000 -0.976131 0.000006
3.096720 0.458670 0.604406 0.145799 -0.001454 0.000082
2.863098 0.603817 0.519724 0.000000 0.670972 -0.000322
0.760884 0.544873 0.693646 0.000000 -0.012933 0.000017
3.103879 0.469622 0.535949 0.000000 -0.670972 -0.000322
0.128896 0.464182 0.589291 -0.249725 -0.000131 -0.000017
1.652131 0.546569 0.693634 0.000000 0.025850 0.000256
2.157220 0.546717 0.693630 0.000000 0.025850 0.000017
1.815744 0.732188 0.819762 -0.048069 -0.004362 0.004137
1.920827 0.454035 0.601100 -0.000000 -0.999671 -0.000000
1.453913 0.462049 0.564468 -0.000000 -0.910905 -0.000001
1.971816 0.883409 0.968611 0.082246 0.006369 -0.005746
2.424447 0.543767 0.693607 0.000000 -0.025446 0.000034
2.364248 0.543767 0.693607 0.000000 -0.025446 0.000017
1.907105 0.936732 0.163070 -0.048069 -0.004719 -0.004473
0.496593 0.454032 0.600436 0.000000 -0.999916 -0.000000
1.588261 0.582697 0.685848 -0.000000 0.411781 0.000029
0.961304 0.632875 0.573686 0.000000 0.948643 -0.000002
1.677826 0.579052 0.687360 0.000002 0.252586 0.000006
0.859259 0.637292 0.604492 -0.000010 0.042641 0.000000
2.036087 0.455178 0.616529 0.000000 -0.986053 0.000001
2.528695 0.458010 0.575235 0.000000 -0.956320 -0.000004
0.267541 0.541260 0.693543 0.000000 -0.025860 0.000017
1.896285 0.825933 0.280160 0.062905 -0.004551 -0.004108
3.122977 0.628827 0.599636 0.145799 0.001410 -0.000079
1.804654 0.708793 0.409545 -0.048069 -0.002324 -0.002211
1.818490 0.351026 0.375453 -0.048069 0.002181 -0.002075
2.664557 0.453114 0.686263 0.000000 0.741483 0.000536
2.736791 0.638255 0.517706 0.000000 -0.741482 -0.000268
3.107333 0.692546 0.421670 0.000001 0.741479 0.000287
3.081415 0.690483 0.780019 -0.000000 0.741482 -0.000455
1.633043 0.598801 0.676700 -0.000000 0.589843 0.000072
1.776424 0.648716 0.507044 -0.062872 0.010954 0.009129
1.757445 0.459002 0.524520 -0.062871 -0.003921 0.003310
1.816880 0.650607 0.508755 -0.062868 0.003921 0.003310
1.784416 0.476046 0.694873 -0.048068 0.004863 0.004608
