2.980216 0.629890 0.601163 0.000001 -0.461314 -0.000015
0.149844 0.620900 0.610967 -0.151774 -0.000154 -0.000198
0.402198 0.591282 0.641853 -0.000000 -0.910012 -0.000007
1.837387 1.018446 1.016545 -0.063628 0.002056 -0.001878
2.424173 0.634396 0.598962 -0.000000 -0.414228 -0.000067
1.925379 1.263984 0.079362 -0.063625 0.004337 0.003954
1.008790 0.711641 0.754585 -0.000001 0.487869 0.000054
1.834529 1.142242 0.203992 -0.063626 0.006131 0.005577
2.029456 0.837520 0.840126 0.094083 0.002852 -0.002812
2.003403 0.539121 0.800027 0.094083 -0.006797 -0.006689
3.401981 0.601848 0.623605 0.153708 -0.004536 -0.004595
2.373623 0.716296 0.604400 0.000000 0.535213 -0.000024
1.955218 1.272099 1.282967 -0.063623 0.007477 -0.006786
0.824245 0.666901 0.591299 0.000000 -0.027878 -0.000136
1.676484 0.596053 0.766880 -0.043019 0.006305 0.006481
1.514154 0.788362 0.560945 -0.063623 0.007263 0.006595
0.158141 0.716559 0.607282 -0.119535 0.000185 -0.000267
3.307045 0.507426 0.858002 0.000000 -0.711850 -0.000873
1.362636 0.625936 0.603370 0.000000 -0.511731 -0.000013
1.928444 0.070010 1.288269 -0.043022 0.005607 0.005777
1.210988 0.602044 0.624275 0.000000 -0.780480 -0.000003
2.676919 0.583622 0.671180 -0.000001 -0.996873 -0.000001
0.756043 0.618339 0.747839 0.000000 -0.603248 0.000020
3.237777 0.583452 0.674094 0.000000 -0.999623 -0.000000
1.109889 0.595753 0.633384 0.000001 -0.851611 -0.000005
2.626370 0.615006 0.611033 -0.000001 -0.646229 -0.000036
1.936331 0.666901 0.764970 0.000000 -0.027878 0.000136
3.335627 0.419311 0.925084 0.065891 0.014392 0.011545
2.038651 0.939338 0.944561 0.094082 0.004766 -0.004696
1.838415 0.888034 0.873745 -0.063624 0.002654 -0.002424
2.525271 0.744554 0.723270 -0.000000 0.859051 0.000018
2.033288 0.744290 0.746148 0.094083 0.002656 -0.002620
2.085395 0.382075 0.386035 0.063672 0.006580 -0.006458
2.828568 0.626033 0.752956 0.000001 -0.511127 0.000025
1.850391 0.252552 1.091408 -0.063627 -0.007327 -0.006652
1.878560 0.583419 0.680978 0.000000 -0.999633 0.000000
1.666734 0.757192 0.678284 0.000000 0.999611 0.000000
2.272525 0.600835 0.625847 -0.000001 -0.793351 -0.000006
2.727469 0.745129 0.633963 0.000001 0.857522 -0.000009
3.392243 0.460880 0.901475 -0.111028 -0.004242 -0.004325
0.556253 0.670119 0.765060 0.000000 -0.013534 0.000071
3.232963 0.748944 0.715097 0.000000 0.910149 0.000014
1.755228 0.836375 0.825080 -0.063628 0.004059 -0.003702
1.695964 0.803060 0.824426 -0.043022 -0.011273 0.011330
0.804185 0.583460 0.673795 -0.000000 -0.999634 -0.000000
2.120876 0.588050 0.706360 0.000000 -0.950185 0.000002
0.705494 0.619640 0.607482 -0.000001 -0.580932 -0.000042
2.057425 0.508795 0.838033 0.094083 -0.005703 -0.005617
3.384567 0.535493 0.526714 0.000000 -0.711850 0.000587
0.806593 0.755931 0.663385 0.000000 0.983320 -0.000001
1.831863 0.947446 0.416894 -0.063622 0.002355 0.002151
2.171426 0.601764 0.624625 0.000002 -0.758688 -0.000006
1.160438 0.719801 0.749570 -0.000000 0.581059 0.000042
1.782246 0.427565 0.906341 -0.063624 -0.002505 -0.002287
3.417334 0.880507 0.472455 -0.111027 -0.004385 -0.004180
2.778018 0.719983 0.606830 0.000000 0.580862 -0.000005
2.221975 0.623988 0.751709 0.000001 -0.535094 0.000048
0.705494 0.718869 0.606072 -0.000000 0.558447 -0.000045
2.032521 0.874614 0.478134 0.094082 0.002695 0.002658
1.164450 0.674309 0.591318 0.000001 0.027201 -0.000278
0.158141 0.586789 0.664204 -0.119533 -0.000322 -0.000045
0.250549 0.719738 0.749612 0.000000 0.550960 0.000003
3.030765 0.639788 0.759543 0.000000 -0.363138 0.000010
1.975817 1.073280 0.284405 0.094083 0.006875 0.006765
1.916813 0.576789 0.788195 0.063678 0.002770 0.002731
2.879117 0.598018 0.629813 0.000000 -0.829204 -0.000010
1.781991 0.757365 0.785584 -0.043019 -0.005637 0.005807
2.120876 0.630620 0.600781 -0.000001 -0.463337 -0.000029
1.833817 0.487099 0.881154 -0.043020 0.014743 0.014491
1.521304 0.579027 0.773993 -0.043024 0.005043 0.005204
1.870537 0.757194 0.678209 0.000000 0.999611 0.000000
3.087817 0.758847 0.753096 0.000000 -0.711850 0.000965
0.756043 0.756011 0.692442 -0.000000 0.988551 0.000002
1.109889 0.625325 0.752535 -0.000000 -0.511954 0.000051
0.705494 0.754953 0.658542 0.000000 0.972618 -0.000000
1.731954 0.887930 0.883693 -0.063625 0.010915 -0.009832
2.473117 0.665779 0.591330 0.000000 -0.027855 -0.000136
0.857142 0.589553 0.710393 0.000000 -0.930988 0.000003
1.767031 0.608383 0.617096 -0.000002 -0.705987 -0.000030
1.413185 0.588859 0.708615 0.000000 -0.941248 0.000011
1.891526 0.537853 0.829955 0.063674 0.010042 0.009788
0.857142 0.755507 0.695166 -0.000000 0.978828 0.000001
0.553846 0.722168 0.747862 0.000000 0.603271 0.000020
1.809556 0.756520 0.569851 -0.043019 -0.005637 -0.005807
0.958241 0.737907 0.623544 0.000000 0.780621 -0.000012
2.085395 1.204532 1.219639 0.063673 -0.006695 0.006570
3.497360 0.720786 0.588874 -0.251506 0.000079 -0.000143
2.221975 0.587133 0.652759 0.000000 -0.958348 -0.000005
0.301099 0.655445 0.592486 -0.000000 -0.178162 -0.000084
3.131864 0.717244 0.751268 -0.000000 0.535202 0.000024
2.070327 0.648784 0.762364 0.000000 -0.258802 0.000028
2.727469 0.740964 0.728702 -0.000001 0.813163 0.000011
3.431966 0.952088 0.390025 -0.111026 0.005009 0.005106
3.292211 0.899127 0.453584 0.065888 -0.014393 -0.011546
3.205378 0.854928 0.498382 0.065891 -0.014392 -0.011545
1.911862 1.106503 0.226869 -0.043019 -0.017856 -0.017137
1.991909 0.411929 0.948467 0.063672 0.014081 0.013567
1.390719 0.671316 0.765033 -0.000018 0.000284 0.000838
0.402198 0.723661 0.609536 0.000000 0.624247 -0.000009
3.425044 0.844566 0.847385 -0.111027 -0.004385 0.004180
1.008790 0.752859 0.705222 -0.000000 0.950204 0.000010
1.996506 1.226104 0.106691 0.063670 -0.006696 -0.006570
1.615383 0.639370 0.596889 0.000000 -0.363561 -0.000078
2.070327 0.583735 0.669950 0.000001 -0.994600 -0.000001
0.604395 0.716043 0.604239 0.000000 0.535288 -0.000024
2.120876 0.682948 0.764125 0.000000 0.151220 0.000012
1.947464 1.096900 1.091989 -0.063626 0.006729 -0.006115
1.582806 0.814462 0.817396 -0.063624 0.007263 -0.006595
2.272525 0.752871 0.651083 0.000001 0.948188 -0.000005
0.503296 0.748586 0.640430 -0.000000 0.898403 -0.000007
2.778018 0.720562 0.749026 0.000000 0.581095 0.000042
1.953211 0.483555 0.476883 0.063671 0.003983 -0.003922
2.031372 0.789549 0.552329 0.063671 -0.010043 -0.009788
3.040953 0.533062 0.539069 0.065889 -0.012009 0.014003
3.238314 0.432603 0.437248 0.065890 -0.012256 0.014281
2.975166 0.773988 0.783260 0.065890 0.008171 -0.009611
3.260243 0.919096 0.930334 0.065890 0.012009 -0.014002
3.347959 0.376793 0.380681 0.065890 -0.008171 0.009611
3.019024 0.796312 0.550382 0.065890 0.012256 0.014281
3.128669 0.488414 0.862454 0.065890 -0.012009 -0.014002
1.210988 0.596213 0.723656 0.000000 -0.859034 0.000002
1.990376 1.218718 1.221232 -0.063627 0.009271 -0.008384
0.857142 0.624399 0.751970 -0.000003 -0.433162 0.000007
3.345666 0.890095 0.886122 -0.000000 -0.711850 0.000679
3.345666 0.890095 0.470147 -0.000000 -0.711850 -0.000679
1.830720 0.247903 0.245068 -0.043020 0.004881 -0.005038
3.325233 0.778424 0.553695 0.000002 0.711848 0.000873
1.463735 0.744841 0.633481 -0.000001 0.856909 -0.000005
1.617261 0.532898 0.824129 -0.043016 0.003153 0.003267
2.085395 1.090961 1.104529 0.063670 -0.010389 0.010117
2.085395 1.318103 0.021520 0.063671 -0.007850 -0.007687
2.085395 0.041362 0.040705 0.063672 0.007850 -0.007687
2.085395 0.920605 0.424405 0.063673 -0.007042 -0.006906
2.085395 1.185604 0.155815 0.063672 -0.006695 -0.006570
2.032521 0.868656 0.884014 0.063671 -0.003983 0.003922
2.879117 0.746116 0.720586 0.000001 0.872633 0.000017
2.626370 0.714761 0.603466 -0.000000 0.511883 -0.000051
1.955127 0.615132 0.610418 0.063673 0.005541 -0.005446
0.756043 0.601580 0.624862 -0.000001 -0.791283 -0.000006
0.604395 0.624494 0.604239 0.000000 -0.533221 -0.000006
2.323074 0.618190 0.608543 0.000001 -0.602912 -0.000020
2.016429 1.084466 1.088666 0.094084 0.006875 -0.006765
2.373623 0.651405 0.593280 -0.000001 -0.201589 -0.000037
3.384611 0.628962 0.754620 0.000001 -0.401126 0.000004
0.250549 0.688728 0.593195 0.000000 0.205218 -0.000144
0.440711 0.666228 0.591318 -0.000000 -0.027469 -0.000035
1.951296 0.960166 0.372126 0.063671 -0.012928 -0.012501
1.008790 0.600225 0.626653 0.000000 -0.813849 -0.000022
2.778018 0.601106 0.625489 0.000000 -0.797496 -0.000023
0.958241 0.588982 0.708928 0.000000 -0.931447 0.000006
1.969228 0.748833 0.715334 -0.000000 0.898217 0.000001
1.648920 0.745329 0.590223 -0.043020 -0.012608 -0.012571
1.662270 0.554724 0.550459 -0.043018 0.011274 -0.011331
2.525271 0.602793 0.732929 0.000000 -0.780597 0.000024
1.867771 0.469871 0.504304 0.094084 -0.005313 0.005233
1.310482 0.671166 0.591231 0.000000 0.027480 -0.000035
2.272525 0.644319 0.595170 0.000000 -0.311445 -0.000012
2.027157 0.023965 0.017782 0.063671 0.009235 -0.009017
1.809556 0.584017 0.569851 -0.043019 0.005637 -0.005807
2.085395 0.363146 0.989419 0.063672 0.013158 0.012715
1.945166 0.948410 0.941178 0.094082 0.004688 -0.004619
1.661076 0.495514 0.493538 -0.043020 0.011273 -0.011330
1.945549 0.829632 0.503907 0.063670 -0.002107 -0.002078
0.503296 0.622913 0.605241 0.000000 -0.526239 -0.000003
2.929666 0.698494 0.760352 -0.000000 0.337648 0.000021
1.862078 0.415802 0.951468 -0.043021 0.013082 0.013004
0.101335 0.698437 0.742352 -0.340669 0.000038 0.000081
2.035586 0.911708 0.440125 0.094082 0.005078 0.005003
0.631676 0.671541 0.591224 0.000000 0.013534 -0.000009
2.021027 1.298478 0.035564 0.063671 -0.009696 -0.009458
0.604395 0.741356 0.728154 0.000000 0.813598 0.000011
2.470710 0.666228 0.764951 0.000000 -0.027480 0.000275
1.711141 1.050116 0.293139 -0.043023 -0.002856 -0.002960
1.561440 0.874778 0.885416 -0.043021 -0.010086 0.010203
1.534222 0.497638 0.853105 -0.063625 -0.005447 -0.004960
1.547831 0.858839 0.487009 -0.043022 -0.010086 -0.010203
1.888061 0.083204 0.083114 -0.063625 -0.008673 0.007854
1.711141 0.290421 1.063130 -0.063626 -0.007925 -0.007187
1.860843 1.225453 1.240844 -0.043017 -0.013706 0.013569
1.561440 0.465758 0.885416 -0.063625 -0.007263 -0.006595
1.656704 0.986357 0.357762 -0.043020 -0.003271 -0.003389
1.656704 0.986357 0.998507 -0.043020 -0.003271 0.003389
1.602268 0.922598 0.422385 -0.043021 -0.003686 -0.003816
1.738340 0.753480 0.620301 -0.063623 0.002030 0.001854
1.646697 0.881354 0.884555 -0.063624 0.002729 -0.002492
1.749572 0.486280 0.511088 -0.063626 -0.002804 0.002560
2.727469 0.623229 0.605041 0.000001 -0.523679 -0.000006
1.903403 0.464940 0.902778 0.063672 0.003694 0.003639
1.665932 0.704118 0.758192 0.000001 0.387290 0.000018
2.424173 0.746208 0.635847 0.000000 0.872766 -0.000008
2.373623 0.753777 0.702254 0.000000 0.957260 0.000002
2.028690 1.157128 1.163963 0.094082 0.005625 -0.005540
2.323074 0.594037 0.719900 0.000000 -0.872764 0.000002
3.030765 0.743202 0.725427 -0.000001 0.801098 0.000001
2.373623 0.619426 0.748635 0.000000 -0.580959 0.000021
2.171426 0.649693 0.762585 0.000001 -0.231400 0.000032
3.384611 0.740355 0.626714 0.000000 0.812290 -0.000005
1.721142 0.920636 0.939101 -0.043021 -0.006957 0.007135
1.707264 0.378021 0.967641 -0.063624 -0.004860 -0.004429
1.895863 1.071393 1.094650 -0.043018 -0.009761 0.009890
1.362636 0.612147 0.742764 -0.000000 -0.666978 0.000008
1.652951 0.835786 0.834101 -0.063626 0.008117 -0.007359
1.575049 0.449819 0.454697 -0.063626 -0.002729 0.002492
1.949088 0.090848 0.086824 -0.043021 0.005607 -0.005777
0.351648 0.747743 0.717551 -0.000001 0.852246 0.000002
2.171426 0.733271 0.618254 0.000000 0.726077 -0.000014
3.497360 0.607902 0.642342 1.000000 0.000000 0.000000
1.618063 0.867870 0.474118 -0.043019 -0.005637 -0.005807
1.765578 0.226662 1.127753 -0.063624 -0.006729 -0.006116
0.042388 0.667101 0.716364 -0.571217 -0.000002 0.000041
1.783863 0.495313 0.832056 -0.063625 -0.002804 -0.002560
0.402198 0.722467 0.747636 -0.000001 0.602912 0.000020
3.348504 0.665779 0.591330 -0.000000 -0.027469 -0.000017
3.232963 0.708578 0.756157 -0.000000 0.439276 0.000031
1.830652 1.045489 1.065819 -0.043019 -0.002648 0.002746
1.889227 0.582495 0.571352 0.063671 0.003694 -0.003639
1.109889 0.634805 0.598776 0.000000 -0.414313 -0.000067
3.384611 0.733426 0.737852 0.000000 0.726306 0.000057
1.744284 0.381882 0.379192 -0.043021 0.003271 -0.003389
0.705494 0.710978 0.754932 0.000003 0.271130 0.000006
1.261537 0.595063 0.634542 0.000000 -0.859034 -0.000005
2.727469 0.620127 0.749135 0.000000 -0.580798 0.000021
1.860545 0.401027 0.428288 -0.063625 -0.004710 0.004293
1.929074 1.027076 1.053979 0.063671 -0.011081 0.010772
1.059339 0.603578 0.733882 -0.000001 -0.762892 0.000051
3.130792 0.765905 0.566383 0.000001 0.711846 0.000483
2.085395 0.920605 0.931864 0.063672 -0.003521 0.003469
1.853725 0.292733 1.047125 -0.063626 -0.003963 -0.003614
0.705494 0.609177 0.739967 0.000000 -0.707107 0.000030
0.958241 0.626226 0.603198 0.000000 -0.511781 -0.000051
1.969228 0.628275 0.754238 0.000001 -0.487692 0.000027
1.945166 0.382662 0.950770 0.094083 -0.002188 -0.002158
1.008790 0.714247 0.603159 -0.000001 0.509024 -0.000013
2.626370 0.623735 0.751549 0.000001 -0.535297 0.000048
2.057042 0.162901 1.194953 0.063671 0.004271 0.004205
1.413185 0.635901 0.598295 0.000000 -0.388997 -0.000072
3.485795 0.774772 0.784055 -0.111027 0.007513 -0.007649
3.451097 0.404027 0.408285 -0.111027 -0.005009 0.005106
3.470373 0.493881 0.856912 -0.111028 -0.003757 -0.003831
3.481939 0.547793 0.802269 -0.111028 -0.008483 -0.008632
3.443386 0.368086 0.371856 -0.111028 -0.005009 0.005106
3.454952 0.421998 0.929770 -0.111027 -0.005009 -0.005106
3.470373 0.493881 0.499357 -0.111029 -0.003757 0.003831
3.277905 0.548877 0.569917 0.000000 0.711849 -0.000965
3.454952 0.918539 0.929770 -0.111027 0.005009 -0.005106
0.857142 0.709884 0.600764 0.000001 0.437597 -0.000008
1.615383 0.587817 0.650620 -0.000000 -0.950195 -0.000010
2.525271 0.604038 0.621844 0.000001 -0.762666 -0.000026
1.705283 0.762965 0.569880 -0.043020 -0.011273 -0.011330
0.857142 0.622568 0.605466 0.000000 -0.557858 -0.000011
1.965472 0.935075 0.425875 0.094083 0.004688 0.004619
2.424173 0.708309 0.756288 0.000000 0.439127 0.000062
3.220876 0.552757 0.812057 0.000002 -0.711848 -0.000724
0.958241 0.620675 0.749526 -0.000001 -0.577388 0.000011
1.954361 0.361860 1.002626 0.063671 0.006580 0.006458
2.424173 0.598331 0.726921 0.000001 -0.736815 0.000001
1.940797 1.177261 0.175715 -0.063624 0.005533 0.005037
1.817580 0.596213 0.632613 0.000000 -0.859052 -0.000036
0.301099 0.746610 0.636565 0.000001 0.866120 -0.000004
3.497360 0.670268 0.626852 1.000000 -0.000000 0.000000
3.497360 0.721550 0.678135 1.000000 0.000000 0.000000
1.261537 0.701272 0.596930 -0.000001 0.360058 -0.000010
0.996754 0.583411 0.675591 0.000000 -0.999611 -0.000000
0.351648 0.716897 0.604780 0.000000 0.535288 -0.000024
1.210988 0.746354 0.636108 0.000001 0.872157 -0.000008
2.272525 0.714665 0.752861 0.000000 0.511621 0.000025
2.034820 1.193460 0.154657 0.094083 0.005000 0.004926
0.402198 0.753233 0.652185 0.000000 0.958454 -0.000009
3.297742 0.570752 0.764181 0.000000 0.711850 0.000483
3.225011 0.765905 0.566383 -0.000000 0.711851 0.000724
3.283512 0.620431 0.749352 -0.000001 -0.576623 0.000011
1.109889 0.713210 0.753708 -0.000000 0.487536 0.000007
3.391817 0.354468 0.358055 0.065891 -0.008171 0.009611
3.326030 0.387955 0.964274 0.065891 -0.008171 -0.009610
2.474722 0.583846 0.668795 0.000000 -0.995348 -0.000001
2.626370 0.721263 0.748526 0.000000 0.581238 0.000005
1.858322 1.049933 0.284519 -0.043021 -0.010591 -0.010685
1.564833 0.755169 0.659491 -0.000001 0.976383 -0.000003
0.965462 0.757101 0.674693 0.000001 0.996446 -0.000000
3.433253 0.806302 0.547666 -0.111028 -0.008770 -0.008341
1.210988 0.644177 0.595217 -0.000001 -0.305592 -0.000012
3.030765 0.704084 0.758207 0.000000 0.389302 0.000018
3.030765 0.595140 0.721856 0.000000 -0.858940 0.000009
1.570450 0.670119 0.591211 0.000000 -0.027469 -0.000035
3.292211 0.441410 0.902685 0.065889 0.014393 0.011546
2.171426 0.741996 0.727232 -0.000000 0.829425 0.000020
1.868129 0.604304 0.734739 0.000001 -0.762892 0.000026
2.047847 0.270988 1.077774 0.094082 -0.003438 -0.003389
2.047847 0.289917 0.297680 0.094082 -0.003828 0.003774
3.232963 0.755957 0.663532 0.000000 0.983320 -0.000001
2.323074 0.682504 0.764193 0.000000 0.150890 0.000099
0.200000 0.715790 0.752190 0.010357 0.001039 0.001631
1.876967 0.721854 0.749354 0.063671 -0.007388 0.007241
2.626370 0.751677 0.647654 0.000000 0.941273 -0.000001
0.907691 0.741996 0.727232 -0.000000 0.829591 0.000005
0.402198 0.618667 0.748088 0.000002 -0.453642 0.000003
2.575821 0.755677 0.694284 0.000001 0.983728 0.000005
1.463735 0.746043 0.720716 0.000000 0.872641 0.000008
0.604395 0.599007 0.727910 0.000000 -0.813733 0.000003
3.232963 0.595983 0.723270 0.000000 -0.859027 0.000005
0.402198 0.626935 0.602780 0.000000 -0.487621 -0.000014
1.261537 0.594585 0.720880 -0.000000 -0.872810 0.000017
3.238314 0.432603 0.919021 0.065890 -0.012256 -0.014281
3.238314 0.907933 0.437248 0.065889 0.012256 0.014281
1.876261 0.208888 1.151476 -0.043020 0.008930 0.009084
2.575821 0.716960 0.604820 0.000000 0.535320 -0.000024
1.463735 0.625229 0.752477 -0.000002 -0.508593 0.000026
0.779312 0.674683 0.764941 0.000001 0.026155 0.000145
1.954361 0.371324 0.363235 0.063672 0.006580 -0.006458
3.194456 0.885609 0.459875 0.065888 0.012256 0.014281
3.227307 0.866090 0.869201 0.065890 -0.014392 0.011545
1.716481 0.621543 0.750113 0.000000 -0.558169 0.000011
0.931762 0.672812 0.591277 0.000000 0.027480 -0.000070
3.161962 0.832828 0.520781 0.065889 -0.014393 -0.011546
3.183891 0.503955 0.854111 0.065891 -0.012009 -0.014002
1.792796 0.194782 1.160065 -0.063625 -0.012261 -0.011003
1.764360 0.987626 0.350106 -0.043021 -0.006127 -0.006302
2.085395 0.438860 0.912679 0.063672 0.007503 0.007352
3.450710 0.690481 0.589575 -0.240549 0.000040 -0.000150
2.040950 0.134683 0.131253 0.063671 0.006696 -0.006570
1.817580 0.685755 0.592606 0.000000 0.178325 -0.000010
3.106740 0.840961 0.505129 0.065890 0.012256 0.014281
0.056317 0.712241 0.655420 -0.516628 0.000033 -0.000017
3.319619 0.583460 0.673795 -0.000000 -0.999622 -0.000000
1.781395 0.786970 0.542224 -0.043019 -0.022538 -0.020748
1.767031 0.652138 0.593126 0.000000 -0.205449 -0.000072
3.075129 0.559316 0.798000 0.065890 -0.012009 -0.014002
3.075129 0.781221 0.798000 0.065890 0.012009 -0.014002
3.075129 0.781221 0.558269 0.065889 0.012009 0.014003
2.010299 0.300864 1.059367 0.063672 0.011312 0.010989
1.678520 0.516495 0.843578 -0.043020 0.011273 0.011330
3.497360 0.772798 0.675494 -0.271504 0.000151 -0.000002
2.040950 1.229791 1.239260 0.094081 0.008750 -0.008596
3.441462 0.579907 0.777130 -0.111027 -0.008484 -0.008632
3.441462 0.579907 0.579139 -0.111027 -0.008484 0.008632
1.665932 0.629161 0.601545 -0.000001 -0.463474 -0.000029
3.019024 0.796312 0.805887 0.065891 0.012256 -0.014280
3.019024 0.544225 0.805887 0.065891 -0.012256 -0.014280
1.974958 0.038722 0.035105 -0.043020 0.019100 -0.018140
3.031712 0.766530 0.587977 0.065891 -0.009793 -0.007953
1.885740 0.340849 0.991449 -0.063627 -0.002131 -0.001946
1.716481 0.712033 0.601903 0.000000 0.487920 -0.000027
2.028690 0.189798 0.186001 0.063672 0.004271 -0.004205
1.670176 0.432530 0.432371 -0.043019 0.007373 -0.007550
3.182413 0.655666 0.592445 0.000001 -0.178231 -0.000167
2.231604 0.757145 0.680005 0.000001 0.952056 0.000000
3.053641 0.562845 0.576664 0.065889 0.014393 -0.011546
1.008790 0.633715 0.756996 0.000000 -0.413243 0.000008
2.980216 0.718465 0.750469 0.000000 0.558447 0.000045
2.575821 0.587144 0.703546 0.000001 -0.940716 0.000001
3.182413 0.749223 0.641785 -0.000001 0.907801 -0.000003
1.569629 0.751849 0.767583 -0.043021 -0.015128 0.014829
0.907691 0.653090 0.763342 0.000000 -0.204982 0.000072
3.437607 0.786009 0.788035 -0.111028 -0.008770 0.008341
1.922943 0.331554 0.320072 0.063671 0.006118 -0.006009
0.315541 0.757077 0.682474 0.000000 0.999623 0.000000
3.421189 0.478000 0.865599 -0.111028 0.003884 0.003702
2.050912 0.233894 0.240486 0.094083 -0.003125 0.003082
3.248794 0.463509 0.475983 0.065891 0.014392 -0.011545
3.191955 0.747910 0.742010 0.000000 0.702331 0.000663
3.283512 0.737791 0.623398 0.000000 0.780593 -0.000024
2.474722 0.749332 0.714245 -0.000001 0.909197 0.000007
3.270723 0.888189 0.891600 0.065888 -0.014393 0.011546
3.324178 0.476196 0.466613 -0.000001 -0.711850 0.000679
3.334061 0.748027 0.639287 -0.000000 0.898029 -0.000007
3.314140 0.902880 0.921308 0.065890 0.012009 -0.014002
2.047081 1.247193 0.098546 0.094082 0.008750 0.008596
3.429398 0.516264 0.529452 -0.111028 0.004385 -0.004180
2.676919 0.685865 0.592626 0.000001 0.176775 -0.000042
3.172117 0.769785 0.592088 0.000000 -0.711851 -0.000965
3.216742 0.809654 0.522041 -0.000002 0.711848 0.000724
2.041717 0.976432 0.373699 0.094083 0.004453 0.004389
2.041717 0.364105 0.373699 0.094082 -0.004453 0.004389
1.752637 0.862958 0.501857 -0.063625 0.002804 0.002560
1.582546 0.503104 0.513713 -0.063626 -0.003632 0.003313
2.828568 0.592707 0.717385 0.000000 -0.898524 0.000001
2.070327 0.749037 0.714893 0.000000 0.910151 0.000014
2.960156 0.674084 0.591312 0.000001 0.027181 -0.000278
1.891143 0.856567 0.515448 0.094084 0.002656 0.002620
2.085395 0.750249 0.597070 0.063671 -0.007850 -0.007687
0.806593 0.713340 0.753635 -0.000002 0.371502 0.000004
1.832453 1.010111 0.348379 -0.063626 0.002131 0.001946
1.918679 0.754606 0.699183 0.000000 0.972708 0.000002
2.980216 0.625100 0.752401 -0.000000 -0.511171 0.000006
2.120876 0.704635 0.598295 0.000000 0.388965 -0.000018
1.716481 0.713210 0.753708 0.000000 0.487982 0.000054
1.882331 0.775543 0.552986 0.063671 -0.003694 -0.003639
1.909609 0.152525 0.161004 -0.063625 -0.011065 0.009963
2.929666 0.597495 0.725680 0.000000 -0.844660 0.000010
1.618063 0.472666 0.882151 -0.043021 0.005637 0.005807
0.250549 0.598206 0.629534 0.000001 -0.829382 -0.000041
0.452747 0.659628 0.764401 -0.000000 -0.123716 0.000486
2.085395 0.533502 0.539515 0.063671 0.002107 -0.002078
1.631562 0.582408 0.777329 -0.043016 0.005044 0.005205
2.006085 0.479454 0.495406 0.094083 -0.002656 0.002620
1.716481 0.629691 0.601267 -0.000001 -0.462490 -0.000015
1.514284 0.627654 0.602378 -0.000001 -0.487018 -0.000014
1.751969 1.097935 1.111597 -0.043022 -0.020344 0.019112
1.660306 0.443243 0.900710 -0.063624 -0.005458 -0.004970
3.441462 0.768038 0.586449 -0.111028 -0.008770 -0.008341
1.615383 0.754110 0.701065 0.000001 0.965754 0.000008
2.038651 0.391735 0.954154 0.094082 -0.009531 -0.009356
2.010299 1.039673 0.296902 0.063672 -0.011312 -0.010989
1.855511 0.504677 0.541230 0.094085 -0.005000 0.004926
2.005318 0.571099 0.570347 0.063671 0.010043 -0.009788
2.053977 0.215729 1.134607 0.094083 -0.003203 -0.003159
0.604395 0.748488 0.640229 0.000000 0.898217 -0.000004
1.683923 0.322300 0.325451 -0.063625 -0.002131 0.001946
1.941948 0.670717 0.591219 0.000000 0.027480 -0.000275
2.571007 0.666378 0.764955 0.000000 -0.027878 0.000136
3.351074 0.571468 0.793092 0.000000 -0.711850 -0.000587
3.351074 0.783885 0.778473 -0.000002 -0.711845 0.000587
1.821993 0.913936 0.938679 -0.043018 -0.006750 0.006928
1.493394 0.795080 0.804637 -0.043021 -0.010087 0.010203
1.466176 0.763200 0.583943 -0.043020 -0.010087 -0.010203
2.037430 0.666901 0.591299 0.000000 -0.027878 -0.000136
3.081315 0.749161 0.641649 0.000001 0.907801 -0.000003
1.954361 0.969213 0.993034 0.063671 -0.006580 0.006458
3.259716 0.831529 0.499870 0.000000 0.711850 0.000965
2.171426 0.640000 0.596650 0.000000 -0.337648 -0.000011
2.451453 0.757075 0.673720 -0.000001 0.996598 -0.000000
1.803426 0.764998 0.742420 -0.063629 0.004059 -0.003702
2.665686 0.672962 0.764988 0.000000 0.027878 0.000136
1.882338 0.978476 0.351862 -0.043019 -0.006127 -0.006302
2.626370 0.588050 0.649909 -0.000000 -0.950164 -0.000010
2.879117 0.634021 0.599133 -0.000000 -0.414245 -0.000033
1.868208 0.942828 0.387019 -0.043020 -0.006542 -0.006719
1.796798 0.469940 0.497672 -0.063625 -0.005458 0.004970
1.542064 0.581551 0.595727 -0.063621 -0.003632 0.003314
0.756043 0.714986 0.603600 0.000001 0.510598 -0.000025
2.676919 0.600051 0.626896 0.000001 -0.812995 -0.000011
2.778018 0.749875 0.643216 0.000000 0.921253 -0.000003
1.564833 0.591205 0.642024 0.000001 -0.909198 -0.000007
3.106740 0.840961 0.851140 0.065890 0.012256 -0.014281
3.140474 0.518646 0.531866 0.065888 0.014393 -0.011546
3.150598 0.477252 0.482502 0.065889 -0.012256 0.014281
3.183891 0.836582 0.854111 0.065891 0.012009 -0.014002
1.925242 0.571720 0.599800 0.094083 -0.007500 0.007376
1.362636 0.747847 0.717352 0.000001 0.866765 0.000001
3.232963 0.634532 0.757369 -0.000000 -0.414203 0.000033
1.886162 0.440114 0.426763 0.063672 0.007503 -0.007352
3.193605 0.574632 0.566383 0.000001 -0.711849 0.000724
3.279554 0.530882 0.522041 -0.000001 -0.711848 0.000483
0.503296 0.717750 0.605321 0.000000 0.535071 -0.000006
3.335627 0.419311 0.431185 0.065890 0.014392 -0.011546
1.873902 0.864235 0.462326 0.063671 -0.001991 -0.001964
0.452747 0.744324 0.723656 -0.000000 0.859593 0.000001
1.665932 0.640951 0.759961 0.000001 -0.334073 0.000021
1.810644 1.063662 0.274153 -0.043018 -0.005296 -0.005461
2.929666 0.749409 0.714075 -0.000000 0.910085 0.000014
1.812798 0.904670 0.461899 -0.063625 0.005009 0.004564
0.958241 0.710381 0.755245 -0.000001 0.463218 0.000029
2.955342 0.757066 0.673421 0.000001 0.956695 -0.000000
2.004169 1.021579 1.041586 0.063671 -0.012235 0.011856
3.401414 0.947304 0.966334 -0.111031 0.005009 -0.005106
3.412980 0.447145 0.444578 -0.111028 -0.004242 0.004325
3.425044 0.837157 0.501575 -0.111028 0.004242 0.004325
3.470373 0.846656 0.856912 -0.111028 0.003757 -0.003831
3.417334 0.880507 0.883814 -0.111028 -0.004385 0.004180
3.462662 0.882597 0.462928 -0.111029 0.003757 0.003831
1.969228 0.753139 0.651901 0.000000 0.949886 -0.000005
2.525271 0.746062 0.635585 -0.000000 0.848915 -0.000001
1.362636 0.593818 0.636761 0.000000 -0.885952 -0.000008
1.990376 0.132526 1.231797 0.063673 0.007388 0.007241
1.974958 1.305442 1.317586 -0.063626 0.012560 -0.011261
1.220616 0.757145 0.680005 -0.000001 0.996446 0.000000
1.947464 1.081357 0.248945 0.063672 -0.005195 -0.005108
1.947464 0.259180 1.107324 0.063673 0.005195 0.005108
2.019778 0.638114 0.758890 0.000000 -0.363484 0.000078
1.919495 0.521785 0.549962 0.094082 -0.006797 0.006689
3.081315 0.595312 0.634124 -0.000002 -0.853788 -0.000009
0.200000 0.618787 0.748178 0.010356 -0.001171 0.001538
1.463735 0.591112 0.642228 -0.000001 -0.900667 -0.000003
1.059339 0.693849 0.761802 0.000000 0.258802 0.000014
1.857044 0.764497 0.742915 0.094083 0.005000 -0.004926
1.817580 0.597495 0.725680 -0.000000 -0.844590 0.000038
1.413185 0.710315 0.755280 0.000001 0.463754 0.000058
1.951296 0.573473 0.758198 0.094082 -0.006797 -0.006689
0.301099 0.625711 0.752765 0.000000 -0.511824 0.000051
1.959725 1.117544 1.142888 0.063669 -0.004733 0.004657
2.014897 1.280385 1.302924 0.063670 -0.011082 0.010772
1.953595 0.241087 0.231163 0.063671 0.009235 -0.009017
1.210988 0.629558 0.754932 0.000001 -0.463409 0.000029
2.085395 0.996319 1.008604 0.063672 -0.006118 0.006009
0.503296 0.592509 0.639287 -0.000000 -0.898372 -0.000007
3.335627 0.913818 0.423875 0.065890 0.012009 0.014002
3.283512 0.749425 0.714041 0.000001 0.909197 0.000007
3.131864 0.613178 0.743687 0.000000 -0.667225 0.000008
1.561786 0.844151 0.851869 -0.063623 0.003632 -0.003314
1.946928 1.185770 1.207792 -0.043019 -0.014535 0.014309
1.479785 0.561397 0.567787 -0.063626 -0.007263 0.006595
2.041717 0.971510 0.987426 0.063671 -0.006580 0.006458
3.131864 0.747726 0.717584 0.000001 0.883794 0.000004
1.969228 0.595657 0.722724 0.000001 -0.857813 0.000009
1.941334 0.261040 0.282743 0.094082 -0.006875 0.006765
1.935204 1.062094 0.301207 -0.063625 0.007327 0.006652
1.968828 0.052498 1.299122 -0.063626 -0.007477 -0.006786
3.017927 0.583376 0.679931 -0.000063 -0.075797 0.000003
1.833627 0.667201 0.764978 -0.000001 -0.026295 0.000144
2.879117 0.707703 0.599685 0.000000 0.439553 -0.000008
0.174835 0.677401 0.764209 -0.054704 0.000081 0.000729
1.714005 0.771527 0.758015 -0.063626 0.004059 -0.003702
2.575821 0.631589 0.600293 -0.000001 -0.436830 -0.000016
3.316139 0.820584 0.540600 -0.000000 -0.711850 -0.000873
2.879117 0.748192 0.639623 0.000001 0.898237 -0.000015
3.384611 0.596213 0.723656 0.000000 -0.859593 0.000001
0.354055 0.666078 0.764947 0.000000 -0.027480 0.000017
2.757959 0.671017 0.765052 0.000000 0.013545 0.000035
2.373623 0.584953 0.661469 0.000000 -0.984007 -0.000003
1.932905 0.886957 0.444657 0.063671 -0.003694 -0.003639
1.780798 0.523961 0.513764 -0.043019 0.003894 -0.004029
1.725877 1.030957 1.040773 -0.063622 0.008524 -0.007721
1.819687 0.840542 0.823547 -0.063626 0.002804 -0.002560
0.342822 0.674608 0.591326 0.000000 0.027082 -0.000004
3.399856 0.674907 0.764934 0.000000 0.027878 0.000017
1.815686 0.799803 0.779347 -0.063626 0.008117 -0.007359
1.918679 0.707299 0.756779 0.000000 0.414103 0.000008
1.463735 0.714600 0.752899 0.000000 0.511715 0.000025
2.085395 1.090961 0.251740 0.063672 -0.010389 -0.010117
1.953211 0.468660 0.864690 0.094082 -0.001328 -0.001310
1.871610 0.946813 0.973288 -0.043018 -0.006127 0.006302
3.238229 0.505128 0.525574 0.000000 0.711850 -0.000483
3.081315 0.591267 0.714382 0.000001 -0.908000 0.000003
1.971985 0.174026 0.190427 0.094082 -0.005000 0.004926
0.250549 0.748866 0.715267 0.000001 0.784045 0.000001
2.474722 0.623893 0.751649 0.000002 -0.343610 0.000005
2.047081 0.093343 1.257723 0.094082 -0.008750 -0.008596
1.738085 0.435204 0.454113 -0.063625 -0.002580 0.002355
3.283512 0.588619 0.648324 -0.000000 -0.941252 -0.000022
1.665932 0.705083 0.598485 0.000000 0.388912 -0.000004
1.754222 0.312799 0.321697 -0.063625 -0.004262 0.003886
3.182413 0.587875 0.705826 -0.000000 -0.950141 0.000010
1.821219 0.518225 0.850442 -0.043018 0.007788 0.007962
1.918679 0.710846 0.601267 0.000001 0.462490 -0.000015
1.878421 1.198763 1.209976 -0.063625 0.005533 -0.005037
1.870130 1.121327 0.230242 -0.063626 0.006729 0.006115
3.182413 0.651918 0.763097 0.000000 -0.205234 0.000144
1.957426 1.002144 0.358980 0.094082 0.008125 0.007987
1.514284 0.748882 0.715233 -0.000000 0.910080 0.000007
3.283512 0.624843 0.604021 0.000001 -0.510171 -0.000013
0.299494 0.583460 0.673795 -0.000000 -0.999622 -0.000000
1.782246 0.427565 0.449928 -0.063624 -0.005010 0.004564
1.843251 0.566768 0.805034 0.063671 0.003694 0.003639
1.312086 0.750049 0.643630 0.000000 0.921033 -0.000006
0.503296 0.628895 0.754585 0.000000 -0.487536 0.000007
1.959725 0.208832 1.128916 0.094081 -0.005625 -0.005540
3.384611 0.635316 0.598544 -0.000001 -0.414274 -0.000266
0.604395 0.593964 0.636500 0.000000 -0.872590 -0.000008
1.463735 0.713242 0.602579 -0.000000 0.487801 -0.000027
1.008790 0.635350 0.598528 0.000000 -0.414762 -0.000008
3.309990 0.674608 0.764943 0.000000 0.027469 0.000035
3.030765 0.739228 0.625220 0.000000 0.797510 -0.000006
2.879117 0.715436 0.752401 0.000000 0.511871 0.000025
1.889610 0.825422 0.853176 0.063671 -0.002107 0.002078
2.929666 0.592148 0.640027 -0.000001 -0.898067 -0.000015
2.120876 0.723481 0.746868 0.000000 0.603306 0.000003
1.689326 0.875187 0.893453 -0.043015 -0.003791 0.003923
1.817854 1.117601 1.126890 -0.063626 0.006729 -0.006116
2.047081 0.078732 0.075101 0.063671 0.011543 -0.011207
3.334327 0.765898 0.596027 0.000002 -0.711848 -0.000587
3.355427 0.576944 0.598364 -0.000001 0.711850 -0.001175
2.525271 0.712883 0.753891 -0.000000 0.487849 0.000027
1.914928 0.224987 0.217978 -0.043019 0.017856 -0.017137
1.965855 1.149108 0.208890 -0.063627 0.011662 0.010484
3.268811 0.819003 0.814066 -0.000000 -0.711850 0.000965
2.983625 0.586404 0.598073 0.065890 0.009793 -0.007953
1.985778 0.418797 0.436659 0.094083 -0.002344 0.002312
0.806593 0.633851 0.757059 0.000001 -0.414195 0.000033
1.802928 0.452538 0.877061 -0.063625 -0.005309 -0.004835
1.160438 0.748274 0.716477 -0.000002 0.892224 0.000007
1.160438 0.586446 0.701137 -0.000001 -0.962024 0.000004
3.347048 0.934180 0.950563 0.065891 0.012256 -0.014280
1.615383 0.584846 0.694210 0.000000 -0.984041 0.000001
0.200000 0.727358 0.612582 0.010357 0.001295 -0.001435
0.351648 0.593071 0.718082 0.000000 -0.885951 0.000016
1.889227 0.758041 0.784917 0.063674 -0.003694 0.003639
1.738085 0.435204 0.902156 -0.063625 -0.010317 -0.009308
0.705494 0.591786 0.640767 0.000000 -0.898370 -0.000002
1.868129 0.746427 0.636239 0.000001 0.872672 -0.000017
0.668585 0.757110 0.681277 0.000000 0.999612 0.000000
1.109889 0.725816 0.611275 0.000000 0.645913 -0.000018
2.727469 0.707771 0.756551 0.000001 0.435486 0.000008
2.010299 0.281935 0.277717 0.063672 0.011312 -0.010989
1.868129 0.592197 0.639926 0.000000 -0.896277 -0.000002
2.408125 0.757151 0.676488 0.000000 0.999611 -0.000000
3.324433 0.757077 0.682474 0.000000 0.999623 0.000000
3.232963 0.627850 0.602268 0.000000 -0.487906 -0.000027
2.085395 0.079219 1.277194 0.063671 0.009697 0.009458
1.918679 0.634941 0.598714 0.000000 -0.414203 -0.000033
1.615383 0.712033 0.754366 0.000000 0.487977 0.000054
1.712215 0.499247 0.494075 -0.043020 0.003894 -0.004029
1.985012 1.108849 1.109152 0.094084 0.003125 -0.003082
0.553846 0.589635 0.710602 0.000001 -0.921812 0.000001
1.615383 0.731095 0.616038 -0.000000 0.706236 -0.000008
1.797303 0.345021 1.015726 -0.043021 0.003063 0.003175
1.463735 0.633817 0.599226 -0.000000 -0.413243 -0.000008
0.125266 0.663833 0.755795 -0.247339 -0.000010 0.000214
1.969228 0.709452 0.755729 -0.000001 0.422643 0.000008
2.120876 0.756777 0.669689 0.000001 0.994600 -0.000001
0.141594 0.742223 0.639195 -0.183853 0.000181 -0.000091
1.875434 0.793045 0.821648 0.063669 -0.003694 0.003639
0.093542 0.737175 0.681826 -0.378625 0.000038 0.000001
1.892292 0.918516 0.947288 0.063672 -0.013851 0.013355
1.746169 0.671166 0.765038 0.000000 0.027855 0.000136
0.654944 0.636074 0.598222 -0.000000 -0.389043 -0.000072
0.085853 0.609029 0.695451 -0.401102 -0.000069 0.000017
1.945549 0.824900 0.847566 0.063670 -0.002107 0.002078
3.195254 0.527003 0.547746 0.000000 0.711850 -0.000724
3.173767 0.802597 0.797438 -0.000001 -0.711849 0.000965
2.085395 1.053104 0.290110 0.063671 -0.011312 -0.010990
0.351648 0.594457 0.635618 0.000001 -0.871923 -0.000008
1.806406 0.178843 0.180049 -0.063625 -0.012261 0.011003
1.889870 0.185867 0.195623 -0.063625 -0.012261 0.011003
2.221975 0.714247 0.603159 -0.000002 0.389846 -0.000004
1.693724 0.352429 1.002405 -0.043023 0.006334 0.006510
1.945549 0.499877 0.832018 0.094083 -0.002852 -0.002812
2.070327 0.710746 0.601215 0.000001 0.463418 -0.000058
1.514284 0.750428 0.644526 -0.000000 0.921238 -0.000003
2.255675 0.583429 0.681352 0.000001 -0.996772 0.000000
3.316139 0.519952 0.540600 0.000002 0.711849 -0.000873
3.279554 0.516065 0.819609 -0.000001 0.711850 0.000483
3.297742 0.585569 0.577469 0.000000 -0.711849 0.000483
1.900338 0.887403 0.873312 0.094083 0.002500 -0.002466
1.873902 0.452469 0.870429 0.094083 -0.005000 -0.004926
1.797303 0.995516 1.015726 -0.043019 -0.012252 0.012243
1.951296 0.767064 0.598071 0.094082 0.006797 0.006689
3.497360 0.607902 0.713926 1.000000 0.000000 0.000000
2.004169 0.337886 1.022400 0.063672 0.012235 0.011856
1.877740 0.375631 0.365199 -0.043021 0.012252 -0.012243
1.738978 0.541176 0.570156 -0.063624 -0.004059 0.003702
1.815686 0.540734 0.779347 -0.063626 -0.008117 -0.007359
1.748297 0.578043 0.744891 -0.063626 -0.008117 -0.007359
0.200000 0.583868 0.668572 0.010352 -0.001933 -0.000184
1.818928 0.435647 0.929788 -0.043020 0.006957 0.007136
1.764547 0.562190 0.804737 -0.043021 0.011273 0.011330
2.980216 0.709983 0.600816 -0.000001 0.461314 -0.000015
2.019778 0.706004 0.757369 -0.000000 0.413888 0.000017
2.028690 0.183408 1.163963 0.094081 -0.002813 -0.002774
1.717740 0.916652 0.421207 -0.043021 -0.003583 -0.003709
1.023233 0.672513 0.765001 -0.000000 0.027878 0.000009
0.756043 0.591687 0.715301 -0.000001 -0.889447 0.000002
1.949380 0.774691 0.796328 0.063672 -0.010043 0.009788
1.678520 0.835933 0.524423 -0.063625 0.016232 0.014376
2.929666 0.704704 0.598324 -0.000001 0.388115 -0.000018
1.875434 0.816705 0.557964 0.094083 0.002500 0.002466
1.880032 0.905471 0.467377 -0.063625 0.010018 0.009045
1.713408 0.541323 0.788368 -0.063624 -0.008118 -0.007359
3.497360 0.626790 0.585242 -0.243312 -0.000074 -0.000152
2.323074 0.591654 0.641036 0.000000 -0.910189 -0.000007
2.206730 0.672214 0.765009 -0.000000 0.027469 0.000275
1.718345 0.481153 0.879976 -0.043021 0.003894 0.004029
1.374671 0.757184 0.677686 0.000000 0.999622 -0.000000
1.945549 0.520368 0.513499 0.063670 0.004214 -0.004148
1.731954 0.887930 0.472576 -0.063626 0.002729 0.002492
0.267399 0.665779 0.764939 0.000000 -0.027469 0.000017
0.536996 0.666527 0.591310 -0.000000 -0.027878 -0.000069
1.988567 1.321381 0.022527 -0.063625 0.012560 0.011261
0.958241 0.704601 0.598281 -0.000000 0.387973 -0.000009
1.095446 0.668922 0.765025 0.000000 -0.027469 0.000017
0.093542 0.640012 0.618346 -0.371080 -0.000039 -0.000071
2.676919 0.752385 0.649627 -0.000001 0.940233 -0.000005
2.006085 0.460526 0.880048 0.094083 -0.001348 -0.001330
1.848138 0.182355 1.168433 -0.063624 -0.006131 -0.005577
1.806406 1.161694 0.180049 -0.043019 -0.017026 -0.016450
3.104583 0.583462 0.673720 -0.000001 -0.996608 -0.000000
3.450710 0.690481 0.766694 -0.240549 0.000040 0.000150
2.929666 0.630222 0.600989 0.000001 -0.463337 -0.000058
0.511320 0.757101 0.681576 0.000000 0.999623 0.000000
1.805993 0.878826 0.903928 -0.043020 -0.003687 0.003816
1.918679 0.584492 0.692220 0.000000 -0.988025 0.000001
1.994697 0.001753 1.352205 -0.000001 -0.702313 0.000161
1.823811 0.546809 0.533185 -0.043018 0.011274 -0.011331
3.334061 0.709585 0.755662 0.000000 0.463758 0.000116
1.712215 0.854588 0.507195 -0.063624 0.002804 0.002560
1.888291 0.125103 0.128983 -0.063625 -0.004935 0.004496
1.615383 0.630222 0.755280 0.000000 -0.463796 0.000014
2.004169 0.318957 0.314683 0.063672 0.012235 -0.011856
2.008767 0.078246 1.285142 0.063670 0.011543 0.011207
1.561959 0.828837 0.521173 -0.063622 0.005448 0.004960
1.548350 0.527640 0.818940 -0.063626 -0.010894 -0.009813
2.044782 1.022990 0.326097 0.094081 0.008281 0.008139
1.590043 0.784147 0.783541 -0.063627 0.003632 -0.003313
0.452747 0.705187 0.598528 0.000000 0.414283 -0.000017
3.193605 0.574632 0.789886 0.000000 -0.711850 -0.000724
2.044782 0.327011 0.335690 0.094082 -0.004141 0.004081
0.200000 0.631018 0.600573 0.010356 -0.000900 -0.001714
1.781991 0.559388 0.594150 -0.063624 -0.004059 0.003702
2.373623 0.733271 0.738015 -0.000000 0.726087 0.000014
2.373623 0.657588 0.764125 -0.000001 -0.146326 0.000026
2.929666 0.749192 0.641717 -0.000000 0.910151 -0.000014
3.412835 0.372870 0.984503 -0.111028 -0.005009 -0.005106
1.882331 0.542111 0.575563 0.094079 -0.002500 0.002466
2.085395 0.041362 1.315564 0.063672 0.007850 0.007687
1.747103 0.817868 0.550673 -0.063625 0.008118 0.007359
0.166474 0.602688 0.730734 -0.087163 -0.000365 0.000268
1.781395 0.786970 0.814045 -0.043020 -0.005637 0.005807
1.824659 0.214966 0.221301 -0.063625 -0.013456 0.012032
3.232963 0.709784 0.600712 -0.000001 0.462595 -0.000014
3.283512 0.705118 0.598499 0.000001 0.373531 -0.000009
1.648280 0.668772 0.591248 0.000000 -0.027082 -0.000140
1.946928 0.145873 1.199017 -0.063628 -0.010466 -0.009439
2.557366 0.673785 0.591304 0.000000 0.027082 -0.000140
2.640010 0.667799 0.591275 0.000000 -0.027878 -0.000002
1.757824 0.401861 0.936775 -0.063625 -0.009719 -0.008781
3.144702 0.757093 0.674393 0.000000 0.999612 -0.000000
3.081315 0.657810 0.764159 0.000001 -0.150742 0.000099
2.424173 0.602138 0.624158 0.000000 -0.780327 -0.000012
0.250549 0.591917 0.715771 -0.000001 -0.898249 0.000015
1.830752 0.844391 0.872263 -0.043021 -0.003686 0.003816
1.564833 0.652614 0.763243 0.000000 -0.205343 0.000018
1.449292 0.757138 0.680230 0.000000 0.999611 0.000000
1.979648 0.866480 0.493493 0.094083 0.001328 0.001310
1.836782 0.268492 0.281017 -0.063625 -0.003664 0.003343
1.699533 0.453395 0.905569 -0.043019 0.007373 0.007550
1.643095 0.370120 0.373918 -0.063625 -0.009719 0.008781
1.959862 1.211833 0.122617 -0.043018 -0.012875 -0.012816
3.466260 0.619860 0.758358 -0.243442 -0.000328 0.000594
2.337517 0.583398 0.680230 0.000000 -0.999634 0.000000
1.854489 0.668024 0.591268 -0.000001 -0.027200 -0.000278
1.975434 0.533342 0.554149 0.094082 -0.006797 0.006689
0.872387 0.673186 0.764982 0.000001 0.026229 0.000144
2.058958 0.464835 0.467515 0.063671 0.003983 -0.003922
2.059341 0.582007 0.769959 0.063671 0.003925 0.003865
1.812798 0.453741 0.444263 -0.043020 0.003479 -0.003602
3.397628 0.744165 0.588418 -0.111027 0.008484 0.008632
1.889610 0.515115 0.503093 0.063672 0.002107 -0.002078
2.035586 0.902244 0.906552 0.094081 0.002539 -0.002504
2.843010 0.667350 0.764982 0.000000 -0.027082 0.000035
1.876261 1.131649 1.151476 -0.043019 -0.017856 0.017137
1.850928 0.990221 0.984380 -0.063626 0.004411 -0.004022
1.387509 0.583470 0.673421 -0.000001 -0.956694 -0.000000
1.617607 0.555137 0.573963 -0.063626 -0.003632 0.003314
2.474722 0.705732 0.598776 0.000000 0.414268 -0.000033
2.019778 0.748882 0.641036 0.000000 0.910148 -0.000003
0.063503 0.631008 0.643942 -0.488489 -0.000033 -0.000027
0.029098 0.697317 0.685783 -0.623425 0.000016 0.000004
0.029098 0.652399 0.656437 -0.623423 -0.000011 -0.000012
2.135319 0.667500 0.591283 0.000001 -0.026155 -0.000145
0.370103 0.757169 0.680081 -0.000000 0.999908 0.000000
1.969228 0.591835 0.640666 -0.000000 -0.898338 -0.000015
3.334061 0.590225 0.712019 0.000001 -0.921054 0.000013
1.965993 1.229926 1.251434 -0.043019 -0.006438 0.006615
2.879117 0.586514 0.701390 0.000000 -0.965722 0.000004
2.019778 0.631690 0.600244 0.000000 -0.438818 -0.000015
2.019778 0.588101 0.649768 0.000000 -0.941273 -0.000003
1.971985 0.174026 1.165842 0.094083 -0.005000 -0.004926
1.777563 0.972018 0.384875 -0.063625 0.009121 0.008252
1.927863 1.141613 0.192118 -0.043020 -0.016195 -0.015749
2.044782 0.308082 1.039764 0.094082 -0.003750 -0.003697
2.041717 0.369027 0.987426 0.063672 0.013158 0.012715
1.933993 1.169291 1.172476 -0.063623 0.005533 -0.005038
1.292829 0.757192 0.678284 0.000000 0.999623 0.000000
1.824285 0.831359 0.496936 -0.043020 -0.003894 -0.004029
3.081315 0.749239 0.714450 -0.000000 0.910112 0.000014
0.654944 0.703704 0.597902 0.000001 0.388733 -0.000072
1.977349 0.568472 0.791125 0.063672 0.010043 0.009788
2.047847 1.036924 1.053171 0.063671 -0.005657 0.005559
2.778018 0.636798 0.758352 -0.000001 -0.385355 0.000018
0.724751 0.666602 0.591308 0.000000 -0.027878 -0.000136
1.644229 0.495571 0.844970 -0.063625 -0.008117 -0.007359
3.218520 0.672140 0.765037 0.000000 0.014341 0.000033
0.644514 0.583435 0.681576 0.000000 -0.999622 0.000000
3.081315 0.634839 0.598761 -0.000001 -0.414274 -0.000067
1.700460 0.385991 0.396706 -0.063625 -0.004860 0.004429
1.886162 0.440114 0.929506 0.063672 0.007503 0.007352
1.918679 0.631824 0.756091 -0.000001 -0.438278 0.000016
2.272525 0.638637 0.759094 0.000001 -0.362946 0.000039
1.994207 1.144417 1.146439 0.094083 0.002813 -0.002774
2.035586 0.428829 0.440125 0.094083 -0.005078 0.005003
3.497360 0.720860 0.729412 0.153708 0.002268 0.002298
1.765909 0.868028 0.891139 -0.043020 -0.003686 0.003816
1.896000 0.168465 1.179109 -0.063625 -0.011065 -0.009963
1.806406 1.161694 1.176220 -0.043021 -0.017025 0.016450
0.085853 0.695832 0.619854 -0.401099 0.000030 -0.000064
1.660306 0.890990 0.449339 -0.043018 -0.007581 -0.007756
1.854942 1.162611 0.176265 -0.043021 -0.008099 -0.008269
1.981993 0.069024 0.076475 -0.063626 -0.007476 0.006786
1.059339 0.748882 0.641036 0.000000 0.910148 -0.000003
3.277905 0.791659 0.786352 0.000000 -0.711850 0.000965
1.693655 0.940963 0.399246 -0.043019 -0.006750 -0.006928
2.828568 0.705459 0.598652 -0.000000 0.414304 -0.000033
1.133960 0.757195 0.678060 0.000000 0.999897 -0.000000
1.732529 0.672064 0.591256 0.000000 0.027878 -0.000136
0.109226 0.730245 0.719721 -0.309898 0.000086 0.000064
1.665932 0.590693 0.713121 0.000001 -0.875432 0.000002
1.785817 0.772760 0.603690 -0.063628 0.002029 0.001854
1.617780 0.770085 0.590737 -0.063626 0.007263 0.006595
2.085395 0.844891 0.501145 0.063671 -0.007965 -0.007798
0.756043 0.632463 0.599866 0.000000 -0.439553 -0.000008
1.786843 0.911646 0.421895 -0.043019 -0.006957 -0.007136
1.690267 0.596476 0.588972 -0.043019 0.006305 -0.006481
1.644229 0.836399 0.502846 -0.043020 -0.022537 -0.020747
3.131864 0.698917 0.596068 0.000000 0.337648 -0.000042
3.409484 0.583470 0.673421 -0.000000 -0.999612 -0.000000
1.777701 1.055772 1.072552 -0.043021 -0.005504 0.005672
1.906001 1.036203 0.294885 -0.043022 -0.005296 -0.005461
1.801180 0.251808 1.105677 -0.043018 0.020346 0.019113
1.929074 0.295845 1.036599 0.094083 -0.007500 -0.007376
1.631287 0.909946 0.917297 -0.063626 0.005458 -0.004970
2.019778 0.702004 0.597215 0.000001 0.362946 -0.000039
1.463735 0.596994 0.724889 -0.000001 -0.842405 0.000010
1.946928 0.154767 0.148477 -0.043020 0.014535 -0.014308
1.915279 1.289212 0.050802 -0.043021 -0.010383 -0.010487
1.611062 0.598136 0.595304 -0.043020 0.010087 -0.010203
3.497360 0.570446 0.654577 -0.243391 -0.000165 -0.000037
1.864812 0.160909 0.159296 -0.043021 0.007684 -0.007859
1.782276 0.757143 0.676189 0.000000 0.999611 -0.000000
1.752637 0.862958 0.854412 -0.063627 0.002804 -0.002560
1.960491 0.329691 0.349748 0.094083 -0.008125 0.007987
1.889227 0.780147 0.593162 0.094079 0.002500 0.002466
1.767031 0.590429 0.712501 0.000001 -0.920660 0.000013
1.866928 0.330317 0.322230 -0.043021 0.005711 -0.005882
1.916813 0.990889 0.337854 0.063672 -0.012004 -0.011640
3.140711 0.585569 0.577469 0.000000 -0.711849 0.000965
3.384611 0.708376 0.600014 -0.000001 0.439119 -0.000124
1.935479 1.238757 0.107921 -0.063626 0.008673 0.007853
1.716481 0.583550 0.672226 -0.000000 -0.997591 -0.000002
2.778018 0.631253 0.600458 -0.000000 -0.439148 -0.000031
1.898423 0.382858 0.944282 0.094083 -0.004375 -0.004312
3.030765 0.708981 0.600310 -0.000000 0.439148 -0.000031
1.843251 0.773768 0.551235 0.063671 -0.003694 -0.003639
1.908797 1.109113 1.109008 -0.063626 0.006729 -0.006115
1.924797 0.207971 1.155260 -0.043017 0.008100 0.008270
1.921411 0.777318 0.554737 0.063671 -0.010043 -0.009788
1.312086 0.706686 0.757059 -0.000001 0.404503 0.000009
1.699533 0.887142 0.450700 -0.043020 -0.007373 -0.007550
0.225676 0.757164 0.680455 0.000019 0.012605 0.000000
1.762079 0.739694 0.588883 -0.043022 -0.005637 -0.005807
2.740307 0.757143 0.676189 0.000000 0.999622 -0.000000
1.624482 0.438561 0.447050 -0.063625 -0.010915 0.009832
2.676919 0.750108 0.712501 -0.000001 0.920660 0.000013
1.770896 0.288158 1.059959 -0.063626 -0.003963 -0.003614
2.005318 0.778461 0.777019 0.094083 0.006797 -0.006689
1.668375 0.955690 0.969687 -0.043019 -0.006750 0.006928
1.892292 0.918516 0.408981 0.063671 -0.013851 -0.013355
1.904553 0.365455 0.393523 0.094083 -0.004375 0.004312
2.033288 1.334665 1.356269 0.063674 -0.007850 0.007687
1.849480 0.913772 0.900863 -0.063625 0.005009 -0.004564
1.811181 0.381287 0.981648 -0.043020 0.006334 0.006511
2.539714 0.757155 0.679631 0.000000 0.999612 0.000000
1.807778 0.385272 0.378660 -0.043019 0.006542 -0.006720
1.835350 0.482576 0.470670 -0.043020 0.014743 -0.014491
1.531936 0.757103 0.681502 0.000000 0.999611 0.000000
1.898928 0.248094 1.091698 -0.063625 -0.014054 -0.012543
1.514284 0.711442 0.601580 0.000001 0.444926 -0.000004
2.828568 0.703532 0.758440 -0.000001 0.388883 0.000036
1.401952 0.672438 0.591266 -0.000000 0.027865 -0.000136
1.683785 0.410632 0.934176 -0.063624 -0.005159 -0.004699
3.087817 0.581689 0.753096 0.000000 0.711850 0.000965
1.603652 0.791699 0.548296 -0.043020 -0.002522 -0.002616
2.040639 0.674234 0.764953 0.000001 0.026283 0.000144
0.907691 0.590254 0.644181 0.000000 -0.921143 -0.000006
0.431083 0.757192 0.677835 0.000000 0.999906 -0.000000
2.019778 0.597830 0.726176 0.000001 -0.829243 0.000020
3.368977 0.950282 0.399266 0.065890 -0.009793 -0.007953
1.821993 0.409762 0.434204 -0.063625 -0.002430 0.002219
1.953211 0.871178 0.893775 0.063671 -0.003983 0.003922
1.160438 0.640739 0.759885 -0.000001 -0.337475 0.000042
1.956107 1.337031 1.353934 -0.043019 -0.015781 0.015394
1.994697 0.001753 0.004064 -0.000000 -0.702333 -0.000161
1.871617 1.190793 0.154370 -0.063624 0.005533 0.005037
1.973518 0.830149 0.531141 0.094083 0.001426 0.001407
1.817580 0.702980 0.758673 0.000000 0.388627 0.000009
1.747103 0.541209 0.532380 -0.043020 0.011273 -0.011330
1.868129 0.635350 0.757741 0.000000 -0.414283 0.000017
