0.742668 0.629599 0.471343 0.000000 0.816580 -0.000006
3.309729 0.655720 0.424545 0.015848 0.023136 0.014681
2.696271 0.576331 0.435477 0.000000 0.212524 -0.000010
3.111145 0.652758 0.610654 0.015850 -0.038984 0.014946
2.017852 0.649895 0.592559 0.078966 0.013096 -0.013799
1.665202 0.592985 0.602279 -0.000000 0.400079 0.000010
2.479204 0.532525 0.436804 0.000001 -0.260572 -0.000008
2.370670 0.606078 0.595053 -0.000000 0.552319 0.000013
2.099336 0.508757 0.447699 0.000000 -0.552648 -0.000013
0.938728 0.468769 0.519904 0.000000 -0.999592 -0.000000
3.452082 0.703502 0.664328 0.015851 0.013564 -0.011567
3.592547 0.645193 0.526363 0.000000 0.999598 0.000000
0.417067 0.639642 0.552788 0.000000 0.936894 0.000006
1.860335 0.632301 0.472836 0.000000 -0.729955 0.000782
1.813539 0.641031 0.613713 -0.063955 -0.005103 0.005891
0.851201 0.605553 0.595401 -0.000000 0.552319 0.000026
1.936057 0.193121 0.184962 -0.071026 -0.005032 0.004901
2.207870 0.512206 0.597713 0.000000 -0.503777 0.000007
0.105717 0.503488 0.570772 -0.327545 -0.000082 0.000071
2.859071 0.615351 0.455347 0.000000 0.663073 -0.000005
3.555570 0.849674 0.246502 0.015850 0.032948 0.016047
0.880960 0.645261 0.524000 0.000000 0.999598 0.000000
3.643685 0.497707 0.580928 0.077853 -0.000531 0.000497
3.297769 0.360676 0.337786 0.015851 -0.046180 0.016864
3.680586 0.932793 0.169784 0.015851 0.032946 0.016048
3.393473 0.315820 0.295786 0.015851 -0.028836 0.015602
1.990803 0.641910 0.497328 -0.000000 0.963392 -0.000010
1.502402 0.621432 0.461240 0.000000 0.726866 -0.000004
2.057402 0.963193 0.912524 0.071098 -0.007833 0.008315
3.541782 0.552455 0.609811 0.000000 -0.028743 0.000038
1.683463 0.440080 0.631137 -0.071027 -0.013415 -0.012873
1.819076 0.282625 0.264703 -0.071026 -0.006150 0.005982
1.773872 0.335110 0.729426 -0.071028 -0.014533 -0.013904
1.879349 0.212645 0.844097 -0.071027 -0.010062 -0.009729
3.635619 0.672436 0.625537 -0.029321 -0.036489 0.024484
2.750537 0.629938 0.471827 0.000001 0.815191 -0.000003
3.477203 0.462261 0.601558 0.015851 0.031022 0.014360
3.364759 0.453187 0.418796 0.015852 -0.027751 0.015459
2.040749 0.294541 0.779609 0.071098 0.005595 0.005957
0.066149 0.609868 0.533925 -0.482173 0.000052 0.000011
1.907027 0.660384 0.638338 -0.063956 -0.003969 0.004588
3.520873 0.784362 0.305435 0.015850 0.024724 0.014984
3.560956 0.876724 0.820989 0.015850 0.032948 -0.016047
2.165644 0.968467 0.136382 0.071100 -0.006714 -0.007139
2.165644 0.125170 0.926004 0.071098 0.011189 0.011806
3.184671 0.606670 0.448613 -0.000000 0.551727 -0.000013
2.082381 1.034207 0.083861 -0.071027 0.011180 0.010784
1.683463 0.440080 0.412137 -0.071027 -0.013415 0.012873
3.700595 0.733938 0.685625 -0.029321 -0.029206 0.022156
3.266947 0.468829 0.525497 0.000000 -0.999597 0.000000
0.254267 0.605750 0.595270 -0.000001 0.552594 0.000103
3.748464 0.235995 0.221041 -0.029322 -0.019520 0.017325
2.049076 0.445432 0.429798 0.078966 -0.013096 0.013799
0.688401 0.578325 0.435949 0.000000 0.240460 -0.000035
3.676661 0.454661 0.423289 -0.029322 -0.036562 0.024411
2.087585 0.646119 0.446683 0.078966 0.003778 0.004031
1.977502 0.254772 0.227240 -0.063955 0.010772 -0.012303
3.565265 0.638907 0.438022 -0.029322 0.019520 0.017325
0.200000 0.614851 0.454901 0.005094 0.002880 -0.002811
3.369547 0.787013 0.306286 0.015850 0.016199 0.012717
1.285335 0.609811 0.592416 0.000000 0.599196 0.000006
1.728667 0.387595 0.362992 -0.071028 -0.001957 0.001910
2.587737 0.469396 0.510789 -0.000000 -0.990950 -0.000001
3.578207 0.416601 0.659650 -0.029321 -0.009763 -0.009875
2.262137 0.506343 0.449334 -0.000000 -0.575913 -0.000012
1.231068 0.633656 0.477772 0.000000 0.863068 -0.000005
1.687959 0.645315 0.522110 -0.000000 0.993531 0.000000
1.804008 0.813927 0.281085 -0.063955 -0.013605 -0.015414
3.534240 0.465819 0.444432 -0.029321 0.019481 -0.017366
2.090707 0.243578 0.236273 0.078966 -0.004534 0.004834
3.744563 0.324377 0.303798 -0.029321 -0.009763 0.009875
1.176802 0.497844 0.587167 -0.000000 -0.665562 0.000038
2.099336 0.480987 0.566523 -0.000001 -0.862748 0.000010
2.019934 0.747054 0.713800 0.071097 -0.006714 0.007139
2.479204 0.488663 0.577535 0.000000 -0.782894 0.000003
1.917431 0.739359 0.335866 -0.063954 -0.007087 -0.008159
3.433248 0.645207 0.517384 0.000000 0.999587 -0.000000
0.845949 0.557575 0.433340 0.000000 0.013993 -0.000020
2.792550 0.468789 0.524079 0.000001 -0.890940 0.000000
0.173806 0.525260 0.603222 -0.062632 -0.000271 0.000641
3.021871 0.516657 0.600166 0.000000 -0.453858 0.000004
3.130405 0.516517 0.600094 0.000000 -0.453858 0.000004
3.554035 0.468733 0.520691 0.000000 -0.999898 -0.000000
0.742668 0.595273 0.601219 0.000002 0.350351 0.000006
2.165644 0.662304 0.620216 0.071098 -0.008393 0.008902
1.978302 0.395676 0.390889 0.078966 -0.003275 0.003494
2.316403 0.489399 0.578409 -0.000000 -0.765013 0.000007
1.990803 0.496369 0.585802 0.000000 -0.686633 0.000072
1.068268 0.474295 0.490781 -0.000000 -0.936947 -0.000013
3.359976 0.741224 0.695985 0.015852 0.027750 -0.015459
2.074055 0.789728 0.313683 0.078966 0.011082 0.011721
0.796934 0.489526 0.464714 0.000000 -0.765019 -0.000014
3.272198 0.645307 0.520140 0.000000 0.999897 -0.000000
3.321693 0.418301 0.654649 0.015848 -0.027756 -0.015457
2.587737 0.598924 0.599359 -0.000001 0.471592 0.000008
1.821461 0.767288 0.712646 -0.071028 0.014533 -0.013904
1.845461 0.447552 0.436301 -0.071028 -0.005590 0.005442
2.750537 0.492859 0.460982 -0.000000 -0.726996 -0.000032
3.736762 0.557024 0.521637 1.000000 0.000000 0.000000
2.165644 0.390511 0.677552 0.071098 0.013427 0.014092
3.673072 0.629917 0.571480 0.181127 0.000181 0.000128
3.021871 0.619347 0.584183 -0.000001 0.706379 0.000017
2.316403 0.639089 0.554222 -0.000000 0.926282 0.000007
1.913268 0.728950 0.698069 -0.063955 -0.007087 0.008159
1.977502 0.871266 0.803228 -0.071025 0.005311 -0.005172
1.539163 0.645306 0.522425 -0.000000 0.999587 0.000000
2.053239 0.850731 0.807626 0.071097 -0.005036 0.005365
2.087927 0.001352 0.004044 -0.000000 -0.729955 -0.000195
2.087927 1.112695 1.039230 -0.071024 0.007827 -0.007597
2.172859 0.645315 0.521164 0.000000 0.999587 -0.000000
3.130405 0.638808 0.488358 -0.000000 0.926587 -0.000014
1.122535 0.630570 0.472779 0.000001 0.833400 -0.000045
3.477203 0.642995 0.432327 0.015850 0.029429 0.015674
0.959735 0.558599 0.433377 0.000000 0.028554 -0.000019
1.448135 0.527647 0.604908 0.000000 -0.322120 0.000013
3.626577 0.411353 0.389821 -0.029321 0.036489 -0.024484
3.664429 0.851645 0.242435 0.015851 0.032946 0.016048
1.014001 0.627920 0.574267 -0.000001 0.799307 0.000013
3.620556 0.552140 0.433472 0.000000 -0.028554 -0.000010
3.739687 0.434855 0.636030 -0.029321 -0.010983 -0.010964
1.014001 0.537678 0.607789 -0.000001 -0.206836 0.000020
1.963731 0.673236 0.434733 0.078966 0.003778 0.004031
1.211812 0.468778 0.523685 0.000000 -0.999592 0.000000
1.773736 0.484087 0.471860 -0.000000 -0.828599 -0.000003
3.640495 0.778756 0.733423 -0.029321 0.009763 -0.009874
0.362800 0.568457 0.434085 0.000000 0.128088 -0.000132
1.372862 0.645301 0.522582 -0.000000 0.999598 0.000000
3.454105 0.348872 0.713624 0.015852 0.015209 0.011157
3.704917 0.484036 0.483330 0.181098 -0.000749 -0.000453
2.099034 0.203207 0.845706 0.078965 -0.008060 -0.008564
2.099034 0.890430 0.216680 0.078966 0.004534 0.004834
3.543607 0.269980 0.251752 0.015850 -0.020608 0.014105
1.610936 0.631935 0.568375 -0.000000 0.848591 0.000011
3.690815 0.825839 0.771120 -0.029323 -0.014612 0.013996
1.816408 0.402789 0.674592 -0.063956 0.007938 0.009123
1.990792 0.814647 0.299386 -0.071027 0.011739 0.011310
3.659553 0.372880 0.697393 -0.029322 -0.024393 -0.019998
3.092003 0.484651 0.452623 -0.000000 -0.729951 -0.000049
1.851104 0.351356 0.321336 -0.063956 0.003544 -0.004098
2.087585 0.638090 0.605166 0.071099 -0.004196 0.004474
1.014001 0.627897 0.468976 0.000000 0.800590 -0.000013
0.308533 0.617650 0.457445 0.000000 0.686635 -0.000036
1.894417 0.918897 0.182796 -0.063956 -0.010205 -0.011672
0.182527 0.621929 0.581206 -0.028786 0.001154 0.000999
0.597373 0.560647 0.433436 0.000000 0.028554 -0.000019
2.472201 0.645288 0.523055 -0.000000 0.999587 0.000000
3.570667 0.789306 0.743301 0.015850 0.024725 -0.014984
3.178137 0.628463 0.591648 -0.000000 0.729949 0.000073
1.668395 0.656472 0.428518 -0.063954 -0.013606 -0.015414
0.742668 0.498197 0.587481 0.000000 -0.665548 0.000038
3.206848 0.482161 0.587993 0.000000 -0.729954 0.000098
0.362800 0.485175 0.470313 -0.000000 -0.817330 -0.000024
1.339602 0.623760 0.463810 0.000000 0.746323 -0.000015
2.533470 0.493589 0.460209 -0.000000 -0.726165 -0.000008
2.424937 0.493481 0.460323 0.000000 -0.727003 -0.000016
0.058641 0.569679 0.473490 -0.511578 0.000012 -0.000040
3.184671 0.503227 0.451614 0.000000 -0.598544 -0.000011
2.207870 0.617965 0.585531 0.000000 0.684123 0.000005
1.947754 0.939654 0.876299 -0.071027 0.004472 -0.004358
1.771103 0.690808 0.639451 -0.071028 0.005031 -0.004901
2.207870 0.623937 0.464021 0.000001 0.755804 -0.000004
1.882269 0.605060 0.595728 -0.000000 0.552382 0.000026
2.124012 0.306614 0.291683 0.078966 -0.005038 0.005369
1.122535 0.614851 0.588373 -0.000000 0.665586 0.000077
2.032811 1.017825 0.947688 -0.071028 0.013415 -0.012873
2.032811 0.096223 0.095586 -0.071027 -0.013415 0.012873
0.578117 0.645312 0.522740 0.000000 0.999902 0.000000
2.592989 0.645279 0.523370 0.000000 0.999587 0.000000
3.401738 0.499649 0.454520 0.000000 -0.644007 -0.000041
2.696271 0.495595 0.585071 0.000000 -0.686685 0.000009
0.254267 0.485607 0.469701 0.000000 -0.799476 -0.000002
3.221204 0.416278 0.652489 0.015851 0.019513 0.012510
0.471334 0.474840 0.553930 0.000000 -0.921170 0.000002
0.051289 0.550611 0.566237 -0.540394 -0.000006 0.000034
2.479204 0.610821 0.591660 0.000000 0.599334 0.000011
2.304150 0.557339 0.433341 0.000000 0.028554 -0.000019
1.721537 0.625539 0.577660 -0.000001 -0.729951 -0.000391
1.621439 0.468744 0.522503 0.000000 -0.999597 0.000000
2.533470 0.640028 0.491519 0.000000 0.936721 -0.000003
2.642004 0.473753 0.551013 0.000000 -0.946544 0.000006
3.321692 0.487140 0.593310 0.000001 -0.729956 0.000245
3.321692 0.626907 0.593310 0.000001 0.729950 0.000245
1.882269 0.485607 0.573573 -0.000000 -0.784128 0.000002
2.424937 0.583370 0.437363 0.000001 0.294938 -0.000028
2.750537 0.642872 0.542288 -0.000000 0.970662 0.000017
0.634134 0.609433 0.592699 -0.000000 0.599284 0.000011
1.773736 0.587695 0.604434 -0.000001 0.349073 0.000046
1.773736 0.478781 0.562565 0.000000 -0.891074 0.000002
2.967604 0.622789 0.462722 -0.000000 0.746340 -0.000031
3.401738 0.611780 0.452370 0.000000 0.621757 -0.000011
3.659553 0.741167 0.345881 -0.029322 0.024394 0.019998
2.074055 0.324320 0.729591 0.078966 -0.011082 -0.011721
0.476585 0.645317 0.522425 -0.000000 0.999515 0.000000
3.564539 0.621270 0.582206 -0.000000 0.727039 0.000032
2.630625 0.558993 0.433389 0.000000 0.028376 -0.000019
2.099034 0.039920 0.998600 0.078967 -0.008060 -0.008564
1.962628 0.216296 0.847996 -0.063956 0.009638 0.011038
1.882526 0.848481 0.789574 -0.071028 0.006150 -0.005982
2.316403 0.480351 0.477840 0.000000 -0.863601 -0.000010
3.389485 0.555920 0.609926 0.000000 -0.013993 0.000079
1.285335 0.527349 0.604806 0.000000 -0.349382 0.000023
1.990803 0.589572 0.603717 0.000000 0.376074 0.000084
2.092789 0.752994 0.697229 0.078966 0.003023 -0.003226
2.913337 0.626119 0.576609 -0.000000 0.783029 0.000014
2.967604 0.515607 0.443651 -0.000000 -0.479096 -0.000031
1.393869 0.519771 0.441582 -0.000000 -0.428208 -0.000018
3.679085 0.870776 0.818198 0.015851 0.049343 -0.016981
3.597286 0.296400 0.762062 0.015850 0.021724 0.013020
1.963731 0.440812 0.608541 0.078966 -0.003778 -0.004031
0.130752 0.523621 0.448495 -0.229989 -0.000075 -0.000152
1.949160 0.692579 0.373571 0.071098 -0.014545 -0.015220
3.462249 0.400669 0.380789 0.015850 0.017382 -0.011908
2.015770 0.372191 0.678441 0.078966 -0.006549 -0.006970
2.909837 0.468773 0.523528 0.000000 -0.999592 0.000000
1.982465 0.319361 0.318979 0.078966 -0.005542 0.005904
2.165644 0.764358 0.327499 0.071098 -0.012308 -0.012953
3.469136 0.796901 0.747913 0.015851 0.024723 -0.014984
3.570879 0.687881 0.650971 -0.029323 0.009762 -0.009874
1.502402 0.628464 0.573541 -0.000000 0.817345 0.000006
2.132339 0.205010 0.195643 0.078966 -0.004030 0.004299
2.132339 1.072324 0.042749 0.078967 0.008060 0.008564
3.238938 0.602892 0.597090 0.000001 0.527913 0.000028
1.506778 0.556315 0.609921 0.000000 -0.028604 0.000039
1.159296 0.559072 0.609883 0.000000 0.028365 0.000010
2.880077 0.645270 0.519589 0.000000 0.999587 -0.000000
0.796934 0.476952 0.558854 -0.000000 -0.902884 0.000004
2.846817 0.554818 0.433395 -0.000000 -0.028554 -0.000019
1.285335 0.472622 0.495705 0.000000 -0.955244 -0.000005
2.533470 0.472169 0.546060 0.000000 -0.963447 0.000002
2.750537 0.597074 0.600327 -0.000001 0.453902 0.000067
2.207870 0.472296 0.546515 0.000000 -0.963409 0.000005
0.581618 0.468726 0.522110 0.000000 -0.999897 0.000000
0.306783 0.561592 0.609811 0.000000 0.028743 0.000019
3.076138 0.619486 0.459230 0.000000 0.707053 -0.000034
1.556669 0.508199 0.448069 0.000000 -0.552554 -0.000026
1.929129 0.355533 0.724938 -0.063955 0.006520 0.007513
1.986022 0.942915 0.167536 -0.071030 0.004472 0.004358
2.696271 0.644244 0.507902 -0.000000 0.987624 -0.000005
1.897408 0.397532 0.652906 -0.071027 -0.015091 -0.014416
0.471334 0.492886 0.460954 0.000000 -0.727011 -0.000065
1.339602 0.498167 0.587455 0.000000 -0.665574 0.000019
0.308533 0.629871 0.571544 0.000000 0.815118 0.000003
2.207870 0.482846 0.473732 0.000000 -0.833328 -0.000001
2.810056 0.555606 0.609901 0.000000 -0.028365 0.000019
1.882269 0.474185 0.491076 0.000000 -0.936938 -0.000006
0.254267 0.476952 0.558854 -0.000000 -0.903518 0.000016
1.882269 0.644788 0.531350 -0.000000 0.995005 0.000002
1.068268 0.499679 0.588779 -0.000000 -0.642745 0.000005
3.321693 0.415189 0.391948 0.015850 0.029257 -0.014177
2.153603 0.598371 0.443613 -0.000000 0.478238 -0.000008
3.130405 0.640055 0.551681 -0.000000 0.936924 0.000006
1.610936 0.561277 0.609820 0.000000 0.028743 0.000297
3.704917 0.603849 0.453799 0.181099 0.000520 -0.000664
0.518598 0.557812 0.609930 -0.000000 0.014371 0.000154
0.796934 0.606995 0.448835 -0.000001 0.575536 -0.000024
1.339602 0.550607 0.433575 0.000000 -0.071259 -0.000120
1.665202 0.480669 0.565978 -0.000000 -0.863483 0.000010
0.688401 0.481529 0.475836 0.000001 -0.846655 -0.000005
2.804804 0.622081 0.581346 -0.000000 0.746251 0.000031
0.851201 0.629372 0.471021 -0.000000 0.816273 -0.000006
3.374330 0.710383 0.381781 0.015851 -0.034121 -0.014628
1.393869 0.625079 0.577897 0.000002 0.719696 0.000004
3.238938 0.628645 0.469991 -0.000000 0.816660 -0.000003
2.082381 0.151278 0.892522 0.078966 -0.007053 -0.007502
3.676661 0.659387 0.423289 -0.029322 0.036562 0.024411
2.587737 0.612428 0.452885 0.000000 0.621787 -0.000005
3.616577 0.284830 0.263435 0.015850 -0.032947 0.016047
3.216419 0.438239 0.412284 0.015850 0.019515 -0.012510
3.225990 0.719730 0.369287 0.015850 0.018512 0.013516
3.121652 0.468814 0.518329 0.000000 -0.999587 -0.000000
1.231068 0.552140 0.433472 -0.000000 -0.028554 -0.000299
3.673072 0.518062 0.442393 0.181251 -0.000101 -0.000197
1.285335 0.520341 0.441312 0.000000 -0.428359 -0.000036
3.673072 0.644429 0.509070 0.184225 0.000215 -0.000034
0.471334 0.586994 0.438578 -0.000001 0.349425 -0.000092
3.673072 0.469618 0.534204 0.181028 -0.000220 0.000028
2.370670 0.511423 0.597257 0.000000 -0.528332 0.000014
2.019934 0.366994 0.329474 0.071098 0.006714 -0.007139
1.670454 0.557733 0.433353 -0.000009 0.000793 -0.000350
0.579867 0.615792 0.455740 0.000000 0.665677 -0.000010
3.238938 0.483434 0.472845 0.000000 -0.833502 -0.000006
3.293205 0.515019 0.443972 -0.000000 -0.479235 -0.000063
1.963731 0.673236 0.608541 0.078966 0.003778 -0.004031
1.339602 0.468769 0.523370 0.000000 -0.999593 0.000000
0.905468 0.626217 0.576486 0.000001 0.782718 0.000014
3.021871 0.468859 0.526521 0.000000 -0.999592 0.000000
3.488558 0.622065 0.592538 0.077853 0.007120 0.006639
2.967604 0.473537 0.492895 -0.000000 -0.946532 -0.000012
2.913337 0.493373 0.460438 0.000000 -0.726264 -0.000004
0.471334 0.615380 0.587901 0.000000 0.665477 0.000019
1.777056 0.628244 0.468503 0.000000 -0.729955 0.000586
3.664429 0.259077 0.797287 -0.029322 0.019480 0.017366
3.689857 0.925430 0.866039 0.015849 -0.034734 0.014673
3.745538 0.302282 0.760165 -0.029320 -0.019521 -0.017325
3.750414 0.922244 0.179663 -0.029322 0.019519 0.017325
3.737737 0.635001 0.594651 -0.029322 0.021957 -0.018741
3.750414 0.922244 0.863612 -0.029322 0.019519 -0.017325
3.746513 0.280186 0.262419 -0.029321 -0.014642 0.013966
3.750414 0.191804 0.863612 -0.029322 -0.019520 -0.017325
3.750414 0.191804 0.179663 -0.029322 -0.019520 0.017325
3.738712 0.456951 0.427933 -0.029322 -0.010983 0.010964
3.740662 0.701288 0.386555 -0.029322 0.029264 0.022094
3.742613 0.368568 0.345176 -0.029322 -0.012203 0.012010
1.556669 0.600308 0.444671 0.000001 0.478384 -0.000016
2.026178 0.675920 0.646584 0.071098 -0.014545 0.015220
1.936536 0.541966 0.434626 0.000000 -0.184562 -0.000364
1.882269 0.576370 0.435485 -0.000000 0.212569 -0.000157
2.913337 0.518560 0.601118 -0.000000 -0.428432 0.000036
3.070886 0.554818 0.433395 -0.000000 -0.028554 -0.000019
0.959735 0.488222 0.466295 0.000000 -0.783057 -0.000007
2.424937 0.475166 0.554733 -0.000000 -0.926397 0.000007
3.576494 0.377193 0.346585 -0.029321 -0.012203 0.012010
1.901571 0.387552 0.380571 -0.071028 -0.007267 0.007059
0.887962 0.559702 0.609865 0.000000 0.028365 0.000039
1.556669 0.523489 0.603317 0.000000 -0.375014 0.000011
3.576494 0.743507 0.353689 0.015850 -0.030400 -0.014298
2.262137 0.598855 0.443877 -0.000000 0.479137 -0.000031
1.231068 0.627873 0.574330 0.000000 0.798459 0.000003
3.520873 0.326360 0.734287 0.015850 0.052020 0.015452
3.604614 0.826936 0.272237 0.015848 -0.021727 -0.013020
3.247523 0.702287 0.658902 0.015851 0.018510 -0.013516
2.099336 0.527017 0.604682 0.000000 -0.349360 0.000046
2.642004 0.638062 0.556697 0.000000 0.915392 0.000015
3.293205 0.602488 0.445938 0.000000 0.504059 -0.000015
2.424937 0.628109 0.574014 -0.000000 0.800461 0.000013
1.833158 0.333170 0.736121 -0.063955 0.007087 0.008159
1.787161 0.391729 0.373188 -0.071029 -0.003913 0.003815
2.696271 0.517289 0.442786 -0.000000 -0.453961 -0.000017
3.111145 0.461289 0.610654 0.015849 0.038985 0.014945
1.845655 0.706194 0.370578 -0.063955 -0.015305 -0.017241
3.428832 0.747477 0.696774 0.015848 -0.008694 0.007748
3.452082 0.709026 0.384845 0.015850 -0.014300 -0.010794
1.488398 0.468755 0.520377 0.000000 -0.999592 -0.000000
1.176802 0.480729 0.477194 -0.000000 -0.863623 -0.000020
3.130405 0.594917 0.601388 0.000000 0.428314 0.000072
1.444634 0.555921 0.433364 0.000005 -0.003645 -0.000151
1.828003 0.638109 0.556589 0.000000 0.915472 0.000015
1.845461 0.447552 0.606973 -0.071026 -0.002795 -0.002727
1.828003 0.501188 0.590046 0.000000 -0.621555 0.000005
0.634134 0.643167 0.541022 -0.000001 0.975161 0.000002
3.693741 0.892125 0.210086 0.015850 -0.052021 -0.015452
0.688401 0.643536 0.503947 0.000000 0.977156 -0.000002
1.845461 0.650223 0.418922 -0.063954 -0.011339 -0.012932
3.458663 0.666514 0.616459 0.015850 -0.028580 0.014100
2.107360 0.945216 0.152461 0.071097 -0.003917 -0.004177
2.750537 0.481696 0.567706 -0.000001 -0.845568 0.000005
3.364759 0.453187 0.624478 0.015851 -0.027751 -0.015459
3.411415 0.422433 0.401070 0.015850 0.017077 -0.011811
3.021871 0.635338 0.480849 0.000000 0.891074 -0.000004
0.851201 0.488663 0.577535 0.000000 -0.783086 0.000027
2.107360 0.162836 0.158863 0.078966 -0.003527 0.003763
1.900771 0.300993 0.751433 -0.071027 -0.012298 -0.011833
0.308533 0.500282 0.453987 -0.000000 -0.643973 -0.000041
0.417067 0.485493 0.573412 0.000000 -0.817315 0.000024
0.254267 0.597109 0.442965 0.000001 0.453960 -0.000134
1.969176 0.851306 0.259639 -0.071026 0.005591 0.005442
2.370670 0.602624 0.446017 0.000000 0.528774 -0.000003
1.994955 0.460059 0.414177 0.071098 0.014545 -0.015220
2.124012 0.086376 0.966394 0.071098 0.011189 0.011805
1.936536 0.491127 0.462869 -0.000000 -0.735387 -0.000002
0.579867 0.487659 0.467004 -0.000000 -0.783084 -0.000027
1.068268 0.532753 0.436740 -0.000000 -0.268008 -0.000123
1.828003 0.499679 0.454495 0.000000 -0.643984 -0.000041
0.742668 0.504173 0.450906 0.000001 -0.599173 -0.000046
0.579867 0.515573 0.599604 0.000000 -0.479237 0.000031
1.986022 0.177984 0.160218 -0.063954 0.004253 -0.004914
2.262137 0.602148 0.597535 0.000000 0.504141 0.000029
0.959735 0.490186 0.579344 -0.000000 -0.764366 0.000007
3.570879 0.687881 0.392304 -0.029321 0.019520 0.017325
1.556669 0.476699 0.558320 0.000000 -0.915357 0.000004
2.017743 0.995191 0.106480 -0.063955 -0.007371 -0.008481
2.424937 0.630243 0.472287 0.000001 0.832949 -0.000011
3.744563 0.789670 0.303798 -0.029321 0.009763 0.009874
3.265196 0.553322 0.609836 0.000000 -0.028754 0.000038
2.043319 0.645324 0.521479 0.000000 0.999587 -0.000000
0.308533 0.487095 0.575560 0.000000 -0.783371 0.000002
2.099034 0.046772 0.037357 0.071098 0.008952 -0.009486
2.967604 0.572430 0.434691 0.000000 0.184536 -0.000046
2.115686 0.367395 0.349499 0.078966 -0.006045 0.006438
2.153603 0.525134 0.439294 0.000001 -0.348752 -0.000023
1.787161 0.722318 0.373188 -0.071026 0.007827 0.007596
1.176802 0.530414 0.437445 0.000001 -0.275003 -0.000007
1.176802 0.641053 0.494500 0.000001 0.952311 -0.000003
3.417493 0.468836 0.517541 -0.000000 -0.999587 -0.000000
2.804804 0.506665 0.449107 0.000000 -0.576505 -0.000003
1.122535 0.570136 0.434318 0.000001 0.156389 -0.000216
2.115686 0.991582 0.120158 0.078966 0.012089 0.012763
3.746513 0.833861 0.780855 -0.029322 0.014642 -0.013966
0.688401 0.486198 0.574361 -0.000000 -0.800479 0.000013
1.393869 0.473244 0.493753 0.000000 -0.946544 -0.000003
1.502402 0.490707 0.463339 0.000000 -0.746323 -0.000031
2.153603 0.629281 0.572382 0.000000 0.816787 0.000006
0.579867 0.622553 0.580817 0.000001 0.743697 0.000008
0.634134 0.471393 0.500106 -0.000000 -0.969260 -0.000002
2.115686 0.127604 0.114671 0.071099 0.006714 -0.007139
3.456005 0.487487 0.467220 0.000000 -0.783059 -0.000007
3.154212 0.686088 0.400787 0.015851 0.036978 0.016373
3.465251 0.282179 0.778989 0.015850 -0.024724 -0.014984
3.417399 0.809441 0.285286 0.015851 0.028836 0.015602
3.345621 0.338248 0.316786 0.015851 -0.055360 0.017159
1.231068 0.486481 0.574740 -0.000000 -0.800528 0.000026
2.153603 0.498608 0.587849 0.000000 -0.665556 0.000038
2.080299 0.435491 0.643768 0.071098 0.014545 0.015220
0.357549 0.468850 0.526206 0.000000 -0.999592 0.000000
1.014001 0.470000 0.506657 -0.000001 -0.974134 -0.000001
1.122535 0.486764 0.575118 -0.000000 -0.800528 0.000026
1.014001 0.575176 0.435225 -0.000001 0.212498 -0.000157
3.510272 0.507805 0.594944 0.000000 -0.552614 0.000103
2.014962 0.055190 0.991530 -0.071028 -0.011180 -0.010784
1.713599 0.708957 0.663900 -0.063954 -0.010205 0.011672
1.954690 0.125170 0.926004 -0.071028 -0.007826 -0.007596
1.849213 0.247635 0.811334 -0.071027 -0.011180 -0.010784
2.030031 1.076353 0.035362 -0.063958 -0.010205 -0.011672
2.913337 0.632393 0.475635 0.000000 0.848868 -0.000003
2.017852 0.634693 0.434480 0.071098 -0.014545 -0.015220
1.448135 0.609748 0.450811 0.000000 0.599225 -0.000023
3.510272 0.517395 0.442733 0.000000 -0.454007 -0.000134
1.990803 0.560962 0.433445 0.000000 0.028554 -0.000299
2.587737 0.509550 0.447184 -0.000000 -0.528618 -0.000027
0.362800 0.627897 0.468976 0.000000 0.800590 -0.000026
2.080299 0.687335 0.408881 0.078966 0.013096 0.013799
2.124012 0.300690 0.765720 0.071098 0.005595 0.005957
1.990803 0.473054 0.494312 -0.000000 -0.934567 -0.000001
1.122535 0.644020 0.536772 0.000000 0.981738 0.000001
2.045069 0.495147 0.458645 -0.000000 -0.707048 -0.000017
2.262137 0.499980 0.589033 0.000000 -0.644006 0.000020
0.200000 0.484131 0.571480 0.005096 -0.003604 0.001951
0.742668 0.645225 0.525260 0.000000 0.999598 0.000000
1.068268 0.602624 0.597257 -0.000000 0.528774 0.000007
1.339602 0.633259 0.566182 0.000001 0.860697 0.000005
0.959735 0.618280 0.458040 0.000000 0.686112 -0.000009
0.173806 0.569483 0.434978 -0.062628 0.000119 -0.000690
0.200000 0.574560 0.608183 0.005095 0.000919 0.004159
1.665202 0.537215 0.607689 0.000000 -0.211802 0.000010
1.448135 0.479207 0.563365 -0.000001 -0.876972 0.000009
2.099336 0.473896 0.491852 0.000000 -0.936980 -0.000001
2.099336 0.562890 0.433535 -0.000000 0.071365 -0.000239
2.165644 0.002705 1.040675 0.000001 -0.729947 0.000352
2.165644 0.227224 0.830445 0.071098 0.008952 0.009486
2.165644 0.043527 0.040823 0.071098 0.006714 -0.007139
2.165644 0.723536 0.677552 0.071098 -0.006714 0.007139
2.165644 0.390511 0.365723 0.071099 0.006714 -0.007139
2.165644 0.866412 0.231940 0.071098 -0.008952 -0.009486
2.165644 0.703125 0.384834 0.071098 -0.006714 -0.007139
2.165644 0.805180 0.753999 0.071098 -0.011189 0.011806
3.673072 0.537023 0.607647 0.180881 -0.000053 0.000215
1.758804 0.761442 0.330229 -0.063955 -0.007654 -0.008802
2.103197 0.454786 0.419809 0.071098 0.004197 -0.004474
1.994349 0.956880 0.901734 -0.063956 -0.008504 0.009764
0.417067 0.604497 0.596090 0.000001 0.527260 0.000014
3.076138 0.627684 0.574582 -0.000000 0.800528 0.000026
3.510272 0.599789 0.444387 -0.000000 0.479252 -0.000125
0.796934 0.615498 0.587796 -0.000000 0.665574 0.000038
1.794695 0.731066 0.678277 -0.071027 0.003913 -0.003815
3.655151 0.312556 0.296340 -0.029322 0.009743 -0.009894
2.045069 0.487928 0.576609 -0.000000 -0.782718 0.000007
0.851201 0.498020 0.455950 0.000001 -0.630004 -0.000003
1.882269 0.530828 0.605957 -0.000001 -0.294386 0.000028
2.207870 0.566737 0.609401 0.000000 0.099841 0.000170
1.393869 0.630831 0.473173 -0.000000 0.833427 -0.000011
2.804804 0.488663 0.577535 0.000000 -0.783061 0.000027
2.967604 0.610726 0.591731 0.000000 0.599331 0.000023
3.482291 0.757896 0.337438 0.015850 -0.060629 -0.015644
2.804804 0.606341 0.448396 -0.000000 0.552579 -0.000052
2.533470 0.506794 0.594258 0.000000 -0.576149 0.000012
2.370670 0.486339 0.468723 0.000000 -0.800585 -0.000013
0.471334 0.510453 0.596653 -0.000000 -0.528578 0.000110
2.533470 0.603594 0.446622 0.000000 0.528408 -0.000027
1.936536 0.644232 0.507825 0.000000 0.987671 -0.000011
3.321695 0.349462 0.715988 0.015848 -0.027756 -0.015457
3.706712 0.477901 0.596973 -0.029320 -0.010983 -0.010965
0.040572 0.519511 0.521637 -0.589307 -0.000014 0.000000
3.196925 0.553873 0.433422 -0.000000 -0.028554 -0.000077
3.321695 0.764585 0.327286 0.015849 0.027756 0.015457
3.457173 0.321090 0.302387 0.015850 0.030400 -0.014298
3.130405 0.598855 0.443877 0.000000 0.479193 -0.000031
2.015770 0.874527 0.240606 -0.071030 0.005031 0.004901
1.773736 0.532563 0.606481 0.000000 -0.267985 0.000123
0.688401 0.523307 0.440031 0.000000 -0.369370 -0.000005
1.719469 0.578860 0.607192 0.000000 0.240405 0.000138
3.534623 0.723882 0.671209 0.015850 -0.015210 0.011157
2.111523 0.413559 0.382018 0.071098 0.014545 -0.015220
0.399562 0.552770 0.609820 0.000000 -0.028365 0.000019
3.269056 0.687333 0.402116 0.015851 -0.048685 -0.015355
1.393869 0.507181 0.594530 0.000000 -0.576200 0.000024
0.362800 0.634028 0.564852 0.000001 0.876905 0.000009
1.788940 0.796432 0.745808 -0.063955 -0.007087 0.008159
1.285335 0.628275 0.469481 0.000000 0.800452 -0.000013
3.704512 0.170040 0.159284 0.015850 -0.032947 0.016048
3.704512 0.170040 0.883990 0.015850 -0.032947 -0.016047
2.099336 0.584684 0.605493 0.000001 0.321508 0.000025
1.877376 0.775599 0.327816 -0.071027 0.013415 0.012873
3.618805 0.470763 0.540483 -0.000001 -0.977094 0.000015
3.347472 0.616086 0.456002 0.000000 0.665562 -0.000038
3.021871 0.531543 0.437096 0.000000 -0.295388 -0.000055
3.347472 0.502113 0.452493 0.000000 -0.621855 -0.000022
2.082381 1.025643 0.968560 0.071098 -0.011189 0.011805
3.076138 0.518453 0.601067 0.000001 -0.428040 0.000036
3.021871 0.570680 0.608870 0.000001 0.156461 0.000108
1.870941 0.660055 0.597780 -0.071025 0.002795 -0.002727
1.936536 0.497314 0.586695 -0.000000 -0.686634 0.000072
1.974139 0.774727 0.704702 -0.071027 0.012856 -0.012354
3.636619 0.236986 0.223636 0.015850 0.052018 -0.015453
3.502994 0.425479 0.637171 0.015851 0.034730 0.014674
1.977502 0.242782 0.803228 -0.071027 -0.010621 -0.010257
0.097562 0.619415 0.490961 -0.359375 0.000082 -0.000037
0.417067 0.642258 0.498581 0.000000 0.963496 -0.000002
0.634134 0.513878 0.598679 0.000000 -0.478372 0.000008
2.036586 0.725421 0.377963 0.078966 0.006549 0.006970
2.107360 0.945216 0.890813 0.071098 -0.007833 0.008316
0.165108 0.486876 0.470672 -0.096397 -0.000369 -0.000252
3.371938 0.748698 0.344033 0.015852 -0.017075 -0.011811
3.369547 0.327034 0.736988 0.015850 -0.016199 -0.012717
2.165644 0.472154 0.442170 0.071097 0.008393 -0.008902
2.045069 0.603761 0.596548 -0.000000 0.528233 0.000014
2.967604 0.508659 0.595510 0.000000 -0.549642 0.000006
0.471334 0.629599 0.471343 -0.000000 0.817299 -0.000006
0.959735 0.630004 0.571349 0.000000 0.833212 0.000006
3.564539 0.510286 0.446726 0.000000 -0.528504 -0.000055
1.941618 0.789739 0.752956 -0.063955 -0.006520 0.007513
0.634134 0.598233 0.443538 0.000000 0.479369 -0.000031
1.176802 0.607382 0.594167 0.000000 0.576219 0.000049
1.719469 0.482824 0.569509 0.000000 -0.833502 0.000006
3.618805 0.629938 0.571447 0.000001 0.833432 0.000091
2.642004 0.505860 0.593599 -0.000001 -0.569048 0.000012
2.859071 0.470545 0.539482 -0.000001 -0.976675 0.000004
2.316403 0.605454 0.595466 0.000001 0.550578 0.000013
2.587737 0.546332 0.609285 0.000000 -0.128187 0.000265
3.443708 0.390377 0.682121 0.015847 -0.008248 -0.008211
1.665202 0.632539 0.475870 0.000000 0.849313 -0.000001
3.709386 0.337677 0.725634 -0.029322 0.012178 0.012035
0.525600 0.507181 0.448744 0.000000 -0.576327 -0.000012
1.828003 0.600718 0.444905 0.000000 0.504059 -0.000015
2.124012 0.792946 0.296665 0.071098 -0.005595 -0.005957
1.068268 0.471620 0.544086 0.000000 -0.970696 0.000002
2.705023 0.559072 0.609883 0.000000 0.028754 0.000010
0.959735 0.534958 0.607135 -0.000000 -0.240482 0.000035
0.525600 0.471317 0.542862 -0.000000 -0.970556 0.000004
2.349663 0.557890 0.609917 -0.000008 0.002071 0.000267
1.665202 0.632393 0.567639 -0.000000 0.848868 0.000005
3.579921 0.456009 0.420663 -0.029322 -0.009763 0.009874
0.118136 0.480168 0.521637 -0.287250 -0.000065 0.000002
0.900216 0.557575 0.433340 0.000000 0.013993 -0.000020
1.892444 0.320953 0.311434 -0.071027 -0.013415 0.012873
1.936536 0.598233 0.599737 -0.000001 0.479258 0.000125
3.673072 0.589061 0.603925 0.180955 0.000078 0.000208
3.618805 0.535837 0.607353 -0.000001 -0.240370 0.000276
1.339602 0.594811 0.601438 0.000001 0.427528 0.000018
2.049076 0.273725 0.244987 0.071099 0.005595 -0.005957
3.293205 0.478352 0.481552 0.000000 -0.890998 -0.000004
1.881547 0.444225 0.398944 -0.063954 0.003969 -0.004588
1.896421 0.631346 0.430906 -0.063955 -0.007938 -0.009123
2.696271 0.621486 0.461297 0.000000 0.726911 -0.000008
2.119849 0.347210 0.713127 0.078966 -0.005542 -0.005904
1.999118 0.279441 0.279793 0.078967 -0.005038 0.005369
1.869050 0.755639 0.695865 -0.071027 0.007268 -0.007060
3.502994 0.433101 0.397963 0.015850 -0.032947 0.016048
1.990803 0.640994 0.548962 -0.000001 0.851156 0.000001
0.287527 0.645193 0.526363 0.000000 0.999598 0.000000
3.510272 0.475255 0.554953 -0.000001 -0.925953 0.000007
3.238938 0.637213 0.558605 -0.000001 0.890535 0.000002
2.642004 0.604765 0.595924 -0.000000 0.552517 0.000026
2.859071 0.633895 0.565093 0.000000 0.863834 0.000001
1.962628 0.905460 0.839764 -0.071028 0.010062 -0.009728
3.625351 0.360759 0.342586 -0.029321 0.024345 -0.020050
2.074055 0.354151 0.322734 0.071099 0.006155 -0.006549
1.953315 0.291449 0.755851 -0.071027 -0.005870 -0.005712
0.742668 0.544613 0.609063 0.000000 -0.128175 0.000066
3.347472 0.473804 0.551163 0.000000 -0.946544 0.000003
0.796934 0.638926 0.488650 -0.000001 0.920146 -0.000003
0.688401 0.599927 0.598811 0.000000 0.478690 0.000016
2.009417 0.133678 0.131561 -0.071027 -0.007827 0.007596
1.068268 0.630613 0.472845 0.000000 0.833676 -0.000003
3.510272 0.640638 0.550006 -0.000000 0.946348 0.000006
0.254267 0.633915 0.478215 0.000000 0.863642 -0.000001
3.537030 0.248537 0.810489 0.015850 -0.032948 -0.016047
1.751673 0.652821 0.424619 -0.063957 -0.005103 -0.005891
2.028260 0.767870 0.310795 0.071099 -0.006155 -0.006549
2.028260 0.346177 0.732479 0.071098 0.006155 0.006549
1.017502 0.645261 0.524000 0.000000 0.999587 0.000000
2.859071 0.542277 0.608698 0.000000 -0.156353 0.000108
2.642004 0.471374 0.500183 -0.000000 -0.970646 -0.000008
3.673072 0.569591 0.434231 0.181029 0.000028 -0.000220
1.732636 0.429304 0.637161 -0.071028 -0.010062 -0.009728
1.864281 0.883907 0.827715 -0.063955 -0.011339 0.012931
2.696271 0.480411 0.477738 0.000000 -0.862345 -0.000002
3.520873 0.326360 0.308987 0.015849 0.026065 -0.013773
2.913337 0.584460 0.605569 -0.000001 0.321508 0.000025
0.113973 0.622790 0.558777 -0.295356 0.000108 0.000057
1.708846 0.472365 0.447788 -0.071027 -0.013415 0.012873
3.428162 0.468216 0.612433 0.015850 -0.008101 -0.008096
3.321693 0.695746 0.654649 0.015850 0.055363 -0.017158
0.191262 0.641794 0.496746 0.000967 0.044070 -0.000254
1.965813 0.359281 0.358165 0.078966 -0.003023 0.003226
2.997364 0.645265 0.523843 0.000000 0.999598 0.000000
1.231068 0.645167 0.526914 -0.000000 0.997470 0.000000
2.316403 0.643536 0.503947 0.000000 0.977156 -0.000002
0.471334 0.536602 0.435732 -0.000000 -0.239184 -0.000017
1.937455 0.779331 0.299657 -0.063957 -0.006520 -0.007513
2.165644 0.104759 0.098158 0.071098 0.011190 -0.011806
2.124012 0.827845 0.770703 0.078966 0.005038 -0.005369
2.316403 0.469375 0.532328 0.000000 -0.991769 0.000001
1.014001 0.587806 0.604393 -0.000000 0.349439 0.000046
1.941618 0.324308 0.290318 -0.063955 0.006520 -0.007513
1.665202 0.471884 0.498239 -0.000000 -0.963036 -0.000001
2.115686 -0.000000 1.037786 0.000001 -0.729947 0.000352
2.115686 1.114047 0.005488 0.000000 0.729950 -0.000352
2.115686 0.122465 0.923116 0.078966 -0.012089 -0.012763
2.424937 0.470354 0.504759 0.000000 -0.982808 -0.000002
2.370670 0.636403 0.482960 0.000000 0.903512 -0.000016
2.090707 0.850059 0.255385 0.078967 0.005038 0.005369
2.424937 0.588212 0.604242 -0.000000 0.349410 0.000046
1.859834 0.430413 0.654418 -0.063956 0.007937 0.009123
2.533470 0.603193 0.596902 0.000000 0.528233 0.000014
3.076138 0.471884 0.498239 -0.000000 -0.963143 -0.000005
3.736762 0.520806 0.589083 0.180490 -0.000101 0.000182
2.032423 0.788484 0.751374 0.071098 -0.006155 0.006549
3.700108 0.391157 0.675280 -0.029321 0.014613 0.013996
0.235011 0.552140 0.433472 -0.000000 -0.028554 -0.000019
3.347472 0.639615 0.552862 0.000000 0.936865 0.000013
1.984826 0.090180 0.084507 -0.071027 -0.013415 0.012873
1.984826 1.023867 0.958767 -0.063955 -0.013605 0.015414
1.969758 1.006372 0.100888 -0.063955 -0.007371 -0.008481
3.700108 0.391157 0.367994 -0.029321 0.014613 -0.013996
3.700108 0.721227 0.366218 -0.029321 0.014643 0.013966
3.130405 0.480490 0.565672 -0.000000 -0.863602 0.000020
1.897408 0.716515 0.652906 -0.071028 0.007547 -0.007328
0.796934 0.469512 0.509891 -0.000000 -0.990641 -0.000001
1.924553 0.160160 0.150033 -0.071027 -0.008944 0.008665
1.990803 0.540417 0.608357 0.000000 -0.184540 0.000091
1.556669 0.632882 0.566829 0.000000 0.863669 0.000005
0.471334 0.470347 0.504798 0.000000 -0.982808 -0.000003
3.456005 0.600308 0.444671 0.000001 0.478459 -0.000016
1.828003 0.644232 0.507825 0.000000 0.987788 -0.000001
3.178138 0.416745 0.390287 0.015850 -0.055363 0.017158
3.216419 0.675808 0.630990 0.015853 -0.019511 0.012510
3.321695 0.764585 0.715988 0.015847 0.027759 -0.015457
1.848226 0.798372 0.752502 -0.063955 -0.006804 0.007836
3.484014 0.559072 0.433362 0.000000 0.014371 -0.000077
1.990803 0.471478 0.543512 0.000000 -0.970647 0.000008
2.153603 0.633597 0.477670 0.000000 0.863645 -0.000020
3.449845 0.783669 0.311362 0.015850 -0.030399 -0.014298
3.514736 0.381923 0.363514 0.015850 0.030400 -0.014298
0.688401 0.620674 0.460438 0.000000 0.726990 -0.000032
2.017743 0.113718 0.931306 -0.071027 -0.013415 -0.012873
2.165644 1.009288 0.945116 0.071098 -0.011189 0.011806
2.140665 0.154434 0.895892 0.078966 -0.003527 -0.003763
2.165644 0.948056 0.887781 0.071098 -0.006714 0.007139
0.147823 0.625095 0.472181 -0.163568 0.000204 -0.000157
3.413956 0.349140 0.325040 0.015851 -0.016488 0.012827
1.610936 0.526241 0.438881 0.000000 -0.349472 -0.000046
3.529392 0.745435 0.339940 0.015850 0.057514 0.017210
2.065728 0.739079 0.341412 0.071097 -0.006714 -0.007139
1.719469 0.569591 0.434231 0.000000 0.156463 -0.000108
1.867458 0.283062 0.270081 -0.071027 -0.006150 0.005982
1.901757 0.875956 0.227522 -0.071029 0.005590 0.005442
3.564539 0.638331 0.487191 0.000000 0.915488 -0.000002
2.859071 0.509851 0.446996 0.000000 -0.527988 -0.000007
2.045069 0.631935 0.474899 -0.000000 0.848209 -0.000005
2.479204 0.528468 0.605188 0.000000 -0.322515 0.000050
0.905468 0.476493 0.485423 0.000000 -0.915469 -0.000008
3.192493 0.451320 0.622484 0.015849 -0.055366 -0.017157
3.456005 0.636876 0.559317 0.000001 0.902266 0.000008
3.336049 0.384037 0.357789 0.015850 -0.027753 0.015458
1.122535 0.479604 0.479183 0.000000 -0.877657 -0.000009
0.417067 0.568497 0.434090 -0.000000 0.128092 -0.000132
3.512353 0.823288 0.270931 0.015850 0.041156 0.016629
3.536279 0.835887 0.781363 0.015849 -0.021726 0.013020
2.262137 0.633597 0.477670 0.000000 0.863669 -0.000005
0.905468 0.475032 0.554405 0.000000 -0.926533 0.000007
3.510272 0.476699 0.484954 0.000000 -0.915463 -0.000015
0.851201 0.528692 0.605264 -0.000000 -0.322507 0.000050
3.456005 0.477851 0.560739 0.000000 -0.890633 0.000004
1.940834 0.442285 0.651025 0.071099 0.004196 0.004474
3.163782 0.664283 0.620822 0.015850 -0.058363 0.015600
0.228009 0.468754 0.519194 0.000000 -0.999897 -0.000000
2.750537 0.592877 0.440948 -0.000000 0.402417 -0.000039
2.424937 0.535149 0.436091 0.000000 -0.240422 -0.000069
1.231068 0.599132 0.444029 -0.000001 0.479188 -0.000063
1.556669 0.634217 0.478768 0.000000 0.877577 -0.000002
3.254700 0.650580 0.430293 0.015850 0.018511 0.013516
1.940220 0.930906 0.175166 -0.071028 0.004472 0.004358
2.913337 0.482654 0.569244 0.000000 -0.848868 0.000005
3.591150 0.762084 0.707535 0.015850 -0.052020 0.015452
1.848226 0.803511 0.296260 -0.071028 0.006708 0.006521
0.676147 0.468738 0.522937 0.000000 -0.999897 0.000000
1.556669 0.553715 0.433427 0.000000 -0.028554 -0.000299
0.417067 0.484044 0.471925 -0.000000 -0.832311 -0.000003
2.119849 0.787248 0.732239 0.078967 0.005541 -0.005904
1.874992 0.274314 0.781383 -0.071026 -0.006150 -0.005982
1.874992 0.839733 0.261891 -0.071028 0.006149 0.005982
1.956445 0.441525 0.393061 0.071099 0.004196 -0.004474
0.646388 0.553400 0.433436 0.000004 -0.004103 -0.000135
2.370670 0.637213 0.558605 -0.000001 0.902991 0.000008
1.751673 0.652821 0.618655 -0.063957 -0.005103 0.005891
3.238938 0.515261 0.599434 0.000000 -0.478987 0.000016
0.851201 0.636673 0.559744 0.000001 0.902991 0.000008
2.053239 0.251755 0.795278 0.078966 -0.005038 -0.005369
3.721102 0.228958 0.827711 -0.029321 0.019481 0.017366
0.742668 0.593346 0.441154 0.000000 0.402485 -0.000019
0.147823 0.483759 0.563012 -0.163571 -0.000224 0.000118
1.999118 0.279441 0.763481 0.078967 -0.010075 -0.010674
3.517870 0.660328 0.416019 0.015850 0.029429 0.015674
3.293205 0.590631 0.603288 -0.000000 0.376109 0.000042
1.776749 0.367793 0.695661 -0.071027 -0.003913 -0.003815
3.612692 0.864184 0.810914 0.015850 0.032948 -0.016047
1.773736 0.468863 0.516596 0.000000 -0.999592 -0.000000
1.610936 0.617077 0.456904 -0.000000 0.686537 -0.000018
0.742668 0.630701 0.570298 -0.000000 0.833417 0.000023
0.362800 0.521711 0.440710 -0.000000 -0.402312 -0.000039
1.432380 0.468755 0.520377 0.000000 -0.999592 -0.000000
2.040749 0.832353 0.765889 0.078965 0.005038 -0.005369
0.579867 0.481425 0.567271 -0.000001 -0.763219 0.000001
3.469136 0.315483 0.746137 0.015849 0.026066 0.013773
3.612692 0.864184 0.232360 0.015850 0.032948 0.016047
3.559454 0.814707 0.277577 0.015850 0.020607 0.014105
2.913337 0.597952 0.443394 0.000000 0.453931 -0.000034
1.773736 0.625751 0.577072 -0.000000 0.782245 0.000007
2.128176 0.868441 0.809167 0.078967 0.004534 -0.004834
2.316403 0.513533 0.444786 0.000000 -0.504059 -0.000007
3.456005 0.633835 0.478079 0.000000 0.862956 -0.000005
0.905468 0.637315 0.484883 -0.000001 0.889829 -0.000002
1.773736 0.519664 0.441633 0.000000 -0.428359 -0.000036
1.961642 0.829711 0.789164 -0.063955 -0.005953 0.006865
3.293205 0.634689 0.479633 0.000001 0.877519 -0.000019
3.456005 0.590376 0.603391 0.000000 0.375995 0.000042
3.718664 0.828741 0.266103 -0.029321 0.014643 0.013966
1.491899 0.645301 0.522582 -0.000000 0.999598 0.000000
3.321692 0.665995 0.618994 0.015853 -0.029253 0.014178
3.736762 0.623322 0.483359 0.180491 0.000182 -0.000101
3.374330 0.407398 0.665481 0.015851 -0.032367 -0.015993
2.587737 0.632477 0.567505 0.000000 0.848638 0.000011
1.799659 0.472407 0.430211 -0.063954 0.002552 -0.002953
3.271449 0.400547 0.373872 0.015850 -0.023135 0.014681
1.448135 0.633990 0.564921 -0.000001 0.872059 0.000005
3.321694 0.382326 0.683657 0.015851 0.029254 0.014177
2.065728 0.718669 0.682750 0.071099 -0.003357 0.003581
1.971017 0.461617 0.453423 0.078966 -0.003778 0.004031
2.009223 0.185367 0.858796 -0.071030 -0.004472 -0.004358
2.082381 0.283949 0.274978 0.078967 -0.005038 0.005369
2.036586 0.812167 0.296738 0.078965 0.005542 0.005904
3.403041 0.706338 0.665814 0.015850 0.008101 -0.008096
0.122321 0.537166 0.597182 -0.262832 -0.000042 0.000141
2.262137 0.634141 0.564644 0.000000 0.877509 0.000009
2.057402 0.871344 0.216753 0.071097 -0.005036 -0.005365
2.533470 0.471374 0.500183 0.000000 -0.969644 -0.000002
3.389485 0.561120 0.433449 0.000000 0.028554 -0.000039
1.750485 0.479330 0.602923 -0.063957 0.006804 0.007836
3.617536 0.381095 0.681368 -0.029322 0.029206 0.022156
0.081597 0.592257 0.573164 -0.421739 0.000038 0.000060
0.623631 0.557812 0.609930 0.000000 0.014371 0.000154
0.525600 0.601807 0.445541 0.000000 0.504059 -0.000029
2.249883 0.556157 0.433357 -0.000005 -0.003640 -0.000151
3.238938 0.517781 0.442536 0.000000 -0.453996 -0.000034
2.517715 0.556709 0.433341 -0.000000 -0.028554 -0.000077
1.828003 0.600650 0.598409 -0.000000 0.503866 0.000015
3.564539 0.513740 0.598603 0.000000 -0.478372 0.000008
0.532603 0.645317 0.522425 0.000000 0.999897 0.000000
0.089519 0.540218 0.457701 -0.390781 -0.000022 -0.000075
3.021871 0.482911 0.569641 0.000000 -0.833384 0.000011
2.479204 0.493481 0.460323 0.000000 -0.727003 -0.000016
3.742613 0.745479 0.698098 -0.029321 0.012203 -0.012011
3.706447 0.249199 0.231738 -0.029322 -0.019520 0.017325
3.647823 0.788322 0.301172 -0.029322 0.019520 0.017325
3.347472 0.590741 0.603243 -0.000001 0.375478 0.000042
1.448135 0.512478 0.445402 -0.000001 -0.503521 -0.000029
1.929129 0.773930 0.708474 -0.071027 0.006709 -0.006522
1.909291 0.229344 0.219331 -0.071027 -0.005591 0.005442
1.932507 0.650946 0.410928 0.071099 -0.004196 -0.004474
3.293205 0.636926 0.559210 -0.000000 0.903606 0.000004
0.525600 0.600854 0.598289 0.000000 0.504044 0.000029
3.510272 0.584423 0.605582 0.000000 0.322557 0.000100
2.153603 0.473397 0.549969 -0.000000 -0.946354 0.000001
1.924165 0.841945 0.246720 -0.063955 -0.005953 -0.006866
3.130405 0.481487 0.475903 0.000000 -0.848900 -0.000005
2.251633 0.556236 0.609919 0.000000 -0.028365 0.000019
2.074055 0.932604 0.863373 0.078967 0.008060 -0.008564
2.074055 0.932604 0.179901 0.078967 0.004030 0.004299
0.191262 0.643077 0.541648 0.005091 0.004230 0.000708
1.068268 0.633915 0.565059 -0.000000 0.877664 0.000002
2.074055 0.190865 0.169840 0.071098 0.004476 -0.004771
3.640495 0.331134 0.728983 -0.029321 0.009743 0.009894
3.151411 0.556236 0.609930 0.000000 -0.014371 0.000077
1.773736 0.592877 0.440948 -0.000000 0.402396 -0.000039
2.099336 0.639312 0.489599 0.000000 0.936957 -0.000003
3.298456 0.558127 0.433348 0.000000 0.014371 -0.000038
1.915839 0.821128 0.777876 -0.063954 -0.005953 0.006866
3.385983 0.645211 0.525733 0.000000 0.999587 0.000000
3.184671 0.636036 0.482219 0.000001 0.890429 -0.000009
2.007444 0.838294 0.800453 0.071098 -0.011189 0.011805
1.665202 0.600514 0.444786 0.000000 0.504059 -0.000015
1.719469 0.639807 0.490929 0.000000 0.936980 -0.000002
3.058507 0.472814 0.600487 0.015851 -0.036978 -0.016373
2.642004 0.600548 0.444806 0.000000 0.503865 -0.000015
2.479204 0.578860 0.436082 0.000000 0.240311 -0.000035
3.293205 0.477746 0.560528 0.000000 -0.898037 0.000002
2.082381 0.283949 0.768296 0.078967 -0.010075 -0.010673
3.618805 0.639738 0.490744 -0.000000 0.936946 -0.000026
0.382056 0.645202 0.526048 0.000000 0.999598 0.000000
1.320346 0.555763 0.609906 0.000000 -0.028743 0.000077
1.924181 0.654966 0.456131 -0.071026 0.007827 0.007596
2.370670 0.480451 0.565604 0.000000 -0.863600 0.000020
3.293205 0.519985 0.601793 0.000000 -0.428331 0.000036
2.207870 0.641321 0.547908 0.000001 0.952838 0.000003
1.901757 0.238091 0.815752 -0.071028 -0.005590 -0.005442
1.993362 0.899973 0.212262 -0.071028 0.004752 0.004630
1.176802 0.473473 0.550193 -0.000000 -0.946495 0.000012
0.742668 0.476540 0.485315 -0.000000 -0.915469 -0.000008
2.099034 1.067276 1.005917 0.071097 -0.008952 0.009486
0.837197 0.645238 0.518486 0.000000 0.999608 -0.000000
2.804804 0.477779 0.482675 -0.000000 -0.903584 -0.000016
0.037087 0.589151 0.508060 -0.596135 0.000022 -0.000009
2.750537 0.471488 0.499724 -0.000000 -0.970607 -0.000008
0.254267 0.635374 0.562354 0.000000 0.890973 0.000017
2.804804 0.635982 0.482113 0.000000 0.890990 -0.000017
2.207870 0.515192 0.443877 -0.000000 -0.479096 -0.000031
2.165644 0.288457 0.773110 0.071096 0.010071 0.010650
1.122535 0.521531 0.602485 -0.000001 -0.402333 0.000078
1.502402 0.584311 0.437654 -0.000000 0.322569 -0.000100
3.564539 0.479491 0.479391 0.000000 -0.877653 -0.000019
3.460456 0.430714 0.646534 0.015851 -0.027110 -0.015368
1.416625 0.558442 0.609901 0.000000 0.028732 0.000010
3.238938 0.476699 0.558320 0.000000 -0.915422 0.000008
1.901571 0.726495 0.380571 -0.071028 0.007267 0.007059
3.321692 0.448053 0.618994 0.015851 0.029255 0.014177
0.122321 0.491312 0.479407 -0.262827 -0.000126 -0.000076
2.045069 0.532829 0.436719 0.000000 -0.268009 -0.000061
1.978302 0.612355 0.451534 0.071096 -0.004197 -0.004474
3.658578 0.722397 0.673152 -0.029321 -0.014613 0.013996
2.165644 0.227224 0.212829 0.071098 0.008952 -0.009486
2.165644 0.886823 0.830445 0.071099 -0.008952 0.009486
2.165644 1.070521 1.002451 0.071099 -0.006714 0.007139
3.529392 0.363346 0.697710 0.015852 0.030397 0.014299
2.099336 0.604230 0.447017 0.000000 0.528621 -0.000027
3.676661 0.659387 0.619985 -0.029321 0.036563 -0.024411
3.405433 0.666156 0.630060 0.015847 0.016202 -0.012717
1.806393 0.369821 0.341065 -0.063955 0.007654 -0.008802
3.547033 0.645198 0.526206 0.000000 0.999587 0.000000
2.015770 0.239521 0.240606 0.078966 -0.004534 0.004834
3.705471 0.271294 0.790847 -0.029322 -0.014642 -0.013965
3.401738 0.515676 0.599661 0.000001 -0.476129 0.000016
2.074055 0.109221 0.093393 0.071099 0.013426 -0.014091
1.949160 0.399201 0.645922 0.078966 -0.006549 -0.006970
1.957486 0.734806 0.377759 -0.071027 0.013974 0.013389
2.080299 0.687335 0.634393 0.078966 0.013096 -0.013799
3.579921 0.664413 0.615803 -0.029321 -0.019481 0.017366
1.843757 0.556866 0.433337 -0.000000 -0.028754 -0.000019
3.563339 0.784175 0.313388 0.015850 -0.026064 -0.013774
2.111523 0.407992 0.655310 0.078966 -0.006549 -0.006970
3.570667 0.324742 0.743301 0.015850 -0.024725 -0.014984
1.848226 0.315675 0.290772 -0.063956 0.006804 -0.007836
3.420985 0.460670 0.438900 0.015850 0.034123 -0.014627
1.993362 0.214074 0.212262 -0.071028 -0.004752 0.004630
0.579867 0.522000 0.440583 -0.000000 -0.402212 -0.000019
3.674209 0.763070 0.711792 -0.029321 -0.012178 0.012035
1.913268 0.368825 0.680690 -0.071027 -0.006988 -0.006791
1.961642 0.284336 0.254110 -0.063956 0.005953 -0.006865
1.953315 0.808895 0.272788 -0.063954 -0.011905 -0.013557
0.350546 0.552455 0.609811 0.000000 -0.028365 0.000010
1.886689 0.259869 0.239330 -0.063955 0.005953 -0.006866
3.632734 0.203682 0.190785 0.015850 -0.032947 0.016047
3.632734 0.203682 0.852489 0.015850 -0.032948 -0.016047
3.651274 0.894530 0.204501 0.015850 0.049346 0.016980
1.882269 0.469578 0.533891 -0.000001 -0.991246 0.000002
1.050763 0.559466 0.609872 0.000000 0.028754 0.000077
2.061565 0.881753 0.835861 0.071098 -0.005036 0.005365
