1.677296 0.457370 0.934360 -0.034158 0.003975 0.004594
0.581266 0.744874 0.549683 0.000000 -0.011912 -0.000348
1.554693 1.090960 0.968671 -0.061643 0.002378 -0.002469
1.517963 1.143522 0.309199 -0.034156 -0.014284 -0.015336
3.165866 0.745044 0.665803 1.000000 0.000000 0.000000
1.917264 0.330968 0.295240 0.061685 0.004211 -0.004695
2.254261 0.628924 0.666058 0.000000 -0.999937 0.000000
1.479895 0.826842 0.583075 0.000001 -0.745169 0.000174
1.917264 1.195514 0.262671 0.061684 -0.007749 -0.008591
2.862874 0.943303 0.488378 0.099203 0.002855 0.005118
2.885723 0.539051 0.481457 0.099202 -0.002855 0.005118
1.917264 1.195514 1.068935 0.061689 -0.003874 0.004321
2.931420 0.966504 0.863991 0.099202 0.002855 -0.005118
1.917264 0.258180 1.101505 0.061682 0.007075 0.007855
2.954269 0.515849 0.870912 0.099203 -0.005724 -0.010247
1.739236 0.563361 0.529906 0.111041 -0.001053 0.001176
0.325055 0.742747 0.781898 0.000000 -0.011912 0.000011
1.370529 0.533733 0.854908 -0.061650 -0.002293 -0.002381
0.805450 0.747935 0.781858 0.000000 0.023478 0.000088
1.846436 0.968780 0.855408 0.111044 0.001731 -0.001934
1.628539 0.206189 0.183574 -0.061643 -0.006252 0.006463
1.917264 0.603921 0.792095 0.061684 0.003790 0.004227
1.616253 0.221786 1.134074 -0.061642 -0.006252 -0.006463
2.449469 0.859967 0.649186 0.000000 0.988428 -0.000002
1.640825 1.299496 1.161991 -0.034152 -0.010370 0.011546
1.345956 0.925159 0.826991 -0.034155 -0.015551 0.016470
1.321384 0.596123 0.532531 -0.061641 -0.006116 0.006324
1.664061 0.745044 0.781925 0.000000 0.023469 0.000177
0.966344 0.750147 0.549800 0.000000 0.023478 -0.000326
1.743703 1.044674 0.423684 -0.061643 0.009377 0.009632
2.089554 0.827871 0.747186 -0.000000 0.707457 0.000004
1.689278 1.301493 0.171847 -0.061641 0.005708 0.005906
0.224401 0.745044 0.549681 0.000000 0.011735 -0.005660
3.135176 0.568672 0.492971 0.000000 -0.666869 0.000896
3.135176 0.936318 0.509623 -0.000000 -0.666869 -0.000896
1.234756 0.819395 0.576614 0.000000 0.637544 -0.000018
2.951215 0.740281 0.781814 0.000000 -0.023478 0.000022
2.764394 0.733874 0.550222 0.000000 -0.105250 -0.000145
2.044564 0.678563 0.570594 0.000000 -0.582141 -0.000043
3.161384 0.912888 0.831004 -0.229683 0.002002 -0.001940
1.917264 0.148999 0.132393 0.061684 0.010106 -0.011145
0.558390 0.748956 0.781834 0.000000 0.023469 0.000022
2.494458 0.631779 0.640238 -0.000001 -0.971809 -0.000002
1.698754 0.380614 0.357466 -0.061642 -0.002107 0.002188
3.186829 0.568942 0.830896 -0.229680 -0.001001 -0.000970
1.395101 0.987549 0.448782 -0.034157 -0.003240 -0.003754
1.504692 0.629877 0.680607 -0.000000 -0.991642 0.000001
1.917264 0.440149 0.938658 0.061683 0.010443 0.011506
2.981716 0.747426 0.549709 0.000000 0.011912 -0.000044
2.224522 0.823493 0.580197 -0.000001 0.670331 -0.000008
1.684649 0.770070 0.552416 0.000001 0.220786 -0.000135
1.917264 1.359286 1.215497 0.061684 -0.010106 0.011145
1.917264 1.359286 0.116109 0.061684 -0.010106 -0.011145
1.596960 0.943050 0.822694 -0.061644 0.011122 -0.011373
1.481104 0.393357 0.980533 -0.061642 -0.009513 -0.009769
0.424947 0.857201 0.635736 0.000000 0.962845 -0.000001
0.784862 0.653056 0.594932 0.000000 -0.799285 -0.000006
1.917264 0.494740 0.441802 0.061685 0.005896 -0.006558
0.424947 0.633453 0.633686 0.000001 -0.914377 -0.000001
2.725782 0.896900 0.801701 0.099202 0.002855 -0.005118
0.739872 0.851454 0.619333 -0.000000 0.917015 -0.000007
0.964819 0.642104 0.719523 0.000001 -0.886076 0.000016
1.324734 0.712559 0.777286 0.000001 -0.288667 0.000051
0.167682 0.847299 0.711713 -0.170688 0.000231 0.000097
2.314501 0.784563 0.774989 -0.000000 0.333516 0.000022
0.167682 0.642789 0.711713 -0.170688 -0.000228 0.000096
1.144777 0.641907 0.612460 0.000001 -0.875602 -0.000002
1.536351 0.565299 0.496354 -0.034155 0.018853 -0.019210
0.964819 0.846902 0.721549 -0.000001 0.873814 0.000008
1.764122 1.115940 0.974761 -0.061642 0.008290 -0.008537
1.864607 0.791943 0.772026 -0.000000 0.398861 0.000070
1.917264 0.112605 1.231782 0.061685 0.008759 0.009691
2.856661 0.861143 0.663846 0.000000 0.999929 -0.000000
1.582943 0.951512 0.471288 -0.034156 -0.018852 -0.019209
1.752895 0.316133 1.031559 -0.061642 -0.001835 -0.001906
2.634387 0.865964 0.557589 0.099202 0.002855 0.005118
2.859711 0.628941 0.667504 0.000000 -0.999933 0.000000
1.736684 0.572269 0.793345 0.111044 -0.002105 -0.002352
2.498271 0.745299 0.781922 0.000000 0.011876 0.000088
1.864607 0.691022 0.563020 -0.000001 -0.457984 -0.000015
1.694708 1.154709 0.291620 -0.034157 -0.003284 -0.003803
1.917264 1.013544 0.425518 0.061687 -0.005559 -0.006186
2.359490 0.714116 0.553883 0.000000 -0.266198 -0.000014
2.794328 0.569986 0.822465 0.099202 -0.002855 -0.005118
3.034331 0.860656 0.676677 0.000000 0.996635 0.000010
1.559647 0.539144 0.833490 -0.061644 -0.011122 -0.011373
3.035093 0.629045 0.671076 0.000000 -0.999725 0.000000
2.089554 0.653636 0.737408 -0.000000 -0.784994 0.000012
0.630068 0.629005 0.669375 0.000000 -0.999733 0.000000
1.504692 0.809591 0.762328 0.000000 0.562477 0.000011
1.731241 0.123986 1.218344 -0.061643 -0.009241 -0.009496
1.773076 0.259338 0.247116 -0.061644 -0.003330 0.003455
1.729639 0.859825 0.683345 0.000001 0.969680 0.000001
2.634387 0.624123 0.557589 0.099204 -0.002855 0.005118
0.584316 0.861152 0.666994 -0.000000 0.999933 0.000000
1.737384 0.116187 0.106283 -0.061642 -0.009241 0.009496
1.739236 0.926727 0.529906 0.111041 0.002106 0.002352
1.662536 0.628933 0.665293 0.000000 -0.999725 -0.000000
1.573943 0.316591 0.285149 -0.061643 -0.001971 0.002047
1.111988 0.861154 0.666313 -0.000000 0.999724 0.000000
1.917264 1.068135 0.954942 0.061683 -0.010443 0.011507
3.114210 0.461713 0.919360 0.099203 -0.002855 -0.005118
1.369724 0.858995 0.688122 -0.000000 0.980215 0.000002
1.645455 1.187762 1.054057 -0.061643 0.003873 -0.004017
2.536397 0.748276 0.549756 0.000010 0.001139 -0.000454
3.114210 1.028375 0.919360 0.099203 0.002855 -0.005118
2.044564 0.842848 0.603215 -0.000000 0.839294 -0.000005
1.781253 1.240724 1.117809 -0.034153 -0.005185 0.005965
2.584437 0.849906 0.715682 0.000001 0.905728 0.000007
2.999966 0.989706 0.446851 0.099203 0.005724 0.010247
1.360573 0.741642 0.549760 0.000000 -0.023469 -0.000326
1.743528 1.381699 1.232302 -0.061645 0.004621 -0.004788
0.373857 0.746915 0.549703 0.000000 0.011908 -0.000087
1.549681 0.699588 0.558952 -0.000001 -0.392027 -0.000018
2.809384 0.778587 0.776967 -0.000001 0.288578 0.000051
1.701047 1.001745 0.908811 -0.034156 -0.016817 0.017558
1.234756 0.834233 0.740154 0.000001 0.769590 0.000013
3.022815 0.492648 0.439930 0.099204 -0.002855 0.005118
1.419673 1.018744 0.910741 -0.034155 -0.017968 0.018507
1.395101 0.502539 0.448782 -0.061642 -0.006116 0.006323
1.819617 0.630958 0.687455 0.000000 -0.984536 0.000001
1.278220 0.628949 0.666994 0.000000 -0.999725 0.000000
3.137058 1.036109 0.405325 0.099203 0.005724 0.010247
1.599208 0.325611 1.035611 -0.061641 -0.001971 -0.002047
1.843246 1.101478 0.340686 0.061685 -0.009769 -0.010783
1.657353 0.500578 0.435279 -0.034156 0.008526 -0.009625
1.590858 0.861058 0.661211 0.000000 0.999724 -0.000000
2.769246 0.593256 0.537463 0.099205 0.004773 -0.003400
0.694883 0.826187 0.748871 -0.000000 0.707107 0.000004
0.105849 0.687187 0.594242 -0.411664 -0.000050 -0.000059
2.717880 0.861147 0.667419 0.000000 0.999929 0.000000
1.917264 0.039817 0.034685 0.061684 0.006064 -0.006744
0.289979 0.848357 0.612799 0.000000 0.886686 -0.000008
1.099787 0.781022 0.555403 0.000000 0.311244 -0.000093
0.874841 0.839831 0.598734 0.000000 0.812516 -0.000003
2.722455 0.628940 0.664187 -0.000000 -0.999929 -0.000000
0.289979 0.642123 0.612045 -0.000000 -0.886714 -0.000016
1.953823 0.629045 0.660530 0.000000 -0.999725 -0.000000
1.736684 0.896921 0.816696 0.061684 -0.003790 0.004227
1.615994 1.059254 0.377202 -0.034156 -0.015896 -0.016771
1.777618 1.388134 0.096032 -0.061645 0.008154 0.008399
2.179533 0.696092 0.560512 -0.000001 -0.419770 -0.000033
1.803046 0.503997 0.890993 0.061682 0.006233 0.006930
2.404479 0.655584 0.739826 -0.000002 -0.768187 0.000025
2.969768 0.889030 0.551942 -0.000000 -0.666869 -0.001195
1.785817 0.457650 0.428320 0.111043 -0.003275 0.003658
1.765202 0.226505 1.136731 -0.034155 0.010369 0.011545
1.839417 1.283200 0.195871 0.111042 0.003930 0.004389
1.361012 0.880507 0.548881 -0.061643 0.003058 0.003173
2.187158 0.741302 0.781838 0.000000 -0.023478 0.000326
3.079320 0.779890 0.776574 0.255651 0.000067 0.000221
3.044072 0.608208 0.803254 0.000000 -0.666869 -0.000672
1.990425 0.744533 0.781913 0.000000 -0.023469 0.000022
2.995469 0.615960 0.535290 0.000000 -0.666869 0.000598
2.766959 0.866375 0.542227 -0.000002 0.666868 0.000896
2.318313 0.861138 0.666994 -0.000000 0.999725 0.000000
1.954586 0.856208 0.699346 -0.000000 0.957459 0.000001
1.917264 1.468467 1.313206 0.061684 -0.006064 0.006744
1.917264 1.468467 0.018400 0.061686 -0.006064 -0.006744
3.158107 0.469085 0.411347 0.099202 -0.001428 0.002560
0.098534 0.745044 0.754239 -0.447396 0.000000 0.000017
0.829851 0.639967 0.715218 0.000000 -0.907441 0.000007
1.917264 0.003423 1.329490 -0.000001 -0.745175 0.000328
1.591680 1.237107 0.225449 -0.034161 -0.003053 -0.003538
3.031351 0.899322 0.818863 0.000000 0.666868 -0.000168
0.694883 0.684874 0.765114 -0.000000 -0.523302 0.000025
0.709371 0.748105 0.549752 0.000000 0.023469 -0.000022
3.100956 0.809945 0.576473 0.256768 0.000129 -0.000190
0.113274 0.814816 0.600773 -0.382670 0.000066 -0.000058
0.514926 0.644199 0.723371 0.000000 -0.863982 0.000001
0.424947 0.817617 0.756447 0.000001 0.619276 0.000039
1.882807 0.346597 1.017212 0.111044 -0.002527 -0.002822
3.100956 0.680142 0.576473 0.255248 -0.000139 -0.000184
1.439575 0.621434 0.567023 -0.061645 -0.006115 0.006323
1.488978 1.054297 0.392588 -0.061643 0.010056 0.010313
1.438883 0.614679 0.788422 -0.034156 0.005185 0.005965
1.002183 0.744193 0.781905 0.000000 -0.023478 0.000022
0.919830 0.647194 0.603286 -0.000001 -0.805984 -0.000003
0.829851 0.850442 0.714524 0.000000 0.906961 0.000007
2.865565 0.892906 0.783133 -0.000002 -0.666860 0.000373
1.890464 0.241088 0.212583 0.061684 0.003538 -0.003946
2.921164 0.608810 0.772726 0.000000 0.666868 0.001046
1.475741 0.922201 0.830297 -0.034156 -0.018852 0.019210
1.604358 0.638298 0.775581 -0.034156 0.004537 0.005233
3.160498 0.651656 0.744896 -0.229683 0.001587 0.002050
1.917264 0.585725 0.523226 0.061681 0.001643 -0.001835
2.565841 0.647325 0.753253 0.099203 -0.001428 -0.002560
1.234756 0.700529 0.558558 -0.000001 -0.376036 -0.000019
1.099787 0.644199 0.723371 0.000000 -0.863847 0.000009
1.774628 0.700844 0.773177 0.000001 -0.376036 0.000019
1.009809 0.845160 0.606986 -0.000000 0.862588 -0.000004
3.235478 0.986818 0.449435 -0.229682 0.001901 0.001842
1.798579 0.404010 0.953203 0.111041 -0.003088 -0.003449
0.334968 0.642734 0.720730 0.000002 -0.637125 0.000001
0.289979 0.841831 0.729962 0.000000 0.835831 0.000002
1.585343 0.409811 0.375845 -0.061643 -0.004757 0.004928
1.877703 0.409906 0.371815 0.111043 -0.002901 0.003240
3.235478 0.986818 0.882171 -0.229683 0.001901 -0.001842
2.179533 0.860150 0.681072 0.000001 0.990901 0.000002
1.475741 0.930508 0.510592 -0.061654 0.001911 0.001985
1.954586 0.763511 0.551163 0.000001 0.151675 -0.000100
1.645846 0.629981 0.547009 -0.034153 0.006049 -0.006931
1.844018 0.861146 0.664953 0.000000 0.999725 -0.000000
1.843884 0.942282 0.483206 0.061681 -0.003285 -0.003666
1.608187 0.865595 0.543988 -0.034156 -0.002268 -0.002634
1.560014 0.450469 0.918802 -0.061643 -0.005028 -0.005208
0.840527 0.742152 0.549748 -0.000000 -0.023469 -0.000177
2.650777 0.741812 0.549756 0.000000 -0.023469 -0.000044
3.173601 0.833709 0.745151 -0.229682 0.002272 -0.002202
1.893017 1.279206 1.140197 0.111041 0.001965 -0.002196
0.424947 0.692950 0.769580 0.000000 -0.441369 0.000031
2.899363 0.675125 0.573099 -0.000000 -0.600978 -0.000020
2.854373 0.799556 0.563276 -0.000001 0.393999 -0.000004
1.543899 1.002019 0.901966 -0.034158 -0.004493 0.005184
1.819617 0.793070 0.560083 -0.000001 0.392075 -0.000009
1.389549 0.628933 0.666313 0.000000 -0.999724 0.000000
2.359490 0.634273 0.630956 -0.000000 -0.957374 -0.000009
2.134543 0.632140 0.638662 0.000001 -0.956534 -0.000002
1.744979 0.665613 0.580431 0.061682 0.007580 -0.008407
1.614785 0.842290 0.767886 -0.034150 -0.003025 0.003506
3.218589 0.490354 0.901226 -0.229683 -0.001001 -0.000970
2.674416 0.807989 0.763376 0.000001 0.543174 0.000095
1.504692 0.700726 0.773129 -0.000000 -0.376939 0.000019
2.809384 0.670857 0.755127 -0.000000 -0.637786 0.000037
0.514926 0.825540 0.582119 -0.000000 0.690191 -0.000016
1.868769 0.181779 1.162606 0.111040 -0.003556 -0.003972
1.789646 1.205023 0.273297 -0.061645 0.001699 0.001764
1.456987 0.482118 0.903163 -0.034156 0.017967 0.018506
1.811341 0.353530 0.306647 0.061683 0.004885 -0.005442
1.054798 0.682991 0.567652 0.000000 -0.542282 -0.000012
0.514926 0.664824 0.581854 0.000002 -0.688263 -0.000032
1.662241 1.080693 0.974913 -0.034155 -0.003745 0.004331
2.944352 0.840252 0.732284 0.000000 0.812928 0.000003
2.359490 0.819624 0.576804 -0.000001 0.620042 -0.000005
0.200000 0.720723 0.779350 -0.076699 -0.000064 0.000281
2.404479 0.832270 0.742449 0.000002 0.753615 0.000027
1.917264 0.904363 0.808380 0.061683 -0.001642 0.001835
2.269511 0.677110 0.759972 0.000001 -0.577054 0.000011
2.615701 0.629005 0.662231 0.000000 -0.999733 -0.000000
1.820403 0.078811 1.254179 -0.061642 -0.007882 -0.008124
2.539448 0.840444 0.599603 0.000000 0.826457 -0.000010
1.500443 0.479333 0.435478 -0.061642 -0.005300 0.005487
1.542535 1.174717 1.050324 -0.034154 -0.003514 0.004068
3.227743 0.522408 0.466563 -0.229684 -0.001901 0.001842
1.234756 0.667884 0.752583 0.000000 -0.673183 0.000034
1.779003 0.191095 0.163822 -0.034156 0.018888 -0.019238
1.414713 0.762880 0.780539 0.000000 0.151596 0.000050
1.816446 1.164063 1.049151 0.061683 -0.004548 0.005069
1.845798 0.089083 0.089490 0.111042 -0.005615 0.006266
1.335055 0.610650 0.783921 -0.061641 -0.003058 -0.003173
3.032277 0.985862 0.873818 0.099204 -0.009568 0.006793
0.649894 0.669618 0.577517 0.000000 -0.655610 -0.000018
1.663365 0.279754 0.245228 -0.034157 0.003053 -0.003539
3.086831 0.526637 0.846264 0.000001 0.666867 0.000896
2.089554 0.767613 0.551902 0.000001 0.187117 -0.000020
0.649894 0.824340 0.580973 0.000001 0.611029 -0.000002
1.811979 1.036501 0.935364 0.061683 -0.002780 0.003103
2.702934 0.600922 0.794780 0.099203 -0.002855 -0.005118
1.850903 1.418821 1.258826 -0.061643 0.003534 -0.003665
1.671693 0.382486 0.998464 -0.034157 0.007143 0.008136
0.070516 0.676036 0.685746 -0.549905 -0.000043 0.000011
1.689042 0.965632 0.454371 -0.034156 -0.008871 -0.009991
1.687766 0.509341 0.851191 -0.061642 -0.002616 -0.002716
1.054798 0.822075 0.752694 0.000000 0.655527 0.000009
1.893655 0.524825 0.859340 0.111042 -0.003462 -0.003867
0.191877 0.642012 0.613610 -0.080577 -0.000493 -0.000235
0.070516 0.813041 0.688959 -0.549905 0.000040 0.000013
1.459702 0.736883 0.549968 0.000000 -0.082001 -0.000047
0.903054 0.742833 0.781874 0.000000 -0.023478 0.000022
0.739872 0.629665 0.678877 0.000000 -0.994295 0.000000
2.265698 0.740451 0.549788 0.000000 -0.023469 -0.000326
2.449469 0.680672 0.569158 0.000001 -0.561403 -0.000011
1.279745 0.860369 0.652222 0.000000 0.994459 -0.000000
0.471461 0.745554 0.549687 -0.000005 0.004309 -0.000482
2.449469 0.789558 0.558558 0.000000 0.377211 -0.000038
1.413618 0.860107 0.774133 -0.034154 -0.010369 0.011546
1.692655 0.866508 0.590781 -0.061643 0.007135 0.007364
1.324734 0.808168 0.763260 -0.000001 0.542691 0.000024
0.514926 0.841234 0.730843 -0.000001 0.826238 0.000021
2.400667 0.742492 0.781866 0.000010 -0.001088 0.000478
2.089554 0.738667 0.781743 -0.000000 -0.058669 0.000261
1.009809 0.632943 0.635531 0.000000 -0.963918 -0.000001
1.822827 0.535026 0.470023 0.061682 0.001558 -0.001741
1.774628 0.818117 0.756050 0.000000 0.637762 0.000009
3.144230 0.843509 0.655454 0.237815 0.000222 -0.000003
1.909596 0.696014 0.771059 -0.000000 -0.420232 0.000033
2.594350 0.747850 0.781860 0.000002 0.015124 0.000137
1.690663 0.276407 1.090485 -0.034156 0.003053 0.003539
1.826655 0.269626 1.077676 0.111041 -0.002339 -0.002614
3.034331 0.696941 0.771488 0.000000 -0.420274 0.000066
1.496304 0.861082 0.669375 0.000000 0.999725 0.000000
3.189070 0.618101 0.552200 -0.229682 -0.001901 0.001842
3.189070 0.871987 0.552200 -0.229682 0.001901 0.001842
1.787698 1.315995 1.182788 -0.034156 -0.008526 0.009625
3.165866 0.653303 0.648800 0.252098 -0.000207 -0.000036
2.224522 0.821722 0.753001 -0.000000 0.655543 0.000009
0.604904 0.666059 0.750922 0.000000 -0.673056 0.000004
2.179533 0.642005 0.719335 0.000000 -0.886615 0.000008
2.944352 0.857077 0.635285 -0.000000 0.963860 -0.000017
3.165866 0.742601 0.759074 0.246404 -0.000008 0.000214
2.809384 0.660155 0.586568 0.000000 -0.723371 -0.000004
1.702949 1.229278 0.227163 -0.034154 -0.011291 -0.012475
3.165866 0.745044 0.572500 0.237825 0.000003 -0.000222
2.494458 0.842062 0.729605 -0.000000 0.839460 0.000020
2.709443 0.812110 0.590790 0.000000 0.745175 -0.000514
1.605351 1.172276 0.289016 -0.061643 0.003941 0.004087
0.200000 0.854059 0.625803 -0.076700 0.000272 -0.000096
2.044564 0.629656 0.652814 0.000001 -0.978529 -0.000001
1.696201 1.100565 0.365821 -0.061644 0.004417 0.004578
2.134543 0.835345 0.592795 0.000000 0.784928 -0.000024
1.954586 0.668366 0.578605 -0.000001 -0.654601 -0.000018
1.999575 0.661506 0.746453 0.000001 -0.646560 0.000002
1.234756 0.753713 0.781596 0.000000 0.081973 0.000186
1.144777 0.828376 0.746669 -0.000000 0.722030 0.000007
0.604904 0.821015 0.753615 0.000001 0.655645 0.000071
1.446366 0.563248 0.498646 -0.034157 0.006481 -0.007409
1.594671 0.777284 0.554246 0.000000 0.288762 -0.000013
2.944352 0.632316 0.637961 -0.000001 -0.969621 -0.000008
1.591680 1.237107 1.106157 -0.034161 -0.003053 0.003538
1.827931 1.009863 0.421404 0.061685 -0.005896 -0.006558
3.048404 0.926842 0.488115 -0.000000 0.666869 0.000538
2.715298 0.658597 0.573446 -0.000002 -0.666857 0.000299
1.810065 0.617438 0.542716 0.061683 0.008464 -0.009371
3.048404 0.548343 0.504767 0.000002 0.666863 -0.000538
1.692655 0.649572 0.769870 0.061684 0.007580 0.008407
1.817722 0.571630 0.829249 0.061683 0.006570 0.007300
1.350110 0.660287 0.586381 -0.034156 0.010368 -0.011545
2.865565 0.597182 0.548473 -0.000002 0.666860 -0.000373
2.883625 0.561992 0.837116 0.099203 -0.001431 -0.002566
1.723802 0.332734 0.288036 -0.034156 0.006567 -0.007504
1.189766 0.630869 0.686953 0.000000 -0.984484 0.000003
2.269511 0.660625 0.586076 0.000000 -0.723411 -0.000029
1.735050 1.195227 1.053562 -0.061643 0.003602 -0.003736
1.834950 0.878652 0.773028 0.111044 0.004702 -0.005250
1.458653 0.541420 0.839956 -0.061645 -0.001911 -0.001985
1.468818 1.081133 0.966574 -0.034156 -0.004205 0.004857
1.774628 0.847210 0.610615 -0.000001 0.875153 -0.000008
1.144777 0.707249 0.556007 -0.000000 -0.332853 -0.000022
2.629426 0.858894 0.642983 -0.000001 0.980020 -0.000006
2.966451 0.663075 0.724164 -0.000001 -0.745175 0.000514
1.594671 0.640816 0.614625 -0.000000 -0.896627 -0.000004
0.669720 0.861082 0.669375 0.000000 0.999725 0.000000
2.764394 0.838054 0.735314 -0.000002 0.793522 0.000012
1.680866 0.963485 0.835169 -0.061644 0.002650 -0.002751
2.948523 0.912286 0.800476 0.000001 -0.666868 0.001046
1.681275 1.239034 1.111851 -0.034155 -0.005646 0.006481
0.244989 0.658464 0.743183 -0.000000 -0.739320 0.000014
1.695421 0.183897 1.170204 -0.034156 0.019348 0.019594
0.649894 0.754731 0.781513 0.000000 0.081973 0.000372
2.539448 0.668398 0.578577 0.000001 -0.652297 -0.000009
0.784862 0.803971 0.565751 -0.000000 0.501318 -0.000007
1.592244 0.392550 0.971783 -0.061642 -0.002243 -0.002329
3.017853 0.677977 0.590790 -0.000002 -0.745172 -0.000514
3.017853 0.812110 0.590790 -0.000002 0.745172 -0.000514
2.854114 0.889030 0.551942 0.000001 -0.666864 -0.000373
2.095654 0.861130 0.667334 0.000000 0.999725 0.000000
1.575607 0.744874 0.781921 0.000000 -0.023469 0.000044
1.195866 0.861146 0.664953 0.000000 0.999725 -0.000000
1.831651 1.436892 0.053738 -0.061643 0.003398 0.003525
1.689970 1.361885 0.113782 -0.034155 -0.008526 -0.009626
3.096806 0.864610 0.757811 -0.000001 -0.666868 0.001076
0.349456 0.861058 0.670395 0.000000 0.999725 0.000000
1.657570 0.540767 0.508072 -0.061644 -0.011122 0.011373
1.917264 0.995347 0.889804 0.061685 -0.005896 0.006558
1.882807 1.134392 1.009070 0.111041 0.002714 -0.003032
1.954586 0.850460 0.617121 -0.000002 0.863480 -0.000004
1.634273 0.573485 0.832630 -0.034156 0.018852 0.019210
1.144777 0.837134 0.595068 -0.000000 0.798814 -0.000006
0.244989 0.788810 0.773353 0.000001 0.377195 0.000150
0.057349 0.755212 0.604403 -0.601547 0.000006 -0.000033
0.424947 0.809732 0.569373 -0.000000 0.562832 -0.000045
0.424947 0.681848 0.568392 -0.000000 -0.543321 -0.000095
1.324734 0.811314 0.570451 0.000000 0.562597 -0.000006
1.728389 0.498863 0.473813 0.111043 -0.001731 0.001934
1.546971 1.014558 0.435805 -0.061644 0.002650 0.002751
1.769227 1.133757 0.340135 -0.061645 0.001971 0.002046
1.810065 0.872650 0.542716 0.061685 -0.008464 -0.009371
0.143919 0.752521 0.559662 -0.263175 0.000014 -0.000148
1.853455 0.289819 0.267984 0.111043 -0.002339 0.002614
1.739115 0.065813 1.273657 -0.061645 -0.007067 -0.007295
1.845479 0.643274 0.762832 0.061684 0.003790 0.004227
3.050368 0.879340 0.560614 0.000010 -0.666524 -0.000336
1.619283 0.499710 0.895358 -0.034157 0.008871 0.009991
1.711776 0.456833 0.395231 -0.034156 0.007950 -0.009010
3.250947 0.464992 0.415180 -0.229684 -0.000951 0.000921
2.889349 0.677977 0.740816 0.000000 -0.745174 0.000257
1.414713 0.852594 0.622037 0.000000 0.924722 -0.000003
1.999575 0.819362 0.755019 0.000000 0.633916 0.000005
1.830484 1.337512 0.128397 0.061683 -0.005727 -0.006373
1.621835 1.013242 0.888117 -0.061642 0.005029 -0.005208
0.289979 0.789558 0.558558 0.000000 0.377289 -0.000038
1.701564 0.172997 0.157889 -0.061643 -0.005708 0.005906
1.864607 0.637493 0.622037 -0.000000 -0.924722 -0.000003
2.973084 0.553943 0.479790 0.000000 -0.666869 0.000598
0.907629 0.861110 0.668184 0.000000 0.999725 0.000000
1.742602 0.628981 0.668354 0.000000 -0.999725 0.000000
1.684782 0.883790 0.758132 -0.061642 0.003568 -0.003701
2.494458 0.641868 0.719071 -0.000000 -0.886654 0.000004
0.289979 0.701317 0.558237 0.000000 -0.377249 -0.000075
1.917264 1.268301 0.197532 0.061684 -0.006401 -0.007115
2.737706 0.745044 0.781925 0.000002 0.009882 0.000420
0.469936 0.757017 0.781299 -0.000001 0.105219 0.000145
1.517792 0.625756 0.577887 -0.061646 -0.001911 0.001985
1.759377 0.743003 0.549729 0.000000 -0.023478 -0.000326
2.940774 0.947439 0.477179 0.099203 0.005724 0.010247
0.424947 0.638702 0.712429 0.000000 -0.916979 0.000027
3.087598 0.989808 0.461754 0.099202 -0.004784 -0.003408
1.581213 0.487323 0.450090 -0.061643 -0.010600 0.010855
2.786545 0.827012 0.607442 0.000000 0.745177 -0.000257
1.414713 0.685749 0.765641 0.000000 -0.503277 0.000026
1.773205 0.059377 0.054678 -0.061644 -0.003534 0.003665
1.917264 1.122726 0.327810 0.061684 -0.009096 -0.010056
3.017853 0.812110 0.740816 -0.000001 0.745175 0.000514
1.541088 0.878497 0.765355 -0.061643 0.011122 -0.011373
1.614501 1.134296 1.005253 -0.061646 0.004213 -0.004367
3.212274 0.929403 0.500818 -0.229683 0.001901 0.001842
1.527071 0.602796 0.802608 -0.034156 0.018852 0.019209
2.735144 0.670526 0.732490 -0.000001 -0.745175 0.000514
1.798579 0.417745 0.363056 0.061683 0.005222 -0.005815
1.775608 0.978607 0.478024 0.111040 0.000912 0.001020
0.559915 0.632762 0.636187 0.000000 -0.969854 -0.000001
1.054798 0.689186 0.767599 0.000001 -0.482896 0.000056
1.537604 0.370829 0.329166 -0.034155 0.007604 -0.008637
1.764441 0.628928 0.746802 0.111040 -0.002106 -0.002352
0.167682 0.793339 0.766954 -0.170686 0.000112 0.000220
1.639660 0.706327 0.556334 0.000000 -0.333436 -0.000173
1.790250 0.164889 1.190813 -0.034153 0.017048 0.017752
0.241177 0.629045 0.671076 0.000000 -0.999724 0.000000
1.550368 0.914720 0.532184 -0.061643 0.011122 0.011373
1.765202 1.263583 0.194875 -0.034155 -0.010369 -0.011545
1.889188 0.059171 1.281929 0.061682 0.007412 0.008223
1.778160 0.980516 0.888067 0.061685 -0.003116 0.003478
2.944352 0.810751 0.570068 -0.000001 0.562832 -0.000090
0.874841 0.810716 0.761562 -0.000002 0.560028 0.000023
1.594671 0.634101 0.700079 -0.000001 -0.957173 0.000009
2.314501 0.638413 0.711766 0.000001 -0.916028 0.000007
3.079320 0.648303 0.730034 0.260561 -0.000190 0.000123
1.471004 0.988791 0.454093 -0.061644 0.011122 0.011373
3.210444 1.053558 0.938149 0.099203 -0.004773 0.003400
3.210444 1.053558 0.393457 0.099203 -0.004773 -0.003400
2.874961 0.740621 0.781822 0.000000 -0.023469 0.000044
1.557766 0.833374 0.590375 -0.000001 -0.745173 0.000289
2.971426 0.584952 0.824066 0.000000 -0.666869 -0.000598
2.817177 0.927835 0.829386 0.099203 0.002855 -0.005118
2.842662 0.604934 0.776195 0.000000 0.666869 0.000373
1.621835 0.999581 0.428224 -0.034156 -0.004263 -0.004922
0.739872 0.857009 0.696567 -0.000001 0.961734 0.000004
2.634387 0.624123 0.774017 0.099202 -0.002855 -0.005118
3.022815 0.492648 0.891676 0.099203 -0.002855 -0.005118
3.205605 0.430777 0.947045 0.099203 -0.002855 -0.005118
1.402629 0.965223 0.860692 -0.061641 0.003058 -0.003173
1.414713 0.796107 0.561519 0.000000 0.440998 -0.000016
1.738598 0.463230 0.891212 0.111043 -0.003275 -0.003658
3.090510 0.608035 0.558186 0.000001 0.666866 -0.000538
2.905463 0.746235 0.549695 0.000000 0.011558 -0.000359
0.784862 0.678809 0.761179 -0.000001 -0.562363 0.000023
1.234756 0.644328 0.608015 -0.000000 -0.863676 -0.000004
2.179533 0.770526 0.552519 -0.000001 0.211953 -0.000018
1.830484 0.142532 0.139619 0.111043 -0.006363 0.007099
2.425068 0.628973 0.668014 0.000000 -0.999724 0.000000
0.730722 0.748446 0.781846 0.000000 0.023478 0.000044
1.917264 0.922560 0.506941 0.061684 -0.006570 -0.007300
1.909596 0.641966 0.719259 0.000000 -0.886615 0.000008
2.854373 0.829404 0.745592 -0.000000 0.723380 0.000029
1.671587 0.905828 0.506554 -0.034156 -0.018852 -0.019209
0.495862 0.861066 0.661551 -0.000010 0.052078 -0.000000
3.115579 0.592704 0.817129 0.000003 -0.666826 -0.000299
1.848350 1.164255 0.300978 0.111042 0.005053 0.005641
0.884754 0.628928 0.666399 0.000000 -0.999937 0.000000
1.808789 0.362734 1.016934 0.061682 0.004885 0.005442
1.557245 1.099868 0.354580 -0.061642 0.002243 0.002329
0.874841 0.677767 0.760442 -0.000001 -0.581028 0.000021
1.189766 0.766110 0.551613 -0.000000 0.174732 -0.000086
3.113807 0.981280 0.862220 -0.000000 -0.666869 0.000598
1.438883 0.875409 0.543184 -0.034156 -0.005185 -0.005965
1.755122 1.331292 0.137139 -0.034156 -0.017047 -0.017751
1.835588 1.365372 1.208697 -0.061645 0.008969 -0.009222
3.079320 0.745044 0.549681 0.274395 0.000003 -0.000215
1.917264 1.068135 0.376664 0.061683 -0.010443 -0.011506
1.917264 1.413877 0.067255 0.061682 -0.007412 -0.008223
1.404013 0.931775 0.496313 -0.034153 -0.005185 -0.005965
1.725445 1.287892 1.143569 -0.061640 0.002854 -0.002962
0.784862 0.814180 0.759095 -0.000001 0.600476 0.000020
1.279745 0.757610 0.550370 0.000000 0.105313 -0.000072
1.579394 0.268578 1.092199 -0.061643 -0.007339 -0.007572
1.677684 1.346288 1.203866 -0.034154 -0.017508 0.018132
1.591680 0.252981 0.225449 -0.061643 -0.001699 0.001764
1.517963 0.346565 1.022408 -0.061642 -0.008426 -0.008674
1.751401 1.439872 1.287615 -0.034155 -0.011981 0.013156
1.505677 1.127925 1.008449 -0.034156 -0.015205 0.016165
1.431960 0.455747 0.406907 -0.061643 -0.010600 0.010855
1.751401 1.439872 0.043991 -0.034156 -0.011981 -0.013156
1.309098 0.878367 0.785116 -0.034156 -0.010369 0.011545
1.358242 0.549331 0.490657 -0.061644 -0.009173 0.009428
1.611430 0.366558 0.322169 -0.034157 0.003572 -0.004133
2.528772 0.861106 0.668354 0.000000 0.999725 0.000000
0.191877 0.808929 0.569583 -0.076698 0.000162 -0.000238
1.684649 0.811490 0.761036 0.000000 0.563076 0.000003
1.723781 0.404106 0.949386 -0.061643 -0.002209 -0.002293
1.324734 0.642438 0.720165 -0.000000 -0.886653 0.000008
0.694883 0.636996 0.623258 0.000000 -0.934707 -0.000006
1.917264 0.094408 0.083539 0.061684 0.008759 -0.009691
0.128422 0.644669 0.651590 -0.323562 -0.000112 -0.000013
1.587681 0.583261 0.542980 -0.061643 -0.011122 0.011373
2.018638 0.861132 0.667249 0.000000 0.999716 0.000000
2.634387 0.865964 0.774017 0.099203 0.002855 -0.005118
2.584437 0.799104 0.563040 0.000001 0.456475 -0.000007
2.539448 0.801721 0.767147 0.000001 0.480631 0.000014
1.917264 0.849772 0.759526 0.061684 -0.007580 0.008407
2.022451 0.743853 0.549709 -0.000000 -0.023469 -0.000022
1.712554 1.131148 1.020542 -0.034158 -0.003514 0.004067
1.041073 0.861110 0.668184 0.000000 0.999724 0.000000
1.858560 1.229488 1.104208 0.061683 -0.007749 0.008591
2.674416 0.639770 0.714794 -0.000000 -0.907381 0.000028
1.661011 0.861162 0.665973 0.000000 0.999725 0.000000
1.796027 1.077169 0.386758 0.111042 0.003088 0.003449
2.248160 0.861120 0.663847 0.000005 0.207827 -0.000000
0.244989 0.860374 0.679342 0.000000 0.994295 0.000000
2.257311 0.743513 0.781889 0.000000 -0.023469 0.000022
1.646645 0.431179 0.401664 -0.061643 -0.004757 0.004928
1.677296 1.032718 0.397246 -0.034157 -0.003975 -0.004594
0.514926 0.695358 0.770755 -0.000000 -0.419282 0.000008
1.716881 1.068720 0.933364 -0.061646 0.002242 -0.002328
1.144777 0.680461 0.762304 0.000001 -0.540885 0.000006
1.668167 0.328819 1.044427 -0.034156 0.013132 0.014264
0.919830 0.799933 0.563473 -0.000001 0.482896 -0.000056
1.414713 0.686337 0.565623 -0.000001 -0.492266 -0.000007
1.035735 0.747340 0.549735 -0.000010 0.001092 -0.000476
0.183777 0.690866 0.564800 -0.108139 -0.000199 -0.000350
2.314501 0.839831 0.732872 0.000000 0.813172 0.000005
1.720340 0.226805 0.197155 -0.034156 0.005185 -0.005965
0.488237 0.629021 0.661551 -0.000000 -0.999725 -0.000000
0.919830 0.699978 0.558782 0.000000 -0.398649 -0.000009
2.606639 0.677977 0.590790 -0.000002 -0.745172 -0.000514
1.745617 0.547306 0.856997 0.061684 0.003285 0.003665
3.087598 0.500280 0.461754 0.000001 0.666869 -0.000598
2.794328 0.920101 0.509142 0.099205 0.002855 0.005118
1.459702 0.648118 0.729748 -0.000000 -0.839294 0.000005
2.788033 0.861145 0.667589 0.000000 0.999929 0.000000
2.791083 0.629021 0.661551 -0.000000 -0.999725 -0.000000
1.792836 0.936380 0.818376 0.111042 0.003650 -0.004076
0.829851 0.859531 0.646412 0.000001 0.975709 -0.000001
3.165866 0.809269 0.598124 0.254938 0.000141 -0.000152
1.459702 0.844946 0.724988 -0.000000 0.864005 0.000018
1.729639 0.763931 0.780378 0.000000 0.152110 0.000025
3.100956 0.640031 0.631682 0.254628 -0.000900 -0.000241
1.638490 1.111666 0.331145 -0.034156 -0.003572 -0.004134
3.079320 0.854059 0.625803 0.260202 0.000212 -0.000080
0.136131 0.687511 0.752455 -0.293510 -0.000074 0.000106
2.789862 0.874127 0.796316 0.000000 0.666869 -0.001195
2.702934 0.889166 0.536826 0.099203 0.002855 0.005118
2.766959 0.608810 0.772726 0.000002 0.666868 0.000896
1.838141 1.092228 0.964639 0.111043 0.002901 -0.003240
2.449469 0.696092 0.771094 0.000000 -0.420391 0.000008
1.471004 0.988791 0.877513 -0.061643 0.011122 -0.011373
3.100956 0.710923 0.770816 0.261087 -0.000343 0.000894
3.148161 0.497179 0.872627 -0.000001 0.666868 0.001195
1.836756 0.035379 0.037028 -0.061644 -0.005980 0.006184
2.449469 0.791358 0.772281 0.000001 0.397694 0.000018
2.937072 0.581677 0.534598 0.000000 0.666869 -0.000523
1.531613 0.503666 0.888007 -0.034156 0.004493 0.005184
1.459702 0.634485 0.630310 0.000000 -0.950304 -0.000010
3.159612 0.981882 0.438858 -0.000001 0.666869 0.000598
1.841969 0.197979 0.187517 0.111042 -0.003930 0.004389
0.964819 0.689633 0.767846 -0.000001 -0.482627 0.000056
1.684649 0.646735 0.604003 -0.000002 -0.829005 -0.000005
0.964819 0.798764 0.768743 -0.000001 0.461953 0.000059
1.070811 0.628965 0.663932 0.000000 -0.999725 -0.000000
3.098785 0.919651 0.807067 -0.000001 -0.666863 0.000299
0.044815 0.731825 0.715917 -0.650804 -0.000007 0.000024
0.363182 0.629029 0.661211 0.000000 -0.999725 -0.000000
2.817177 0.562253 0.502220 0.099203 -0.002855 0.005118
1.917264 1.413877 1.264351 0.061681 -0.007412 0.008223
2.702934 0.600922 0.536826 0.099203 -0.002855 0.005118
1.549681 0.658321 0.743026 0.000000 -0.739274 0.000003
2.385416 0.861122 0.667674 0.000000 0.999725 0.000000
0.334968 0.806301 0.764446 0.000000 0.523489 0.000100
0.392158 0.749636 0.781818 0.000000 0.023478 0.000022
1.864607 0.843442 0.604148 0.000000 0.852163 -0.000005
2.134543 0.691399 0.768782 -0.000001 -0.461037 0.000015
0.739872 0.690456 0.563315 0.000000 -0.462422 -0.000029
3.025185 0.555881 0.850082 0.000003 -0.666824 -0.000336
1.851541 0.467097 0.426919 0.111042 -0.001638 0.001830
2.134543 0.787072 0.774047 -0.000001 0.353479 0.000020
1.872598 0.473215 0.902369 0.111043 -0.003275 -0.003658
1.729639 0.814350 0.572639 0.000000 0.600994 -0.000041
3.124227 0.869864 0.539105 0.000005 0.666769 0.000299
1.999575 0.808703 0.568692 -0.000000 0.543282 -0.000047
0.424947 0.855324 0.702145 0.000000 0.950300 0.000003
1.648290 0.892467 0.812519 -0.034156 -0.018852 0.019209
1.663929 0.589551 0.776037 -0.061645 -0.003567 -0.003701
2.674416 0.638142 0.620464 -0.000001 -0.889849 -0.000002
1.893655 0.541205 0.481427 0.061687 0.001558 -0.001741
0.128422 0.845974 0.656310 -0.323565 0.000116 -0.000008
2.893805 0.850269 0.586630 0.000000 -0.666869 -0.000448
2.359490 0.693179 0.769693 -0.000000 -0.441384 0.000062
2.829210 0.740536 0.549786 0.000020 -0.000242 -0.001069
1.858560 1.229488 0.227398 0.061684 -0.003874 -0.004321
2.883625 0.935547 0.828790 0.099201 -0.002392 0.001706
1.825718 0.740962 0.781830 0.000000 -0.023478 0.000326
2.674416 0.850514 0.714369 0.000000 0.907180 0.000007
1.895569 1.315410 0.158627 0.111046 0.001778 0.001986
1.639660 0.819100 0.576370 -0.000001 0.583613 -0.000003
2.912770 0.889632 0.521415 -0.000001 0.666866 0.000448
1.875150 1.034879 0.918867 0.111042 0.003088 -0.003449
3.205605 0.430777 0.384561 0.099203 -0.002855 0.005118
1.628539 1.283899 0.183574 -0.034156 -0.021189 -0.020958
1.655946 1.203914 0.262903 -0.061641 0.003670 0.003806
0.774949 0.742492 0.549740 0.000000 -0.023478 -0.000044
0.645319 0.740621 0.549784 0.000000 -0.023469 -0.000326
2.551648 0.628997 0.669035 0.000000 -0.999724 0.000000
0.113274 0.808420 0.737081 -0.382670 0.000062 0.000066
1.864607 0.845867 0.723407 -0.000000 0.863976 0.000009
1.414613 0.916671 0.812936 -0.061646 0.001529 -0.001588
1.836865 0.234198 1.129634 0.061682 0.003538 0.003947
0.829851 0.633102 0.634957 -0.000000 -0.963776 -0.000004
2.314501 0.780537 0.555244 -0.000000 0.311229 -0.000093
1.909596 0.805467 0.566648 -0.000001 0.520514 -0.000013
1.603708 1.043657 0.940445 -0.034156 -0.016817 0.017558
1.873874 1.321104 1.184926 0.061680 -0.005728 0.006373
1.835588 0.124716 1.208697 0.111043 -0.006363 -0.007099
1.549681 0.853122 0.708268 0.000001 0.931721 0.000003
1.877703 0.400808 0.967933 0.111042 -0.002901 -0.003240
1.894346 0.745639 0.549695 0.000000 0.023119 -0.000045
1.503775 0.873930 0.541531 -0.034156 -0.018852 -0.019210
2.044564 0.781548 0.776031 -0.000000 0.311196 0.000094
2.044564 0.696748 0.771398 0.000001 -0.403426 0.000004
0.289979 0.692721 0.769467 0.000000 -0.441320 0.000008
3.165866 0.684449 0.594855 0.254938 -0.000137 -0.000156
1.639660 0.688962 0.767476 0.000000 -0.482977 0.000111
0.694883 0.642261 0.719825 -0.000001 -0.885015 0.000008
1.431960 1.034341 0.406907 -0.034155 -0.017968 -0.018507
1.802408 0.649954 0.597928 0.111045 -0.002105 0.002352
1.999575 0.642084 0.612120 -0.000000 -0.886615 -0.000008
2.539448 0.699978 0.772824 0.000000 -0.398944 0.000018
1.905784 0.861058 0.661211 0.000000 0.999725 -0.000000
0.044815 0.702550 0.636131 -0.650800 -0.000021 -0.000014
1.382859 0.589817 0.531731 -0.061644 -0.004587 0.004753
3.179209 1.005914 0.914254 -0.000001 0.666867 -0.000598
1.063949 0.748446 0.781846 0.000000 0.023478 0.000326
2.404479 0.846429 0.609200 -0.000001 0.874943 -0.000017
2.134543 0.661858 0.584783 -0.000001 -0.717776 -0.000007
1.189766 0.794227 0.770987 0.000000 0.419282 0.000008
1.054798 0.817784 0.575291 0.000000 0.619599 -0.000010
0.829851 0.684113 0.566960 0.000001 -0.515045 -0.000006
0.979307 0.861114 0.663592 0.000000 0.999724 -0.000000
1.819617 0.731125 0.550521 -0.000001 -0.127961 -0.000059
1.504692 0.778383 0.554578 -0.000001 0.273254 -0.000013
1.885360 0.304987 1.062262 0.061682 0.004211 0.004695
1.702865 0.612758 0.529637 0.061681 0.003790 -0.004228
1.880255 0.368887 0.326105 0.061683 0.004885 -0.005442
1.639831 0.315133 0.289394 -0.061645 -0.001971 0.002046
2.764394 0.794227 0.560619 0.000001 0.420219 -0.000066
0.379957 0.839559 0.598353 -0.000001 0.812120 -0.000011
1.527568 0.444695 0.393100 -0.034155 0.008526 -0.009625
1.478487 1.038145 0.924372 -0.061645 0.002650 -0.002751
0.302179 0.629037 0.670736 0.000000 -0.999725 0.000000
1.831760 0.242711 0.229078 0.111043 -0.002152 0.002405
2.899363 0.796298 0.769993 0.000000 0.441389 0.000031
1.536351 0.936779 0.821854 -0.061643 0.011122 -0.011373
0.379957 0.651522 0.596972 0.000000 -0.798037 -0.000006
2.956658 0.650845 0.566509 0.000000 -0.666869 0.000523
2.314501 0.845845 0.608162 0.000000 0.863749 -0.000009
1.483615 0.589437 0.540003 -0.061644 -0.001911 0.001985
3.177675 0.968102 0.850427 -0.229683 -0.001707 0.002204
1.737062 0.380007 1.003541 -0.034157 0.007028 0.008010
1.522334 0.948924 0.476243 -0.034156 -0.018852 -0.019209
0.244989 0.666940 0.579882 -0.000001 -0.673181 -0.000067
1.748850 0.260337 1.085606 -0.061644 -0.003330 -0.003455
1.485907 0.442422 0.938582 -0.034157 0.008525 0.009625
2.412867 0.742152 0.549748 0.000000 -0.023469 -0.000044
1.484653 0.866427 0.782765 -0.034156 -0.006481 0.007409
0.947281 0.628977 0.663422 0.000000 -0.999725 -0.000000
0.514926 0.795726 0.770275 -0.000001 0.440044 0.000031
1.842607 0.566514 0.517228 0.111044 -0.001825 0.002039
1.284525 0.642915 0.574406 -0.061645 -0.006116 0.006323
1.481104 1.096730 0.351073 -0.034156 -0.016126 -0.016970
1.755189 0.880046 0.762316 0.111041 0.002106 -0.002352
1.893655 0.974361 0.464124 0.111041 0.001731 0.001934
3.100956 0.850057 0.699924 0.260202 0.000212 0.000080
1.485021 0.523356 0.476524 -0.061644 -0.011122 0.011373
0.604904 0.848102 0.612309 0.000000 0.886686 -0.000032
2.404479 0.652187 0.596088 0.000000 -0.798037 -0.000006
1.784541 0.302881 0.290006 0.111043 -0.005053 0.005641
1.296811 0.862770 0.560448 -0.034153 -0.010369 -0.011546
1.909596 0.754476 0.781534 -0.000001 0.081903 0.000186
1.694883 0.570897 0.837585 -0.034156 0.018852 0.019209
1.189766 0.715428 0.778085 0.000000 -0.266243 0.000055
2.194783 0.628969 0.663762 -0.000000 -0.999724 -0.000000
3.122593 0.642619 0.687574 0.254627 -0.000920 0.000146
1.324734 0.849703 0.615503 -0.000000 0.894745 -0.000002
1.345956 0.925159 0.504615 -0.034151 -0.007778 -0.008825
2.632340 0.819561 0.599116 -0.000002 0.745172 -0.000514
1.746893 0.967099 0.838978 0.111042 0.001825 -0.002039
1.587681 0.583261 0.788626 -0.061643 -0.011122 -0.011373
1.836756 0.035379 1.294578 -0.061642 -0.005980 -0.006184
1.871322 0.005317 -0.000000 0.000000 -0.745176 -0.000328
1.752895 1.159998 0.284452 -0.034157 -0.006567 -0.007504
1.189766 0.668269 0.578689 -0.000001 -0.639373 -0.000005
3.009167 0.750147 0.781806 0.000000 0.023119 0.000022
2.134543 0.849365 0.716790 -0.000000 0.897118 0.000004
1.324734 0.633941 0.632056 0.000001 -0.956716 -0.000005
1.471140 0.747935 0.781858 -0.000000 0.023478 0.000326
1.130289 0.628961 0.667504 0.000000 -0.999724 0.000000
3.167287 0.872790 0.787622 -0.229683 0.004004 -0.003879
3.018112 0.628190 0.755383 -0.000003 0.666824 0.000336
1.786066 0.861154 0.666313 0.000005 0.212104 0.000000
1.999575 0.632943 0.696075 0.000000 -0.963757 0.000008
2.134543 0.731210 0.550510 -0.000001 -0.128410 -0.000118
3.063928 0.940796 0.855979 -0.000001 0.666867 -0.000448
1.554822 1.190315 0.267324 -0.034156 -0.013363 -0.014481
2.584437 0.716211 0.553324 0.000000 -0.243107 -0.000031
2.995728 0.909012 0.504071 -0.000001 0.666868 0.001195
2.044564 0.848971 0.717592 0.000000 0.897275 0.000008
1.867015 0.633288 0.561624 0.061682 0.003790 -0.004227
2.708730 0.748956 0.549772 0.000000 0.023119 -0.000045
0.244989 0.827179 0.583728 0.000000 0.707107 -0.000061
1.755189 0.610042 0.569290 0.111044 -0.002105 0.002352
1.279745 0.852706 0.709293 0.000000 0.926237 0.000001
2.224522 0.640253 0.615770 0.000000 -0.907441 -0.000007
2.179533 0.853333 0.623894 -0.000000 0.934690 -0.000012
2.995987 0.943897 0.858754 0.000001 0.666868 -0.001195
2.314501 0.727375 0.780565 0.000001 -0.151608 0.000050
3.012516 0.877401 0.769258 -0.000004 -0.666854 0.000598
3.120656 0.812110 0.740816 0.000001 0.745165 0.000227
1.954586 0.788967 0.773289 -0.000001 0.374745 0.000019
0.379957 0.664024 0.748988 0.000000 -0.690809 0.000004
0.559915 0.796603 0.561763 -0.000000 0.440998 -0.000016
1.369724 0.834531 0.739794 0.000000 0.769889 0.000013
0.604904 0.716129 0.778261 -0.000001 -0.242905 0.000061
0.604904 0.646757 0.603966 -0.000001 -0.849760 -0.000005
1.792836 0.936380 0.513230 0.111041 0.000912 0.001019
0.649894 0.847210 0.720991 -0.000000 0.875772 0.000002
1.578401 0.637706 0.556687 -0.034156 0.018852 -0.019210
0.964819 0.670267 0.576967 0.000000 -0.637784 -0.000018
1.610977 0.920991 0.531344 -0.061643 0.011122 0.011373
0.038800 0.788154 0.648828 -0.674461 0.000018 -0.000007
1.788370 0.463658 0.928309 0.061685 0.011790 0.012941
2.479208 0.741897 0.549754 0.000010 -0.001088 -0.000478
2.899363 0.855708 0.700973 0.000000 0.950420 0.000001
0.559915 0.693179 0.561913 -0.000001 -0.440904 -0.000031
1.653026 0.408908 0.950829 -0.061643 -0.004485 -0.004648
2.944352 0.705364 0.556674 0.000000 -0.333406 -0.000011
1.639660 0.849234 0.717057 -0.000000 0.897279 0.000030
2.809384 0.721891 0.779586 -0.000000 -0.197893 0.000152
2.674416 0.754095 0.781565 0.000001 0.081955 0.000372
1.099787 0.793378 0.771380 -0.000000 0.420177 0.000033
1.376067 0.829208 0.585720 0.000001 -0.745139 0.000058
0.469936 0.665194 0.750104 -0.000000 -0.690316 0.000032
1.755189 0.861289 0.548331 0.061685 -0.003790 -0.004227
1.372606 0.581413 0.814025 -0.034157 0.007777 0.008823
1.009809 0.661976 0.746946 0.000000 -0.723546 0.000007
1.596960 0.562711 0.491399 -0.034157 0.018852 -0.019209
1.381518 0.637187 0.766493 -0.034156 0.007777 0.008823
1.549681 0.630482 0.646831 0.000000 -0.988424 -0.000001
2.632340 0.677977 0.740816 0.000000 -0.745174 0.000257
3.148161 0.497179 0.458979 -0.000001 0.666868 -0.001195
1.587681 0.889879 0.807563 -0.034156 -0.018852 0.019210
2.089554 0.630735 0.686199 0.000000 -0.984136 0.000003
1.770503 0.529297 0.494734 0.111042 -0.001825 0.002039
1.875150 1.043978 0.404597 0.111043 0.006176 0.006890
3.189070 0.618101 0.779406 -0.229682 -0.001901 -0.001842
0.379957 0.840348 0.732143 0.000000 0.826405 0.000003
1.099787 0.848082 0.719335 0.000001 0.886301 0.000016
2.764394 0.641173 0.613900 0.000000 -0.897293 -0.000015
0.559915 0.632023 0.692447 -0.000001 -0.974745 0.000003
1.764122 0.374148 0.356845 0.111042 -0.005802 0.006474
1.774331 1.135032 1.026664 0.061682 -0.009770 0.010783
1.592373 1.194751 1.069787 -0.034161 -0.003283 0.003803
2.494458 0.817918 0.575397 0.000001 0.613743 -0.000010
1.897396 0.628933 0.666313 0.000000 -0.999724 0.000000
1.684649 0.639985 0.715257 0.000002 -0.906170 0.000014
1.917264 0.203589 0.181247 0.061684 0.006401 -0.007115
1.917264 0.276377 0.246386 0.061683 0.007749 -0.008591
1.867493 0.926268 0.820521 0.111043 0.001825 -0.002039
1.718480 0.269134 0.251864 -0.061643 -0.001699 0.001764
2.854373 0.641398 0.613442 0.000001 -0.886249 -0.000002
2.899363 0.636028 0.705803 0.000000 -0.942783 0.000001
1.643553 0.971379 0.485641 -0.061645 0.005300 0.005487
1.632476 0.277709 1.078861 -0.061642 -0.003670 -0.003806
0.334968 0.817350 0.574948 -0.000000 0.619484 -0.000039
1.694318 0.220455 1.128663 -0.061643 -0.006252 -0.006463
1.677684 0.143799 1.203866 -0.061643 -0.010328 -0.010584
1.234756 0.852257 0.621210 0.000000 0.926115 -0.000003
3.113729 0.615399 0.766829 -0.000003 0.666860 0.000538
3.136948 0.637666 0.554715 0.000000 -0.666869 0.000777
1.324734 0.700608 0.558526 0.000000 -0.377364 -0.000019
3.078028 0.488739 0.887677 0.099201 0.009569 0.006793
3.202709 0.529648 0.866061 -0.229680 -0.001001 -0.000970
3.169531 0.457767 0.915394 0.099202 0.009568 0.006793
0.334968 0.673839 0.574079 0.000001 -0.615074 -0.000010
0.526364 0.741132 0.549772 -0.000000 -0.023119 -0.000022
2.674416 0.693599 0.561707 0.000000 -0.441389 -0.000124
0.964819 0.825663 0.582236 -0.000001 0.690330 -0.000064
1.836865 1.274292 1.127380 0.111044 0.001965 -0.002196
1.892379 0.565673 0.822593 0.111043 -0.000912 -0.001019
2.314501 0.685092 0.566358 0.000001 -0.521388 -0.000025
0.469936 0.845160 0.606986 0.000000 0.864062 -0.000018
1.284525 0.642915 0.757200 -0.061645 -0.006116 -0.006323
1.054798 0.644970 0.606912 -0.000000 -0.864249 -0.000004
1.778160 0.509571 0.443539 0.061684 0.003116 -0.003478
1.542406 0.419894 0.960489 -0.034158 0.004032 0.004660
1.009809 0.631497 0.690124 0.000000 -0.980215 0.000002
2.089554 0.643330 0.609796 -0.000000 -0.875500 -0.000008
0.694883 0.799141 0.563060 0.000000 0.462279 -0.000007
2.921164 0.866375 0.789379 0.000000 0.666868 -0.001046
1.567433 1.051871 0.401647 -0.061641 0.004961 0.005138
3.186829 0.561491 0.509036 -0.229680 0.000853 -0.001102
1.917264 0.167195 1.182928 0.061684 0.005727 0.006373
0.191877 0.672429 0.755618 -0.080572 -0.000353 0.000416
1.789904 1.399301 1.254483 -0.034155 -0.006683 0.007631
1.799855 1.227069 0.224694 0.061681 -0.003875 -0.004321
1.729639 0.839064 0.733944 0.000000 0.813106 0.000011
3.034331 0.775234 0.553679 0.000001 0.266299 -0.000111
0.895429 0.747595 0.549740 0.000000 0.023469 -0.000044
2.944352 0.688478 0.767209 -0.000001 -0.482964 0.000111
3.034331 0.714116 0.553883 0.000000 -0.266365 -0.000222
0.469936 0.645532 0.605960 0.000001 -0.734002 -0.000001
2.809384 0.638396 0.711727 0.000000 -0.916960 0.000013
1.917264 0.440149 0.392948 0.061683 0.005222 -0.005815
2.989341 0.854059 0.705803 0.000000 0.942768 0.000022
3.143321 0.548516 0.856673 0.000000 -0.666869 -0.000896
3.043813 0.628190 0.576223 0.000002 0.666866 -0.000672
1.733493 0.987774 0.433339 0.061684 -0.006233 -0.006929
1.890464 0.222891 1.135308 0.061684 0.003538 0.003947
2.449469 0.855073 0.702913 0.000001 0.949532 0.000005
0.267103 0.739941 0.781806 0.000000 -0.023119 0.000022
2.674416 0.849421 0.614930 -0.000000 0.897275 -0.000008
1.785179 0.613914 0.794107 0.061685 0.008464 0.009371
2.764394 0.682813 0.567768 0.000000 -0.543331 -0.000047
1.442164 0.861130 0.667334 0.000000 0.999725 0.000000
3.250947 1.025096 0.415180 -0.229688 0.000951 0.000921
3.250947 1.025096 0.916426 -0.229688 0.000951 -0.000921
3.258682 0.445853 0.933553 -0.229682 -0.001901 -0.001842
2.584437 0.638447 0.619762 -0.000000 -0.916918 -0.000007
1.479895 0.663246 0.583075 -0.034156 0.012960 -0.014100
2.359490 0.810400 0.761778 0.000000 0.562923 0.000006
1.009809 0.792992 0.560047 -0.000000 0.420232 -0.000033
3.212274 0.929403 0.830788 -0.229683 0.001901 -0.001842
1.836756 1.449835 1.300024 -0.034155 -0.005761 0.006610
2.632340 0.819561 0.732490 -0.000001 0.745175 0.000514
1.845798 1.392734 0.080248 0.061682 -0.010107 -0.011145
1.279745 0.781831 0.775938 -0.000001 0.311111 0.000094
2.314501 0.629121 0.659129 0.000001 -0.990321 -0.000000
2.224522 0.702302 0.773771 0.000001 -0.358943 0.000010
2.764394 0.694896 0.770537 0.000000 -0.440998 0.000016
2.698251 0.646969 0.768566 0.000001 -0.666869 -0.001195
2.089554 0.703692 0.557302 -0.000001 -0.354966 -0.000040
2.721153 0.865773 0.758851 0.099203 -0.004784 0.003408
0.151779 0.742499 0.774322 -0.240292 -0.000000 0.000042
1.718179 0.557536 0.481488 0.061683 0.001642 -0.001835
1.189766 0.849534 0.716447 -0.000000 0.897282 0.000004
2.674416 0.788928 0.558301 -0.000001 0.377211 -0.000075
1.421404 0.509000 0.874351 -0.061642 -0.007644 -0.007883
1.606240 0.964874 0.872852 -0.034156 -0.017968 0.018507
1.545630 0.517085 0.475685 -0.061643 -0.011122 0.011373
1.594671 0.793185 0.771470 0.000000 0.420251 0.000066
1.696267 0.923877 0.795729 -0.061642 0.003568 -0.003701
0.739872 0.658041 0.742706 -0.000000 -0.754633 0.000007
3.091361 0.469446 0.419167 0.099202 -0.005724 0.010247
2.089554 0.815642 0.573611 0.000000 0.601008 -0.000020
1.777618 0.106384 1.240524 -0.034155 0.007604 0.008637
2.224522 0.852353 0.710160 0.000001 0.923677 0.000006
1.099787 0.661506 0.585153 -0.000000 -0.723465 -0.000029
1.639660 0.850979 0.618240 -0.000001 0.916935 -0.000027
