2.306035 0.787768 0.534443 -0.000000 0.997627 -0.000001
1.530127 0.760798 0.467198 0.000000 0.773770 -0.000008
0.865064 0.736595 0.640600 0.000000 0.573614 0.000029
1.742022 0.891551 0.717710 -0.069111 0.012184 -0.013658
1.197595 0.748915 0.454807 -0.000000 0.670979 -0.000045
0.310844 0.726206 0.438710 0.000000 0.466703 -0.000005
2.084347 0.608385 0.441242 -0.000000 -0.510776 -0.000034
1.918081 0.608624 0.441100 0.000000 -0.510755 -0.000034
1.918081 0.730333 0.441076 0.000001 0.510503 -0.000034
2.017698 0.241348 0.205115 0.052219 -0.015237 0.018099
2.017698 1.097649 0.205115 0.052220 0.007620 0.009329
2.084347 0.730691 0.441289 0.000000 0.510785 -0.000069
0.975908 0.737049 0.640282 0.000000 0.573522 0.000029
3.469896 0.690497 0.426149 -0.000001 0.185653 -0.000054
1.142173 0.566859 0.483477 0.000001 -0.846205 -0.000003
2.752986 0.550944 0.542104 0.000000 -0.999691 -0.000000
1.419283 0.720359 0.435740 -0.000000 0.422579 -0.000044
3.451581 0.525570 0.643378 -0.000001 0.628607 0.001268
2.804832 0.748127 0.631591 -0.000001 0.669970 0.000011
1.676727 0.670422 0.424294 0.000002 0.014225 -0.000093
0.532532 0.726206 0.438710 0.000000 0.467221 -0.000010
1.937102 0.801623 0.449801 0.052222 0.005355 0.006590
3.026520 0.587410 0.628394 -0.000001 -0.688260 0.000011
1.886579 0.883344 0.738422 0.069168 -0.002060 0.002548
0.041484 0.636509 0.580224 -0.669445 -0.000017 0.000018
2.472301 0.775012 0.596937 -0.000000 0.895489 0.000020
0.310844 0.781408 0.503684 0.000000 0.943868 -0.000014
0.587954 0.780658 0.501598 0.000000 0.935425 -0.000002
2.361457 0.753760 0.459431 0.000000 0.707107 -0.000005
0.233968 0.551069 0.537117 0.000000 -0.999691 -0.000000
3.026520 0.741312 0.637191 -0.000000 0.613613 0.000026
2.971098 0.564632 0.598162 -0.000000 -0.883951 0.000011
1.197595 0.589876 0.454993 0.000000 -0.670944 -0.000045
3.747006 0.728784 0.645530 0.256756 0.000119 0.000212
2.971098 0.707872 0.655027 -0.000000 0.330123 0.000015
1.253017 0.718684 0.434959 0.000000 0.422588 -0.000044
2.749410 0.718096 0.434690 0.000000 0.399888 -0.000023
0.754220 0.573013 0.473930 0.000000 -0.819152 -0.000014
1.569459 0.788038 0.544136 -0.000017 0.019806 0.000000
1.751815 0.550986 0.540442 -0.000000 -0.999683 -0.000000
1.363861 0.778224 0.590128 0.000000 0.916454 0.000004
0.421688 0.775999 0.490735 0.000000 0.895457 -0.000005
2.638566 0.754508 0.460185 0.000000 0.722221 -0.000005
2.361457 0.583852 0.460855 0.000000 -0.724391 -0.000019
2.361457 0.747431 0.632198 0.000001 0.651778 0.000024
0.809642 0.601569 0.445669 0.000000 -0.573549 -0.000029
3.810254 0.625171 0.450796 0.244285 -0.000378 -0.000913
0.421688 0.728140 0.439795 0.000000 0.489158 -0.000018
1.696393 0.556194 0.577793 0.000000 -0.959152 0.000006
0.532532 0.606966 0.442109 -0.000000 -0.531993 -0.000033
2.014089 0.898650 0.719485 0.052220 0.002729 -0.003372
2.014089 0.440346 0.719485 0.052220 -0.010914 -0.013219
2.361457 0.593282 0.633675 0.000000 -0.652265 0.000048
0.477110 0.776523 0.593871 0.000000 0.906316 0.000019
1.937102 0.553009 0.430457 0.069169 0.004043 -0.004993
3.473384 0.510962 0.430501 -0.000001 0.628606 -0.000973
0.729190 0.673562 0.424372 0.000000 0.025153 -0.000026
0.643376 0.775012 0.596937 -0.000000 0.895457 0.000003
0.754220 0.778243 0.590086 -0.000000 0.916506 0.000018
1.530127 0.775341 0.596275 -0.000001 0.838243 0.000001
3.469896 0.755940 0.623995 -0.000000 0.724547 0.000039
1.769870 0.769425 0.477847 -0.000000 -0.777724 0.000680
1.651932 0.764285 0.471487 0.000001 -0.777722 0.000227
1.828839 0.567001 0.481027 0.052220 -0.010709 0.012980
0.643376 0.761266 0.467770 0.000000 0.774151 -0.000008
1.973503 0.594426 0.634611 0.000000 -0.630840 0.000006
2.125961 0.805281 0.653986 0.069171 -0.004043 0.004993
1.086751 0.581091 0.621849 -0.000000 -0.739563 0.000005
3.525318 0.698935 0.657701 0.000000 0.259187 0.000010
1.585549 0.735330 0.444235 0.000000 0.552854 -0.000015
0.754220 0.562751 0.594455 0.000000 -0.895457 0.000005
1.607003 0.670052 0.424284 0.000000 0.025153 -0.000026
0.809642 0.732969 0.442698 -0.000000 0.532000 -0.000033
2.028925 0.618052 0.649673 0.000000 -0.445148 0.000021
2.915676 0.744106 0.634991 0.000001 0.632797 0.000025
1.253017 0.629773 0.654554 0.000000 -0.330249 0.000117
0.865064 0.610373 0.645620 -0.000000 -0.488769 0.000018
0.421688 0.609894 0.440345 0.000000 -0.510512 -0.000017
3.137364 0.617597 0.436239 0.000000 -0.445148 -0.000021
1.807237 0.721731 0.649282 -0.000000 0.445011 0.000041
3.691417 0.974117 0.773258 0.000001 -0.628607 0.001554
3.726926 0.848072 0.382711 0.000000 0.628607 0.000777
0.975908 0.611582 0.646298 -0.000000 -0.489208 0.000037
3.192786 0.579269 0.619760 -0.000002 -0.652713 0.000003
3.636162 0.719689 0.650259 -0.000001 0.422615 0.000088
2.527723 0.719354 0.650415 -0.000000 0.422375 0.000022
1.892594 0.458477 0.389024 0.052221 -0.005355 0.006591
3.359052 0.725348 0.647429 0.000001 0.466954 0.000039
1.474705 0.778483 0.496150 0.000001 0.915624 -0.000009
2.084347 0.563285 0.595531 0.000000 -0.895457 0.000003
2.915676 0.591846 0.632439 0.000001 -0.651902 0.000024
3.636162 0.778206 0.590171 -0.000000 0.916532 0.000018
2.028925 0.727415 0.646298 -0.000001 0.424522 0.000005
3.303630 0.785011 0.569587 0.000000 0.972011 0.000001
0.865064 0.775917 0.595117 0.000000 0.895457 0.000010
3.137364 0.750918 0.629030 -0.000001 0.688864 0.000022
3.355019 0.558774 0.624439 0.114605 0.006345 0.005982
0.532532 0.716064 0.651883 0.000000 0.399819 0.000047
3.311599 0.587864 0.484760 -0.000000 -0.777724 -0.000524
1.419283 0.618722 0.435701 0.000000 -0.422532 -0.000022
1.666563 0.777481 0.637092 -0.091416 -0.004661 0.006448
2.527723 0.785389 0.517813 -0.000000 0.977621 -0.000004
2.638566 0.713160 0.653080 0.000001 0.359518 0.000007
2.693988 0.559453 0.586975 0.000000 -0.926167 0.000008
2.139769 0.726609 0.646750 0.000000 0.488769 0.000018
2.306035 0.622933 0.433803 0.000000 -0.399896 -0.000047
1.585549 0.613403 0.647299 -0.000000 -0.467293 0.000039
1.918081 0.569501 0.606548 0.000000 -0.846723 0.000026
2.416879 0.774667 0.488096 0.000001 0.884024 -0.000022
2.472301 0.748470 0.454405 0.000000 0.670927 -0.000023
3.192786 0.716826 0.434136 0.000000 0.399885 -0.000094
2.527723 0.563696 0.489328 0.000000 -0.895457 -0.000003
2.139769 0.587242 0.628234 0.000000 -0.689305 0.000022
3.636162 0.630514 0.654814 0.000000 -0.330248 0.000117
2.195191 0.562278 0.593452 -0.000000 -0.906285 0.000019
2.084347 0.654755 0.660495 0.000000 -0.136768 0.000074
2.028925 0.776602 0.593703 0.000001 0.906141 0.000019
1.363861 0.750616 0.456369 0.000000 0.689193 -0.000022
3.137364 0.641407 0.658031 -0.000000 -0.234704 0.000085
2.195191 0.776797 0.593285 -0.000001 0.904733 0.000005
3.248208 0.771312 0.482087 0.000001 0.859691 -0.000049
1.862659 0.739978 0.638184 -0.000001 0.590333 0.000007
3.691584 0.718223 0.434745 -0.000000 0.392923 -0.000006
2.306035 0.716657 0.434062 -0.000000 0.399873 -0.000047
2.472301 0.589157 0.455644 0.000000 -0.671386 -0.000003
1.680745 0.462237 0.375321 -0.069111 -0.006093 0.006908
1.885569 1.145199 0.158351 -0.091415 -0.005020 -0.006943
1.900199 0.174624 0.142853 -0.069111 -0.014107 0.015733
1.680745 0.876760 0.375321 -0.091414 -0.004518 -0.006251
1.870939 1.126024 0.911837 -0.091414 -0.005306 0.007339
1.695376 0.443062 0.725863 -0.069111 -0.012184 -0.013658
1.870939 0.212972 0.911837 -0.069112 -0.007910 -0.008944
1.636855 0.519759 0.663872 -0.069108 -0.006948 -0.007868
1.680745 0.876760 0.710365 -0.091414 -0.004518 0.006251
3.323960 0.790907 0.640973 0.114604 0.004508 -0.007423
3.541056 0.402635 0.758539 0.114605 -0.004508 -0.007423
3.562766 0.388089 0.315390 0.114604 -0.004528 0.007455
3.367379 0.518999 0.421199 0.114603 -0.004508 0.007423
3.779862 0.242635 0.197824 0.114604 -0.004508 0.007423
3.454218 0.460817 0.374173 0.114605 -0.004508 0.007423
3.714733 1.052725 0.233094 0.114605 0.004508 0.007423
3.303630 0.717927 0.434616 -0.000000 0.399887 -0.000047
2.527723 0.594640 0.634786 0.000000 -0.633269 0.000013
1.474705 0.616025 0.648665 -0.000000 -0.445011 0.000041
3.359052 0.776328 0.491396 0.000000 0.895457 -0.000010
1.767143 0.793228 0.425839 -0.091414 -0.013335 -0.018281
1.767143 0.545768 0.425839 -0.091415 0.006669 -0.009214
3.081942 0.561809 0.592448 -0.000000 -0.906119 0.000010
2.416879 0.563162 0.490404 0.000001 -0.893365 -0.000005
3.248208 0.613648 0.647429 0.000001 -0.467215 0.000078
3.627895 0.994544 0.280120 0.114605 0.004508 0.007423
3.606185 0.979998 0.793809 0.114605 0.004527 -0.007455
3.414474 0.626352 0.653284 0.000000 -0.353633 0.000027
1.696393 0.610534 0.439976 0.000001 -0.488650 -0.000037
2.749410 0.787409 0.555292 -0.000001 0.972712 0.000001
3.691584 0.567590 0.603440 0.000001 -0.859653 0.000049
3.525318 0.787498 0.554465 0.000001 0.919001 0.000000
0.587954 0.597612 0.637134 0.000000 -0.613717 0.000053
2.860254 0.583088 0.461658 -0.000000 -0.724526 -0.000039
1.086751 0.717588 0.434468 0.000000 0.399886 -0.000094
1.253017 0.568133 0.481333 0.000000 -0.859691 -0.000012
1.086751 0.779317 0.587531 -0.000000 0.926216 0.000017
0.532532 0.563737 0.489245 0.000001 -0.894536 -0.000010
1.862659 0.623271 0.652031 0.000000 -0.399605 0.000023
2.141599 0.960831 0.778317 0.069169 -0.006997 0.008613
2.141599 1.005080 0.271605 0.069170 -0.012748 -0.015512
2.141599 0.533034 0.653142 0.069169 0.008085 0.009936
2.141599 0.378165 0.778317 0.069169 0.013991 0.016968
2.141599 0.916583 0.343133 0.069169 -0.007619 -0.009369
3.756827 0.321055 0.277006 -0.000001 0.628605 -0.000777
0.643376 0.557344 0.581304 0.000000 -0.943868 0.000002
2.028925 0.719940 0.435544 0.000000 0.422594 -0.000044
2.028925 0.619098 0.435525 -0.000000 -0.422579 -0.000044
1.958445 0.170290 0.952555 -0.091415 0.008891 0.012259
1.958445 1.168707 0.952555 -0.091416 -0.008891 0.012259
3.636162 0.606419 0.442453 0.000000 -0.532034 -0.000065
2.434757 0.788038 0.544136 -0.000000 0.999691 0.000000
1.863723 0.545145 0.417559 0.069169 0.004043 -0.004993
0.975908 0.774538 0.597835 -0.000000 0.884098 0.000011
2.693988 0.774883 0.488504 0.000000 0.884133 -0.000003
1.308439 0.761617 0.617487 0.000001 0.769811 0.000008
1.142173 0.724246 0.648012 0.000000 0.467261 0.000078
0.255422 0.606458 0.442428 -0.000001 -0.532006 -0.000130
0.865064 0.767876 0.476665 -0.000000 0.833193 -0.000014
0.310844 0.572483 0.474687 0.000000 -0.819151 -0.000029
0.255422 0.596737 0.636454 0.000001 -0.613684 0.000105
0.532532 0.770085 0.480076 -0.000000 0.846738 -0.000013
1.086751 0.694438 0.658753 0.000000 0.210333 0.000190
3.414474 0.725961 0.438581 -0.000000 0.467209 -0.000005
2.583144 0.621620 0.434376 0.000000 -0.399886 -0.000094
1.696393 0.729102 0.645341 0.000000 0.510695 0.000017
1.696393 0.600472 0.639249 0.000000 -0.573895 0.000004
3.582401 0.437921 0.714222 0.000000 0.628606 0.001652
2.693988 0.776484 0.593955 0.000000 0.902800 0.000002
1.973503 0.718266 0.650922 -0.000000 0.422625 0.000176
0.366266 0.597320 0.636907 0.000000 -0.613717 0.000105
1.512249 0.668205 0.661383 0.000000 -0.024509 0.000013
1.696393 0.726124 0.438667 0.000000 0.467214 -0.000010
3.525318 0.596591 0.449346 -0.000000 -0.613685 -0.000026
1.861430 0.328884 0.274815 -0.069111 -0.009620 0.010844
1.861430 1.010113 0.274815 -0.069109 0.004810 0.005462
3.691584 0.561419 0.494076 -0.000000 -0.916453 -0.000001
0.310844 0.566043 0.600759 -0.000001 -0.872014 0.000023
2.087467 0.969534 0.295509 0.069170 -0.006997 -0.008613
2.195191 0.616232 0.436918 0.000000 -0.445148 -0.000021
1.142173 0.615901 0.648604 0.000000 -0.444889 0.000021
3.590221 0.834872 0.660711 -0.000001 -0.628606 0.000826
1.820686 0.863610 0.685906 -0.069112 0.006093 -0.006908
1.807237 0.615859 0.648583 -0.000000 -0.445109 0.000082
2.195191 0.736444 0.444980 -0.000000 0.572726 -0.000007
1.142173 0.769839 0.479685 -0.000001 0.846697 -0.000051
0.366266 0.781561 0.581566 -0.000000 0.943867 0.000029
0.200000 0.573225 0.612059 -0.084372 -0.000252 0.000176
3.026520 0.596044 0.449771 0.000000 -0.613555 -0.000026
3.026520 0.710441 0.431568 -0.000000 0.353731 -0.000027
3.303630 0.616397 0.436835 0.000000 -0.445148 -0.000021
2.250613 0.776933 0.492694 -0.000000 0.905885 -0.000005
3.081942 0.735831 0.444567 -0.000001 0.538965 -0.000004
2.583144 0.719815 0.435486 0.000000 0.422600 -0.000044
3.081942 0.564416 0.487932 0.000001 -0.883707 -0.000011
2.250613 0.561946 0.492945 0.000001 -0.905999 -0.000010
2.028925 0.560532 0.589578 -0.000001 -0.916312 0.000018
0.421688 0.553243 0.566156 0.000000 -0.982563 0.000008
3.469896 0.620522 0.650825 -0.000001 -0.422376 0.000044
1.862659 0.603320 0.444465 0.000000 -0.552968 -0.000062
0.255422 0.720610 0.435857 0.000000 0.422541 -0.000044
1.862659 0.735600 0.444414 -0.000000 0.552898 -0.000031
3.643057 0.489707 0.672365 -0.000000 0.628606 0.002226
3.659172 0.797012 0.661705 0.000000 0.628606 -0.002226
3.598516 0.848798 0.382124 0.000001 0.628607 0.001652
3.598516 0.474753 0.401234 0.000000 0.628606 -0.001652
3.026520 0.776523 0.593871 -0.000001 0.846714 0.000001
2.804832 0.784237 0.512960 0.000000 0.965878 -0.000003
0.632649 0.665250 0.661309 0.000000 -0.024839 0.000027
2.434757 0.550958 0.544136 0.000000 -0.999699 0.000000
1.751815 0.731167 0.441572 0.000001 0.510192 -0.000017
3.414474 0.611904 0.439207 -0.000000 -0.489141 -0.000073
0.698798 0.719689 0.650259 0.000001 0.422592 0.000088
0.200000 0.777578 0.494076 -0.084370 0.000282 -0.000123
1.308439 0.775177 0.489080 -0.000000 0.895462 -0.000020
2.971098 0.577789 0.467699 0.000000 -0.773798 -0.000017
1.751815 0.616563 0.436753 -0.000000 -0.444398 -0.000010
1.585549 0.619098 0.435525 -0.000000 -0.422579 -0.000044
1.934191 1.126989 0.919694 -0.091416 -0.005020 0.006943
1.934191 0.212008 0.919694 -0.091415 0.005020 0.006943
0.754220 0.690996 0.659442 -0.000000 0.185899 0.000216
3.192786 0.562044 0.492736 0.000000 -0.906348 -0.000002
2.804832 0.582083 0.622945 0.000000 -0.741471 0.000037
3.248208 0.726569 0.646772 0.000000 0.489102 0.000037
0.255422 0.721028 0.649632 0.000000 0.445148 0.000021
1.585549 0.721524 0.649385 0.000000 0.445148 0.000041
1.151112 0.550958 0.541550 0.000000 -0.999691 -0.000000
3.693286 0.468667 0.720965 -0.000000 -0.628607 -0.000777
2.749410 0.721193 0.649550 0.000000 0.445148 0.000010
2.028925 0.778464 0.496108 -0.000001 0.916190 -0.000018
2.028925 0.560551 0.496066 -0.000001 -0.916432 -0.000018
0.532532 0.622509 0.651698 0.000000 -0.399858 0.000094
3.831336 0.744138 0.604314 0.251505 0.000174 0.000140
1.997329 1.229598 1.000914 -0.091415 -0.006597 0.009115
1.997329 0.109398 1.000914 -0.091414 0.006597 0.009115
3.407974 0.784210 0.465923 0.000000 -0.628607 -0.001268
0.643376 0.573225 0.473627 0.000000 -0.819126 -0.000004
3.469896 0.784249 0.513004 0.000000 0.965930 -0.000011
2.638566 0.604090 0.641732 0.000000 -0.552822 0.000008
2.915676 0.616769 0.436650 0.000000 -0.445031 -0.000082
1.927478 0.503649 0.695982 0.069171 0.006064 0.007474
2.042959 1.022904 0.837282 0.069170 -0.006375 0.007854
3.626007 0.424150 0.756946 -0.000000 -0.628606 -0.000777
1.419283 0.761207 0.617987 -0.000000 0.773563 0.000004
2.042959 0.308551 0.827952 0.052220 -0.016883 -0.019878
1.857296 0.788066 0.542658 0.000000 0.999699 -0.000000
1.792041 0.669406 0.424273 0.000000 -0.024831 -0.000106
2.749410 0.623187 0.433692 0.000000 -0.399318 -0.000012
3.659172 0.797012 0.423981 0.000000 0.628606 0.002226
3.691417 0.974117 0.312427 0.000001 -0.628606 -0.001554
0.643376 0.717927 0.434616 0.000000 0.399862 -0.000047
2.583144 0.776406 0.594122 -0.000000 0.905398 0.000005
3.773441 0.294177 0.834354 -0.175564 0.003787 0.004657
2.084347 0.778723 0.588985 0.000000 0.916690 0.000002
0.754220 0.782010 0.505431 0.000001 0.951699 -0.000013
1.862659 0.552727 0.522253 0.000000 -0.986903 -0.000002
1.909937 0.253725 0.198852 -0.091414 0.005593 -0.007734
1.909937 1.085271 0.198852 -0.091413 -0.002797 -0.003872
3.081942 0.719438 0.650376 -0.000000 0.422501 0.000044
0.421688 0.724572 0.647839 0.000000 0.467288 0.000039
2.915676 0.722972 0.437020 0.000000 0.445148 -0.000010
0.698798 0.613852 0.647537 0.000000 -0.467288 0.000039
2.693988 0.569796 0.478668 0.000001 -0.845165 -0.000006
2.749410 0.618052 0.649673 0.000000 -0.445083 0.000082
0.698798 0.558077 0.502289 0.000000 -0.943894 -0.000014
2.250613 0.621874 0.651421 -0.000001 -0.399749 0.000094
2.250613 0.718181 0.650959 0.000000 0.398735 0.000012
3.071215 0.787988 0.546167 0.000000 0.999691 0.000000
1.308439 0.617390 0.436342 0.000000 -0.445083 -0.000082
1.086751 0.626179 0.432467 0.000000 -0.376723 -0.000013
3.703122 1.013453 0.812950 0.114605 -0.006345 0.005982
3.649604 0.329908 0.268364 0.114603 -0.004528 0.007455
0.421688 0.619391 0.650298 0.000000 -0.422594 0.000044
1.530127 0.717927 0.434616 -0.000000 0.399887 -0.000047
3.178484 0.787988 0.546167 -0.000000 0.999691 0.000000
2.059800 1.289127 0.034726 0.069168 -0.010572 -0.012931
2.059800 0.049869 0.034726 0.069169 0.010572 -0.012931
3.792032 0.978221 0.301212 -0.175564 -0.003515 -0.004322
3.541056 0.936362 0.758539 0.114604 0.004508 -0.007423
3.562766 0.950907 0.315390 0.114603 0.004528 0.007455
1.854563 0.926399 0.737951 -0.069111 0.005879 -0.006667
0.809642 0.643339 0.658491 0.000000 -0.210234 0.000012
3.475927 0.446271 0.723269 0.114603 -0.004528 -0.007455
3.507361 0.874569 0.369193 0.114603 0.004528 0.007455
1.031330 0.644604 0.658763 -0.000000 -0.210333 0.000190
0.147999 0.629438 0.644915 -0.252461 -0.000064 0.000177
2.804832 0.714230 0.433042 0.000000 0.376904 -0.000101
3.482409 0.806019 0.637390 -0.000000 -0.628606 0.000973
1.308439 0.663773 0.661272 0.000000 -0.024839 0.000412
3.376822 0.787108 0.645802 0.114604 0.004527 -0.007455
1.722580 0.483134 0.700016 -0.091415 0.004518 0.006251
2.361457 0.561253 0.591229 -0.000001 -0.909115 0.000005
3.026520 0.633054 0.655666 0.000000 -0.306619 0.000064
1.474705 0.623783 0.433442 0.000000 -0.376914 -0.000050
3.137364 0.775239 0.489204 -0.000000 0.895506 -0.000010
2.915676 0.776777 0.593327 -0.000000 0.906210 0.000010
1.204747 0.667097 0.661355 0.000000 -0.025170 0.000013
3.580740 0.779543 0.498711 -0.000000 0.926239 -0.000033
1.696393 0.786192 0.521845 0.000001 0.981634 -0.000004
2.971098 0.655122 0.660536 0.000000 -0.111936 0.000182
1.363861 0.615570 0.648439 0.000000 -0.444662 0.000021
3.248208 0.557238 0.580999 0.000000 -0.943798 0.000001
1.886579 0.455652 0.738422 0.069169 0.002060 0.002548
3.648676 0.550959 0.540164 -0.000000 -0.999917 -0.000000
3.495188 0.842643 0.418693 -0.000002 -0.628602 -0.000504
3.540463 0.503865 0.660921 -0.000000 0.628607 0.000656
1.530127 0.558861 0.585471 -0.000000 -0.935088 0.000008
3.350113 0.788059 0.543767 0.000000 0.999921 0.000000
3.580740 0.723055 0.648624 -0.000000 0.444766 0.000021
2.638566 0.781774 0.504730 0.000000 0.943868 -0.000007
3.768088 0.682162 0.430451 0.274665 0.000003 -0.000227
1.863723 0.523900 0.641842 0.052221 -0.005355 -0.006591
1.749337 0.443101 0.731945 -0.091414 0.004231 0.005855
1.776095 0.403068 0.763873 -0.091415 0.003944 0.005458
2.361457 0.778150 0.590298 -0.000002 0.913980 0.000009
2.660020 0.668021 0.424307 -0.000000 -0.025008 -0.000106
1.240503 0.788057 0.542289 0.000000 0.999691 -0.000000
1.474705 0.781774 0.580955 -0.000001 0.942711 0.000007
0.147999 0.639800 0.437290 -0.252464 -0.000054 -0.000176
1.963566 1.077304 0.225198 -0.069108 0.003955 0.004494
1.963566 0.261693 0.225198 0.052219 -0.007620 0.009329
3.693286 0.468667 0.364721 -0.000000 -0.628607 0.001554
0.587954 0.559801 0.497855 0.000000 -0.926201 -0.000004
0.920486 0.781896 0.580607 -0.000000 0.951829 0.000007
2.583144 0.626870 0.653480 0.000000 -0.353720 0.000054
1.585549 0.560202 0.588815 0.000001 -0.920013 0.000002
3.502396 0.739340 0.470595 0.009238 0.029862 -0.007138
1.363861 0.553598 0.567828 0.000000 -0.977563 0.000002
2.052583 0.286743 0.239460 0.052220 -0.016883 0.019878
2.638566 0.559331 0.499010 0.000000 -0.926326 -0.000001
2.860254 0.764455 0.471843 0.000000 0.804699 -0.000004
1.695823 0.821808 0.424994 -0.069111 0.003474 0.003949
1.881124 0.979602 0.782247 -0.069110 0.005452 -0.006186
1.881124 0.359395 0.782247 -0.069112 -0.010902 -0.012257
0.477110 0.570278 0.607751 -0.000000 -0.833195 0.000027
2.084347 0.779972 0.499783 0.000001 0.933078 -0.000004
2.084347 0.559057 0.499696 0.000000 -0.934557 -0.000004
1.622224 0.800063 0.648374 -0.091415 -0.004661 0.006449
1.695823 0.815829 0.668088 -0.091412 -0.003496 0.004839
3.469896 0.562239 0.593369 0.000000 -0.906067 0.000005
1.788669 0.451829 0.376129 -0.069111 -0.012184 0.013658
1.788669 0.887167 0.376129 -0.069112 0.006093 0.006908
3.831336 0.588549 0.595730 0.251479 -0.000189 0.000120
1.640971 0.776914 0.593034 0.000001 0.905852 0.000010
1.308439 0.553899 0.516458 0.000000 -0.977637 -0.000004
2.971098 0.748161 0.454126 -0.000000 0.670822 -0.000023
2.527723 0.764290 0.471620 -0.000000 0.804422 -0.000004
3.414474 0.779421 0.587275 -0.000000 0.926002 0.000008
3.626007 0.424150 0.328740 0.000001 -0.628607 0.001554
1.308439 0.574212 0.613397 -0.000000 -0.804566 0.000030
3.580740 0.776143 0.594662 0.000001 0.895135 0.000010
3.691584 0.720317 0.649966 -0.000001 0.422503 0.000088
3.637843 0.877980 0.358537 -0.000000 0.628605 0.001554
3.693286 0.885776 0.701855 -0.000002 -0.628605 0.000777
0.698798 0.630950 0.430720 0.000000 -0.330286 -0.000234
2.583144 0.557512 0.581784 0.000000 -0.943833 0.000007
2.831650 0.672176 0.424337 0.000000 0.024847 -0.000027
1.776095 0.940803 0.757842 -0.069109 0.005666 -0.006427
3.137364 0.779439 0.587232 0.000001 0.925397 0.000008
2.078445 0.835694 0.672927 0.052221 0.013590 -0.016274
2.078445 0.830865 0.406785 0.069170 -0.010261 -0.012558
0.975908 0.743062 0.449856 -0.000000 0.613615 -0.000013
3.248208 0.683232 0.425077 0.000000 0.112014 -0.000182
2.527723 0.759667 0.619830 0.000000 0.757938 0.000018
0.920486 0.721938 0.436506 0.000000 0.445053 -0.000082
0.920486 0.784117 0.512514 0.000000 0.965945 -0.000001
3.400172 0.551041 0.538225 -0.000008 -0.081422 -0.000000
1.497947 0.670791 0.424303 0.000000 0.025000 -0.000013
1.740386 0.570856 0.609429 -0.069110 -0.010421 -0.011729
2.638566 0.712818 0.432467 0.000000 0.353774 -0.000027
2.042959 0.330675 0.275616 0.052220 -0.009267 0.011290
1.948821 1.146163 0.150494 -0.091415 -0.008891 -0.012259
1.948821 0.192833 0.150494 -0.091415 0.008891 -0.012259
1.944898 0.669498 0.661415 0.000000 0.025170 0.000210
1.751815 0.777578 0.591610 -0.000000 0.916505 0.000004
3.716024 0.482783 0.677961 -0.000001 0.628606 0.000777
1.903420 0.869102 0.688161 0.052217 0.002678 -0.003309
2.141599 1.270568 1.028666 0.069170 -0.010572 0.012930
2.141599 0.068428 1.028666 0.069169 0.010572 0.012930
1.863723 0.793852 0.417559 0.069169 -0.004043 -0.004993
3.747006 0.551846 0.528099 0.250722 -0.000247 -0.000028
1.474705 0.713331 0.653010 0.000001 0.376391 0.000050
0.083543 0.612445 0.601337 -0.504226 -0.000044 0.000043
1.031330 0.712256 0.432255 0.000001 0.353035 -0.000027
3.789171 0.567905 0.507294 0.250747 -0.000938 -0.000388
3.759630 0.885430 0.701576 0.000000 -0.628606 0.001165
2.361457 0.625024 0.432937 -0.000000 -0.376882 -0.000025
2.116338 0.102715 0.082480 0.069169 0.006530 -0.008044
2.116338 1.236281 0.082480 0.069170 -0.006530 -0.008044
0.083543 0.737011 0.496814 -0.504228 0.000052 -0.000033
1.859374 0.415581 0.764269 -0.091415 0.003944 0.005458
2.141599 0.333917 0.271605 0.069170 0.006375 -0.007854
3.469896 0.715342 0.652192 -0.000000 0.376778 0.000050
1.680969 0.502289 0.404208 -0.091414 0.002331 -0.003227
2.361457 0.712645 0.432402 -0.000000 0.353530 -0.000027
3.670315 0.412616 0.734675 0.000001 0.628604 0.000583
2.111164 0.669683 0.424275 0.000000 0.025000 -0.000026
1.753897 0.366366 0.787854 -0.069111 -0.010475 -0.011788
3.192786 0.682131 0.660733 -0.000000 0.111934 0.000364
2.685049 0.671345 0.661369 0.000000 0.024839 0.000053
1.753897 0.972631 0.787854 -0.091415 -0.007027 0.009706
1.753897 0.972631 0.297832 -0.091415 -0.007027 -0.009706
1.753897 0.366366 0.297832 -0.069111 -0.010475 0.011788
1.419283 0.785823 0.519893 0.000000 0.982586 -0.000004
2.002108 0.669498 0.424271 0.000000 0.024847 -0.000213
0.307268 0.671900 0.661385 0.000000 0.012584 0.000210
3.794944 0.832851 0.682773 -0.175565 0.003490 -0.004342
3.789171 0.645548 0.647778 0.250747 -0.000281 0.000975
0.754220 0.592651 0.633132 -0.000000 -0.652267 0.000048
1.031330 0.780397 0.500906 0.000000 0.935425 -0.000002
2.971098 0.782321 0.579288 0.000000 0.951752 0.000007
1.905068 0.214175 0.170853 -0.091415 0.005020 -0.006943
3.302250 0.776362 0.456469 0.114604 0.004508 0.007423
0.698798 0.553481 0.567286 -0.000000 -0.977622 0.000002
1.973189 0.239885 0.878761 0.052219 -0.015237 -0.018099
1.973189 1.099111 0.878761 -0.069113 0.007482 -0.008466
1.253017 0.733673 0.642545 -0.000001 0.529849 0.000016
1.798292 0.439770 0.739892 -0.091415 0.004231 0.005855
1.974392 0.385453 0.787334 0.069170 0.003810 0.004706
1.974392 0.953544 0.787334 0.069170 -0.003809 0.004706
2.860254 0.555776 0.576375 -0.000000 -0.959106 0.000012
0.083543 0.597739 0.503765 -0.504226 -0.000055 -0.000028
3.831336 0.703211 0.508188 1.000000 0.000000 0.000000
3.831336 0.705069 0.575588 1.000000 0.000000 0.000000
3.831336 0.640865 0.503886 1.000000 -0.000000 0.000000
3.831336 0.627628 0.567017 1.000000 0.000000 0.000000
3.732606 0.557146 0.436236 -0.000001 -0.628606 0.000507
1.172566 0.667005 0.424333 0.000000 -0.025153 -0.000053
2.322125 0.670422 0.661392 -0.000000 0.024525 0.000013
0.366266 0.637518 0.428667 -0.000001 -0.258015 -0.000038
2.179101 0.788057 0.543397 0.000004 0.302134 0.000000
2.031206 1.293860 1.051138 -0.091416 -0.005450 0.007536
2.031206 0.045137 1.051138 -0.091415 0.005450 0.007536
3.761499 0.781643 0.436404 -0.175565 0.003490 0.004343
2.018299 1.020194 0.267678 0.052219 0.008444 0.010313
1.867332 0.500739 0.381990 0.069169 0.008085 -0.009936
2.179101 0.550931 0.542658 0.000000 -0.999699 -0.000000
1.828839 0.771995 0.481027 0.000001 -0.777723 0.000907
0.446717 0.664511 0.424395 -0.000000 -0.024839 -0.000027
0.754220 0.713160 0.432606 -0.000000 0.376945 -0.000101
1.820686 0.475387 0.685906 -0.069112 -0.006093 -0.006908
1.822546 0.940944 0.772753 -0.091414 -0.007888 0.010886
2.079047 1.334214 1.085686 0.000001 0.777725 0.000290
2.079047 0.004782 1.085686 -0.000000 -0.777721 0.000290
0.029022 0.695618 0.516064 -0.718596 0.000013 -0.000013
0.156522 0.725436 0.445955 -0.219276 0.000114 -0.000187
3.718401 0.672362 0.424306 0.000000 0.012580 -0.000026
3.605398 0.571063 0.447484 -0.000001 -0.628606 0.000674
1.968378 0.551646 0.653542 0.069171 0.006064 0.007474
1.885376 0.566325 0.649077 0.069171 0.004043 0.004993
1.951537 0.819803 0.404412 0.069170 -0.010261 -0.012559
1.339726 0.788022 0.544782 -0.000008 0.078984 0.000000
2.007471 0.788068 0.542935 0.000000 0.999684 0.000000
3.747006 0.785720 0.566338 0.251102 0.000243 0.000052
1.951537 0.504662 0.422391 0.052219 -0.008032 0.009822
1.867332 0.838257 0.381990 0.069169 -0.004043 -0.004993
0.587954 0.629555 0.431208 0.000001 -0.328711 -0.000015
3.659172 0.541985 0.423981 0.000000 -0.628606 0.002226
3.703713 0.556939 0.649618 0.000001 -0.628604 -0.000507
3.732606 0.781850 0.649450 0.000001 0.628605 -0.000507
3.687598 0.834336 0.660278 -0.000000 -0.628606 0.002226
3.687598 0.834336 0.425408 0.000000 -0.628606 -0.002226
3.643057 0.833844 0.394211 -0.000001 0.628606 0.002226
3.630746 0.548417 0.624912 0.000000 0.628606 0.001652
3.643057 0.489707 0.413321 -0.000001 0.628607 -0.002226
1.901014 0.773353 0.648234 0.069168 -0.004043 0.004993
2.007471 0.550928 0.542751 0.000000 -0.999683 -0.000000
2.092279 0.321234 0.821017 0.052220 -0.016883 -0.019878
3.516991 0.857251 0.678800 -0.000000 -0.628607 0.001313
3.542131 0.798403 0.631235 -0.000000 -0.628607 0.001009
2.141599 1.071452 0.867728 0.069168 -0.005131 0.006331
2.141599 0.267545 0.867728 0.069169 0.010261 0.012559
3.525318 0.555358 0.574957 0.000000 -0.965945 0.000001
2.092279 1.013992 0.825682 0.069169 -0.012748 0.015512
2.052583 1.067572 0.213158 0.069169 -0.005753 -0.007093
2.361457 0.779439 0.498454 -0.000001 0.924851 -0.000008
3.054231 0.550997 0.539980 0.000000 -0.999683 -0.000000
2.052583 1.074378 0.864108 0.052219 0.007620 -0.009329
2.052583 0.264619 0.864108 0.052219 -0.015237 -0.018099
3.625435 0.667651 0.424294 -0.000000 -0.012422 -0.000213
1.419283 0.551258 0.533982 0.000000 -0.998060 -0.000001
0.122956 0.571378 0.567827 -0.350112 -0.000116 0.000026
3.590951 0.570959 0.638286 -0.000003 -0.628597 -0.000674
1.902875 1.010221 0.253829 -0.091416 -0.003370 -0.004666
1.902875 0.328776 0.253829 -0.091415 0.006740 -0.009312
0.366266 0.564977 0.486870 -0.000000 -0.884099 -0.000022
3.714155 0.409888 0.768474 0.000000 -0.628606 -0.000777
3.758696 0.424842 0.756387 0.000000 -0.628606 -0.000777
3.757294 0.358586 0.809939 -0.000000 -0.628607 -0.000777
1.973075 0.151116 0.117633 -0.091414 0.007744 -0.010690
1.973075 1.187881 0.117633 -0.091413 -0.007744 -0.010690
1.742022 0.886308 0.361490 -0.091415 -0.008174 -0.011279
1.742022 0.452688 0.361490 -0.091414 0.004087 -0.005657
3.542131 0.798403 0.454451 -0.000002 -0.628603 -0.000504
3.563935 0.525985 0.442644 0.000001 0.628605 -0.000674
1.197595 0.708919 0.431025 0.000000 0.330222 -0.000059
3.794944 0.498423 0.673218 -0.175565 0.003515 0.004322
3.137364 0.699426 0.428117 0.000000 0.258569 -0.000038
2.638566 0.627734 0.431879 0.000000 -0.353694 -0.000108
0.532532 0.556115 0.577527 0.000001 -0.959073 0.000012
1.197595 0.574377 0.613620 -0.000001 -0.803446 0.000008
0.366266 0.705855 0.429992 0.000000 0.306704 -0.000064
2.021582 0.063818 0.056690 -0.069111 -0.008979 0.010134
2.021582 1.275179 0.056690 -0.069110 0.008979 0.010134
2.053184 0.431798 0.742850 0.069170 0.003810 0.004706
2.053184 0.907199 0.742850 0.069169 -0.001905 0.002356
2.081453 0.132823 0.972574 0.052220 -0.010297 -0.012499
2.081453 1.206173 0.972574 0.052219 0.005149 -0.006340
2.141599 0.894459 0.724671 0.069171 -0.001905 0.002356
2.141599 0.444537 0.724671 0.069170 0.007618 0.009369
1.807237 0.578998 0.619445 -0.000000 -0.757962 0.000035
3.773441 0.305761 0.236999 -0.175564 -0.003760 0.004679
3.773441 1.033235 0.236999 -0.175564 0.003760 0.004679
1.003618 0.787999 0.539980 0.000000 0.999683 -0.000000
1.808978 0.772331 0.436187 -0.091414 -0.005378 -0.007437
3.137364 0.599762 0.638732 0.000000 -0.593813 0.000028
3.359052 0.698083 0.427775 0.000000 0.234690 -0.000170
3.761499 0.557354 0.649282 -0.000001 -0.628607 -0.001015
1.009876 0.667097 0.424331 0.000000 -0.025000 -0.000013
0.076093 0.652362 0.467763 -0.533422 -0.000014 -0.000055
3.598516 0.848798 0.703562 0.000001 0.628607 -0.001652
3.598516 0.474753 0.684452 0.000000 0.628606 0.001652
1.197595 0.629119 0.431360 0.000000 -0.330178 -0.000029
1.983414 0.815662 0.675084 0.069169 -0.010261 0.012559
3.230330 0.551014 0.539334 0.000000 -0.999683 -0.000000
1.778283 0.794388 0.628996 -0.069111 0.009940 -0.011199
3.469896 0.556576 0.506706 -0.000001 -0.950292 -0.000003
3.768088 0.598980 0.454416 0.250746 -0.000617 -0.000870
2.361457 0.559122 0.499524 0.000000 -0.935404 -0.000004
2.488391 0.788029 0.544505 -0.000008 0.081385 0.000000
1.808978 0.566666 0.436187 -0.091416 0.005378 -0.007437
1.807237 0.785642 0.566699 0.000001 0.976344 0.000004
3.795914 0.544305 0.449552 -0.175563 0.003515 -0.004322
1.530127 0.626525 0.653350 -0.000000 -0.353670 0.000054
1.915002 1.031079 0.848287 -0.091415 -0.005880 0.008129
1.915002 0.307917 0.848287 -0.091415 0.002940 0.004071
1.881124 0.372178 0.287623 -0.091415 0.007314 -0.010100
1.881124 0.966818 0.287623 -0.091414 -0.003657 -0.005062
2.583144 0.701434 0.657031 0.000000 0.258651 0.000038
1.822546 0.389040 0.761602 -0.069110 -0.010475 -0.011788
1.973503 0.634548 0.656147 0.000000 -0.306650 0.000254
0.156522 0.730196 0.636822 -0.219280 0.000125 0.000184
0.602256 0.551032 0.547091 0.000000 -0.999691 0.000000
2.139769 0.625537 0.652958 -0.000000 -0.376817 0.000025
1.725308 0.524871 0.670196 -0.091415 0.006669 0.009214
3.733541 0.753125 0.491047 0.009238 0.029864 -0.007138
1.928080 0.431720 0.754067 0.069169 0.008241 0.010124
1.928080 0.907277 0.754067 0.069169 -0.004120 0.005089
2.749410 0.754953 0.460654 0.000000 0.724516 -0.000039
0.405598 0.787946 0.547830 0.000000 0.999691 0.000000
1.363861 0.572086 0.475254 0.000000 -0.819049 -0.000014
3.248208 0.593603 0.451748 -0.000000 -0.633135 -0.000050
3.789171 0.777132 0.542843 0.250748 0.002026 0.000114
1.408556 0.671345 0.661369 -0.000000 0.024847 0.000013
3.580740 0.724450 0.437782 -0.000000 0.467230 -0.000078
1.165415 0.788006 0.540257 0.000000 0.999691 -0.000000
0.326934 0.787937 0.548199 0.000000 0.999683 0.000000
3.831336 0.726764 0.464930 0.250073 0.000136 -0.000179
1.807237 0.553559 0.518039 -0.000000 -0.977563 -0.000002
2.565266 0.550967 0.541181 0.000000 -0.999691 -0.000000
0.200000 0.777578 0.591610 -0.084371 0.000282 0.000123
1.857709 0.837419 0.426206 -0.069112 0.013466 0.015045
1.857709 0.501578 0.426206 0.052221 -0.005355 0.006591
2.915676 0.554987 0.512112 -0.000000 -0.965878 -0.000011
1.837624 0.880013 0.730475 -0.091414 -0.008461 0.011671
2.489285 0.550965 0.544413 0.000000 -0.999684 0.000000
2.161222 0.669683 0.424275 0.000000 0.025000 -0.000053
2.097091 1.047388 0.233440 0.069169 -0.011505 -0.014042
2.097091 0.291609 0.233440 0.069169 0.005753 -0.007093
2.250613 0.556930 0.580079 0.000001 -0.918664 0.000002
3.670315 0.428062 0.331901 -0.000000 -0.628606 0.000583
3.525318 0.599390 0.638458 0.000001 -0.593567 0.000028
2.021307 0.130846 0.970128 0.052219 -0.010297 -0.012500
2.021307 1.208150 0.970128 -0.069110 0.010689 -0.012023
2.139769 0.760856 0.618416 -0.000000 0.773936 0.000034
3.789171 0.716199 0.639817 0.250746 0.000369 0.000890
1.722580 0.855862 0.700016 -0.091414 -0.004518 0.006251
3.796418 0.568102 0.616899 -0.175563 0.003515 0.004322
3.716024 0.498229 0.388615 -0.000000 -0.628606 0.000777
1.197595 0.765772 0.612059 -0.000000 0.819152 0.000029
1.363861 0.713246 0.432641 0.000000 0.376762 -0.000025
0.091150 0.755651 0.542843 -0.481942 0.000034 0.000001
1.862659 0.699560 0.657533 -0.000000 0.258793 0.000153
2.250613 0.782279 0.579420 0.000000 0.951733 0.000002
0.191223 0.552985 0.525281 -0.084377 -0.000305 -0.000042
1.859374 0.937303 0.338598 -0.069111 0.011757 0.013192
1.859374 0.401693 0.338598 -0.069110 -0.005879 0.006667
3.636162 0.557619 0.582089 0.000000 -0.943890 0.000014
1.953943 0.753536 0.627497 0.069170 -0.004043 0.004993
1.953943 0.753536 0.458189 0.069169 -0.004043 -0.004993
1.953943 0.585461 0.458189 0.069169 0.004043 -0.004993
1.086751 0.558077 0.583397 0.000000 -0.943969 0.000004
3.192786 0.753270 0.458941 0.000000 0.707067 -0.000041
2.087467 0.376386 0.776116 0.052220 -0.009267 -0.011290
3.469896 0.731678 0.441887 -0.000001 0.530774 -0.000016
3.335810 0.667835 0.661395 0.000000 -0.012257 0.000216
3.831336 0.576452 0.516532 0.246604 -0.000218 -0.000065
2.002060 1.164535 0.152105 -0.069111 0.012398 0.013890
2.002060 0.174462 0.152105 0.052219 -0.005973 0.007342
2.087467 0.958472 0.781236 0.069170 -0.006997 0.008613
2.022509 0.239549 0.900973 0.069169 0.005131 0.006331
2.022509 1.099447 0.900973 0.069170 -0.005131 0.006331
1.474705 0.558077 0.502289 0.000000 -0.943919 -0.000007
3.647811 0.944901 0.749644 -0.000000 -0.628607 0.001165
0.532532 0.782960 0.577261 0.000000 0.959170 0.000006
1.893797 0.491702 0.669888 0.052220 -0.010709 -0.012980
0.366266 0.706295 0.655553 -0.000000 0.306655 0.000254
2.101331 0.788064 0.543120 -0.000000 0.999683 0.000000
2.101331 0.550933 0.542566 0.000000 -0.999684 -0.000000
1.998451 0.306970 0.848624 0.069170 0.006375 0.007854
1.998451 1.032027 0.848624 0.069169 -0.006375 0.007854
3.414474 0.556817 0.579727 -0.000000 -0.951795 0.000007
2.472301 0.711046 0.431797 0.000000 0.353708 -0.000054
3.831336 0.664180 0.590897 1.000000 -0.000000 0.000000
1.876956 0.457963 0.696026 0.052221 -0.005355 -0.006591
3.137364 0.552916 0.564431 0.000000 -0.982586 0.000001
1.997329 1.229598 0.084772 -0.091415 -0.006597 -0.009115
1.640971 0.558926 0.585644 -0.000000 -0.935217 0.000008
1.997329 0.109398 0.084772 -0.091414 0.006597 -0.009115
2.087467 0.380525 0.304450 0.069169 0.006997 -0.008613
0.147999 0.601132 0.457114 -0.252466 -0.000119 -0.000141
3.703713 0.782058 0.436068 -0.000001 0.628605 0.000507
1.383527 0.788031 0.544413 0.000000 0.996536 0.000000
1.530127 0.781896 0.505079 0.000000 0.951820 -0.000013
1.458615 0.788029 0.541181 0.000009 0.076773 -0.000000
2.527723 0.632702 0.655553 0.000000 -0.306606 0.000064
0.310844 0.754762 0.625233 -0.000000 0.724515 0.000019
2.860254 0.613444 0.647321 -0.000000 -0.467293 0.000077
0.310844 0.759848 0.466066 0.000000 0.757991 -0.000018
1.920862 0.431751 0.365521 0.052220 -0.002729 0.003372
1.920862 0.907246 0.365521 0.052219 0.005458 0.006716
1.696393 0.570099 0.478204 0.000001 -0.831828 -0.000014
2.361457 0.710139 0.654232 -0.000000 0.352556 0.000014
2.101902 1.094881 0.883995 0.052220 0.006796 -0.008338
2.101902 0.244116 0.883995 0.052220 -0.006796 -0.008338
2.047771 0.581371 0.622438 0.069169 0.008085 0.009936
1.812923 0.918400 0.330296 -0.091415 -0.007887 -0.010886
1.812923 0.420596 0.330296 -0.091414 0.003944 -0.005459
3.493137 0.670422 0.661404 -0.000004 0.006954 0.000380
2.106714 1.136303 0.923255 0.069169 -0.004509 0.005567
2.106714 0.202693 0.923255 0.069170 0.009018 0.011064
1.585549 0.555959 0.508691 0.000002 -0.942938 -0.000003
2.915676 0.628944 0.654264 0.000000 -0.353633 0.000027
2.472301 0.625580 0.432711 0.000000 -0.377032 -0.000006
2.062206 1.118309 0.185423 0.052220 0.013590 0.016274
2.062206 0.220687 0.185423 0.052220 -0.006796 0.008339
3.617968 0.746233 0.480821 0.009238 0.059594 -0.007400
2.915676 0.564999 0.598856 -0.000001 -0.860879 0.000003
3.793973 0.460264 0.719859 -0.175563 -0.003490 -0.004343
0.514654 0.551037 0.538410 -0.000000 -0.999691 -0.000000
2.893329 0.787995 0.545890 0.000000 0.999699 0.000000
1.640971 0.678359 0.661084 -0.000000 0.087103 0.000234
3.789171 0.716199 0.445869 0.250746 0.000369 -0.000890
2.509845 0.671253 0.661372 0.000016 0.000404 0.000812
3.303630 0.559122 0.586162 0.000000 -0.935425 0.000002
1.732847 0.795616 0.451421 -0.069113 0.005211 0.005914
3.026520 0.779683 0.499053 0.000000 0.926099 -0.000002
3.414474 0.701612 0.656984 -0.000000 0.283144 0.000017
2.109721 0.893070 0.359296 0.069169 -0.004121 -0.005089
3.560182 0.746648 0.480486 0.009238 0.059594 -0.007400
3.531289 0.584418 0.489873 0.009238 -0.059594 -0.007400
1.308439 0.782123 0.579903 0.000000 0.951829 0.000013
0.477110 0.553724 0.517271 -0.000000 -0.977626 -0.000004
1.898063 0.328000 0.808269 -0.069112 -0.005024 -0.005703
1.898063 1.010997 0.808269 -0.069112 0.005024 -0.005703
1.086751 0.559122 0.499524 0.000000 -0.935425 -0.000002
3.081942 0.640419 0.427894 0.000000 -0.234688 -0.000042
0.366266 0.773270 0.485491 0.000000 0.872225 -0.000006
3.726225 0.881200 0.729751 -0.000001 0.628605 -0.001165
2.032133 0.205944 0.927277 0.069169 0.010261 0.012559
2.032133 1.133053 0.927277 0.069170 -0.005131 0.006331
3.831336 0.760054 0.508938 0.251377 0.000210 -0.000075
3.538794 0.467137 0.690607 -0.000001 0.628606 0.000674
2.028925 0.754603 0.460286 0.000000 0.724465 -0.000019
2.028925 0.584362 0.460319 0.000001 -0.723944 -0.000020
3.248208 0.776426 0.594080 0.000000 0.906198 0.000005
3.604204 0.900238 0.745139 -0.000001 0.628605 -0.001554
1.950935 0.862009 0.685623 0.052221 0.013590 -0.016274
1.031330 0.551374 0.532648 0.000001 -0.994839 -0.000001
3.626007 0.914847 0.328740 -0.000001 0.628606 0.000777
1.950935 0.862009 0.400063 0.052220 0.013590 0.016274
1.474705 0.705767 0.429963 0.000000 0.306582 -0.000032
0.781037 0.551023 0.538964 0.000000 -0.999691 -0.000000
2.110323 1.313453 0.019569 0.069170 -0.008085 -0.009936
2.110323 0.804600 0.430857 0.069171 -0.004043 -0.004993
2.110323 0.512273 0.672711 0.069169 0.010261 0.012559
2.110323 0.025543 0.019569 0.069170 0.008085 -0.009936
2.141599 0.488786 0.396779 0.069170 0.004043 -0.004993
2.110323 0.556521 0.636947 0.069169 0.008085 0.009936
2.110323 0.760352 0.466621 0.069169 -0.008085 -0.009936
2.110323 0.578645 0.466621 0.069169 0.008085 -0.009936
1.983414 0.511241 0.660121 0.052219 -0.013591 -0.016274
0.493200 0.664881 0.424386 -0.000000 -0.025000 -0.000053
1.901014 0.773353 0.437452 0.069169 -0.004043 -0.004993
0.477110 0.783221 0.509311 0.000000 0.959139 -0.000003
2.041756 1.166658 0.132105 0.069168 -0.004509 -0.005567
2.041756 0.172338 0.132105 0.069169 0.004509 -0.005567
3.462542 0.784210 0.465923 -0.000001 -0.628607 -0.001268
1.404981 0.671345 0.424317 0.000000 0.024847 -0.000013
0.200000 0.660637 0.661084 -0.125291 -0.000006 0.000103
1.795537 0.966375 0.297634 -0.091414 -0.007027 -0.009706
1.795537 0.372622 0.297634 -0.091415 0.003514 -0.004864
1.607594 0.780889 0.452810 -0.091414 -0.004661 -0.006449
2.045015 0.669683 0.661411 0.000000 0.025170 0.000105
1.905826 0.392539 0.334839 0.052220 -0.002523 0.003118
1.905826 0.946457 0.334839 -0.069112 0.005238 0.005944
3.646861 0.738302 0.614252 0.009238 0.059593 0.007400
3.525318 0.776082 0.594786 0.000000 0.895457 0.000005
2.915676 0.783234 0.509355 0.000000 0.959165 -0.000012
2.416879 0.557467 0.581653 0.000000 -0.934819 0.000001
3.303630 0.735985 0.641016 0.000000 0.550660 0.000008
3.137364 0.553520 0.518219 0.000000 -0.977603 -0.000004
3.827812 0.427717 0.347420 -0.175564 -0.003760 0.004679
0.156522 0.774628 0.504579 -0.219275 0.000207 -0.000070
1.846800 0.982662 0.805614 -0.091415 -0.007314 0.010100
1.846800 0.356335 0.805614 -0.091415 0.003657 0.005062
3.210664 0.665435 0.424372 0.000000 -0.024847 -0.000027
3.328659 0.551032 0.538595 -0.000000 -0.999691 -0.000000
2.971098 0.662574 0.424481 0.000000 -0.062348 -0.000328
0.643376 0.577497 0.617630 -0.000000 -0.773898 0.000008
2.638566 0.786269 0.563433 -0.000000 0.986904 0.000002
2.050778 0.437434 0.347177 0.069169 0.004121 -0.005089
0.029022 0.632137 0.540978 -0.736174 -0.000008 -0.000000
3.473503 0.599449 0.615259 0.009237 -0.059602 0.007399
1.919058 0.487423 0.375838 0.069169 0.010261 -0.012559
1.919058 0.851574 0.375838 0.069170 -0.010261 -0.012559
3.580740 0.555528 0.510153 -0.000000 -0.959114 -0.000003
3.760098 0.863344 0.401961 0.000001 -0.628605 -0.001165
2.749410 0.558306 0.501684 -0.000000 -0.934699 -0.000002
1.862659 0.781072 0.582961 -0.000000 0.943726 0.000004
3.747006 0.628944 0.654264 0.252234 -0.000087 0.000231
0.200000 0.707262 0.655241 -0.084377 0.000102 0.000290
0.421688 0.578433 0.466912 -0.000000 -0.773290 -0.000008
0.604044 0.787969 0.538780 0.000000 0.999691 -0.000000
1.920261 0.818440 0.682960 0.069170 -0.002021 0.002500
0.834671 0.788002 0.545613 0.000000 0.999683 0.000000
2.559903 0.788057 0.543397 -0.000000 0.999691 0.000000
2.425818 0.670052 0.661401 0.000000 0.024839 0.000013
3.285752 0.665989 0.424358 0.000000 -0.024839 -0.000027
2.872769 0.671899 0.424331 0.000000 0.024839 -0.000027
1.918456 0.442734 0.711126 0.052220 -0.002729 -0.003372
3.580740 0.558698 0.585039 0.000000 -0.935217 0.000008
3.630746 0.790580 0.460774 -0.000001 -0.628606 -0.001652
2.361457 0.628944 0.654264 0.000000 -0.353720 0.000108
3.407974 0.570232 0.638873 -0.000000 -0.628607 -0.001268
0.491412 0.787955 0.547460 0.000000 0.999691 0.000000
2.100699 0.070211 0.054814 0.069169 0.010572 -0.012931
2.100699 1.268786 0.054814 0.069168 -0.010572 -0.012931
3.735024 0.987888 0.815983 -0.000002 0.628602 -0.000777
3.692819 0.907861 0.365980 -0.000001 -0.628605 -0.000583
3.713221 0.365717 0.804176 0.000000 -0.628606 -0.001554
3.553923 0.669868 0.661411 -0.000000 0.012420 0.000213
0.061697 0.657888 0.608689 -0.589925 -0.000008 0.000039
3.637899 0.369243 0.777630 0.114604 0.006345 0.005982
0.029022 0.703969 0.557373 -0.718596 0.000017 0.000007
3.550874 0.427551 0.355184 0.114604 0.006345 -0.005982
3.008642 0.550977 0.540811 -0.000000 -0.999691 -0.000000
3.565603 0.760837 0.632466 -0.000003 0.628593 -0.000504
1.870996 0.263795 0.210530 -0.091415 0.002940 -0.004071
1.856366 1.056028 0.859658 -0.091415 -0.005880 0.008129
1.856366 0.282969 0.859658 -0.091415 0.005880 0.008129
1.870996 1.075202 0.210530 -0.091415 -0.005880 -0.008129
3.538794 0.871859 0.395079 -0.000002 -0.628604 -0.000674
1.681417 0.573427 0.612609 -0.069111 -0.006948 -0.007868
3.565811 0.512111 0.399835 0.000002 -0.628604 0.000674
3.420335 0.522735 0.669365 0.114604 -0.004527 -0.007455
1.994241 0.926958 0.344655 0.052220 0.002729 0.003372
1.994241 0.412039 0.344655 0.052220 -0.005458 0.006716
3.806668 0.240422 0.885701 -0.175565 0.001894 0.002329
3.806668 1.098575 0.199985 -0.175562 -0.001894 -0.002329
3.806668 1.098575 0.885701 -0.175564 -0.001894 0.002329
0.587954 0.709573 0.654432 -0.000000 0.330272 0.000029
3.826805 0.958873 0.308951 -0.175563 0.003760 0.004679
3.758229 0.402757 0.311448 -0.000001 -0.628606 0.000777
3.792032 0.360776 0.784474 -0.175564 0.003515 0.004322
2.047169 0.531618 0.422981 0.069170 0.010261 -0.012559
2.047169 0.807378 0.422981 0.069169 -0.010261 -0.012559
2.416879 0.781896 0.580607 -0.000000 0.951861 0.000002
3.691584 0.783818 0.511398 -0.000001 0.965601 -0.000011
2.047169 0.814598 0.653773 0.052221 0.013590 -0.016274
3.792032 0.970498 0.794029 -0.175563 0.003490 -0.004343
0.587954 0.710744 0.431683 0.000000 0.353721 -0.000108
2.084347 0.746695 0.632831 -0.000001 0.645188 0.000006
2.977356 0.787990 0.539611 -0.000009 0.076753 -0.000000
3.589075 0.600279 0.471098 0.009238 -0.059594 -0.007400
3.192786 0.558796 0.585298 -0.000000 -0.935318 0.000015
1.918456 0.901794 0.715596 0.052220 0.005458 -0.006716
1.253017 0.555554 0.575622 0.000001 -0.955854 0.000003
3.687598 0.520107 0.679388 -0.000001 -0.628606 -0.002226
3.733073 0.579232 0.631599 -0.000001 -0.628607 -0.001015
1.944319 1.018605 0.243084 0.069169 -0.006375 -0.007854
1.944319 0.320391 0.243084 0.069169 0.006375 -0.007854
3.746586 0.519719 0.437579 -0.000001 0.628605 -0.000507
3.303630 0.556194 0.507893 0.000000 -0.958931 -0.000006
2.527723 0.551909 0.527642 0.000000 -0.988980 -0.000000
1.862659 0.781408 0.503684 0.000000 0.943301 -0.000002
3.733541 0.745402 0.604194 0.009238 0.029862 0.007138
1.253017 0.646004 0.426622 0.000000 -0.210355 -0.000190
3.793002 0.406658 0.747389 -0.175565 0.003515 0.004322
3.758696 0.914155 0.329299 -0.175563 0.003490 0.004343
1.363861 0.705987 0.655652 -0.000000 0.306686 0.000032
1.640971 0.556987 0.505431 0.000000 -0.951829 -0.000007
2.141599 1.093576 0.200076 0.069169 -0.010261 -0.012559
2.141599 0.245421 0.200076 0.069169 0.010261 -0.012559
3.691584 0.780675 0.584045 -0.000000 0.935343 0.000015
0.587954 0.632834 0.655595 0.000000 -0.306686 0.000032
2.693988 0.580354 0.621020 -0.000001 -0.757582 0.000018
0.675556 0.787969 0.546906 0.000000 0.999691 0.000000
2.527723 0.568322 0.604671 0.000000 -0.846782 0.000013
0.698798 0.782378 0.579112 0.000000 0.951820 0.000013
2.006270 0.362655 0.781755 0.052220 -0.009267 -0.011290
1.640971 0.781953 0.505255 -0.000000 0.951794 -0.000007
1.308439 0.703562 0.429277 0.000000 0.282856 -0.000069
3.303630 0.600585 0.639328 -0.000000 -0.573550 0.000029
3.636162 0.787731 0.551796 -0.000001 0.990791 0.000000
3.793973 0.460264 0.365827 -0.175564 -0.003490 0.004343
3.825799 1.006467 0.815203 -0.175563 0.003760 -0.004679
3.791564 0.346413 0.273806 -0.175563 -0.003490 0.004343
3.824792 1.054062 0.853672 -0.175559 0.001880 -0.002340
0.083543 0.717196 0.609187 -0.504229 0.000037 0.000049
2.656445 0.550949 0.541919 0.000000 -0.999691 -0.000000
3.489562 0.550951 0.544875 0.000000 -0.999925 0.000000
1.822294 1.006407 0.265705 -0.091416 -0.006453 -0.008918
1.822294 0.332589 0.265705 -0.091415 0.003227 -0.004467
2.050778 0.908507 0.355767 0.052220 0.002729 0.003372
2.774440 0.667005 0.661353 0.000000 -0.024509 0.000054
2.267597 0.788068 0.542935 0.000000 0.999684 0.000000
2.266703 0.550949 0.543766 0.000000 -0.999683 0.000000
2.749410 0.557161 0.580781 0.000000 -0.943868 0.000004
2.915676 0.709660 0.654402 0.000000 0.330309 0.000059
3.617238 0.805344 0.636845 -0.000001 -0.628606 0.000826
3.794944 0.498423 0.412467 -0.175565 0.003515 -0.004322
3.117698 0.665712 0.424365 -0.000016 -0.000316 -0.000527
0.943727 0.670237 0.661406 -0.000000 0.012257 0.000108
2.638566 0.746695 0.632831 -0.000000 0.652225 0.000048
2.195191 0.705503 0.655807 0.000000 0.306686 0.000032
1.954544 0.994635 0.793063 0.052219 0.004634 -0.005711
1.954544 0.344362 0.793063 0.052220 -0.009267 -0.011290
0.897244 0.670422 0.661404 -0.000000 0.012257 0.000013
1.838462 0.770627 0.651607 0.069169 -0.008085 0.009936
1.983414 0.827756 0.425565 0.052218 0.013591 0.016274
