1.471894 0.322114 0.895708 -0.072497 -0.007043 -0.004771
1.582968 0.327104 0.421310 -0.067057 0.006942 -0.005528
0.811873 0.439884 0.750283 0.000000 -0.555707 0.000006
0.109281 0.557294 0.612452 -0.352170 0.000073 -0.000063
0.109281 0.562707 0.715739 -0.352170 0.000083 0.000057
3.208376 0.453277 0.576919 0.000000 -0.418658 -0.000036
3.259365 0.410884 0.614948 0.000000 -0.843316 -0.000003
2.494524 0.550136 0.582993 0.000000 0.532689 -0.000007
3.453004 0.233321 0.312746 0.190779 -0.001153 0.001783
2.698482 0.581675 0.615122 -0.000001 0.852131 -0.000005
1.532304 0.497045 0.567266 -0.000000 0.025535 -0.000021
1.619787 0.734497 1.003899 -0.067058 -0.011899 0.009380
1.638320 0.706600 0.927488 -0.072495 0.012628 -0.008468
0.811873 0.530594 0.761544 0.000000 0.346177 0.000045
1.066820 0.558185 0.588710 -0.000001 0.619084 -0.000085
0.301979 0.556169 0.587164 0.000000 0.598297 -0.000045
1.616327 0.265897 0.341270 -0.067056 0.005950 -0.004745
1.015831 0.582325 0.718662 0.000000 0.859396 0.000020
2.491234 0.495078 0.567274 -0.000000 -0.026182 -0.000041
3.328886 0.582810 0.763352 0.000001 -0.803350 0.000128
0.301979 0.434137 0.746064 0.000000 -0.619058 0.000042
3.528588 0.436984 0.709374 0.387044 -0.000078 0.000053
2.785657 0.498520 0.767571 -0.000000 0.026182 0.000021
0.250989 0.578419 0.610152 0.000001 0.816320 -0.000024
0.505937 0.566721 0.596247 0.000000 0.696900 -0.000009
1.759400 0.838285 0.213728 0.078444 0.007829 0.005775
1.673759 0.495980 0.567251 -0.000000 -0.026182 -0.000021
3.170696 0.633927 0.832315 0.000000 -0.803373 0.000385
3.364623 0.378578 0.847059 0.000000 -0.803372 -0.000934
3.332874 0.318913 0.407321 -0.000000 -0.803372 0.000467
3.359071 0.647951 0.441841 0.000000 0.803372 0.000467
3.390819 0.588286 0.522337 -0.000000 0.803372 0.000467
3.269234 0.491801 0.767515 0.000000 -0.026182 0.000021
1.088203 0.596359 0.665144 0.000000 0.999657 -0.000000
0.811873 0.585788 0.622539 0.000000 0.896737 -0.000008
1.724806 0.685650 0.910653 0.078444 0.006218 -0.004594
3.351475 0.491473 0.567369 -0.000000 -0.026182 -0.000021
1.778427 0.256003 0.348604 0.078444 -0.005297 0.003917
1.984630 0.417701 0.605221 0.000000 -0.767160 -0.000002
1.168799 0.426611 0.595389 -0.000000 -0.697773 -0.000009
1.576714 0.542764 0.756157 0.000002 0.463704 0.000032
2.035619 0.571981 0.601874 0.000000 0.751856 -0.000029
0.862863 0.518656 0.569796 0.000000 0.220930 -0.000018
1.984630 0.545750 0.580347 0.000000 0.488681 -0.000030
2.290566 0.412720 0.612085 0.000000 -0.831447 -0.000022
1.594807 0.596400 0.666700 0.000000 0.999657 -0.000000
1.933640 0.592827 0.640875 0.000000 0.962465 -0.000009
0.913852 0.410042 0.616355 -0.000001 -0.853180 -0.000003
2.341556 0.560099 0.744621 -0.000001 0.637374 0.000010
2.392545 0.466477 0.763104 0.000000 -0.296576 0.000013
1.984630 0.533845 0.760293 -0.000000 0.370380 0.000021
1.882651 0.473835 0.569787 -0.000000 -0.220662 -0.000074
3.157523 0.564707 0.554148 0.000000 0.803372 0.000321
3.055408 0.559531 0.745093 -0.000000 0.639432 0.000020
1.667725 0.639987 0.455102 0.072555 -0.007220 -0.005326
2.239577 0.560035 0.744674 0.000000 0.639424 0.000040
1.525763 0.732047 0.355456 -0.072496 0.006558 0.004445
0.166320 0.411832 0.618713 -0.130069 -0.000289 -0.000157
2.902439 0.530094 0.573147 -0.000000 0.346117 -0.000045
3.479640 0.465414 0.755493 0.389101 -0.000168 0.000405
1.882651 0.583116 0.717320 -0.000001 0.871997 0.000009
3.367570 0.295618 0.917183 0.000001 0.803371 0.000349
1.321767 0.455175 0.576044 0.000000 -0.418666 -0.000036
2.596503 0.549096 0.582337 -0.000000 0.532239 -0.000007
2.188587 0.488038 0.767292 -0.000001 -0.091384 0.000182
2.086609 0.544284 0.579526 0.000001 0.484105 -0.000008
0.658905 0.409195 0.717070 -0.000000 -0.872391 0.000009
2.443535 0.409875 0.616637 0.000000 -0.859359 -0.000010
0.200000 0.552976 0.584866 -0.032106 0.000398 -0.000564
2.086609 0.409812 0.616742 -0.000000 -0.859396 -0.000020
1.015831 0.481201 0.568384 0.000000 -0.143426 -0.000231
0.964841 0.516695 0.569362 0.000001 0.195063 -0.000084
0.040353 0.537816 0.667438 -0.628437 0.000012 0.000000
0.760884 0.557088 0.587851 0.000000 0.598370 -0.000006
2.188587 0.409937 0.616531 0.000000 -0.856375 -0.000002
1.755941 0.954786 0.041175 0.072555 -0.008963 -0.006593
3.055408 0.400839 0.636789 0.000000 -0.954859 -0.000005
2.953429 0.424349 0.737228 0.000000 -0.716241 0.000033
2.290566 0.586133 0.623237 0.000001 0.896352 -0.000008
1.566907 0.662165 0.463450 -0.072495 0.007043 0.004771
2.086609 0.450376 0.578356 0.000001 -0.465545 -0.000064
0.250989 0.406354 0.711712 0.000001 -0.896813 0.000033
0.609560 0.494668 0.567265 0.000000 -0.013085 -0.000021
3.338512 0.679462 0.935546 0.000000 0.803374 -0.000175
3.414892 0.416899 0.753559 -0.000001 0.803372 0.000419
0.658905 0.456452 0.759390 0.000001 -0.394230 0.000039
3.524651 0.668079 0.899290 -0.394036 0.001605 -0.001207
3.523776 0.291901 0.943097 -0.394035 -0.001605 -0.001207
3.390339 0.299980 0.381779 -0.000000 -0.803371 0.000233
0.403958 0.568674 0.736641 -0.000001 0.714373 0.000008
1.015831 0.440566 0.750738 0.000000 -0.555539 0.000006
2.800461 0.596039 0.676074 0.000000 0.995797 0.000000
2.698482 0.439408 0.749962 0.000000 -0.577311 0.000006
2.851450 0.592693 0.640401 0.000000 0.962375 -0.000005
1.678693 0.396152 0.672026 0.000000 -0.999657 0.000000
0.301979 0.567874 0.737463 0.000000 0.716241 0.000033
1.525725 0.422212 0.599914 0.000000 -0.734371 -0.000008
2.392545 0.544034 0.579386 0.000000 0.465589 -0.000032
1.729683 0.400863 0.636711 -0.000000 -0.955022 -0.000003
3.157387 0.407296 0.621298 0.000000 -0.884975 -0.000009
3.295551 0.596303 0.671862 0.000000 0.999657 0.000000
3.528588 0.532517 0.604579 0.389109 0.000048 -0.000080
1.774968 0.292009 0.948234 0.072554 0.006224 0.004597
1.831661 0.403659 0.705780 0.000000 -0.928804 0.000027
2.188587 0.547062 0.581108 -0.000001 0.505774 -0.000014
1.015831 0.582325 0.616214 0.000000 0.859475 -0.000002
3.471660 0.305718 0.389520 0.000000 -0.803371 0.000233
3.370175 0.579795 0.801083 0.000001 0.803371 -0.000467
1.066820 0.415120 0.726263 0.000000 -0.811254 0.000003
1.117810 0.441934 0.751642 0.000000 -0.533719 0.000026
2.953429 0.404866 0.626313 0.000000 -0.908049 -0.000008
1.372757 0.587328 0.625755 0.000000 0.901780 -0.000002
3.055408 0.401147 0.699020 0.000000 -0.946849 0.000006
1.728266 0.902182 0.131637 -0.072495 0.012628 0.008468
1.600018 0.775733 1.034015 -0.072495 0.011172 -0.007515
2.341556 0.445354 0.753747 0.000000 -0.509876 0.000007
0.862863 0.412109 0.721868 0.000000 -0.845610 0.000011
3.186532 0.335986 0.440804 0.190779 -0.002318 0.003584
0.556926 0.454022 0.758300 0.000000 -0.418271 0.000018
0.760884 0.411278 0.720551 0.000000 -0.845680 0.000011
1.688482 0.711170 0.394593 0.078444 0.006218 0.004594
1.423746 0.523735 0.571103 0.000000 0.271840 -0.000015
1.639060 0.832917 1.112991 -0.072498 0.009229 -0.006231
1.270778 0.583316 0.716962 0.000000 0.872463 0.000009
1.423746 0.407411 0.621080 -0.000000 -0.883982 -0.000004
3.359622 0.550973 0.593577 0.277037 0.000748 -0.001009
0.964841 0.412583 0.722586 0.000000 -0.828878 0.000003
1.984630 0.586169 0.711565 -0.000000 0.896739 0.000002
2.902439 0.587053 0.709716 0.000001 0.906819 0.000008
1.474735 0.406771 0.712557 -0.000000 -0.896886 0.000008
1.473091 0.596397 0.668257 -0.000000 0.999657 0.000000
1.831661 0.587208 0.625494 -0.000000 0.908128 -0.000031
3.415543 0.531373 0.735756 0.277040 0.001496 0.002018
0.505937 0.424063 0.736935 -0.000001 -0.715506 0.000016
1.724806 0.322283 0.445110 0.078444 -0.006678 0.004932
2.902439 0.451290 0.756983 -0.000001 -0.438059 0.000017
1.698860 0.741478 0.352332 0.078444 0.005757 0.004256
0.454947 0.451069 0.578002 0.000000 -0.442260 -0.000008
2.749471 0.414694 0.725661 0.000000 -0.816632 0.000012
2.494524 0.456189 0.759276 0.000001 -0.390117 0.000010
0.709894 0.538615 0.758214 -0.000003 0.260707 0.000007
0.658905 0.570072 0.735142 0.000000 0.734401 0.000015
1.657347 0.399517 0.517314 0.072551 0.002179 -0.001614
1.780672 0.583336 0.716927 0.000002 0.871502 0.000019
2.494524 0.398134 0.647049 0.000000 -0.979122 -0.000002
2.800461 0.436118 0.587287 0.000000 -0.598255 -0.000045
3.413326 0.720040 0.386384 -0.000000 -0.803372 -0.000465
1.548126 0.759890 1.017440 -0.072497 0.006072 -0.004118
3.432109 0.625263 0.514250 -0.000000 -0.803373 -0.000934
3.361847 0.650908 0.855225 0.000000 -0.803372 0.000934
3.361344 0.580298 0.721938 -0.000001 0.810043 0.000001
1.525763 0.266085 0.351244 -0.067059 0.006446 -0.005137
0.352968 0.450959 0.578056 -0.000001 -0.395275 -0.000005
3.243916 0.629077 0.867570 0.000002 0.803370 -0.000449
1.780672 0.415927 0.607528 0.000000 -0.801252 -0.000050
2.379387 0.396062 0.668585 0.000000 -0.999658 0.000000
0.607915 0.403537 0.705476 0.000000 -0.928613 0.000007
3.259365 0.406517 0.712042 -0.000001 -0.896451 0.000008
2.239577 0.533654 0.574507 0.000000 0.362930 -0.000005
1.774968 0.684960 0.927346 0.072555 -0.006224 0.004597
1.762860 0.977406 1.309297 -0.072496 0.007772 -0.005259
1.771509 0.677016 0.417823 0.072555 -0.006722 -0.004962
3.471226 0.722851 0.952284 -0.000000 -0.803372 0.000465
1.769779 0.992451 0.004367 -0.000000 0.595479 -0.000479
1.639060 0.832917 0.221885 -0.072497 0.004615 0.003134
3.361344 0.436939 0.748202 0.000000 -0.598033 0.000022
1.423746 0.587757 0.708190 -0.000000 0.918882 0.000004
1.792265 0.867172 0.170413 0.078443 0.003454 0.002558
1.525725 0.574852 0.729526 -0.000001 0.784618 0.000013
2.341556 0.444368 0.581715 0.000000 -0.511246 -0.000028
1.627704 0.588404 0.706684 -0.000001 0.909098 0.000002
0.658905 0.418518 0.604195 0.000001 -0.767287 -0.000007
1.679833 0.780034 0.267640 0.072555 -0.010456 -0.007672
2.749471 0.544463 0.755249 -0.000001 0.484452 0.000008
0.709894 0.450448 0.578317 0.000000 -0.465589 -0.000032
3.475866 0.766662 0.302585 0.190779 0.002318 0.003584
3.475866 0.766662 1.032291 0.190780 0.002318 -0.003584
3.041498 0.368892 0.839226 0.190781 -0.001153 -0.001782
3.247251 0.691345 0.930678 0.190779 0.002318 -0.003584
0.556926 0.586441 0.623862 -0.000001 0.889845 -0.000004
2.800461 0.445988 0.754124 0.000001 -0.509444 0.000014
1.066820 0.418806 0.603848 0.000000 -0.768227 -0.000007
3.140929 0.446676 0.579690 0.000000 -0.595477 -0.000457
1.423746 0.467456 0.571468 -0.000000 -0.296590 -0.000108
0.403958 0.587208 0.625494 0.000000 0.908156 -0.000008
2.545513 0.406735 0.622392 -0.000000 -0.896784 -0.000016
0.556926 0.586115 0.711675 -0.000002 0.895393 0.000017
1.768049 0.628729 0.839573 0.078444 0.013355 -0.009759
0.658905 0.564412 0.594037 0.000001 0.676940 -0.000018
1.984630 0.409075 0.716855 -0.000000 -0.872538 0.000009
1.636466 0.778778 0.301095 -0.072496 0.010686 0.007195
0.760884 0.586727 0.710423 0.000001 0.900987 0.000004
1.372757 0.533464 0.574431 -0.000001 0.365674 -0.000021
1.553562 0.813280 1.095183 -0.067059 -0.010412 0.008237
1.490550 0.745545 1.003801 -0.067057 -0.006446 0.005137
1.603971 0.124984 1.168289 -0.072494 -0.008258 -0.005584
1.616573 0.881014 0.148310 -0.067057 -0.007933 -0.006307
1.402334 0.341734 0.459010 -0.072496 -0.007529 0.005097
1.477948 0.260453 0.985524 -0.072495 -0.013114 -0.008784
1.440141 0.691357 0.930695 -0.067057 -0.014377 0.011256
1.566164 0.826827 0.221416 -0.067057 -0.004958 -0.003959
1.402334 0.650717 0.459010 -0.067056 -0.007685 -0.006113
1.117810 0.450886 0.578092 0.000000 -0.442116 -0.000017
1.066820 0.508896 0.766822 -0.000000 0.117597 0.000141
1.818211 0.586853 0.545170 0.072554 -0.008714 -0.006413
1.818211 0.942943 0.064760 0.072554 -0.008963 -0.006594
1.737779 0.377291 0.817268 0.078443 -0.017383 -0.012581
1.818211 0.633299 0.852367 0.072555 -0.007220 0.005326
1.818211 0.374634 0.503395 0.072554 0.003610 -0.002673
1.525725 0.579071 0.611097 0.000000 0.831395 -0.000011
1.372757 0.412606 0.612255 0.000000 -0.830864 -0.000006
3.209887 0.423957 0.785836 0.000000 -0.803373 -0.000385
3.361344 0.541785 0.756673 -0.000000 0.465624 0.000127
2.698482 0.584716 0.714412 0.000000 0.884969 0.000009
1.831661 0.445002 0.581338 -0.000001 -0.511267 -0.000112
3.463323 0.536978 0.575907 0.393328 0.000043 -0.000100
1.773238 0.883857 1.184458 0.078443 0.006908 -0.005101
3.247337 0.393666 0.508172 -0.000004 -0.803290 0.000225
3.335027 0.396157 0.662686 -0.000000 -0.999657 -0.000000
0.301979 0.399468 0.641427 0.000000 -0.962532 -0.000001
2.086609 0.408021 0.714956 0.000000 -0.885001 0.000004
0.093771 0.480539 0.593637 -0.412730 -0.000017 -0.000072
1.440141 0.301094 0.930695 -0.072496 -0.007043 -0.004771
1.745563 0.239540 0.312262 0.072555 0.005228 -0.003865
3.004418 0.464565 0.762490 0.000000 -0.321451 0.000197
1.627704 0.450739 0.756711 0.000000 -0.465447 0.000008
3.426557 0.659341 0.866601 0.000001 -0.803373 0.000934
0.043640 0.464938 0.636150 -0.609104 -0.000021 -0.000020
1.882651 0.532398 0.574005 -0.000000 0.370607 -0.000042
3.310355 0.410252 0.718873 0.000000 -0.859272 0.000010
1.678104 0.663817 0.910655 0.072554 -0.006722 0.004962
2.749471 0.407945 0.620065 0.000000 -0.884921 -0.000002
3.259365 0.541565 0.756783 -0.000000 0.441416 0.000008
0.403958 0.520569 0.764621 0.000001 0.245986 0.000066
1.270778 0.582639 0.616742 -0.000001 0.857928 -0.000005
0.862863 0.467025 0.571601 0.000001 -0.293470 -0.000014
1.331636 0.596378 0.665881 0.000000 0.999657 -0.000000
3.310355 0.414718 0.609181 -0.000000 -0.816638 -0.000047
2.800461 0.543417 0.579062 0.000000 0.465578 -0.000032
0.454947 0.396472 0.676727 0.000000 -0.995803 0.000006
1.465593 0.657461 0.891093 -0.067057 -0.007933 0.006307
1.759400 0.154166 1.121148 0.078444 -0.007829 -0.005775
2.035619 0.461396 0.761374 0.000000 -0.346177 0.000011
1.474735 0.461204 0.761303 0.000000 -0.345958 0.000011
1.219788 0.532132 0.760976 -0.000000 0.370513 0.000042
0.200000 0.565194 0.740115 -0.032110 0.000482 0.000494
0.607915 0.404969 0.626090 0.000000 -0.908136 -0.000008
1.168799 0.584468 0.619992 -0.000000 0.885017 -0.000009
0.811873 0.427979 0.594092 0.000000 -0.678944 -0.000002
2.035619 0.403234 0.630161 0.000000 -0.928796 -0.000007
1.478195 0.315340 0.430029 -0.072496 -0.014085 0.009411
1.452743 0.287547 0.385904 -0.072496 -0.014085 0.009411
0.556926 0.433109 0.589625 0.000000 -0.639218 -0.000005
3.157387 0.585897 0.712116 -0.000000 0.896867 0.000016
0.505937 0.401437 0.635002 0.000000 -0.946849 -0.000006
0.964841 0.522868 0.764017 -0.000000 0.271482 0.000119
1.678103 0.890100 0.142908 -0.072496 0.014571 0.009723
1.665501 0.115898 1.173691 -0.072496 -0.014571 -0.009723
1.629176 0.894561 1.204842 -0.067058 -0.014873 0.011626
1.678693 0.573383 0.731342 0.000001 0.739478 0.000004
0.141454 0.588609 0.662596 -0.226823 0.000178 -0.000006
1.525725 0.407792 0.714521 -0.000001 -0.789388 0.000001
2.698482 0.449904 0.578604 0.000001 -0.464464 -0.000032
0.913852 0.446415 0.580508 0.000000 -0.488642 -0.000030
2.188587 0.446272 0.580588 -0.000000 -0.488319 -0.000015
3.197104 0.611209 0.533211 -0.000000 -0.803372 -0.000385
3.247337 0.618782 0.522994 -0.000004 -0.803318 -0.000225
3.221380 0.592276 0.776123 0.000000 -0.803373 0.000449
0.964841 0.410755 0.615157 -0.000001 -0.830792 -0.000003
2.596503 0.451364 0.577857 -0.000000 -0.442298 -0.000136
1.321767 0.446915 0.754648 0.000000 -0.488641 0.000030
0.349679 0.396157 0.672190 0.000000 -0.999657 0.000000
0.250989 0.586622 0.710646 0.000000 0.896725 0.000001
2.239577 0.513515 0.766120 -0.000001 0.168936 0.000049
1.219788 0.408174 0.715246 0.000000 -0.885001 0.000004
1.691941 0.281379 0.972718 0.072553 0.006224 0.004597
2.927191 0.585900 0.788420 0.190779 0.002318 -0.003584
3.249919 0.446676 0.755186 0.000000 -0.595474 0.000457
3.405912 0.341600 0.479729 0.000000 0.803372 -0.000467
3.405912 0.341600 0.855147 0.000000 0.803373 0.000934
0.607915 0.544034 0.579386 0.000000 0.465746 -0.000004
3.412334 0.542837 0.578756 -0.000000 0.465597 -0.000127
1.818211 0.695228 0.398959 0.072555 -0.012447 -0.009094
1.818211 0.726192 0.357184 0.072554 -0.011452 -0.008385
1.818211 0.312705 0.419846 0.072554 0.006224 -0.004597
1.818211 0.281741 0.378071 0.072554 0.005726 -0.004231
1.066820 0.511899 0.568478 0.000000 0.143445 -0.000231
0.101471 0.483877 0.745406 -0.382657 -0.000016 0.000086
1.729683 0.535246 0.759713 0.000001 0.394703 0.000078
2.647492 0.542293 0.756405 -0.000000 0.465731 0.000016
2.977443 0.446676 0.579690 0.000000 -0.595477 -0.000457
2.996168 0.560921 0.559256 0.000000 0.803372 0.000514
3.116651 0.564707 0.780728 0.000000 0.803372 -0.000321
2.443535 0.408735 0.716247 -0.000000 -0.872391 0.000009
2.953429 0.582618 0.718168 0.000001 0.858916 0.000010
2.698482 0.545500 0.580207 0.000000 0.488463 -0.000030
3.317781 0.341485 0.479573 0.000002 0.803332 -0.000128
3.432109 0.367188 0.820626 -0.000000 0.803372 0.000934
3.343978 0.625379 0.514093 -0.000001 -0.803371 -0.000467
1.219788 0.409455 0.617341 0.000000 -0.872501 -0.000009
1.933640 0.567931 0.597471 0.000001 0.714373 -0.000008
1.678104 0.303848 0.908465 0.078443 -0.006218 -0.004594
0.454947 0.545750 0.580347 0.000000 0.488603 -0.000007
0.403958 0.410713 0.719648 0.000000 -0.859475 0.000001
2.749471 0.572885 0.602935 -0.000001 0.766807 -0.000007
1.780672 0.451805 0.757236 0.000001 -0.441049 0.000017
0.693446 0.396126 0.671043 0.000000 -0.999657 0.000000
3.361344 0.444438 0.581674 0.000000 -0.511217 -0.000028
3.259365 0.561296 0.591250 0.000001 0.654776 -0.000010
2.239577 0.472836 0.570013 -0.000001 -0.246117 -0.000132
1.474735 0.404969 0.626090 0.000000 -0.908156 -0.000004
0.862863 0.512465 0.766300 0.000000 0.169319 0.000195
2.647492 0.407258 0.621371 0.000001 -0.877875 -0.000002
1.576714 0.585460 0.621878 0.000000 0.885076 -0.000002
3.310355 0.583056 0.717427 -0.000000 0.870298 0.000002
1.551585 0.225038 1.028046 -0.072496 -0.005586 -0.003791
1.551585 0.225038 0.306829 -0.072496 -0.005586 0.003791
1.631401 0.323623 0.411754 0.072554 0.006722 -0.004962
0.403958 0.406445 0.622980 0.000000 -0.896791 -0.000008
1.752482 0.200175 1.058161 0.078445 -0.004836 -0.003578
0.913852 0.464100 0.762332 -0.000000 -0.321393 0.000049
2.121150 0.396049 0.668093 0.000000 -0.999657 0.000000
1.229657 0.596397 0.666618 0.000000 0.999657 -0.000000
1.831661 0.529671 0.761884 0.000000 0.346115 0.000181
1.528852 0.316040 0.437601 -0.072496 -0.007043 0.004771
1.639060 0.159534 0.221885 -0.072497 -0.009229 0.006231
1.771509 0.330917 0.896165 0.072555 0.006722 0.004962
0.403958 0.484776 0.567909 0.000001 -0.117376 -0.000141
0.760884 0.446665 0.754508 0.000000 -0.488663 0.000015
1.678693 0.589157 0.630009 -0.000000 0.928820 -0.000013
3.208376 0.590817 0.634419 0.000000 0.946923 -0.000001
2.953429 0.521284 0.764439 -0.000001 0.235062 0.000017
1.665501 0.115898 0.161185 -0.072496 -0.014571 0.009723
2.953429 0.399913 0.695026 0.000000 -0.957090 0.000001
1.882651 0.400170 0.638942 -0.000000 -0.950170 -0.000001
1.616327 0.250536 0.982219 -0.072496 -0.005829 -0.003955
1.645239 0.291850 0.370578 0.072555 0.006224 -0.004597
1.724064 0.030123 0.042721 -0.072496 -0.008743 0.005908
1.771509 0.332976 0.453365 0.078444 -0.006678 0.004932
1.818211 0.664264 0.894142 0.072555 -0.006722 0.004961
3.259365 0.446129 0.580668 -0.000000 -0.488603 -0.000004
1.818211 0.003062 1.332778 -0.000001 -0.595474 0.000479
1.769779 -0.000000 0.004367 -0.000000 -0.595479 -0.000479
3.315835 0.713940 0.373714 0.190777 0.001153 0.001783
2.290566 0.475234 0.765405 0.000000 -0.220702 0.000037
2.188587 0.405689 0.710349 0.000000 -0.908225 0.000002
3.129425 0.492129 0.567352 0.000000 -0.026182 -0.000021
3.266902 0.355801 0.457089 0.000000 -0.803373 0.000257
1.430504 0.400168 0.805907 -0.067057 0.009668 0.007661
0.545412 0.499994 0.767532 0.000000 0.026178 0.000041
3.412334 0.404209 0.707060 -0.000001 -0.918699 0.000029
3.361344 0.587173 0.625420 -0.000000 0.908091 -0.000015
3.157387 0.583516 0.618271 0.000000 0.872496 -0.000009
3.471226 0.722851 0.382592 0.000001 -0.803373 -0.000465
1.477948 0.260453 0.349351 -0.072496 -0.013114 0.008783
1.665563 0.577932 0.796318 0.072558 -0.002178 0.001614
1.678693 0.409854 0.718204 -0.000001 -0.857928 0.000005
1.372757 0.530401 0.761615 0.000000 0.339862 0.000006
1.528852 0.676411 0.437601 -0.072495 0.007043 0.004771
3.460819 0.313690 0.892801 0.000001 0.803371 0.000349
3.460819 0.333686 0.427252 0.000000 -0.803372 0.000349
0.250989 0.429245 0.592925 -0.000001 -0.607419 -0.000003
3.055408 0.588404 0.706684 0.000000 0.917583 0.000004
1.168799 0.585021 0.713831 -0.000000 0.883206 0.000002
1.731725 0.716177 0.952752 0.078443 0.005757 -0.004256
0.607915 0.544606 0.755169 0.000000 0.488603 0.000015
1.517115 0.616248 0.524483 -0.072497 0.009472 0.006392
2.137598 0.452282 0.757472 -0.000000 -0.442069 0.000017
3.046402 0.423957 0.785836 0.000000 -0.803373 -0.000771
3.046402 0.423957 0.549039 0.000000 -0.803373 0.000771
3.197104 0.401239 0.518389 0.000000 -0.803372 0.000385
2.545513 0.538690 0.758180 -0.000001 0.418349 0.000073
1.592852 0.176875 1.093481 -0.072495 -0.005100 -0.003463
1.592852 0.176875 0.241394 -0.072494 -0.005101 0.003463
1.603107 0.703894 0.963879 -0.067058 -0.012890 0.010135
1.778427 0.728707 0.975828 0.078444 0.005296 -0.003917
1.778427 0.744189 0.338160 0.078444 0.005296 0.003917
3.379064 0.700620 0.922292 -0.000001 -0.803371 0.000349
1.731725 0.690174 0.395212 0.072555 -0.012448 -0.009094
2.035619 0.477645 0.568986 0.000001 -0.194689 -0.000042
1.117810 0.538690 0.576696 -0.000000 0.418170 -0.000018
1.707509 0.601592 0.539914 0.078443 0.017383 0.012581
1.731725 0.276274 0.382124 0.078444 -0.005757 0.004256
1.474735 0.527187 0.762727 -0.000000 0.321404 0.000099
1.933640 0.450594 0.756634 0.000001 -0.451806 0.000008
2.726444 0.496471 0.767628 0.000000 0.013090 0.000082
3.426122 0.675462 0.446525 0.000000 -0.803371 -0.000233
3.004418 0.587534 0.626202 0.000000 0.908118 -0.000008
0.288820 0.501141 0.567373 0.000000 0.026182 -0.000021
2.137598 0.538094 0.758454 -0.000000 0.418622 0.000036
1.729683 0.461550 0.761430 0.000000 -0.346177 0.000011
1.627704 0.536074 0.759357 -0.000000 0.392327 0.000010
0.301979 0.586369 0.623715 0.000000 0.896886 -0.000008
3.195812 0.354737 0.837423 -0.000001 0.803369 0.000385
0.556926 0.396558 0.677666 0.000000 -0.971053 0.000000
3.471465 0.470679 0.612072 0.277038 -0.001496 -0.002018
2.892570 0.596346 0.664652 0.000000 0.999657 -0.000000
1.973116 0.596410 0.667110 0.000000 0.999657 -0.000000
1.729683 0.534568 0.574871 0.000001 0.392880 -0.000020
3.496384 0.342634 0.853752 -0.000002 0.803371 0.000465
1.652158 0.736689 0.969911 -0.072496 0.011657 -0.007834
3.157387 0.543091 0.755986 -0.000000 0.465578 0.000032
1.780672 0.538206 0.758403 0.000000 0.418065 0.000009
1.566907 0.643857 0.884995 -0.067059 -0.003967 0.003170
1.818211 0.157883 1.123904 0.072554 0.007469 0.005507
1.818211 0.111437 1.186566 0.072557 0.006473 0.004779
3.055408 0.588663 0.628794 -0.000000 0.918662 -0.000007
1.631401 0.300896 0.906276 0.078444 -0.012434 -0.009103
3.463323 0.588792 0.629095 0.393329 0.000101 -0.000040
1.729683 0.594613 0.686340 0.000000 0.980790 0.000007
0.913852 0.556300 0.747613 0.000000 0.598370 0.000006
1.517115 0.393668 0.511536 -0.067057 0.009668 -0.007661
1.372757 0.406064 0.711123 -0.000000 -0.896777 0.000008
1.673779 0.411950 0.572825 0.078441 -0.004030 0.002983
0.862863 0.587036 0.709753 0.000001 0.906399 0.000004
0.191551 0.595600 0.656993 -0.032106 0.000687 -0.000063
0.242765 0.501305 0.767498 0.000000 0.026182 0.000021
1.611942 0.590280 0.515348 0.072553 -0.004357 -0.003224
3.300992 0.416385 0.538823 0.000003 -0.803352 0.000257
3.182640 0.568494 0.785836 0.000000 0.803373 -0.000771
2.596503 0.440259 0.750533 -0.000000 -0.555566 0.000025
3.432109 0.367188 0.514250 0.000001 0.803372 -0.000467
1.404311 0.593699 0.530018 -0.067058 -0.005206 -0.004156
3.463323 0.509303 0.766774 0.389278 0.000013 0.000109
3.106397 0.407372 0.713723 0.000000 -0.884981 0.000018
2.392545 0.405432 0.625085 -0.000000 -0.908140 -0.000008
2.408171 0.494505 0.567289 0.000000 -0.026182 -0.000021
1.548373 0.298811 0.945185 -0.067057 0.006942 0.005528
1.548373 0.298811 0.389691 -0.067058 0.006941 -0.005528
0.454947 0.584277 0.715246 -0.000000 0.884926 0.000009
1.605023 0.574394 0.798940 0.072556 -0.004357 0.003224
3.384372 0.396032 0.667438 0.000000 -0.999913 0.000000
1.780157 0.914384 0.108318 0.078444 0.011974 0.008774
1.423746 0.409958 0.718380 -0.000000 -0.858836 0.000005
1.818211 0.896496 1.207453 0.072553 -0.010954 0.008029
1.576714 0.509547 0.568137 0.000001 0.141901 -0.000058
1.066820 0.586899 0.624824 0.000001 0.907945 -0.000015
1.548868 0.397222 0.775406 -0.072495 -0.003886 -0.002641
1.773238 0.093112 1.205346 0.078443 -0.011974 -0.008774
1.134258 0.596417 0.667274 0.000000 0.999914 -0.000000
1.558621 0.497045 0.767610 -0.000000 0.026182 0.000021
0.149687 0.417031 0.718867 -0.194743 -0.000179 0.000110
1.637455 0.355467 0.833454 0.078442 -0.004030 -0.002983
1.372757 0.568903 0.736406 -0.000000 0.734287 0.000015
1.766319 0.139121 0.192516 0.078444 -0.007829 0.005775
1.066820 0.589035 0.705171 -0.000002 0.927839 0.000013
3.004418 0.405638 0.710237 -0.000000 -0.908148 0.000015
1.523478 0.358903 0.834990 -0.072496 -0.007529 -0.005097
1.697624 0.913221 0.099365 -0.067057 -0.011899 -0.009380
2.239577 0.587757 0.708190 -0.000000 0.919070 0.000002
0.760884 0.406354 0.623164 0.000000 -0.896858 -0.000016
3.479640 0.412173 0.626960 0.389102 -0.000356 -0.000197
0.454947 0.448599 0.755585 0.000000 -0.465575 0.000032
3.147709 0.386093 0.836920 -0.000000 -0.803373 -0.000642
1.391708 0.406407 0.782214 -0.072495 -0.006801 -0.004608
3.055408 0.461242 0.573559 0.000000 -0.346061 -0.000023
1.576714 0.412196 0.722007 0.000000 -0.845826 0.000003
3.412334 0.595711 0.655622 -0.000000 0.993057 -0.000008
2.137598 0.459330 0.574294 -0.000000 -0.370639 -0.000010
1.719617 0.802095 0.267810 0.078444 0.004836 0.003578
1.685022 0.087306 1.213179 -0.072496 -0.012628 -0.008468
1.678693 0.486691 0.767169 -0.000000 -0.091413 0.000182
1.372757 0.468085 0.763594 0.000000 -0.271167 0.000015
3.004418 0.405956 0.623973 -0.000001 -0.894100 -0.000004
1.933640 0.397377 0.683758 0.000000 -0.985559 0.000006
1.519462 0.725274 0.970282 -0.072495 0.013114 -0.008784
1.582969 0.434829 0.779008 0.072554 0.008714 0.006413
1.111230 0.396035 0.667684 0.000000 -0.999914 0.000000
1.599648 0.279876 0.941263 -0.072496 -0.006315 -0.004282
3.479640 0.405274 0.688197 0.395749 -0.000107 0.000018
2.647492 0.527187 0.572148 0.000000 0.321404 -0.000099
2.341556 0.587379 0.709009 -0.000000 0.907925 0.000008
3.237983 0.396148 0.671862 0.000000 -0.999657 0.000000
0.505937 0.528429 0.572570 -0.000000 0.321384 -0.000049
1.639926 0.219407 1.054213 -0.067058 0.005454 0.004352
1.654381 0.070796 0.093480 -0.072497 -0.012628 0.008468
3.412334 0.406953 0.621951 -0.000000 -0.896872 -0.000066
1.685022 0.899674 1.217234 -0.067056 -0.013882 0.010884
3.400911 0.434495 0.563257 0.000001 -0.803372 0.000419
1.781887 0.217516 0.296224 0.078444 -0.004836 0.003578
2.902439 0.419645 0.602840 0.000000 -0.768786 -0.000014
3.443504 0.465878 0.729280 0.277036 -0.001496 0.002018
3.470161 0.402319 0.561645 0.000002 0.803366 -0.000279
1.698860 0.741478 0.982543 0.078443 0.005757 -0.004256
1.738644 0.721542 0.353737 0.072555 -0.011452 -0.008385
2.647492 0.590445 0.633377 -0.000000 0.938187 -0.000012
1.022410 0.396084 0.665471 -0.000000 -0.999662 -0.000000
2.851450 0.401779 0.633992 0.000000 -0.946906 -0.000011
1.117810 0.483636 0.766832 -0.000001 -0.113514 0.000037
0.811873 0.481363 0.766515 0.000000 -0.143426 0.000115
1.707509 0.857048 0.195272 -0.072496 0.007772 0.005259
1.740374 0.131468 1.169050 0.072554 0.003735 0.002765
1.168799 0.464488 0.572412 -0.000000 -0.321404 -0.000025
0.775687 0.499175 0.567322 -0.000005 0.005718 -0.000189
0.227962 0.396065 0.669979 0.000000 -0.999914 0.000000
1.589888 0.418942 0.535280 0.072556 0.004357 -0.003224
1.560976 0.707187 0.371414 -0.067058 -0.012890 -0.010135
0.064240 0.542097 0.704584 -0.528284 0.000033 0.000026
3.414240 0.579737 0.801005 0.000001 0.803372 -0.000838
3.106397 0.589536 0.630961 0.000000 0.928781 -0.000013
3.512272 0.530713 0.739052 0.383711 0.000145 0.000350
1.496729 0.358178 0.495366 -0.072496 -0.001882 0.001281
0.658905 0.589309 0.630390 0.000000 0.928145 -0.000003
3.146869 0.388815 0.543428 0.000000 0.803373 -0.000642
2.996168 0.411534 0.760798 0.000000 0.803373 0.000514
1.600266 0.651201 0.437119 -0.067057 -0.006942 -0.005528
1.692806 0.343483 0.856935 0.078443 -0.006678 -0.004932
1.430504 0.391330 0.535520 -0.072496 -0.009472 0.006392
2.341556 0.586659 0.624303 0.000000 0.896850 -0.000008
1.728266 0.090269 0.131637 0.078443 -0.011974 0.008774
1.637455 0.355467 0.501421 0.078444 -0.002015 0.001493
1.687617 0.366379 0.509515 0.078444 -0.017383 0.012581
3.277750 0.673685 0.448923 -0.000000 -0.803371 -0.000128
1.627704 0.415560 0.608020 -0.000001 -0.801130 -0.000025
1.698860 0.243232 0.992987 0.078444 -0.005297 -0.003917
3.055408 0.458188 0.760126 0.000001 -0.365725 0.000011
1.687617 0.626072 0.825361 0.078444 0.017383 -0.012581
2.075917 0.495488 0.767612 0.000000 -0.026182 0.000021
3.493343 0.229785 1.006000 -0.000000 0.803373 0.000465
1.628374 0.583371 0.574953 0.078445 0.004030 0.002983
3.106397 0.526365 0.762983 -0.000000 0.296690 0.000054
3.208376 0.530094 0.573147 0.000000 0.346177 -0.000011
0.505937 0.590218 0.632762 0.000000 0.938122 -0.000006
3.407281 0.744067 1.001807 0.190779 0.001153 -0.001783
3.407281 0.744067 0.333069 0.190777 0.001153 0.001783
0.709894 0.536978 0.575907 0.000000 0.418482 -0.000018
1.567895 0.258856 0.358625 -0.072496 -0.006072 0.004118
1.596311 0.823098 1.104087 -0.072495 0.004615 -0.003134
1.168799 0.456904 0.759584 -0.000000 -0.394674 0.000078
3.055408 0.534869 0.575001 -0.000000 0.393759 -0.000010
1.525763 0.260404 0.979420 -0.072495 -0.006558 -0.004445
2.953429 0.588501 0.628418 -0.000000 0.918763 -0.000014
1.423746 0.457883 0.760004 0.000000 -0.394743 0.000078
2.486300 0.497864 0.767588 0.000000 0.026178 0.000041
1.665996 0.748261 0.308815 0.072555 -0.011452 -0.008385
1.624975 0.134737 0.183630 -0.072497 -0.004129 0.002806
2.376097 0.596380 0.668913 0.000000 0.999657 0.000000
0.093771 0.526914 0.736364 -0.412728 0.000033 0.000070
2.800461 0.583196 0.717177 0.000000 0.872506 0.000001
1.882651 0.554147 0.749182 0.000001 0.572540 0.000012
0.086190 0.426084 0.682347 -0.442362 -0.000063 0.000012
1.484003 0.392778 0.544559 -0.072496 -0.009472 0.006392
2.188587 0.575334 0.728914 -0.000001 0.783017 0.000013
1.686752 0.795920 1.087823 0.072552 -0.004731 0.003499
1.550227 0.359627 0.504406 -0.072497 -0.003765 0.002559
0.352968 0.540058 0.577349 0.000000 0.442258 -0.000136
2.729733 0.494423 0.567292 0.000000 -0.026178 -0.000010
1.831661 0.591904 0.697147 0.000000 0.955022 0.000001
2.698482 0.410084 0.718591 0.000000 -0.859475 0.000002
1.642212 0.400402 0.818217 0.072556 0.004357 0.003224
2.800461 0.396148 0.671862 0.000000 -0.999657 0.000000
1.678693 0.454468 0.576370 0.000001 -0.417979 -0.000036
1.445084 0.554704 0.748808 0.000001 -0.595476 -0.000778
0.882600 0.596340 0.670469 0.000000 0.999657 0.000000
1.564188 0.780960 0.288553 -0.072496 0.005586 0.003791
3.367570 0.295618 0.417692 0.000000 0.803372 -0.000349
3.247251 0.691345 0.404198 0.190779 0.002318 0.003584
1.709239 0.758529 1.034631 0.072556 -0.005228 0.003865
0.071417 0.461645 0.720687 -0.500170 -0.000029 0.000043
1.519216 0.427319 0.781533 -0.067055 0.001983 0.001587
2.290566 0.559563 0.589809 0.000001 0.634603 -0.000010
3.224390 0.308638 0.920517 0.190779 -0.001153 -0.001783
1.752482 0.807758 1.079049 0.078443 0.004375 -0.003238
1.639926 0.206150 0.290489 -0.072497 -0.005100 0.003463
1.679833 0.212417 1.067236 0.072555 0.010456 0.007672
0.505937 0.475555 0.569402 0.000000 -0.195242 -0.000042
1.526628 0.636935 0.839559 -0.072495 0.001882 -0.001281
3.469510 0.594318 0.514199 0.000001 0.803372 0.000419
1.737779 0.605375 0.510355 0.072554 -0.018793 -0.013487
2.545513 0.403416 0.705171 0.000000 -0.928812 0.000013
1.321767 0.396202 0.661703 -0.000001 -0.988276 -0.000000
0.125198 0.415952 0.631698 -0.290101 -0.000119 -0.000049
3.178667 0.668749 0.900194 0.190779 0.001153 -0.001782
1.707509 0.404327 0.804944 0.072554 0.018793 0.013487
0.157979 0.556687 0.742102 -0.162492 0.000170 0.000199
0.157979 0.476250 0.573462 -0.162492 -0.000060 -0.000251
3.484142 0.404719 0.769992 -0.000000 0.803371 0.000279
0.278951 0.596290 0.672354 0.000000 0.999657 0.000000
1.015831 0.441656 0.583408 0.000000 -0.555539 -0.000006
1.219788 0.482823 0.766727 -0.000001 -0.125959 0.000016
0.157979 0.548552 0.586862 -0.162490 0.000148 -0.000216
1.419631 0.352619 0.857638 -0.072496 -0.007529 -0.005097
1.780157 0.082696 0.104887 0.072555 0.010954 -0.008029
3.171535 0.656646 0.471910 0.000000 -0.803373 -0.000385
3.463323 0.470294 0.570658 0.394878 -0.000029 -0.000104
3.292262 0.491801 0.567360 0.000000 -0.026178 -0.000021
1.490366 0.375478 0.814913 -0.072495 -0.009472 -0.006392
3.019154 0.568494 0.785836 0.000000 0.803373 -0.000771
1.639926 0.786301 1.044386 -0.072496 0.005100 -0.003463
0.785556 0.396096 0.669896 0.000000 -0.999662 0.000000
1.450891 0.422611 0.554810 -0.067057 0.009668 -0.007661
3.106397 0.476278 0.765618 0.000001 -0.194994 0.000168
1.563695 0.574924 0.536329 -0.067058 -0.007933 -0.006307
1.818211 0.803603 1.082129 0.072554 -0.004233 0.003132
1.818211 0.204330 0.273634 0.072555 0.009461 -0.006954
1.818211 0.173366 0.231859 0.072556 0.008465 -0.006232
1.778427 0.256003 0.986271 0.078443 -0.010592 -0.007781
2.017526 0.396045 0.667929 -0.000000 -0.993636 0.000000
0.964841 0.592184 0.638629 -0.000000 0.954808 -0.000005
1.525725 0.456452 0.575486 0.000001 -0.393644 -0.000020
1.637455 0.614994 0.485122 0.072554 -0.002179 -0.001614
0.364482 0.596299 0.662849 0.000000 0.999657 -0.000000
0.071417 0.547592 0.630118 -0.500169 0.000040 -0.000028
3.136216 0.602572 0.831812 0.000000 0.803373 -0.000321
3.415543 0.461078 0.599119 0.277038 -0.001496 -0.002018
3.442201 0.397518 0.779707 -0.000001 0.803372 0.000419
3.386931 0.580352 0.574840 0.000002 -0.803370 -0.000419
3.033618 0.611209 0.533211 0.000000 -0.803373 -0.000771
1.627704 0.486405 0.567733 -0.000000 -0.091441 -0.000364
1.619787 0.749438 0.342051 -0.072497 0.011657 0.007834
1.585440 0.373124 0.528787 -0.072493 -0.001943 0.001322
1.436867 0.618421 0.510923 -0.072495 0.009472 0.006392
3.249496 0.596303 0.671862 0.000000 0.999657 0.000000
1.638395 0.596417 0.667356 0.000000 0.999657 -0.000000
0.760884 0.584137 0.619379 -0.000001 0.869028 -0.000005
0.598046 0.396052 0.665881 0.000000 -0.999914 -0.000000
3.208376 0.455963 0.759179 -0.000000 -0.394763 0.000078
3.157387 0.416838 0.728560 0.000000 -0.785371 0.000007
3.208376 0.420335 0.602028 0.000000 -0.751765 -0.000004
2.964659 0.423957 0.785836 -0.000000 -0.803372 -0.000257
1.780157 0.067214 1.250876 0.072555 0.010954 0.008029
3.310355 0.487303 0.767225 0.000000 -0.091423 0.000182
1.219788 0.548854 0.582184 -0.000000 0.533575 -0.000053
1.321767 0.548715 0.582096 0.000000 0.533719 -0.000013
2.904330 0.414083 0.556617 0.190780 -0.001153 0.001782
2.494524 0.422574 0.735353 0.000000 -0.734270 0.000015
1.321767 0.533274 0.760521 -0.000001 0.350761 0.000011
1.449241 0.495160 0.767603 0.000000 -0.026182 0.000010
3.272003 0.651795 0.898220 -0.000001 0.803370 -0.000257
3.317781 0.630970 0.870124 -0.000001 0.803370 -0.000257
2.154046 0.496553 0.567253 0.000000 0.026178 -0.000021
3.130275 0.427744 0.780728 0.000000 -0.803373 -0.000321
1.737779 0.605375 0.824520 0.072555 -0.018793 0.013487
1.737779 0.387076 0.510355 0.072554 0.018793 -0.013487
3.106397 0.531247 0.573573 -0.000000 0.346099 -0.000091
1.882651 0.414765 0.725761 -0.000001 -0.816133 0.000024
1.745563 0.752911 0.312262 0.072554 -0.010456 -0.007672
1.997788 0.495734 0.767618 0.000000 -0.026182 0.000021
1.560235 0.566981 0.788253 -0.067057 -0.003967 0.003170
1.582969 0.586241 0.757795 -0.072496 0.007772 -0.005259
2.494524 0.455324 0.575975 -0.000001 -0.416565 -0.000018
2.071805 0.496389 0.567249 0.000000 0.026182 -0.000021
1.525725 0.401437 0.635002 -0.000000 -0.946939 -0.000006
2.902439 0.397321 0.683435 0.000000 -0.985546 0.000001
2.851450 0.409455 0.717534 0.000000 -0.872419 0.000005
2.950053 0.399019 0.536294 0.190780 -0.001153 0.001782
1.576976 0.360351 0.825950 -0.072495 -0.003765 -0.002559
1.566907 0.330286 0.463450 -0.072496 -0.007043 0.004771
3.460167 0.682947 0.940247 0.000001 0.803370 -0.000233
3.077911 0.411534 0.760798 0.000000 0.803372 0.000514
3.495956 0.577766 0.695970 0.389102 0.000375 0.000155
2.995775 0.608495 0.818904 0.190776 0.001153 -0.001783
3.119622 0.583639 0.528606 -0.000000 0.803372 0.000321
3.300541 0.367161 0.862462 0.000004 -0.803315 -0.000257
0.093771 0.523264 0.596999 -0.412733 0.000028 -0.000068
1.015831 0.477967 0.765953 0.000001 -0.195102 0.000168
2.221484 0.596389 0.666291 0.000000 0.999657 -0.000000
1.688482 0.281281 0.394593 0.078443 -0.006218 0.004594
0.133288 0.459487 0.749953 -0.258577 -0.000064 0.000135
0.690156 0.492784 0.567334 0.000000 -0.025819 -0.000010
3.033618 0.591212 0.816486 0.000000 0.803373 -0.000771
3.033618 0.381242 0.801665 0.000000 0.803373 0.000771
0.799537 0.596335 0.670633 -0.000000 0.915810 0.000000
3.209887 0.588490 0.563861 0.000000 -0.803373 -0.000385
1.610645 0.621169 0.861359 0.072555 -0.004357 0.003224
0.634233 0.492457 0.767532 0.000000 -0.026182 0.000010
2.137598 0.586115 0.623201 -0.000000 0.896777 -0.000008
3.088113 0.611209 0.801665 -0.000000 -0.803372 0.000514
2.968920 0.560921 0.775619 0.000000 0.803372 -0.000514
3.278846 0.401239 0.816486 0.000003 -0.803351 -0.000257
3.077911 0.411534 0.574078 -0.000001 0.803371 -0.000514
3.287369 0.596063 0.553644 -0.000001 -0.803370 -0.000514
3.270324 0.606358 0.836920 0.000000 0.803374 -0.000514
1.372757 0.441009 0.583841 -0.000001 -0.530383 -0.000003
2.881468 0.570837 0.566778 0.190779 0.002305 0.003565
3.087221 0.353829 0.475326 0.190778 -0.001153 0.001783
2.964659 0.588490 0.563861 0.000001 -0.803367 -0.000257
0.030757 0.482680 0.697860 -0.659766 -0.000007 0.000018
1.729683 0.415903 0.727315 -0.000000 -0.800914 0.000006
1.321767 0.589460 0.704105 -0.000000 0.927430 0.000002
3.221380 0.420171 0.543931 0.000000 -0.803373 0.000449
1.752482 0.208171 0.270787 0.072555 0.004731 -0.003499
2.647492 0.478613 0.568811 -0.000001 -0.168080 -0.000025
1.727401 0.577111 0.570313 0.078444 0.017383 0.012581
1.787941 0.604248 0.525701 0.078444 0.017383 0.012581
3.125563 0.350951 0.492344 0.000000 0.803373 -0.000321
3.125563 0.621504 0.477522 0.000000 0.803373 0.000321
1.757671 0.424619 0.563435 0.072554 0.008714 -0.006413
1.787941 0.569601 0.564746 0.072556 -0.008714 -0.006413
1.705779 0.241865 0.310539 0.072555 0.005726 -0.004231
1.573948 0.795255 1.066067 -0.072496 0.005100 -0.003463
1.477640 0.565854 0.556912 -0.067056 -0.009668 -0.007662
2.631044 0.596372 0.669240 0.000000 0.999657 0.000000
1.933640 0.485264 0.567851 -0.000000 -0.117602 -0.000141
3.171535 0.636649 0.877787 0.000000 0.803373 -0.000385
1.541825 0.747856 0.322674 -0.067057 -0.012395 -0.009758
3.025801 0.497701 0.767612 0.000000 0.013090 0.000021
2.917243 0.492948 0.567330 -0.000000 -0.025819 -0.000084
1.484496 0.683884 0.913985 -0.072495 0.007043 -0.004771
1.471894 0.664235 0.434644 -0.067056 -0.007190 -0.005723
1.015831 0.555118 0.748496 -0.000000 0.598252 0.000006
2.647492 0.402930 0.703953 -0.000000 -0.928811 0.000013
1.168799 0.404063 0.628154 -0.000000 -0.918813 -0.000004
1.629547 0.243237 0.311544 -0.067057 0.005454 -0.004352
1.506859 0.706045 0.378659 -0.067057 -0.006942 -0.005528
1.771509 0.659475 0.453365 0.078444 0.006678 0.004932
3.217508 0.340656 0.898220 0.000000 -0.803373 -0.000449
1.671185 0.326634 0.458066 0.078443 -0.006678 0.004932
2.320173 0.495406 0.567266 -0.000000 -0.026173 -0.000021
0.200000 0.400936 0.636476 -0.032112 -0.000659 -0.000205
3.240494 0.659368 0.426438 -0.000000 0.803373 0.000899
1.617563 0.355396 0.881947 0.072555 0.007220 0.005326
1.781887 0.770516 0.292948 0.072555 -0.005228 -0.003865
2.716575 0.596359 0.669732 0.000000 0.999657 0.000000
2.527421 0.396088 0.669568 0.000000 -0.999658 0.000000
1.902389 0.596415 0.667274 0.000000 0.999657 -0.000000
1.745563 0.230702 1.016062 0.078446 -0.005296 -0.003917
3.270113 0.293575 0.940839 0.190779 -0.001153 -0.001782
3.184319 0.358524 0.502561 0.000000 0.803372 -0.000385
3.460167 0.309504 0.940247 0.000001 -0.803370 -0.000233
3.088113 0.611209 0.533211 -0.000003 -0.803365 -0.000514
1.742103 0.923013 1.252525 0.072555 -0.010954 0.008029
1.580249 0.797610 0.256395 -0.067058 -0.005206 -0.004156
1.624482 0.652942 0.902534 0.072555 -0.014438 0.010497
1.984630 0.447845 0.579706 0.000000 -0.488603 -0.000015
1.745563 0.777231 1.036950 0.078443 0.004836 -0.003578
1.788806 0.171507 1.101638 0.078444 -0.003915 -0.002898
1.788806 0.817367 0.230586 0.072555 -0.008465 -0.006232
0.301979 0.589703 0.703496 0.000000 0.926103 0.000002
1.831661 0.396581 0.656965 0.000000 -0.995798 -0.000006
2.035619 0.549547 0.752254 0.000001 0.533046 0.000027
3.263481 0.325510 0.416221 0.000000 -0.803373 0.000257
3.323334 0.375563 0.525548 0.000001 0.803353 -0.000128
0.862863 0.402502 0.632032 -0.000000 -0.938187 -0.000006
1.525725 0.532741 0.760733 -0.000001 0.369796 0.000021
1.667725 0.632246 0.869330 0.072555 -0.007220 0.005326
0.269082 0.396161 0.672354 0.000000 -0.999657 0.000000
3.355426 0.697232 0.375354 0.000002 0.803366 0.000349
1.117810 0.562035 0.742977 -0.000001 0.655610 0.000010
1.423746 0.576107 0.606969 0.000000 0.801220 -0.000006
1.631276 0.864488 1.160384 -0.072493 0.008258 -0.005584
1.678693 0.534149 0.574704 -0.000001 0.370550 -0.000084
3.032380 0.396039 0.667930 0.000000 -0.999914 0.000000
2.330042 0.396073 0.668994 0.000004 -0.124016 0.000000
1.656605 0.803647 0.240643 -0.067057 -0.004958 -0.003959
3.401398 0.712378 0.979955 0.000000 0.803372 -0.000465
3.407281 0.248384 1.001807 0.190780 -0.001153 -0.001782
3.282237 0.641500 0.492344 -0.000000 -0.803372 -0.000128
3.208376 0.534756 0.759923 0.000001 0.394498 0.000039
1.582969 0.406210 0.577080 0.078443 -0.008060 0.005943
3.447371 0.244931 0.985566 -0.000000 0.803372 0.000465
2.137598 0.401978 0.633454 0.000000 -0.938084 -0.000006
0.862863 0.591807 0.637416 0.000000 0.955025 -0.000010
3.159203 0.630141 0.507669 0.000001 -0.803368 -0.000321
3.207306 0.621504 0.857353 -0.000001 0.803371 -0.000385
3.111099 0.393666 0.508172 0.000001 -0.803371 0.000257
1.637455 0.636984 0.833454 0.078454 0.002015 -0.001493
1.556776 0.584710 0.575945 -0.072493 0.003886 0.002641
1.781887 0.751712 1.007321 0.078444 0.005297 -0.003917
1.638320 0.684715 0.391166 0.072555 -0.013443 -0.009798
3.295891 0.411534 0.760798 0.000000 0.803372 0.000514
1.818211 0.219812 1.040354 0.072556 0.009460 0.006954
0.157979 0.496226 0.763513 -0.170583 0.000003 0.000123
2.290566 0.592749 0.694277 -0.000000 0.962220 0.000005
1.726536 0.813728 1.106987 0.072556 -0.004730 0.003499
1.704543 0.058714 0.082209 -0.072496 -0.010686 0.007195
1.692188 0.962296 1.296225 -0.067053 -0.009917 0.007854
1.461577 0.396062 0.666291 0.000000 -0.999647 -0.000000
2.392545 0.504780 0.767259 0.000000 0.091634 0.000091
3.452753 0.613757 0.846902 -0.000000 0.803372 -0.000467
3.338512 0.312989 0.935546 -0.000000 -0.803373 -0.000349
3.470596 0.574011 0.583395 0.000001 -0.803368 -0.000279
2.290566 0.407391 0.713759 -0.000000 -0.884994 0.000018
2.647492 0.456076 0.759228 0.000000 -0.394743 0.000078
1.570489 0.204718 1.055461 -0.072497 -0.005586 -0.003791
1.570489 0.204718 0.279415 -0.072496 -0.005586 0.003791
1.629547 0.228717 1.012569 -0.072497 -0.005586 -0.003791
1.556776 0.433413 0.556916 -0.067057 0.007933 -0.006307
2.983036 0.497045 0.767620 0.000000 0.013090 0.000041
1.295450 0.497864 0.767588 0.000000 0.026178 0.000021
3.463323 0.584277 0.715246 0.394879 0.000095 0.000053
1.168799 0.401992 0.701460 0.000000 -0.937071 0.000003
3.497688 0.601453 0.788503 -0.000000 -0.803371 0.000279
3.471465 0.450682 0.707981 0.277036 -0.000748 0.001009
3.415543 0.441081 0.720935 0.277038 -0.000748 0.001009
3.442635 0.558815 0.772779 -0.000000 0.803373 -0.000558
3.443504 0.546569 0.714458 0.277036 0.000748 0.001009
3.442201 0.417514 0.540347 0.000000 -0.803372 0.000419
3.106397 0.461896 0.573318 -0.000000 -0.346133 -0.000091
3.499425 0.475479 0.716327 0.277037 -0.001560 0.002105
1.525725 0.534035 0.574658 0.000000 0.370443 -0.000042
1.717145 0.947284 0.063932 -0.072497 0.010686 0.007195
1.704543 0.058714 1.252667 -0.072496 -0.010686 -0.007195
3.169016 0.423957 0.785836 0.000000 -0.803373 -0.000385
1.686752 0.180538 0.258906 0.078443 -0.004375 0.003238
3.190283 0.396144 0.671698 0.000000 -0.999657 0.000000
1.510752 0.598949 0.785796 -0.072495 0.009472 -0.006392
2.545513 0.459710 0.760733 0.000000 -0.370497 0.000084
3.411464 0.616773 0.809171 -0.000001 -0.803372 0.000467
3.315005 0.648009 0.441763 -0.000001 0.803372 0.000257
3.315005 0.344442 0.441763 -0.000000 -0.803373 0.000257
3.367399 0.616830 0.809249 -0.000001 -0.803373 0.000934
3.364623 0.613873 0.847059 0.000001 0.803371 -0.000467
3.403136 0.344558 0.441920 -0.000000 -0.803372 0.000467
3.300736 0.331190 0.910991 -0.000001 -0.803370 -0.000257
3.403136 0.344558 0.892956 0.000000 -0.803372 -0.000467
3.367399 0.375621 0.525626 -0.000000 0.803372 -0.000934
3.361847 0.341543 0.855225 0.000000 0.803373 0.000934
2.881468 0.421614 0.768098 0.190779 -0.002305 -0.003565
3.259365 0.528274 0.572517 -0.000000 0.321342 -0.000049
3.157387 0.532360 0.573990 0.000001 0.368215 -0.000021
1.101361 0.494095 0.567300 0.000000 -0.026178 -0.000010
1.585440 0.594075 0.824806 -0.067058 -0.003967 0.003170
1.638320 0.285851 0.407387 0.078444 -0.012434 0.009103
3.106397 0.592460 0.695303 0.000001 0.962348 0.000009
1.716524 0.496553 0.767623 0.000000 0.026182 0.000082
1.638320 0.307736 0.943710 0.072554 0.013443 0.009799
2.208325 0.396045 0.667929 0.000000 -0.999657 0.000000
3.522464 0.243196 0.326069 -0.394035 -0.001605 0.001207
1.576976 0.632100 0.508925 -0.072496 0.003765 0.002559
1.372757 0.565370 0.594932 -0.000001 0.696362 -0.000017
2.061936 0.596402 0.666782 0.000000 0.999657 -0.000000
1.677239 0.588023 0.562219 0.078438 0.004030 0.002983
1.697995 0.339084 0.894128 0.072553 0.007220 0.005326
0.403958 0.565194 0.594760 0.000000 0.678944 -0.000002
1.474735 0.469978 0.570747 -0.000001 -0.270977 -0.000059
3.495956 0.582070 0.657765 0.389103 0.000368 -0.000063
3.479640 0.438060 0.594500 0.396310 -0.000249 -0.000351
2.341556 0.526404 0.571905 -0.000000 0.296487 -0.000013
3.387583 0.436281 0.607464 0.277040 -0.000748 -0.001009
0.403958 0.482985 0.766750 0.000001 -0.124700 0.000017
1.642507 0.496717 0.767618 -0.000000 0.026123 0.000041
3.495081 0.294270 0.919001 0.000001 0.803366 0.000233
3.495081 0.698181 0.919001 0.000001 -0.803369 0.000233
3.495081 0.678185 0.401052 -0.394036 0.000797 0.000599
1.525725 0.463013 0.761963 -0.000000 -0.320168 0.000006
3.285658 0.381242 0.533211 0.000000 0.803372 -0.000514
1.611942 0.615374 0.800928 0.078442 0.004030 -0.002983
1.395784 0.596406 0.666946 0.000000 0.999657 -0.000000
0.301979 0.537127 0.758900 0.000000 0.418781 0.000018
2.545513 0.589703 0.631379 0.000000 0.928852 -0.000003
1.630536 0.621940 0.522633 0.078444 0.008060 0.005943
1.270778 0.403249 0.630123 0.000000 -0.928422 -0.000007
1.768049 0.369824 0.844097 0.072555 0.003610 0.002673
1.504389 0.430583 0.559014 -0.067056 0.003967 -0.003170
3.495956 0.550088 0.599897 0.389102 0.000249 -0.000279
3.524651 0.324372 0.435585 -0.394036 -0.001605 0.001207
3.524651 0.668079 0.435585 -0.394036 0.001605 0.001207
3.495950 0.665938 0.875502 -0.000001 -0.803373 0.000349
1.768049 0.628729 0.495302 0.078444 0.013355 0.009759
3.295891 0.560921 0.775619 0.000000 0.803372 -0.000514
0.676998 0.492620 0.767537 0.000000 -0.026182 0.000021
1.556528 0.620027 0.854114 -0.067057 -0.007933 0.006307
3.386931 0.432095 0.774857 -0.000003 -0.803364 -0.000419
2.086609 0.575486 0.728721 0.000002 0.782116 0.000013
1.445084 0.428909 0.742257 -0.072495 -0.010200 -0.006875
3.116651 0.407747 0.568969 0.000000 0.803373 -0.000321
1.645239 0.721644 0.386176 -0.072495 0.006072 0.004118
3.443504 0.526573 0.605596 0.277038 0.001496 -0.002018
0.200000 0.593005 0.693370 -0.032108 0.000669 0.000170
1.645239 0.700601 0.964297 0.072554 -0.006224 0.004597
1.652158 0.255762 0.364964 0.078443 -0.011513 0.008444
2.137598 0.529360 0.572886 0.000000 0.321459 -0.000049
3.424819 0.268625 0.953600 -0.000000 0.803372 0.000233
3.473398 0.350207 0.491340 0.000001 0.803373 -0.000934
