0.104497 -0.020066 0.078692 -0.000234 -0.310470 0.949242
1.239782 0.081210 -0.000000 0.002715 0.998270 -0.032802
-0.336135 0.279851 -0.354596 -0.057609 0.807423 0.587154
-0.338643 -0.269126 0.340094 -0.057609 -0.807423 -0.587154
1.672832 -0.070555 -0.000000 1.000000 0.000000 -0.000000
-0.640368 -0.074230 0.032939 -0.000047 -0.884250 0.464329
-1.404216 -0.080656 -0.009470 0.000734 -0.991231 -0.125313
0.021997 -0.247545 -0.313662 0.060724 -0.783535 0.618374
-0.034927 0.256121 0.318939 0.060724 0.783535 -0.618374
0.021997 0.192073 -0.243374 0.060724 0.783535 0.618374
0.021997 -0.266036 0.337092 0.057653 0.783678 0.618486
-0.254953 0.069482 -0.042039 -0.000316 0.837259 -0.544657
1.317609 -0.181195 0.229590 -0.043807 -0.820652 -0.569746
1.317609 -0.181195 -0.229590 -0.043807 -0.820652 0.569746
0.396550 0.078056 -0.022410 -0.000370 0.950325 -0.307348
-0.229398 -0.376768 -0.477399 -0.057609 -0.807423 0.587154
0.964316 -0.033524 0.073967 0.000013 -0.469467 0.881551
1.498056 0.138322 0.157248 0.074324 0.789993 -0.608594
1.498056 0.138322 -0.157248 0.074324 0.789993 0.608594
-0.155688 -0.131842 0.149607 0.060724 -0.783535 -0.618374
-0.212545 0.392071 0.496789 -0.057609 0.807423 -0.587154
-0.515904 0.116622 -0.147771 -0.057609 0.807423 0.587154
-0.092681 0.350392 -0.432717 0.060724 0.783535 0.618374
-0.063423 -0.090909 -0.123152 0.057653 0.783678 -0.618486
-0.413036 -0.120972 0.143659 -0.057609 -0.807423 -0.587154
1.428001 -0.074961 0.031239 -0.000564 -0.944488 0.325163
-0.206927 -0.397172 0.503252 -0.054699 0.760140 0.647453
1.559263 -0.149970 -0.199911 0.074324 0.775524 -0.626928
1.114008 -0.090859 -0.115127 -0.043807 -0.820652 0.569746
-0.100619 0.103563 0.142653 0.057653 -0.783678 0.618486
-0.843462 -0.014836 -0.079843 0.000224 -0.182862 -0.981902
1.577974 -0.154652 0.203484 0.074324 0.775524 0.626928
-1.574147 0.081002 0.005800 -0.001776 0.991644 0.121693
-1.211515 0.018171 -0.079151 0.000911 0.228819 -0.972244
1.276889 0.163128 0.206698 -0.043807 -0.744865 0.665776
1.276889 0.163128 -0.206698 -0.043807 -0.744865 -0.665776
-0.424935 -0.072283 -0.077872 -0.057609 -0.807423 0.587154
-0.197592 0.164681 -0.229135 0.057653 -0.783678 -0.618486
-0.483684 0.073185 0.084877 -0.057609 0.807423 -0.587154
1.169594 -0.086995 0.114461 -0.043807 0.744865 0.665776
-0.242074 0.256918 0.335618 -0.054699 -0.760140 0.647453
-0.184994 -0.262358 -0.315712 -0.057609 -0.807423 0.587154
0.246662 -0.051984 -0.062392 0.000059 -0.650445 -0.758110
-0.027614 -0.370507 -0.474090 0.057653 0.783678 -0.618486
0.549904 -0.000000 0.081210 0.000976 -0.030633 0.998784
0.813922 0.080865 0.007476 0.000645 0.988807 0.140159
0.021997 0.370817 0.469859 0.060724 0.783535 -0.618374
-0.027960 0.074657 -0.031958 -0.000546 0.886941 -0.459142
-0.291147 0.102082 0.149688 -0.054699 -0.760140 0.647453
-0.247332 -0.115725 -0.120186 0.021282 -0.792531 0.608750
-0.161275 -0.229972 0.308479 0.057653 0.783678 0.618486
0.011481 -0.379581 0.481943 0.057653 0.783678 0.618486
1.447914 0.239010 0.302847 -0.043807 -0.744865 0.665776
1.447914 0.239010 -0.302847 -0.043807 -0.744865 -0.665776
0.021997 -0.148928 0.188705 0.057653 0.783678 0.618486
1.060246 0.069025 -0.042785 -0.000915 0.875977 -0.480112
1.569725 0.081210 -0.000000 -0.002823 0.997226 -0.059898
-0.145132 0.453282 -0.574349 -0.057609 0.807423 0.587154
1.297197 -0.059547 -0.092149 -0.043807 0.744865 -0.665776
-0.741237 0.071952 0.037655 -0.001526 0.857266 0.513079
-1.302019 0.036407 0.072591 -0.000741 0.494796 0.867751
-1.644703 -0.078779 -0.009534 -0.147761 -0.974663 -0.158767
1.465181 -0.241151 0.306378 -0.043807 0.744865 0.665776
1.630723 0.196978 0.249589 0.074324 -0.775524 0.626928
1.630723 0.196978 -0.249589 0.074324 -0.775524 -0.626928
-0.373808 0.172549 -0.225436 -0.054699 -0.760140 -0.647453
1.456058 -0.242624 -0.307426 -0.043807 -0.820652 0.569746
-1.099807 -0.081210 0.000000 -0.000806 -0.998616 -0.026859
1.122152 0.094473 0.119705 -0.043807 -0.744865 0.665776
-0.285628 -0.064060 0.052897 -0.057609 -0.807423 -0.587154
-0.883935 -0.006494 0.080950 -0.001518 -0.135708 0.989837
1.401461 0.074706 -0.031844 0.000022 0.892955 -0.447365
0.429925 -0.081210 0.000000 0.001974 -0.996093 -0.068143
-0.133896 -0.463484 -0.587275 -0.057609 -0.807423 0.587154
0.262533 0.046266 0.066742 -0.000047 0.513038 0.856892
0.918078 -0.010696 -0.080502 0.000368 -0.185782 -0.981332
-0.046423 -0.068827 0.043102 0.000020 -0.820048 0.570051
0.536112 0.011415 -0.080403 -0.001931 0.202058 -0.977672
0.127277 0.056034 -0.058781 0.000161 0.635870 -0.770194
-1.419540 0.076719 -0.026630 0.000195 0.946229 -0.319824
0.819032 -0.074635 0.032009 -0.000035 -0.921156 0.385951
-0.246251 0.361466 -0.458009 -0.057609 0.807423 0.587154
-0.285290 -0.167984 0.227555 -0.054699 0.760140 0.647453
-0.630817 0.041131 -0.070023 0.000097 0.513045 -0.856895
1.539333 -0.052835 -0.082115 0.074324 0.775524 -0.626928
0.659884 0.081210 -0.000000 0.001880 0.995328 -0.080081
1.655676 0.098590 0.124922 0.074324 -0.775524 0.626928
1.655676 0.098590 -0.124922 0.074324 -0.775524 -0.626928
-0.107222 0.244827 -0.322263 0.057653 -0.783678 -0.618486
-0.324900 -0.290053 -0.367523 -0.057609 -0.807423 0.587154
1.354292 0.074308 0.112420 -0.043807 -0.744865 0.665776
0.021997 0.167419 0.212135 0.060724 0.783535 -0.618374
-0.128278 0.468584 0.593738 -0.057609 0.807423 -0.587154
-0.992249 -0.008872 -0.080724 -0.000246 -0.161681 -0.985669
1.421849 -0.125038 -0.140688 -0.043807 -0.820652 0.569746
-0.090528 -0.179871 -0.238402 0.057653 0.783678 -0.618486
-1.521975 -0.041890 0.069572 -0.000025 -0.566821 0.822302
-0.106079 -0.331798 0.407841 0.060724 -0.783535 -0.618374
0.021997 0.401635 -0.508908 0.060724 0.783535 0.618374
-0.401988 0.072595 -0.036400 -0.000107 0.880771 -0.470978
1.440774 -0.120742 0.170060 -0.043807 0.744865 0.665776
1.559331 -0.062567 0.091783 0.074324 0.775524 0.626928
0.021997 0.290691 -0.368331 0.060724 0.783535 0.618374
1.164586 0.105882 -0.135262 -0.043807 -0.744865 -0.665776
-0.150151 0.200341 0.236946 0.060724 0.783535 -0.618374
-1.514015 -0.019302 -0.078882 0.000447 -0.235650 -0.970615
-0.106116 0.336767 0.414133 0.060724 0.783535 -0.618374
-0.078838 0.130864 -0.155914 0.060724 0.783535 0.618374
-0.482197 -0.147228 -0.186551 -0.057609 -0.807423 0.587154
1.316260 -0.080017 0.116304 -0.043807 0.744865 0.665776
-1.256138 -0.080508 0.010656 0.000232 -0.978539 0.197827
-1.158261 0.017436 0.079316 -0.000791 0.274160 0.960266
-0.495975 -0.066002 0.047315 -0.000180 -0.848761 0.526557
0.060215 -0.068687 -0.043326 -0.001021 -0.847682 -0.528481
-0.560846 -0.075815 -0.096065 -0.057609 -0.807423 0.587154
-0.776521 -0.074615 0.032057 0.000498 -0.890136 0.453191
0.692362 -0.026142 0.076887 -0.000111 -0.380546 0.923421
-0.169970 -0.000000 0.081210 0.001565 -0.036252 0.998033
-1.683106 0.028376 0.065495 -0.293303 0.389275 0.870990
1.078659 -0.079768 0.015232 0.000073 -0.971649 0.231345
-0.420402 -0.203338 0.257647 -0.054699 0.760140 0.647453
-0.612350 0.053350 0.061227 -0.000204 0.686468 0.725388
-0.136697 0.010621 -0.080512 0.000463 0.208491 -0.976348
-0.914321 0.078491 -0.020836 0.000167 0.966044 -0.253447
0.021997 0.081129 0.102797 0.060724 0.783535 -0.618374
1.622925 -0.227725 -0.288548 0.074324 -0.789993 0.608594
-1.670771 0.034313 -0.066251 -0.223180 0.513149 -0.826196
1.655676 -0.098590 -0.124922 0.074324 -0.789993 0.608594
-0.241261 -0.174856 -0.239343 -0.054699 0.760140 -0.647453
-0.232920 -0.319353 0.398791 -0.057609 -0.807423 -0.587154
1.299263 0.078819 -0.113846 -0.043807 -0.744865 -0.665776
-0.084091 -0.296357 -0.385400 0.057653 0.783678 -0.618486
1.471788 0.041600 0.069746 0.000009 0.561966 0.825697
-0.133896 -0.463484 0.587275 -0.054699 0.760140 0.647453
0.947267 0.078676 0.020126 0.000277 0.969776 0.239164
-0.975975 -0.077937 0.022822 0.000457 -0.960225 0.275091
-0.285126 0.109193 -0.158545 -0.054699 -0.760140 -0.647453
0.379933 -0.000000 0.081210 0.002241 -0.035743 0.998484
1.221584 -0.131249 -0.167393 -0.043807 0.744865 -0.665776
-0.295442 0.182978 0.244300 -0.054699 -0.760140 0.647453
1.206895 -0.080678 -0.009279 0.000922 -0.988409 -0.142959
-1.095896 0.058424 -0.056406 0.000025 0.760695 -0.647183
-1.339765 0.000000 -0.081210 0.002105 -0.074696 -0.995469
-0.368733 0.030401 0.075305 0.000209 0.345727 0.937138
0.021997 -0.155092 -0.196515 0.060724 -0.783535 0.618374
0.789861 0.000000 -0.081210 0.001757 -0.024138 -0.999014
0.574278 -0.080878 -0.007336 -0.001873 -0.997444 -0.056553
-0.183114 -0.080508 -0.010652 0.000088 -0.978333 -0.198899
-0.228092 0.252815 -0.306817 -0.057609 0.807423 0.587154
1.622925 -0.227725 0.288548 0.074324 -0.789993 -0.608594
-0.722594 -0.036763 -0.072412 0.000052 -0.504612 -0.861901
1.396802 0.164404 -0.216015 -0.043807 -0.744865 -0.665776
-0.521282 0.073179 -0.035210 -0.000301 0.900411 -0.432307
0.276784 0.062908 -0.051358 0.000409 0.725425 -0.686353
1.398352 0.164897 0.216669 -0.043807 -0.744865 0.665776
-0.054000 -0.203706 0.265198 0.057653 0.783678 0.618486
-0.358705 -0.134223 -0.156550 -0.057609 -0.807423 0.587154
-0.405760 0.130651 0.156255 -0.057609 0.807423 -0.587154
-0.315415 -0.028110 -0.076190 0.000185 -0.401608 -0.914523
-0.279958 0.330860 0.419229 -0.057609 0.807423 -0.587154
-1.420251 0.015624 0.079692 0.000664 0.251802 0.966519
-0.358606 0.259448 0.328743 -0.057609 0.807423 -0.587154
0.209992 -0.062195 0.052218 -0.000012 -0.796829 0.602177
0.363172 -0.025449 -0.077119 -0.000127 -0.258401 -0.964844
-0.087614 0.395693 0.511596 -0.017247 -0.768890 0.638539
1.239782 -0.000000 0.081210 -0.000457 -0.022252 0.998438
1.197625 0.008096 -0.080805 -0.002158 0.162289 -0.985463
0.509601 0.080414 0.011338 0.000588 0.979656 0.194332
1.420277 -0.032767 -0.074306 -0.000259 -0.404041 -0.913392
1.672832 0.041206 0.021726 1.000000 -0.000000 0.000000
-0.132677 0.080890 0.007194 -0.002083 0.988732 0.143366
0.318423 -0.076459 0.027368 -0.000007 -0.915541 0.399075
1.500000 0.052497 -0.085960 0.028923 -0.781653 -0.622678
1.654117 -0.104739 0.132714 0.074324 -0.789993 -0.608594
1.235908 0.102353 0.122310 -0.043807 0.820652 -0.569746
-1.218345 0.080325 0.011957 0.001575 0.972333 0.225474
-0.405992 0.116560 -0.136901 -0.057609 0.807423 0.587154
0.021997 0.099619 -0.126227 0.060724 0.783535 0.618374
1.641498 -0.000000 -0.080881 0.006682 -0.059954 -0.997206
1.029567 -0.037633 -0.071964 0.000162 -0.518815 -0.853429
-0.098592 -0.395127 0.510004 -0.054699 0.760140 0.647453
-0.176321 0.105575 -0.114299 0.060724 0.783535 0.618374
0.861572 0.016226 0.079572 -0.000111 0.205471 0.977302
-0.390663 -0.076373 0.027606 -0.002371 -0.941015 0.335321
-0.521521 -0.111522 0.141308 -0.054699 0.760140 0.647453
1.042524 0.043770 0.068404 0.000119 0.587964 0.807353
0.160705 0.067349 0.045378 -0.000054 0.782637 0.620064
-0.157404 -0.126020 -0.176402 0.057653 0.783678 -0.618486
-0.126987 -0.398606 -0.497382 -0.057609 -0.807423 0.587154
1.524302 0.185501 0.248007 -0.004409 -0.756127 0.653713
1.524302 0.185501 -0.248007 -0.004409 -0.756127 -0.653713
-0.138429 0.276046 0.334021 0.060724 0.783535 -0.618374
0.021997 -0.315345 -0.399570 0.060724 -0.783535 0.618374
-0.183788 0.299152 -0.390127 -0.054699 -0.760140 -0.647453
1.459190 -0.182410 -0.220455 -0.043807 -0.820652 0.569746
1.237694 -0.138055 0.176068 -0.043807 0.744865 0.665776
1.401975 0.094559 -0.138214 -0.043807 -0.744865 -0.665776
1.325945 -0.080637 0.009630 -0.003891 -0.996168 0.069818
-0.256170 -0.097542 0.147313 -0.054699 0.760140 0.647453
-0.068897 0.030975 0.075070 -0.000047 0.405609 0.912687
-0.262295 0.046039 0.067119 -0.000000 -0.619517 -0.784983
-0.039457 -0.433387 -0.554868 0.057653 0.783678 -0.618486
-0.181346 -0.325216 -0.401792 -0.057609 -0.807423 0.587154
-0.874068 -0.080808 -0.008070 0.002118 -0.986753 -0.153542
0.917542 -0.080943 -0.006581 0.001154 -0.991927 -0.119775
1.546273 0.257011 0.321213 -0.043807 0.820652 -0.569746
1.546273 0.252689 -0.324623 -0.043807 -0.744865 -0.665776
-0.768121 0.056152 -0.058668 -0.000067 0.733418 -0.677960
-1.315514 0.079172 -0.018078 0.000635 0.964993 -0.255248
-0.085819 0.195258 -0.236822 0.060724 0.783535 0.618374
-1.055321 -0.028361 0.076097 -0.000073 -0.354349 0.933769
0.000102 0.432312 0.549818 0.057653 -0.783678 0.618486
-0.191092 0.143311 0.160662 0.060724 0.783535 -0.618374
-0.058182 -0.113765 0.136277 0.060724 -0.783535 -0.618374
-0.705999 -0.015219 0.079771 -0.000476 -0.250912 0.966785
0.021997 0.309181 0.391760 0.060724 0.783535 -0.618374
1.416247 -0.190953 0.236061 -0.043807 -0.820652 -0.569746
1.134838 0.077942 0.022804 -0.000712 0.959648 0.276725
1.562294 0.067940 0.098078 0.074324 -0.775524 0.626928
-0.016250 -0.010039 -0.080587 -0.000211 -0.198657 -0.978354
-0.154585 0.394636 -0.494629 -0.057609 0.807423 0.587154
0.639694 0.024483 -0.077431 0.000002 0.325673 -0.944188
1.129802 -0.000000 0.081210 0.000134 -0.033082 0.998367
-1.341641 -0.054774 0.059957 0.000049 -0.674990 0.736242
-0.040076 0.445182 -0.569871 0.057653 -0.783678 -0.618486
0.064904 0.080523 0.010540 0.001275 0.976904 0.205916
-0.184371 -0.192047 0.223075 0.060724 -0.783535 -0.618374
-0.260992 -0.239640 0.291927 -0.057609 -0.807423 -0.587154
-0.080872 -0.273215 0.336086 0.060724 -0.783535 -0.618374
-0.504668 0.126824 0.160698 -0.057609 0.807423 -0.587154
1.592882 0.139920 0.183493 0.074324 -0.775524 0.626928
1.592882 0.139920 -0.183493 0.074324 -0.775524 -0.626928
0.021997 -0.438617 0.555767 0.057653 0.783678 0.618486
0.146107 -0.039310 -0.071062 -0.000097 -0.490145 -0.870272
0.737447 0.055452 0.059330 -0.000234 0.719814 0.692290
-0.085608 -0.248144 -0.303854 0.060724 -0.783535 0.618374
-0.012002 -0.322945 0.405861 0.060724 -0.783535 -0.618374
-0.841043 0.068756 0.043215 0.001062 0.878421 0.475793
1.523230 -0.080958 0.006385 0.001777 -0.991498 0.123221
-0.281541 -0.231654 -0.302624 -0.054699 0.760140 -0.647453
-0.291771 0.198505 -0.262841 -0.054699 -0.760140 -0.647453
-1.505527 0.050554 0.063556 0.000015 0.668836 0.741770
-1.617157 -0.037307 0.072376 -0.044573 -0.468929 0.880096
-0.499878 -0.007338 -0.080877 -0.000537 -0.148862 -0.987836
-0.222588 -0.025582 -0.077075 0.000212 -0.307467 -0.950225
-1.128878 -0.033686 -0.073894 -0.000108 -0.408491 -0.911393
1.331931 -0.118408 -0.160287 -0.043807 0.744865 -0.665776
1.377187 -0.009220 0.080684 -0.000367 -0.148739 0.987576
-1.539330 -0.079959 -0.014196 0.002064 -0.984114 -0.169933
0.464497 -0.034799 0.073376 0.000519 -0.411721 0.909946
1.536055 -0.214541 -0.260825 0.034968 -0.801317 0.596453
0.021997 -0.081129 0.102797 0.057653 0.783678 0.618486
0.456818 -0.033906 -0.073793 -0.000155 -0.425555 -0.903541
-1.724608 -0.042644 -0.035384 -0.458433 -0.711491 -0.527674
-0.068914 0.161688 0.213347 0.057653 -0.783678 0.618486
-0.572258 -0.026679 0.076702 0.000524 -0.342069 0.938296
-0.000643 0.346198 -0.440774 0.057653 -0.783678 -0.618486
0.739795 0.066807 -0.046172 -0.000469 0.818005 -0.573106
-0.094748 -0.070104 -0.040993 -0.000085 -0.830982 -0.554090
1.529354 -0.275144 -0.348633 -0.043807 -0.820652 0.569746
-0.330506 0.060651 -0.097721 -0.054699 -0.760140 -0.647453
0.129659 -0.079728 0.015442 -0.000726 -0.977500 0.204469
1.638267 -0.019119 0.078615 0.007153 -0.294875 0.954153
-0.465344 0.162531 -0.205941 -0.057609 0.807423 0.587154
-0.386695 0.233943 -0.296427 -0.057609 0.807423 0.587154
0.884534 0.065099 -0.048550 0.000127 0.797831 -0.600839
-0.192215 0.316491 0.409772 -0.054699 -0.760140 0.647453
-1.582459 0.037627 -0.071967 0.000057 0.517051 -0.854517
1.330880 0.076567 0.027065 0.000634 0.943294 0.329166
-0.126241 -0.076919 0.082907 0.060724 -0.783535 -0.618374
-1.000793 0.071603 -0.038314 0.000160 0.880845 -0.470766
1.536055 -0.214541 0.260825 -0.004409 -0.811537 -0.583504
-0.470962 -0.157430 0.199477 -0.054699 0.760140 0.647453
1.109805 0.000000 -0.081210 -0.000476 -0.028187 -0.998579
-0.972509 0.007256 0.080885 -0.000160 0.121767 0.991535
-0.170567 0.086819 0.091098 0.060724 0.783535 -0.618374
0.626760 0.041019 0.070089 -0.000100 0.511822 0.857651
1.548374 -0.266754 0.335085 -0.043807 -0.820652 -0.569746
-1.428895 0.009052 -0.080704 0.000098 0.172353 -0.983966
-1.172209 -0.066825 0.046146 -0.000012 -0.818606 0.572167
-1.125115 0.077831 0.023180 -0.000569 0.960736 0.272835
-0.637017 -0.054949 -0.059797 -0.000035 -0.678099 -0.733266
-0.328881 0.079632 0.015928 -0.000195 0.990247 0.131311
0.978024 0.051086 -0.063129 -0.000081 0.673194 -0.737767
1.508103 -0.120639 -0.135522 0.074324 -0.789993 0.608594
-0.022680 0.238400 -0.306239 0.057653 -0.783678 -0.618486
0.439048 0.058786 0.056028 0.000044 0.729583 0.682073
1.349306 0.015808 -0.079656 0.000544 0.254816 -0.965695
-0.089742 0.494563 -0.625681 -0.057609 0.807423 0.587154
1.197707 -0.081248 -0.094848 -0.043807 -0.820652 0.569746
0.205132 0.023414 -0.077761 -0.000012 0.318995 -0.946458
0.021997 -0.099619 -0.126227 0.060724 -0.783535 0.618374
0.849301 -0.057243 -0.057604 -0.000268 -0.710664 -0.701846
-0.155286 -0.072985 -0.109004 0.057653 0.783678 -0.618486
-0.565444 -0.080790 -0.008244 0.000791 -0.987665 -0.148296
0.732430 -0.079826 0.014925 -0.000583 -0.982163 0.179759
-0.333884 -0.103726 0.112178 -0.057609 -0.807423 -0.587154
-0.093591 -0.166268 0.199325 0.060724 -0.783535 -0.618374
-0.789861 -0.000000 0.081210 -0.003082 -0.073970 0.995584
1.475507 -0.067878 0.105450 -0.000000 0.784983 0.619517
-0.269873 -0.330649 -0.417950 -0.057609 -0.807423 0.587154
0.009998 -0.000000 0.081210 0.000090 -0.075162 0.995817
-1.505479 0.069238 -0.042440 0.000035 0.851667 -0.521687
-0.070688 0.392390 -0.505833 0.057653 -0.783678 -0.618486
-0.364452 -0.164436 0.198662 -0.057609 -0.807423 -0.587154
-1.272617 -0.048197 -0.065361 0.000290 -0.636299 -0.770083
-0.443594 -0.007562 0.080857 -0.000441 -0.134481 0.989786
-1.241313 -0.020776 0.078507 0.000602 -0.260817 0.964089
0.613540 -0.053479 0.061114 0.000059 -0.653818 0.754964
1.578759 0.083589 -0.096056 0.074324 0.789993 0.608594
-1.731468 0.050661 -0.011456 -0.482818 0.834365 -0.249116
0.582241 0.071069 -0.039296 0.000124 0.864239 -0.500871
0.325157 0.078642 0.020259 -0.000105 0.957914 0.282683
1.636962 -0.172381 -0.218422 0.074324 -0.789993 0.608594
1.525263 -0.127285 0.146244 0.074324 -0.789993 -0.608594
0.778392 -0.020104 0.078682 0.000470 -0.247024 0.967733
-0.462714 0.070767 -0.098429 -0.054699 -0.760140 -0.647453
-0.659884 0.081210 -0.000000 0.001662 0.995457 -0.077569
0.467626 0.052994 -0.061536 -0.000060 0.637078 -0.769198
-0.266420 -0.075822 -0.029086 0.000008 -0.909371 -0.413006
-0.081844 0.071054 -0.099711 0.057653 -0.783678 -0.618486
1.410620 0.125792 0.142637 -0.043807 0.820652 -0.569746
-0.059521 0.298630 -0.370386 0.060724 0.783535 0.618374
1.352168 -0.130629 0.175291 -0.043807 0.744865 0.665776
-0.062371 -0.489967 -0.616677 -0.057609 -0.807423 0.587154
1.081431 -0.076405 0.096813 -0.043807 -0.820652 -0.569746
-0.266956 0.314060 -0.394852 -0.057609 0.807423 0.587154
1.393604 -0.206037 -0.262383 -0.043807 0.744865 -0.665776
-0.164537 -0.211443 -0.249600 0.060724 -0.783535 0.618374
-0.157796 -0.281190 0.371236 -0.054699 0.760140 0.647453
0.040525 0.046099 -0.066857 0.000239 0.590696 -0.805603
-0.921700 -0.045828 -0.067043 0.000007 -0.564591 -0.823865
-1.626357 -0.033595 -0.073774 -0.077712 -0.343899 -0.933218
1.479740 0.081210 -0.000000 0.000836 0.995042 -0.078983
1.398564 -0.098377 0.105210 -0.000000 -0.784983 -0.619517
-1.368975 0.069908 0.041327 0.000135 0.859728 0.508369
-0.058401 0.495983 0.624560 -0.000000 0.619517 0.784983
0.999825 -0.081210 0.000000 0.002841 -0.998422 -0.026364
-1.698137 -0.048049 0.046028 -0.316068 -0.716587 0.617259
-1.033253 -0.068944 -0.042916 -0.000264 -0.847217 -0.529039
-0.343262 -0.213545 0.276147 -0.054699 0.760140 0.647453
-0.389932 0.000000 -0.081210 -0.000649 -0.094678 -0.993662
-0.006637 -0.199819 -0.255858 0.057653 0.783678 -0.618486
0.021997 0.216728 0.274613 0.060724 0.783535 -0.618374
-0.221165 0.222838 0.264915 -0.057609 0.807423 -0.587154
-1.184901 -0.074641 -0.031995 0.000101 -0.915736 -0.398645
1.333991 0.133752 -0.159994 -0.043807 0.820652 0.569746
-0.205186 -0.084620 0.084911 0.060724 -0.783535 -0.618374
1.606014 -0.069194 -0.042416 0.005422 -0.852897 -0.519791
-1.654015 0.077258 0.010562 -0.147761 0.974663 0.158767
-0.056688 -0.445765 0.557097 0.060724 -0.783535 -0.618374
-0.369842 -0.249246 -0.315817 -0.057609 -0.807423 0.587154
-0.490982 -0.100026 -0.122504 -0.057609 -0.807423 0.587154
-0.099928 -0.353839 -0.436372 0.060724 -0.783535 0.618374
-1.582399 0.037693 0.071932 0.000013 0.463712 0.884611
-0.792781 -0.065371 -0.048183 -0.000102 -0.805109 -0.591040
-0.707736 -0.080642 -0.009582 0.001549 -0.991221 -0.124863
1.333083 0.124987 0.167724 -0.043807 -0.744865 0.665776
-0.171862 -0.346549 0.446781 -0.054699 0.760140 0.647453
-0.080392 0.219194 0.267684 0.060724 0.783535 -0.618374
-0.491245 -0.072199 -0.037180 -0.000378 -0.862964 -0.503160
-0.027823 0.127251 0.156346 0.060724 0.783535 -0.618374
0.021997 -0.216728 0.274613 0.057653 0.783678 0.618486
-0.052730 -0.145936 -0.177575 0.060724 -0.783535 0.618374
1.223719 0.080583 -0.091890 -0.043807 0.820652 0.569746
1.486852 -0.163057 0.220434 -0.043807 0.744865 0.665776
-0.845463 0.059421 -0.055354 -0.000054 0.770999 -0.634874
0.611207 -0.046980 -0.066241 0.000014 -0.585023 -0.809470
-0.283592 -0.155072 -0.177852 -0.057609 -0.807423 0.587154
0.280777 -0.029441 0.075685 -0.000013 -0.410386 0.910536
-0.364610 0.173662 0.211365 -0.057609 0.807423 -0.587154
1.138364 -0.069041 -0.042759 0.000107 -0.810367 -0.583786
-0.018717 -0.075382 -0.030210 -0.000222 -0.930265 -0.363742
-0.167604 0.224966 -0.266433 0.060724 0.783535 0.618374
0.001805 0.144708 -0.185241 0.057653 -0.783678 -0.618486
-1.327875 -0.079183 -0.018030 -0.001119 -0.955149 -0.291130
1.180865 0.057399 0.082091 -0.043807 -0.744865 0.665776
-1.444603 -0.061518 0.053015 0.000029 -0.755661 0.653074
0.210530 0.079555 -0.016312 -0.001205 0.972782 -0.225649
1.244778 -0.079328 0.088463 -0.043807 -0.820652 -0.569746
-0.915805 0.058431 0.056399 -0.000098 0.746672 0.663345
-0.354462 0.098284 0.106714 -0.057609 0.807423 -0.587154
0.197197 0.007145 0.080895 0.000163 0.122095 0.991509
-0.209577 0.078030 0.022500 -0.000500 0.945336 0.321971
0.888268 -0.052714 0.061776 -0.000051 -0.694317 0.717954
-0.420120 0.072068 0.037432 -0.000283 0.873055 0.485106
0.056454 -0.073486 0.034566 0.000201 -0.929595 0.365207
1.141681 0.062284 -0.052112 -0.000417 0.726682 -0.685361
1.404840 0.068523 0.043585 -0.000423 0.873240 0.484867
0.021997 -0.407799 -0.516717 0.060724 -0.783535 0.618374
1.638197 0.066568 -0.045985 0.007869 0.821748 -0.567657
1.242206 0.123894 -0.152852 -0.043807 0.820652 0.569746
-0.250693 -0.279923 -0.361899 -0.054699 0.760140 -0.647453
-0.153500 0.423397 0.534074 -0.057609 0.807423 -0.587154
-0.320060 -0.097892 -0.102799 -0.057609 -0.807423 0.587154
1.371659 -0.074073 -0.113300 -0.029215 0.758599 -0.650660
0.500923 -0.077841 0.023146 -0.000106 -0.936466 0.347006
-0.148633 0.150443 -0.173869 0.060724 0.783535 0.618374
-1.471158 -0.069184 -0.042528 0.000201 -0.852848 -0.520054
1.273323 0.010168 -0.080571 -0.000525 0.140755 -0.988952
1.578324 -0.096411 -0.131397 0.074324 0.775524 -0.626928
1.386418 -0.165000 -0.200973 -0.043807 -0.820652 0.569746
-0.555228 0.080916 0.102528 -0.057609 0.807423 -0.587154
1.149027 -0.066527 0.046574 0.000029 -0.857095 0.512744
-0.145596 0.377149 0.469700 -0.057609 0.807423 -0.587154
-0.034791 0.344265 0.430638 0.060724 0.783535 -0.618374
-0.220713 0.144740 -0.159565 0.060724 0.783535 0.618374
-0.342148 -0.076351 -0.027667 0.000089 -0.939865 -0.338191
1.618247 0.246173 0.311923 0.074324 -0.775524 0.626928
1.618247 0.246173 -0.311923 0.074324 -0.775524 -0.626928
-0.914662 0.026551 -0.076747 -0.000013 0.324698 -0.944424
-0.057684 -0.358494 0.461671 0.057653 0.783678 0.618486
-0.413796 -0.167648 -0.207921 -0.057609 -0.807423 0.587154
1.310857 0.021497 0.078313 0.000058 0.264459 0.963133
-0.015209 0.070137 0.040936 0.000016 0.895549 0.442137
-0.261851 0.160038 0.182547 -0.057609 0.807423 -0.587154
1.097719 0.083632 -0.105970 -0.043807 -0.744865 -0.665776
-0.560846 0.075815 -0.096065 -0.057609 0.807423 0.587154
-0.180615 0.067202 -0.045595 -0.000051 0.807296 -0.588024
-0.303195 0.167813 -0.197295 -0.057609 0.807423 0.587154
0.773105 -0.063515 -0.050605 -0.000580 -0.788975 -0.612475
-0.049272 0.301048 0.374457 0.060724 0.783535 -0.618374
-0.300762 0.286651 0.365569 -0.054699 -0.760140 0.647453
1.609625 -0.073567 0.034209 0.005578 -0.908215 0.415416
-0.230309 -0.159376 0.178542 -0.057609 -0.807423 -0.587154
-0.226172 -0.266802 0.348567 -0.054699 0.760140 0.647453
0.197125 -0.079567 -0.016251 -0.000527 -0.966459 -0.251917
-1.163615 0.072130 -0.037312 -0.000046 0.857844 -0.511604
-1.278612 0.041501 -0.069804 0.000184 0.515603 -0.855387
-0.591006 0.078690 -0.020073 0.000407 0.968712 -0.243719
0.521539 -0.058642 -0.056179 -0.000035 -0.729567 -0.682073
0.718705 0.005847 -0.080999 -0.001048 0.123474 -0.991298
-0.458037 -0.078922 0.108397 -0.054699 0.760140 0.647453
-0.573701 -0.007706 -0.080843 -0.000576 -0.029942 -0.998529
-0.543330 0.074567 0.032168 0.000014 0.905438 0.421533
1.306742 0.068109 -0.044229 0.000140 0.803548 -0.592958
1.454033 0.199052 0.244821 -0.043807 0.820652 -0.569746
-0.421433 -0.104027 -0.140964 -0.054699 0.760140 -0.647453
0.939242 0.033624 0.073922 0.000070 0.412704 0.909544
1.386432 -0.076888 -0.026140 0.000489 -0.945984 -0.320552
1.633842 -0.184680 0.234006 0.074324 -0.789993 -0.608594
1.455254 0.197994 -0.243204 -0.043807 0.820652 0.569746
-0.302429 -0.310457 0.393376 -0.054699 0.760140 0.647453
0.289949 0.000000 -0.081210 0.000576 -0.019008 -0.999076
-0.246693 0.068395 -0.111709 0.057653 -0.783678 -0.618486
0.343776 0.047779 -0.065667 0.000375 0.526630 -0.848734
1.390905 0.213716 -0.270797 -0.043807 -0.744865 -0.665776
1.333897 0.188422 0.238748 -0.043807 -0.744865 0.665776
1.333897 0.188422 -0.238748 -0.043807 -0.744865 -0.665776
-0.299084 0.240559 0.296928 -0.057609 0.807423 -0.587154
1.471241 -0.069034 -0.042771 0.000065 -0.850771 -0.523232
1.529732 -0.000000 0.081210 0.001052 -0.024389 0.999013
0.654663 -0.080422 0.011283 -0.000221 -0.987267 0.150763
-0.177071 0.344052 -0.443409 -0.054699 -0.760140 -0.647453
0.878551 0.074113 0.033201 0.000036 0.908310 0.415305
1.390905 0.213716 0.270797 -0.043807 -0.744865 0.665776
0.074316 0.042191 0.069390 0.000124 0.577493 0.814863
0.317504 -0.067471 -0.045196 0.000943 -0.815289 -0.576895
-0.173220 -0.427777 -0.542032 -0.057609 -0.807423 0.587154
-0.246251 -0.361466 0.458009 -0.054699 0.760140 0.647453
-0.465344 0.162531 0.205941 -0.057609 0.807423 -0.587154
-1.061876 -0.008927 -0.080717 -0.000220 -0.156343 -0.986371
-0.361417 0.216334 0.269732 -0.057609 0.807423 -0.587154
1.034428 -0.024723 0.077355 -0.000759 -0.292309 0.954582
0.563737 0.063107 0.051112 0.000262 0.736902 0.674265
-1.092389 0.039612 0.070894 -0.000033 0.513617 0.856513
1.614052 0.062782 0.051334 0.007470 0.780201 0.623509
1.573799 0.014498 -0.079905 0.000373 0.237928 -0.970033
0.089984 0.000000 -0.081210 -0.000112 -0.052852 -0.997143
-0.699248 0.048758 -0.064944 0.000134 0.602403 -0.796653
-0.209752 0.162428 0.227414 -0.017247 -0.768890 0.638539
-0.236004 -0.019147 0.078920 -0.000561 -0.249653 0.967041
-1.437630 0.069907 0.041328 -0.000429 0.827645 0.559112
-0.840207 -0.061107 0.053488 0.000103 -0.706393 0.706037
-0.347131 -0.039920 0.070721 -0.000151 -0.494386 0.867888
-0.026214 -0.279831 -0.349836 0.060724 -0.783535 0.618374
1.460392 -0.075370 -0.114942 -0.000000 0.784983 -0.619517
-0.295691 0.242863 -0.314588 -0.054699 -0.760140 -0.647453
1.477011 0.099087 0.106109 0.000000 0.784983 -0.619517
-0.232617 0.079304 0.124219 0.057653 -0.783678 0.618486
-0.071031 0.442798 0.568301 -0.054699 -0.760140 0.647453
0.960467 -0.060082 -0.054637 0.000116 -0.775981 -0.628810
1.014938 0.079231 0.017816 0.000850 0.959290 0.277776
1.435433 0.033929 -0.073782 0.000004 0.416430 -0.907787
-0.919089 -0.058634 0.056188 0.000137 -0.728247 0.683488
-0.513621 0.006133 0.080978 0.001843 0.126035 0.991212
0.387005 -0.060830 0.053803 -0.000061 -0.782351 0.620853
-0.126585 -0.196097 0.262323 0.057653 0.783678 0.618486
0.855584 0.013292 -0.080115 -0.000194 0.224910 -0.973154
-1.389274 -0.043202 -0.068765 -0.000287 -0.479578 -0.876203
-0.039143 -0.328869 -0.422406 0.057653 0.783678 -0.618486
-0.132022 0.145759 0.199047 0.057653 -0.783678 0.618486
0.807452 0.058954 -0.055852 0.000077 0.679816 -0.731694
-1.743943 0.000000 0.044943 -0.503290 -0.069505 0.855531
-0.315493 -0.123520 0.172801 -0.054699 0.760140 0.647453
1.179160 0.119767 0.151755 -0.043807 -0.744865 0.665776
-0.089742 -0.494563 0.625681 -0.057609 -0.807423 -0.587154
-0.166538 0.224700 0.302290 0.057653 -0.783678 0.618486
-0.680563 0.044613 0.067858 0.000232 0.514569 0.855944
0.021997 -0.450944 -0.571386 0.060724 -0.783535 0.618374
-1.218848 0.041709 0.069680 0.000262 0.518255 0.853768
1.587627 -0.106199 0.142403 0.074324 0.775524 0.626928
-0.043792 0.088399 0.105549 0.060724 0.783535 -0.618374
1.270052 -0.076497 -0.027261 -0.000050 -0.917094 -0.395880
-0.354066 0.128566 -0.175466 -0.054699 -0.760140 -0.647453
1.597167 -0.266151 -0.335282 0.074324 -0.789993 0.608594
-0.417362 0.080846 0.114093 -0.054699 -0.760140 0.647453
-0.158072 -0.426456 0.538729 -0.057609 -0.807423 -0.587154
-0.161611 -0.355578 -0.458248 -0.054699 0.760140 -0.647453
-0.636036 -0.012688 0.080212 -0.000232 -0.207813 0.976789
-0.217141 -0.151150 -0.168037 0.060724 -0.783535 0.618374
1.363400 0.083731 -0.086652 -0.000000 0.784983 0.619517
1.262102 0.069306 0.072695 -0.043807 0.820652 -0.569746
0.805735 0.046940 0.066269 0.000183 0.582387 0.811400
-0.220643 -0.213858 -0.286875 -0.054699 0.760140 -0.647453
-1.040859 -0.076785 0.026441 -0.000655 -0.922884 0.382087
0.259954 -0.081210 0.000000 -0.000761 -0.996310 -0.068556
-0.132633 -0.267339 -0.353157 0.057653 0.783678 -0.618486
1.672832 -0.010070 -0.025392 1.000000 -0.000000 0.000000
-0.969591 0.079281 0.017595 -0.000050 0.981833 0.182724
0.404733 0.023845 -0.077630 0.000267 0.226874 -0.972772
1.467670 0.103788 -0.112066 -0.000000 0.784983 0.619517
-0.803090 0.080876 -0.007355 -0.000013 0.988841 -0.142037
0.497493 0.036203 0.072694 -0.000542 0.501770 0.863494
-0.122617 0.285833 -0.375657 0.057653 -0.783678 -0.618486
1.488294 -0.013990 -0.079995 -0.000593 -0.174415 -0.983538
-0.463481 0.080732 -0.008791 -0.000820 0.989318 -0.137495
-0.110925 -0.078640 0.020267 0.000117 -0.955093 0.292456
1.291853 -0.038992 0.071237 -0.000227 -0.540444 0.839883
1.445418 -0.018164 0.079152 -0.000635 -0.223701 0.973432
1.262089 -0.103543 -0.122010 -0.043807 -0.820652 0.569746
-0.305653 -0.199594 -0.241240 -0.057609 -0.807423 0.587154
-0.426020 0.198237 -0.251184 -0.057609 0.807423 0.587154
1.440055 0.131559 -0.182115 -0.043807 -0.744865 -0.665776
1.575739 0.219358 0.271925 0.074324 0.789993 -0.608594
1.575739 0.219358 -0.271925 0.074324 0.789993 0.608594
-0.169393 0.258033 -0.343068 -0.054699 -0.760140 -0.647453
-1.591059 -0.077551 0.024100 0.010989 -0.954634 0.293241
-0.079564 -0.021611 -0.078281 -0.000210 -0.258663 -0.964758
1.418001 0.072003 0.110677 -0.000000 -0.784983 0.619517
0.324898 0.038961 0.071253 0.000058 0.448481 0.892436
-0.392298 -0.086989 0.094893 -0.057609 -0.807423 -0.587154
-0.278404 0.023312 -0.077792 -0.000246 0.320819 -0.946005
-0.032276 -0.241094 0.310547 0.057653 0.783678 0.618486
0.021997 0.444780 -0.563576 0.060724 0.783535 0.618374
-1.369725 0.056568 -0.058268 0.000062 0.736744 -0.674456
-1.113291 -0.053510 0.061087 0.000030 -0.705202 0.707235
1.458195 0.151315 0.205411 -0.043807 -0.744865 0.665776
1.626355 -0.135736 -0.169559 0.074324 -0.789993 0.608594
-0.341788 -0.158685 -0.211864 -0.054699 0.760140 -0.647453
-0.100120 -0.433279 -0.542425 -0.057609 -0.807423 0.587154
-0.022543 0.399514 0.501846 0.060724 0.783535 -0.618374
-0.225188 0.351803 0.448444 -0.054699 -0.760140 0.647453
1.666593 -0.055545 -0.070380 0.074324 -0.789993 0.608594
0.552408 -0.061397 0.053155 -0.000102 -0.753823 0.655342
1.272154 -0.154210 -0.194216 -0.043807 -0.820652 0.569746
-0.779863 0.000000 -0.081210 -0.000843 -0.027070 -0.998500
-0.130578 0.047203 0.066082 -0.001245 0.594719 0.802486
1.464929 -0.131935 -0.184172 -0.043807 0.744865 -0.665776
-0.226249 0.200207 -0.270374 -0.054699 -0.760140 -0.647453
-0.432946 -0.079419 -0.016958 0.000319 -0.962296 -0.266853
-1.359761 -0.000000 0.081210 0.001164 -0.075157 0.995586
0.377437 -0.074098 -0.033235 -0.000481 -0.885250 -0.462294
1.238373 -0.043390 -0.068647 0.000242 -0.555908 -0.829864
-1.276932 0.075697 0.029410 -0.001033 0.932334 0.358356
-0.299947 -0.000000 0.081210 -0.000619 -0.023447 0.998791
-0.020412 0.070501 -0.093285 0.057653 -0.783678 -0.618486
-0.396123 0.064254 -0.096408 -0.054699 -0.760140 -0.647453
-0.029752 -0.410690 0.515299 0.060724 -0.783535 -0.618374
1.530893 0.066912 0.046019 0.000000 0.787250 0.614616
1.554890 0.120009 0.140417 0.074324 0.789993 -0.608594
1.554890 0.120009 -0.140417 0.074324 0.789993 0.608594
1.293913 -0.125023 0.150503 -0.043807 -0.820652 -0.569746
1.633998 -0.144835 0.182303 0.074324 -0.789993 -0.608594
-0.026574 -0.176282 0.218595 0.060724 -0.783535 -0.618374
-0.212424 -0.206017 0.278363 -0.054699 0.760140 0.647453
0.021997 0.266036 0.337092 0.060724 0.783535 -0.618374
1.046625 0.021876 -0.078208 0.000189 0.260259 -0.964224
-0.096926 -0.024261 0.077501 0.000236 -0.342857 0.938102
-0.343242 0.128920 0.176797 -0.054699 -0.760140 0.647453
-0.115584 0.063882 -0.050141 -0.000017 0.765181 -0.641919
-1.066937 0.080772 -0.008418 0.000039 0.986528 -0.155337
1.612008 -0.270770 0.343089 0.074324 -0.789993 -0.608594
-0.271486 -0.060170 -0.102143 -0.054699 0.760140 -0.647453
-0.537106 -0.073602 0.090692 -0.057609 -0.807423 -0.587154
0.377139 0.062104 0.052327 -0.000125 0.771447 0.634351
-0.117601 -0.370235 0.457446 -0.057609 -0.807423 -0.587154
-1.151490 0.027915 -0.076261 0.000089 0.402851 -0.913938
1.072880 -0.068378 -0.043812 -0.000489 -0.815886 -0.576049
1.162872 -0.112540 -0.142598 -0.043807 -0.820652 0.569746
1.228024 0.141447 0.179226 -0.043807 -0.744865 0.665776
-0.068643 0.079757 0.015290 -0.000933 0.977647 0.203782
-0.973724 -0.071718 -0.038099 -0.000115 -0.881339 -0.469861
-0.669977 -0.009630 -0.080637 -0.001514 -0.173930 -0.983409
1.302938 0.103949 0.119455 -0.043807 0.820652 -0.569746
-0.713186 -0.065370 0.048184 0.000801 -0.832071 0.552780
-1.573739 -0.057397 -0.057451 0.000010 -0.705963 -0.706516
0.021997 -0.352326 -0.446429 0.060724 -0.783535 0.618374
1.197027 -0.040158 0.070586 -0.000927 -0.514985 0.856002
1.362241 -0.061619 0.052897 -0.000421 -0.781509 0.621843
1.074767 0.075572 0.029730 0.000040 0.905727 0.420938
-0.298941 0.088303 0.087540 -0.057609 0.807423 -0.587154
1.469975 -0.207661 0.255996 -0.043807 -0.820652 -0.569746
-1.479740 -0.000000 0.081210 0.002028 -0.023194 0.999017
-1.224266 0.067155 -0.045664 -0.000001 0.790878 -0.609958
-0.104807 -0.126000 -0.147201 0.060724 -0.783535 0.618374
-0.716861 0.079515 -0.016504 -0.000536 0.979830 -0.191600
-1.618156 0.072758 -0.036505 -0.045289 0.876916 -0.474242
-1.496977 -0.076125 0.028283 -0.000148 -0.913900 0.402940
-0.031670 0.191817 0.248051 0.057653 -0.783678 0.618486
-0.097108 -0.238633 0.290673 0.060724 -0.783535 -0.618374
-0.364123 -0.059761 -0.093836 -0.054699 0.760140 -0.647453
-0.143486 0.190517 -0.225151 0.060724 0.783535 0.618374
-0.112720 0.420058 -0.538080 -0.054699 -0.760140 -0.647453
-0.240658 0.301122 0.374479 -0.057609 0.807423 -0.587154
-1.214654 -0.039937 -0.070711 -0.000024 -0.541609 -0.839165
0.263144 0.080615 0.009809 -0.000109 0.979972 0.191979
0.525308 0.063113 -0.051105 -0.000159 0.764133 -0.643216
-0.084678 0.370361 0.458805 0.060724 0.783535 -0.618374
0.681860 0.061351 -0.053207 0.000632 0.711571 -0.701083
0.015483 -0.063054 -0.080502 0.057653 0.783678 -0.618486
-0.459514 0.123742 -0.160894 -0.054699 -0.760140 -0.647453
1.502835 0.227540 0.282103 -0.043807 0.820652 -0.569746
1.502835 0.227540 -0.282103 -0.043807 0.820652 0.569746
1.267096 -0.075137 0.030813 -0.000361 -0.935808 0.349208
-0.262070 0.272209 -0.351882 -0.054699 -0.760140 -0.647453
1.482965 0.156234 -0.212545 -0.043807 -0.744865 -0.665776
-0.212545 0.392071 -0.496789 -0.057609 0.807423 0.587154
0.755908 0.080672 0.009330 -0.000734 0.991408 0.124084
-0.187732 -0.160150 -0.222475 0.057653 0.783678 -0.618486
1.591059 0.014571 0.079892 0.002927 0.173038 0.983485
0.449921 0.081210 -0.000000 -0.000764 0.997656 -0.037748
0.126033 0.080950 -0.006488 -0.003636 0.990724 -0.129978
-0.235567 -0.076712 0.026650 -0.000012 -0.924967 0.376798
-0.994538 -0.045636 0.067174 -0.000277 -0.564188 0.823997
1.532542 0.149419 0.202397 0.074324 -0.775524 0.626928
-0.056734 0.162841 -0.198602 0.060724 0.783535 0.618374
-0.313437 0.068746 -0.043232 -0.002307 0.817760 -0.573359
1.665034 0.061694 0.078172 0.074324 -0.775524 0.626928
-1.487267 0.080455 0.011046 0.001678 0.986668 0.154074
1.345812 -0.052254 -0.062165 -0.000225 -0.645816 -0.762054
-0.142693 -0.225424 -0.300984 0.057653 0.783678 -0.618486
-0.028115 -0.284982 0.365769 0.057653 0.783678 0.618486
-0.034096 0.208183 -0.258279 0.060724 0.783535 0.618374
-0.066966 -0.405281 -0.504791 0.060724 -0.783535 0.618374
1.540541 0.164904 -0.196942 0.074324 0.789993 0.608594
-0.447200 0.019108 -0.078930 0.001082 0.261290 -0.964119
1.182165 0.079732 -0.015424 -0.000866 0.967364 -0.248671
1.505202 -0.057257 0.057590 0.000089 -0.705472 0.707037
1.402256 -0.158147 0.189885 -0.043807 -0.820652 -0.569746
1.099628 0.060201 0.079880 -0.043807 -0.744865 0.665776
1.547821 0.060891 -0.053733 -0.000236 0.707093 -0.705341
1.415338 -0.224556 0.284533 -0.043807 -0.820652 -0.569746
-0.032026 0.485828 -0.610283 0.060724 0.783535 0.618374
-0.407239 0.151209 -0.184671 -0.057609 0.807423 0.587154
1.592774 -0.200141 -0.249059 0.074324 -0.789993 0.608594
-0.437490 -0.058362 0.056471 -0.000092 -0.760871 0.647006
-0.140853 0.294013 0.387722 -0.017247 -0.768890 0.638539
-0.205186 -0.084620 -0.084911 0.060724 -0.783535 0.618374
1.576715 0.179766 0.220651 0.074324 0.789993 -0.608594
0.974541 -0.006899 -0.080916 0.001610 -0.124990 -0.990888
-0.287918 -0.067437 0.109287 -0.054699 0.760140 0.647453
0.153988 -0.045006 0.067598 0.000298 -0.563259 0.824727
-0.254023 0.165035 -0.226734 -0.054699 -0.760140 -0.647453
1.549533 -0.239238 -0.309789 -0.043807 0.744865 -0.665776
-0.038456 -0.074836 0.100459 0.057653 0.783678 0.618486
-1.728744 0.011566 -0.052081 -0.453284 0.303317 -0.833648
-0.281960 -0.280490 0.350159 -0.057609 -0.807423 -0.587154
-0.222846 0.032545 -0.074403 0.000213 0.464835 -0.884001
-0.022381 0.465448 0.593901 0.057653 -0.783678 0.618486
-0.031286 -0.233657 -0.301031 0.057653 0.783678 -0.618486
-0.189784 0.270752 0.356278 -0.054699 -0.760140 0.647453
1.672832 -0.020126 0.034308 1.000000 0.000000 0.000000
1.187304 -0.123380 0.156334 -0.043807 -0.820652 -0.569746
-0.201089 -0.099672 -0.147088 0.057653 0.783678 -0.618486
1.512550 -0.167176 -0.226732 -0.007228 0.755385 -0.654630
1.624923 -0.072941 0.087872 0.074324 -0.789993 -0.608594
-0.119166 -0.163146 -0.192859 0.060724 -0.783535 0.618374
0.010644 -0.115655 0.145430 0.060724 -0.783535 -0.618374
-0.740943 0.028079 0.076201 0.000388 0.315448 0.947367
-1.282824 -0.053557 0.061046 0.001018 -0.656148 0.753207
0.688330 0.033819 0.073833 -0.000084 0.423148 0.904695
-0.139795 0.330214 -0.404589 -0.057609 0.807423 0.587154
-0.169542 -0.069522 0.041972 0.000078 -0.846219 0.530500
-0.338512 0.110084 -0.121375 -0.057609 0.807423 0.587154
0.991117 0.015202 0.079774 0.000115 0.246050 0.968007
0.473357 -0.073960 -0.033540 -0.000000 -0.880242 -0.471849
1.366473 -0.202876 0.257062 -0.043807 -0.820652 -0.569746
-0.264511 0.079477 0.016688 0.000343 0.971467 0.232124
-0.178838 0.422676 -0.535569 -0.057609 0.807423 0.587154
1.482012 -0.205664 -0.267784 -0.043807 0.744865 -0.665776
-0.201089 -0.099672 0.147088 0.057653 0.783678 0.618486
-0.126259 0.095635 -0.134999 0.057653 -0.783678 -0.618486
0.937030 0.073689 -0.034131 -0.000030 0.879845 -0.472607
-0.090006 0.241812 0.316838 0.057653 -0.783678 0.618486
1.646319 0.135485 0.171672 0.074324 -0.775524 0.626928
1.646319 0.135485 -0.171672 0.074324 -0.775524 -0.626928
0.951784 -0.072229 0.037120 0.000041 -0.884096 0.464672
0.143728 0.019226 0.078901 -0.000380 0.267280 0.962314
0.837762 -0.034840 0.073356 -0.000165 -0.432082 0.900553
-0.195134 -0.282818 -0.369992 -0.054699 0.760140 -0.647453
-0.149971 -0.146753 0.201980 0.057653 0.783678 0.618486
-1.087848 -0.062447 -0.051917 -0.000646 -0.724695 -0.687273
-0.206098 0.039971 0.071909 -0.000000 -0.619517 -0.784983
-0.109118 -0.094362 0.131787 0.057653 0.783678 0.618486
-0.044384 -0.066371 -0.077580 0.060724 -0.783535 0.618374
-0.291147 -0.102082 -0.149688 -0.054699 0.760140 -0.647453
-0.160777 0.099587 0.143223 0.057653 -0.783678 0.618486
-0.029466 0.110559 -0.144886 0.057653 -0.783678 -0.618486
0.340901 -0.036971 0.072306 0.000024 -0.440028 0.896584
-1.044948 0.041629 -0.069728 0.000015 0.564871 -0.823663
-1.175047 0.065583 0.047895 0.000311 0.774093 0.630899
-0.468281 0.104744 0.126764 -0.057609 0.807423 -0.587154
-0.468152 -0.119995 0.147723 -0.057609 -0.807423 -0.587154
1.388935 0.140821 -0.165952 -0.043807 0.820652 0.569746
-0.041658 -0.025871 0.076979 -0.002291 -0.366071 0.928837
-0.426020 -0.198237 -0.251184 -0.057609 -0.807423 0.587154
-0.146595 -0.058362 -0.057394 0.060724 -0.783535 0.618374
-0.819856 -0.081210 0.000000 0.000257 -0.998505 -0.028624
-0.536555 0.032137 -0.074580 -0.000238 0.450850 -0.891286
1.277865 0.125639 0.164820 -0.043807 -0.744865 0.665776
-1.629575 0.059020 0.055271 -0.044727 0.710027 0.699828
-0.375460 -0.244145 0.309353 -0.054699 0.760140 0.647453
-0.096700 0.082600 0.093006 0.060724 0.783535 -0.618374
-1.680383 -0.018719 -0.069677 -0.242458 -0.284570 -0.925481
-1.401105 -0.034464 0.073534 -0.000021 -0.478157 0.876850
0.214509 0.069432 0.042121 -0.000365 0.838159 0.543343
-1.479552 0.027114 -0.076550 -0.000540 0.391633 -0.918755
-0.335852 0.226007 -0.280524 -0.057609 0.807423 0.587154
1.006641 -0.062870 0.051404 -0.000650 -0.726026 0.684943
-0.019752 0.378806 -0.483873 0.057653 -0.783678 -0.618486
0.589897 0.000000 -0.081210 0.000291 -0.031516 -0.998637
-0.334583 -0.077105 0.025493 0.000362 -0.929380 0.366153
1.516925 0.085402 -0.125058 0.074324 -0.775524 -0.626928
-0.288208 0.101704 -0.104915 -0.057609 0.807423 0.587154
-0.027027 0.417424 -0.524100 0.060724 0.783535 0.618374
-0.232134 -0.174461 0.239650 -0.054699 0.760140 0.647453
-0.144124 0.063084 -0.095419 0.057653 -0.783678 -0.618486
1.361556 0.046806 0.066364 0.000423 0.564095 0.824237
-0.041757 -0.139565 0.182785 0.057653 0.783678 0.618486
0.002823 -0.077510 0.024234 -0.001068 -0.940781 0.335800
0.608222 0.080090 0.013438 -0.003653 0.988532 0.144801
0.852862 -0.080621 -0.009760 0.002260 -0.983171 -0.175302
-0.789129 0.058132 0.056706 -0.000658 0.744190 0.666019
-0.853081 -0.061431 -0.053115 -0.000045 -0.756583 -0.651974
-0.114538 0.224322 -0.270828 0.060724 0.783535 0.618374
-0.039953 0.322292 -0.414148 0.057653 -0.783678 -0.618486
-0.154585 -0.389508 0.498676 -0.054699 0.760140 0.647453
0.113059 -0.071170 -0.039113 -0.000820 -0.904276 -0.424149
1.576851 0.178510 -0.233130 0.074324 -0.775524 -0.626928
-0.234805 0.114579 0.169120 -0.017247 -0.768890 0.638539
1.247981 -0.102419 0.136875 -0.043807 0.744865 0.665776
-0.103795 -0.067847 -0.097695 0.057653 0.783678 -0.618486
-1.224799 -0.063709 0.050360 0.000001 -0.787112 0.614777
1.587781 0.276208 -0.347190 0.074324 0.789993 0.608594
1.587781 0.273494 0.349332 0.074324 -0.775524 0.626928
-1.025504 0.015023 0.079808 -0.000139 0.220679 0.974119
-0.564324 0.035136 0.073215 -0.000142 0.494844 0.867581
1.416083 0.084858 -0.088081 -0.000000 0.784983 0.619517
1.168018 -0.034855 -0.073349 -0.000239 -0.491806 -0.869257
-0.418350 -0.151557 0.186240 -0.057609 -0.807423 -0.587154
-0.573114 -0.069200 0.042502 0.000101 -0.857253 0.512480
0.021997 -0.346163 0.438619 0.057653 0.783678 0.618486
0.023874 0.077733 -0.023509 -0.001742 0.933823 -0.354432
-0.949194 0.059635 -0.055124 0.000008 0.773685 -0.631580
-0.932245 -0.080998 -0.005857 0.000277 -0.990862 -0.128005
1.255493 0.061683 -0.052822 0.000661 0.756261 -0.652585
0.901638 -0.056848 -0.057994 -0.000043 -0.658307 -0.751157
0.036014 -0.008930 -0.080717 -0.001176 -0.155470 -0.986420
-0.863240 0.080600 -0.009936 0.000374 0.989601 -0.136227
0.768166 -0.064208 0.049722 0.000227 -0.788143 0.613523
-0.842141 0.024681 0.077368 0.000611 0.339380 0.939477
-0.089148 0.460625 -0.578954 -0.057609 0.807423 0.587154
1.470570 -0.115327 0.126687 0.000000 -0.784983 -0.619517
-0.131458 -0.311957 -0.409582 0.020204 0.776736 -0.628883
-0.655904 -0.079256 -0.017708 0.000103 -0.959850 -0.275987
1.195865 0.073524 0.034485 0.000005 0.905470 0.421441
0.046402 -0.036196 0.072697 0.000109 -0.465102 0.883702
0.914840 -0.012056 0.080310 -0.000476 -0.220096 0.973572
-1.337916 -0.049441 -0.064425 -0.000192 -0.608203 -0.792178
-0.058650 0.032079 -0.074605 -0.000558 0.433933 -0.899566
-0.022381 -0.465448 -0.593901 0.057653 0.783678 -0.618486
-0.170527 -0.323488 0.398355 -0.057609 -0.807423 -0.587154
0.438275 0.009282 0.080677 -0.000928 0.169340 0.984128
1.612088 -0.080155 -0.095669 0.074324 -0.789993 0.608594
-0.222126 -0.346960 -0.435695 -0.057609 -0.807423 0.587154
1.587847 -0.206720 0.256998 0.074324 -0.789993 -0.608594
1.169756 0.069465 -0.094859 -0.043807 -0.744865 -0.665776
-0.223648 0.332549 -0.416027 -0.057609 0.807423 0.587154
1.536878 -0.182999 0.219982 0.074324 -0.789993 -0.608594
-0.528273 -0.047700 -0.065808 -0.000000 0.619517 0.784983
0.642782 -0.006801 0.080924 0.000347 -0.128181 0.990689
-0.329585 -0.218970 -0.283673 -0.054699 0.760140 -0.647453
1.638334 0.080359 0.009388 0.005900 0.983152 0.175122
-0.311502 -0.243929 0.302782 -0.057609 -0.807423 -0.587154
0.734344 0.006170 0.080975 0.000447 0.130076 0.990552
1.289161 -0.153680 0.196934 -0.043807 0.744865 0.665776
0.083635 0.072188 -0.037202 0.000010 0.869949 -0.490602
-0.110912 0.371619 -0.481363 -0.054699 -0.760140 -0.647453
-1.634037 0.010355 0.079840 -0.105458 0.154824 0.980884
0.021997 0.118110 0.149656 0.060724 0.783535 -0.618374
0.659315 -0.022665 -0.077983 -0.000486 -0.265549 -0.962782
-1.760407 -0.034227 0.000000 -0.565036 -0.811338 -0.085541
1.317797 0.075110 0.076773 -0.043807 0.820652 -0.569746
1.598349 0.096068 0.128599 0.074324 -0.775524 0.626928
-0.319329 0.046452 0.066794 -0.000000 -0.619517 -0.784983
-1.462444 -0.028952 -0.075873 -0.000202 -0.410603 -0.910489
-0.096374 0.280776 0.366802 0.057653 -0.783678 0.618486
1.327098 -0.100648 -0.112842 -0.043807 -0.820652 0.569746
-0.757195 -0.044311 0.068055 0.000032 -0.557324 0.828829
-0.186213 -0.394524 -0.497579 -0.057609 -0.807423 0.587154
-1.556251 -0.006147 0.080977 0.001191 -0.065264 0.996815
0.194828 -0.054377 -0.060317 0.001323 -0.714248 -0.698105
0.981683 0.061357 0.053201 0.000248 0.793487 0.606597
1.412304 0.027194 0.076521 0.000173 0.392181 0.918563
0.707045 0.077254 0.025037 -0.000264 0.930474 0.363006
1.076719 0.008392 0.080775 0.000469 0.151414 0.987253
-1.565356 -0.009311 -0.080674 0.000011 -0.120304 -0.991822
1.603433 0.105543 -0.139716 0.074324 -0.775524 -0.626928
-0.288077 -0.203498 0.269015 -0.054699 0.760140 0.647453
-0.456679 -0.032996 -0.074204 0.000211 -0.454959 -0.889112
-0.585645 -0.063067 -0.051162 -0.000072 -0.737950 -0.672788
-0.071405 -0.307322 0.380232 0.060724 -0.783535 -0.618374
1.461721 0.067438 -0.045245 0.000027 0.861874 -0.504651
1.556473 -0.074067 -0.033302 -0.000101 -0.911057 -0.409297
-0.334625 -0.179317 0.236693 -0.054699 0.760140 0.647453
1.599719 -0.028742 -0.075953 0.003236 -0.296407 -0.953736
-0.980122 0.053234 0.061328 0.000053 0.681583 0.730022
-1.556764 0.069381 -0.042206 0.000072 0.855089 -0.516093
1.418694 -0.084797 -0.088004 -0.000000 -0.784983 0.619517
-1.236642 -0.071674 -0.038182 -0.000136 -0.878114 -0.475854
-0.037035 -0.169006 -0.219648 0.057653 0.783678 -0.618486
1.353598 -0.112131 0.127344 -0.043807 -0.820652 -0.569746
1.496778 0.260691 -0.330318 -0.043807 -0.744865 -0.665776
1.496778 0.260691 0.330318 -0.043807 -0.744865 0.665776
-0.062398 -0.207076 -0.270251 0.057653 0.783678 -0.618486
-1.646419 -0.066261 0.043249 -0.140703 -0.863382 0.481056
-0.313459 0.165318 0.194872 -0.057609 0.807423 -0.587154
0.424235 -0.064589 -0.049227 -0.000385 -0.801303 -0.596288
-0.130113 -0.269362 0.326369 0.060724 -0.783535 -0.618374
