0.410378 -0.000000 0.110454 0.000742 0.029628 0.998677
1.340854 0.035656 -0.104541 0.000431 0.340005 -0.939738
0.187235 -0.163957 0.129270 0.062807 0.596299 0.800301
0.223713 0.705106 -0.529613 0.062807 -0.596299 -0.800301
1.334129 0.114869 -0.097632 0.054228 -0.583139 -0.810560
1.371303 0.104731 -0.035095 0.000002 0.947358 -0.318251
-1.401452 -0.050110 0.098433 0.000014 -0.429706 0.902214
0.173265 0.517672 0.393917 0.062807 -0.596299 0.800301
0.176763 0.629733 0.460382 -0.062750 0.629756 -0.774254
0.008470 -0.373337 0.265476 -0.062750 -0.629756 -0.774254
0.048821 0.203834 0.127711 0.084330 0.595351 -0.799028
-0.054257 -0.015082 -0.109420 -0.000017 -0.156448 -0.987046
-0.013759 -0.448834 -0.328685 -0.062750 -0.629756 0.774254
0.367421 -0.102642 -0.040801 -0.000169 -0.914928 -0.402014
1.406519 0.248242 -0.181091 0.054228 0.609894 0.790625
-0.763439 0.019849 -0.108656 0.000025 0.226512 -0.973319
0.195332 -0.326504 0.234574 0.084330 -0.595351 -0.799028
0.259462 -0.523639 -0.388226 0.084330 -0.595351 0.799028
-1.441337 0.017220 0.109104 -0.000006 0.129911 0.990842
0.277783 0.528776 0.393988 0.084330 0.595351 -0.799028
0.628574 0.103819 0.037707 -0.000043 0.925298 0.377484
-0.681779 0.108534 -0.020508 0.000455 0.981143 -0.189745
-0.004925 0.163821 0.096148 -0.062750 0.629756 -0.774254
0.000388 -0.182973 -0.111295 -0.062750 -0.629756 0.774254
-0.096919 -0.372888 -0.280780 -0.046720 0.571220 -0.819467
-0.169385 0.348145 -0.259400 -0.046720 -0.571220 -0.819467
0.175255 0.006343 -0.110272 -0.000577 0.092014 -0.995215
0.165589 0.058079 0.093952 -0.000283 0.510650 0.859050
-0.247427 0.042275 0.102044 0.000447 0.345521 0.937668
0.054894 -0.300649 0.239080 -0.046720 0.571220 0.819467
0.133818 0.260091 -0.178598 0.084330 0.595351 0.799028
0.158057 0.072276 -0.083525 0.000042 0.621611 -0.782457
1.335170 -0.238715 -0.183478 -0.027149 0.556568 -0.830359
0.256182 -0.121392 0.092144 0.062807 0.596299 0.800301
-0.014286 0.406684 -0.294444 -0.062750 0.629756 0.774254
1.394072 -0.179911 -0.127526 0.054228 -0.609894 0.790625
1.090543 0.197322 0.147736 -0.027149 -0.556568 0.830359
1.528524 -0.083586 0.048285 0.206677 -0.874505 0.436412
0.259028 0.448504 0.335649 0.062807 -0.596299 0.800301
0.230972 0.473767 -0.356675 0.062807 -0.596299 -0.800301
-0.050202 -0.042254 0.102053 -0.000116 -0.348251 0.936710
-0.003882 0.469420 0.344628 -0.062750 0.629756 -0.774254
-0.558489 -0.061618 0.091670 0.000047 -0.530564 0.846844
-0.868213 0.076584 0.079593 0.000018 0.710188 0.703047
0.134054 -0.528757 0.402598 -0.046720 0.571220 0.819467
1.084758 -0.058259 -0.093841 0.001142 -0.505982 -0.861679
-1.401639 0.077994 0.078212 -0.000007 0.687144 0.725583
0.162772 -0.460938 -0.331304 0.084330 -0.595351 0.799028
1.290154 -0.175997 -0.139968 -0.027149 0.556568 -0.830359
-1.446804 0.101775 0.042920 -0.000080 0.910494 0.411892
-0.118008 -0.117885 0.067950 -0.062750 -0.629756 -0.774254
1.375901 0.044406 0.101135 0.000039 0.440142 0.897171
0.874164 0.076863 0.079324 0.000017 0.722553 0.690322
0.335064 -0.042760 -0.101842 -0.000170 -0.406559 -0.912907
0.113093 -0.225619 0.150726 0.084330 -0.595351 -0.799028
0.120740 0.321642 -0.223079 0.084330 0.595351 0.799028
1.528524 0.013258 0.016362 1.000000 -0.000000 -0.000000
1.180661 0.206731 0.150851 -0.027149 0.636466 -0.770827
1.302852 0.108491 0.095136 -0.000014 -0.565792 0.824288
-0.056174 0.256151 -0.175400 -0.062750 0.629756 0.774254
1.239857 -0.229556 -0.174223 -0.027149 0.556568 -0.830359
0.037075 0.341289 0.266393 -0.046720 -0.571220 0.819467
-1.470832 -0.076115 0.079200 -0.100111 -0.671120 0.733381
-0.401469 -0.099137 -0.048703 -0.000099 -0.892191 -0.450182
-0.129841 0.330575 0.241905 -0.062750 0.629756 -0.774254
-0.209112 -0.009619 0.110035 0.001065 -0.139678 0.989425
0.267362 -0.205506 0.152021 0.084330 -0.595351 -0.799028
1.164818 0.139493 0.095891 -0.027149 0.636466 -0.770827
-1.123108 -0.075402 -0.080713 -0.000119 -0.685568 -0.727105
-1.321918 -0.098665 0.049653 -0.000011 -0.903825 0.426309
-1.193918 -0.110129 -0.008465 -0.000021 -0.994244 -0.101035
0.996220 -0.111024 -0.078323 -0.027149 -0.636466 0.770827
-1.233603 -0.079252 0.076937 -0.000166 -0.698880 0.714394
-0.007078 -0.184034 0.154259 -0.046720 0.571220 0.819467
0.015756 0.218827 -0.179814 -0.046720 -0.571220 -0.819467
-0.720623 -0.043940 -0.101338 -0.000031 -0.408949 -0.911817
-1.117725 0.073769 0.082209 -0.000277 0.645168 0.763215
1.099268 0.051076 0.097936 0.000303 0.469908 0.881992
-0.376010 0.017473 -0.109064 0.000776 0.200282 -0.979001
1.017085 -0.009399 0.110054 0.000657 -0.105342 0.993740
0.984800 0.160633 -0.119687 -0.027149 0.636466 0.770827
-1.170200 0.025614 -0.107444 -0.000415 0.190751 -0.980960
-0.485017 0.055872 -0.095281 0.000684 0.502846 -0.863657
1.178814 -0.065641 0.088834 -0.000017 -0.631378 0.774601
-0.080978 -0.392400 0.295289 -0.046720 0.571220 0.819467
0.190172 0.015291 0.109391 -0.000081 0.184678 0.982157
0.471058 -0.034627 0.104886 -0.000014 -0.360425 0.932059
1.048103 -0.122451 -0.085931 -0.027149 -0.636466 0.770827
0.176830 -0.366977 -0.262778 0.084330 -0.595351 0.799028
0.480827 0.077946 -0.078260 0.000082 0.678144 -0.734096
-0.210034 -0.119970 -0.098031 -0.046720 0.571220 -0.819467
0.081087 -0.478279 -0.344948 -0.062750 -0.629756 0.774254
1.286826 0.048344 -0.099313 0.000887 0.473556 -0.880007
-0.041086 -0.243152 -0.163605 -0.062750 -0.629756 0.774254
-0.057530 -0.140670 -0.081581 -0.062750 -0.629756 0.774254
0.041222 0.412135 0.294379 -0.062750 0.629756 -0.774254
0.728086 -0.029542 0.106430 0.000050 -0.314661 0.948498
-1.573986 0.061825 0.048750 -0.499256 0.646521 0.574941
-1.248029 -0.068808 -0.086404 -0.000016 -0.627271 -0.777931
1.393026 0.098092 0.081622 0.054228 -0.583139 0.810560
0.019248 -0.288053 -0.195236 -0.062750 -0.629756 0.774254
-1.447361 -0.073207 -0.082709 0.000207 -0.664541 -0.746377
0.568293 0.099272 -0.048428 0.000121 0.875293 -0.482241
0.154912 -0.404057 0.288093 0.084330 -0.595351 -0.799028
-0.202863 0.117381 -0.096635 -0.046720 -0.571220 -0.819467
0.054768 0.249826 0.203646 -0.010203 -0.580213 0.813957
1.030383 -0.107546 -0.025179 -0.000092 -0.959892 -0.277948
0.057097 -0.191973 0.119746 0.084330 -0.595351 -0.799028
1.402908 0.140367 -0.111375 0.054228 -0.583139 -0.810560
0.021701 0.091232 0.062265 0.000001 0.790507 0.610993
0.276144 -0.110211 -0.007325 -0.000520 -0.996017 -0.083841
0.038404 -0.520694 -0.391525 -0.046720 0.571220 -0.819467
1.420985 0.174900 0.135009 0.054228 -0.583139 0.810560
-0.628721 -0.086325 0.068907 0.000224 -0.770135 0.636806
0.791223 0.098756 -0.049471 0.000024 0.876096 -0.480725
-1.098249 0.080420 -0.075716 0.000338 0.756389 -0.653140
-0.342737 0.095044 -0.056275 0.000051 0.860590 -0.508060
0.015489 -0.024128 -0.107787 0.000203 -0.171257 -0.984612
0.878418 -0.013855 0.109582 0.000038 -0.173128 0.984274
0.137026 0.636402 -0.477803 -0.046720 -0.571220 -0.819467
-0.530488 0.110454 -0.000000 -0.000464 0.997951 -0.051323
0.565846 0.026365 -0.107262 -0.000258 0.250540 -0.967437
-1.280781 0.028924 -0.106600 0.000076 0.285082 -0.957801
0.260137 0.370863 0.274465 0.084330 0.595351 -0.799028
0.370096 -0.034707 0.104860 0.000203 -0.327954 0.944130
-1.035641 0.106110 -0.030674 0.000072 0.947746 -0.317040
0.717802 -0.110160 -0.008054 0.000357 -0.994523 -0.098183
-0.056414 -0.311682 0.220587 -0.062750 -0.629756 -0.774254
0.231725 0.266670 0.202309 0.062807 -0.596299 0.800301
-0.132780 0.140618 -0.116828 -0.046720 -0.571220 -0.819467
1.457950 0.130438 -0.100549 0.054228 -0.583139 -0.810560
-0.048284 0.053714 -0.096514 -0.000093 0.444740 -0.894885
-0.296061 0.128036 0.090637 -0.062750 0.629756 -0.774254
0.127793 0.700898 -0.522235 -0.046720 -0.571220 -0.819467
-0.124528 0.401391 0.299074 -0.062750 0.629756 -0.774254
-0.102099 0.428013 -0.318910 -0.046720 -0.571220 -0.819467
-0.219849 0.288243 0.214768 -0.062750 0.629756 -0.774254
1.106262 0.108233 0.088536 -0.027149 -0.556568 0.830359
0.453485 0.101698 -0.043102 0.000009 0.938639 -0.342972
0.044390 -0.173734 -0.147764 0.062807 0.596299 -0.800301
0.560516 -0.110454 -0.000000 -0.000845 -0.999408 -0.019408
0.022905 -0.059205 0.093246 0.000054 -0.507840 0.860664
-0.041591 0.347568 0.266285 -0.046720 -0.571220 0.819467
-0.180454 -0.109840 -0.011637 0.001227 -0.991451 -0.124273
0.234594 0.110253 -0.006662 -0.000872 0.994726 -0.097381
-0.956420 0.044764 0.100977 -0.000207 0.451079 0.891709
0.074290 -0.302642 -0.204020 0.084330 -0.595351 0.799028
1.379280 0.333015 0.248127 -0.027149 0.636466 -0.770827
1.309151 0.302369 0.225293 -0.027149 0.636466 -0.770827
0.122813 -0.030698 0.106103 0.000239 -0.266102 0.963314
0.277783 0.416724 -0.310498 0.062807 -0.596299 -0.800301
0.277783 -0.608813 -0.453623 0.084330 -0.595351 0.799028
0.277783 0.680847 -0.507294 0.062807 -0.596299 -0.800301
0.277783 0.496761 -0.370134 0.062807 -0.596299 -0.800301
0.277783 -0.280661 -0.209119 0.084330 -0.595351 0.799028
1.307262 0.050493 0.098238 0.000001 0.461029 0.886632
-1.252336 0.105148 0.033824 -0.000083 0.943423 0.329574
1.125003 0.008053 -0.110160 0.001086 0.105142 -0.993770
0.126798 -0.453018 0.349390 0.026306 0.588573 0.807569
1.464105 -0.245316 0.182784 0.054228 0.583139 0.810560
0.499876 -0.038242 -0.103623 0.000022 -0.364052 -0.930647
0.955272 0.116746 0.089305 -0.027149 -0.556568 0.830359
0.226154 0.417238 0.314933 0.062807 -0.596299 0.800301
1.250264 0.010013 -0.110000 -0.000185 0.104133 -0.993927
1.271875 -0.103113 -0.062082 -0.009053 -0.610640 0.791743
-0.109489 -0.179259 0.145092 -0.046720 0.571220 0.819467
0.193456 0.335841 0.241333 0.084330 0.595351 -0.799028
0.117323 -0.092742 0.059992 0.000254 -0.820963 0.569764
1.229840 -0.129199 -0.106629 -0.027149 0.556568 -0.830359
0.166517 -0.278872 -0.216518 0.062807 0.596299 -0.800301
0.153105 0.195936 0.132832 0.084330 0.595351 -0.799028
0.171459 0.515488 -0.372866 0.084330 0.595351 0.799028
0.958846 0.082758 -0.056300 -0.027149 0.636466 0.770827
0.844541 -0.099342 0.074019 -0.027149 -0.636466 -0.770827
0.748841 0.044174 0.101236 -0.000073 0.433217 0.900559
1.500473 -0.056989 0.085009 0.203253 -0.527305 0.824067
-0.003410 0.110501 -0.052656 -0.016980 0.620164 0.783386
-0.729209 0.091658 -0.061636 0.000045 0.804805 -0.592403
1.036212 -0.041620 -0.102313 -0.000282 -0.343794 -0.938347
1.110450 0.177464 -0.135076 -0.027149 -0.556568 -0.830359
-0.140122 0.031480 -0.105873 0.000020 0.281466 -0.958872
0.129321 -0.108108 -0.022647 -0.000566 -0.971783 -0.232499
1.435875 -0.093262 -0.059180 -0.000456 -0.816439 -0.576367
1.188568 0.073503 -0.082447 -0.000176 0.670083 -0.741412
-0.376599 -0.068380 0.086743 -0.000085 -0.658432 0.751764
-0.232133 0.216329 0.163939 -0.046720 -0.571220 0.819467
0.004901 -0.133214 -0.070456 0.035324 -0.608021 0.792313
-0.130793 -0.010926 0.109913 -0.000997 -0.103064 0.994058
1.218041 -0.235181 0.177280 -0.027149 0.556568 0.830359
1.420614 0.109270 -0.016132 0.000588 0.981104 -0.190215
0.149177 -0.341786 0.241089 0.084330 -0.595351 -0.799028
-0.137743 0.224133 0.155968 -0.062750 0.629756 -0.774254
-0.175888 -0.271395 -0.205530 -0.046720 0.571220 -0.819467
0.277783 -0.440735 0.328389 0.084330 -0.595351 -0.799028
1.046409 0.116745 -0.081279 -0.027149 0.636466 0.770827
0.032940 -0.233137 0.190768 -0.046720 0.571220 0.819467
0.082964 -0.125147 0.072685 0.084330 -0.595351 -0.799028
-0.219138 -0.229020 -0.166540 -0.062750 -0.629756 0.774254
1.478673 0.071003 0.079863 0.203532 0.609748 0.765075
-1.265069 -0.028240 0.106783 0.000102 -0.283360 0.958315
-0.270313 -0.228342 0.170136 -0.046720 0.571220 0.819467
-0.134672 0.294387 -0.212862 -0.062750 0.629756 0.774254
1.366539 0.278172 -0.210951 -0.027149 -0.556568 -0.830359
-0.206566 0.082532 0.073408 -0.000614 0.773919 0.632260
-0.016305 -0.501294 -0.371561 -0.062750 -0.629756 0.774254
-0.125047 0.101437 -0.043710 -0.000001 0.919913 -0.390400
-0.233359 0.007468 -0.110202 0.001058 0.105712 -0.993801
0.103873 0.413181 -0.320314 -0.046720 -0.571220 -0.819467
-0.074064 0.461292 0.343706 -0.062750 0.629756 -0.774254
0.022506 -0.127191 0.114803 0.062807 0.596299 0.800301
-0.023738 -0.313185 -0.243335 -0.046720 0.571220 -0.819467
-0.984481 -0.098604 0.049774 -0.000141 -0.880153 0.473251
1.257483 0.173338 0.137118 -0.027149 -0.556568 0.830359
0.987493 -0.098770 0.068512 -0.027149 -0.636466 -0.770827
0.593373 0.025138 0.107556 -0.000192 0.240665 0.969930
0.511387 -0.099814 -0.047300 0.000043 -0.879685 -0.474125
0.422805 -0.083929 -0.071806 -0.000099 -0.790576 -0.611354
0.107405 -0.413334 -0.289990 0.035324 -0.608021 0.792313
0.154367 0.440965 0.338246 0.062807 -0.596299 0.800301
1.042899 0.038772 -0.103426 -0.000526 0.311599 -0.949521
0.530347 0.110318 0.005491 0.001205 0.994754 0.097093
0.905034 0.109417 -0.015105 0.000757 0.981619 -0.187006
-0.221629 0.230284 -0.174265 -0.046720 -0.571220 -0.819467
0.102697 -0.066139 -0.088463 0.000994 -0.614607 -0.787829
0.912017 0.050686 0.098138 0.000055 0.466555 0.883743
0.146555 0.157992 0.103869 0.084330 0.595351 -0.799028
-0.080449 -0.343085 0.248077 -0.062750 -0.629756 -0.774254
-0.298977 0.036636 0.104201 0.000050 0.297234 0.954152
0.207712 -0.072411 0.083407 -0.000057 -0.692947 0.720053
0.010454 0.202412 -0.126291 -0.062750 0.629756 0.774254
1.113012 -0.080220 0.059705 -0.000000 0.801884 -0.597479
0.277783 0.352694 -0.262790 0.062807 -0.596299 -0.800301
0.909428 -0.081955 -0.057377 -0.000000 0.801884 0.597479
-0.180599 0.334833 0.249482 -0.062750 0.629756 -0.774254
-0.332696 0.068683 0.086504 -0.000090 0.633364 0.772989
-1.020334 -0.009919 -0.110008 -0.001141 -0.130792 -0.990941
-0.144092 0.179073 -0.142989 -0.046720 -0.571220 -0.819467
0.170073 0.094018 0.058684 0.084330 0.595351 -0.799028
1.240228 0.108917 -0.067989 -0.027149 0.636466 0.770827
-0.014273 -0.138269 0.076122 -0.062750 -0.629756 -0.774254
-0.066089 -0.435927 -0.326480 -0.046720 0.571220 -0.819467
0.031148 -0.108087 0.022747 0.000863 -0.984414 0.172451
0.950875 -0.110454 -0.000000 -0.000629 -0.998957 -0.024195
0.211443 -0.718997 -0.539620 -0.004109 0.581573 -0.812842
1.085975 0.102604 -0.040898 -0.000291 0.931047 -0.363016
0.277783 0.272657 -0.203155 0.062807 -0.596299 -0.800301
1.431047 0.064935 -0.089351 0.000010 0.608259 -0.792880
-0.068457 0.467948 -0.348665 -0.046720 -0.571220 -0.819467
-0.307673 0.134011 -0.102252 -0.046720 -0.571220 -0.819467
0.615514 -0.107391 -0.025832 -0.000001 -0.966236 -0.255009
0.230456 -0.723258 0.533900 0.084330 -0.595351 -0.799028
-0.072273 0.103296 0.039116 0.000470 0.945581 0.323821
-0.031078 0.086859 0.068232 0.000509 0.762504 0.645934
0.778359 0.103828 0.037683 -0.000007 0.935905 0.350346
-0.071665 0.278522 0.194851 -0.062750 0.629756 -0.774254
0.081551 -0.393109 0.275636 -0.062750 -0.629756 -0.774254
-0.232722 -0.163956 0.127398 -0.046720 0.571220 0.819467
-0.860360 0.024338 0.107739 0.000009 0.243004 0.969333
-0.185929 -0.230463 0.176426 -0.046720 0.571220 0.819467
-0.670871 -0.042157 0.102093 -0.000250 -0.404812 0.913778
-0.045465 -0.213241 0.172429 -0.046720 0.571220 0.819467
-0.063392 -0.093014 0.059569 -0.000223 -0.812829 0.581351
-0.163778 -0.354800 0.264360 -0.046720 0.571220 0.819467
1.352329 0.167949 0.134601 0.054228 -0.583139 0.810560
1.426619 -0.010180 -0.109984 0.000179 -0.142919 -0.988977
-0.512401 -0.080207 0.075941 0.000259 -0.747410 0.663481
-0.899081 0.007724 -0.110184 0.000568 0.109572 -0.993440
-1.498809 0.104469 0.017843 -0.173853 0.972618 0.147538
1.102145 0.105297 0.033358 -0.000284 0.936812 0.347922
-0.516561 -0.110200 -0.007488 -0.001564 -0.993846 -0.105500
1.513883 -0.115567 0.086109 0.054228 0.583139 0.810560
-0.139481 0.240057 -0.169062 -0.062750 0.629756 0.774254
0.906003 0.052382 -0.097244 -0.000510 0.446768 -0.894123
0.056930 0.150785 -0.129681 0.062807 -0.596299 -0.800301
-1.628859 -0.033242 0.018840 -0.693343 -0.552306 0.454879
1.518927 0.098519 0.000000 0.204032 0.977640 -0.029366
0.141871 0.274998 0.190555 0.084330 0.595351 -0.799028
-0.167570 0.165150 0.131945 -0.046720 -0.571220 0.819467
-0.046188 0.388760 0.294736 -0.046720 -0.571220 0.819467
0.233039 -0.353650 0.267014 0.062807 0.596299 0.800301
0.047214 -0.570169 0.426514 -0.046720 0.571220 0.819467
0.077263 -0.252492 0.166967 0.084330 -0.595351 -0.799028
0.383919 0.052626 0.097112 -0.000459 0.451438 0.891764
1.250648 -0.099844 0.087633 -0.027149 0.556568 0.830359
-0.307574 0.027450 -0.106989 -0.000979 0.273379 -0.961311
-1.106360 -0.006731 0.110249 -0.001036 -0.099270 0.994592
0.207600 0.501058 0.365928 0.084330 0.595351 -0.799028
0.246081 0.206555 -0.150557 0.084330 0.595351 0.799028
-0.376033 0.109499 0.014495 0.000227 0.985875 0.163930
0.088896 -0.251350 -0.167344 0.084330 -0.595351 0.799028
1.345981 -0.278497 0.204285 -0.027149 -0.636466 -0.770827
-1.347410 0.110122 0.008556 -0.000054 0.993900 0.103932
0.116578 0.687587 0.512316 -0.062750 0.629756 -0.774254
0.077329 -0.640997 0.477602 -0.046720 0.571220 0.819467
-0.089175 -0.052281 -0.097298 0.000027 -0.445085 -0.894728
0.182205 -0.617746 -0.450191 0.035324 -0.608021 0.792313
0.088986 0.495830 -0.358584 -0.062750 0.629756 0.774254
0.460424 -0.110454 -0.000000 0.001584 -0.997446 -0.058511
0.054435 0.456978 -0.329782 -0.062750 0.629756 0.774254
-0.521915 0.079367 0.076818 -0.000386 0.738577 0.673276
0.502534 -0.099995 0.046916 -0.000005 -0.899050 0.436301
1.191108 0.080108 0.059856 0.000000 -0.801884 -0.597479
-0.066859 0.115634 -0.103171 -0.046720 -0.571220 -0.819467
1.344191 0.192255 -0.152632 -0.000014 -0.565792 -0.824288
1.011099 -0.172125 0.128250 -0.027149 -0.636466 -0.770827
0.726190 -0.020491 -0.108537 -0.000336 -0.234842 -0.971257
-1.551810 -0.069604 0.056418 -0.392005 -0.671263 0.627281
1.388710 0.327666 -0.244850 -0.027149 -0.556568 -0.830359
-0.324430 -0.058253 -0.093844 0.000477 -0.569373 -0.821288
0.097078 -0.009742 -0.110024 -0.001198 -0.137263 -0.989801
-0.186588 -0.076980 0.079210 0.001002 -0.732658 0.679514
0.098853 -0.180331 0.148406 0.062807 0.596299 0.800301
-0.407988 -0.109935 0.010700 -0.001097 -0.991933 0.121562
1.463526 -0.148380 -0.107966 0.054228 -0.609894 0.790625
1.315761 -0.042401 -0.101992 0.000010 -0.431184 -0.901510
0.639972 0.048331 -0.099319 0.000011 0.391867 -0.919282
1.028030 0.076495 -0.064705 -0.000000 -0.801884 0.597479
-0.214561 0.109378 -0.015380 -0.000420 0.989423 -0.139086
-0.003828 0.221914 0.180848 -0.046720 -0.571220 0.819467
-0.685515 -0.107189 0.026658 -0.000007 -0.955949 0.291211
-0.616396 0.010213 -0.109981 0.000726 0.141038 -0.989118
-0.559939 -0.072719 -0.083139 -0.000029 -0.667492 -0.743708
1.240567 0.072418 0.083401 -0.000008 0.659493 0.750807
0.197917 -0.199624 -0.140310 0.084330 -0.595351 0.799028
-0.627068 -0.059352 -0.093153 -0.000016 -0.504949 -0.862366
0.557421 -0.056975 0.094625 -0.000011 -0.526666 0.849272
1.308737 -0.109259 0.016203 0.000442 -0.980612 0.192524
-0.072808 -0.153325 0.129105 -0.046720 0.571220 0.819467
0.166798 -0.096223 0.054234 0.000045 -0.854353 0.518383
-0.283730 -0.106021 -0.030978 -0.000100 -0.964623 -0.261043
0.210284 -0.390414 -0.296192 0.062807 0.596299 -0.800301
-1.037540 -0.070305 -0.085190 0.000009 -0.604357 -0.795866
-1.519403 -0.089663 -0.046695 -0.264346 -0.829046 -0.490670
1.152314 -0.224998 -0.166933 -0.027149 -0.636466 0.770827
-0.903396 0.090122 -0.063861 0.000563 0.843573 -0.535819
-0.394414 0.018366 0.108917 -0.000019 0.216740 0.975549
0.002105 0.156000 -0.089217 -0.062750 0.629756 0.774254
-0.002696 -0.088702 -0.065819 0.000297 -0.771518 -0.635189
0.135109 0.476463 -0.366206 -0.010203 -0.580213 -0.813957
-0.969919 -0.079080 -0.077114 -0.000083 -0.722965 -0.689912
-0.962320 -0.066681 0.088056 0.000142 -0.644373 0.763818
-0.994469 0.098558 0.049865 0.000223 0.866505 0.497800
0.277783 -0.376705 -0.280681 0.084330 -0.595351 0.799028
-0.716005 0.060918 -0.092137 0.000106 0.585870 -0.809574
1.492767 0.095139 0.041862 0.203199 0.915924 0.343984
1.528524 -0.010026 0.096008 0.204382 -0.032144 0.977303
1.528524 -0.062837 -0.044024 1.000000 0.000000 0.000000
0.117804 0.140597 -0.087874 0.084330 0.595351 0.799028
0.674791 0.063364 0.090472 -0.000061 0.583312 0.811416
0.972839 -0.018671 0.108865 0.001056 -0.219379 0.974883
1.489077 0.163548 -0.122287 0.054228 -0.583139 -0.810560
-1.162414 0.078712 0.077490 -0.000478 0.693108 0.720011
0.098191 0.570575 0.418633 -0.062750 0.629756 -0.774254
0.643030 -0.098344 0.050285 0.000015 -0.911269 0.410140
0.133400 -0.707554 0.527194 -0.046720 0.571220 0.819467
-1.380186 0.029251 -0.106511 -0.000111 0.288666 -0.956723
1.028631 -0.179787 -0.133958 -0.027149 0.556568 -0.830359
0.794844 -0.102514 0.041123 -0.000144 -0.907859 0.417669
-0.524760 0.009327 0.110060 0.000124 0.102379 0.994110
1.433346 -0.235604 -0.177854 0.054228 0.583139 -0.810560
0.127880 -0.292017 0.201759 0.084330 -0.595351 -0.799028
-0.767420 0.107893 0.023650 0.000030 0.969524 0.242275
-0.777286 -0.107705 0.024493 0.000143 -0.968017 0.248248
0.003329 0.058911 -0.093432 -0.000331 0.572433 -0.819106
0.881458 -0.099585 0.047781 -0.000049 -0.904060 0.425825
-0.067773 -0.211477 -0.140003 -0.062750 -0.629756 0.774254
0.325551 0.051382 -0.097775 -0.001080 0.471910 -0.880943
-1.131041 0.110454 -0.000000 -0.001333 0.998424 -0.043797
0.162120 -0.217504 -0.171138 0.062807 0.596299 -0.800301
-0.771358 -0.012045 0.109796 -0.000820 -0.125649 0.991197
1.480539 -0.106476 -0.000000 0.202440 -0.978210 -0.026614
-0.921450 -0.108258 0.021919 0.000427 -0.973378 0.226106
-0.794931 0.094756 0.056757 0.000088 0.869445 0.492710
-1.501262 0.060284 0.086572 -0.220193 0.541819 0.809897
0.456690 0.098163 0.050637 0.000018 0.893748 0.447053
0.431638 0.038001 -0.103712 -0.000245 0.389859 -0.920159
0.066827 0.097333 -0.052216 0.000007 0.859783 -0.509330
0.131351 -0.115367 -0.070505 0.084330 -0.595351 0.799028
0.182046 -0.689159 -0.508289 -0.062750 -0.629756 0.774254
1.186985 0.034783 -0.104835 -0.000183 0.321085 -0.946376
0.247139 -0.214132 -0.156315 0.084330 -0.595351 0.799028
1.432643 0.209113 -0.158843 0.054228 -0.583139 -0.810560
-1.061584 -0.076410 0.079760 -0.000017 -0.708209 0.705117
0.329465 -0.079368 -0.076817 -0.000386 -0.729467 -0.683185
0.093679 -0.605517 -0.453803 -0.046720 0.571220 -0.819467
0.088012 0.343607 -0.270912 -0.010203 -0.580213 -0.813957
-1.089899 0.034436 0.104949 0.000181 0.357373 0.933288
0.237454 -0.067092 -0.087743 0.000058 -0.620587 -0.783261
-1.042220 -0.107957 -0.023354 -0.000039 -0.965311 -0.258528
-0.087858 -0.106419 -0.029585 -0.000597 -0.956534 -0.289413
-0.124528 -0.401391 0.299074 -0.046720 0.571220 0.819467
-0.126333 -0.222263 -0.153523 -0.062750 -0.629756 0.774254
0.077913 -0.132633 -0.077730 0.084330 -0.595351 0.799028
-0.282963 -0.168772 -0.127891 -0.046720 0.571220 -0.819467
-0.118049 -0.251427 0.176572 -0.062750 -0.629756 -0.774254
-0.927839 0.006302 0.110274 0.000986 0.038075 0.998909
-1.388678 0.110022 -0.009758 0.001520 0.991020 -0.127940
1.391105 -0.114013 0.093205 0.054228 0.583139 0.810560
0.064582 0.163747 0.138739 0.062807 -0.596299 0.800301
0.129862 0.389152 -0.274343 0.084330 0.595351 0.799028
0.057538 0.257641 -0.209251 -0.010203 -0.580213 -0.813957
1.254569 -0.102966 0.039978 0.000142 -0.915353 0.400966
1.243962 0.251236 -0.188889 -0.027149 -0.556568 -0.830359
-0.030383 -0.247295 0.197027 -0.046720 0.571220 0.819467
1.110450 -0.177464 -0.135076 -0.027149 0.556568 -0.830359
1.225552 0.202769 0.145999 -0.027149 0.636466 -0.770827
-0.298977 -0.036636 0.104201 0.000050 -0.297234 0.954152
-1.024810 -0.026411 0.107250 0.000210 -0.190787 0.980985
0.277783 -0.688850 -0.513258 0.084330 -0.595351 0.799028
-0.043143 -0.155663 -0.132426 -0.046720 0.571220 -0.819467
0.310297 -0.016756 0.109176 0.000317 -0.201400 0.978837
-0.448929 -0.107079 0.027098 0.000251 -0.971792 0.232647
0.203151 -0.581956 -0.425735 0.084330 -0.595351 0.799028
0.031093 -0.221357 0.140027 -0.062750 -0.629756 -0.774254
0.060527 0.294655 -0.235223 -0.046720 -0.571220 -0.819467
1.015457 0.142174 0.103366 -0.027149 0.636466 -0.770827
0.249001 0.162307 0.123193 0.062807 -0.596299 0.800301
-0.388933 0.059205 0.093247 -0.000357 0.553561 0.832020
-0.304304 -0.125389 -0.089152 -0.062750 -0.629756 0.774254
0.966545 0.059419 0.093111 0.000066 0.546373 0.836769
0.241314 -0.262821 -0.191977 0.084330 -0.595351 0.799028
-1.038328 0.092941 0.059684 0.000356 0.826249 0.562153
-0.430440 0.085235 0.070251 -0.000044 0.779799 0.625015
-0.340304 -0.099596 -0.047758 0.001007 -0.909027 -0.415154
1.341359 0.103533 0.038486 -0.000045 0.938465 0.343410
1.454824 0.101838 -0.042769 -0.000939 0.914570 -0.402594
0.520479 0.000000 -0.110454 0.001417 0.047903 -0.997914
-0.192531 -0.066124 -0.088474 0.001654 -0.577673 -0.815439
-0.064008 0.234608 0.186266 -0.046720 -0.571220 0.819467
-0.083594 0.353182 -0.256544 -0.062750 0.629756 0.774254
1.454335 -0.168362 0.128074 0.054228 0.583139 0.810560
0.004159 0.501554 -0.376231 -0.046720 -0.571220 -0.819467
0.229261 -0.641877 -0.482066 0.062807 0.596299 -0.800301
-1.133139 0.097266 -0.052340 -0.000666 0.898246 -0.437862
0.115622 0.233897 0.157161 0.084330 0.595351 -0.799028
1.111022 -0.000000 0.110454 0.000909 0.062466 0.996962
-0.020569 -0.372325 -0.284740 -0.046720 0.571220 -0.819467
1.400636 -0.274581 0.201006 0.054228 -0.609894 -0.790625
-0.022522 0.195029 0.122958 -0.062750 0.629756 -0.774254
0.853398 -0.081167 -0.074914 -0.000006 -0.750375 -0.659994
0.228101 -0.153045 0.117932 0.062807 0.596299 0.800301
1.040977 0.103003 0.039881 -0.000421 0.918791 0.393012
-0.311485 -0.122333 0.087248 -0.062750 -0.629756 -0.774254
0.039720 0.119249 0.107534 0.062807 -0.596299 0.800301
1.230530 -0.061317 0.091871 -0.000015 -0.593816 0.803758
-0.088680 0.129878 0.111856 -0.046720 -0.571220 0.819467
0.038145 0.202936 0.170013 -0.010203 -0.580213 0.813957
0.063079 0.292201 0.195057 0.036728 0.607656 -0.792503
0.236434 0.016653 0.109192 -0.000020 0.177342 0.983581
0.750190 -0.100352 0.046149 0.000009 -0.914003 0.404105
-1.310640 -0.018336 0.108922 0.000008 -0.217019 0.975470
0.769064 -0.089254 -0.065068 0.000021 -0.836905 -0.546118
-0.746625 -0.073339 -0.082593 0.000020 -0.634340 -0.772184
1.315302 -0.045166 0.100798 0.000059 -0.451594 0.891464
-0.839960 0.098067 0.050823 0.000055 0.873833 0.484830
0.379975 0.086033 0.069272 -0.000017 0.754176 0.655648
1.346887 -0.101920 -0.042574 0.000004 -0.911851 -0.408861
-0.908948 0.086940 0.068129 0.000069 0.768609 0.638662
-0.268935 0.102263 0.041742 -0.000037 0.911492 0.409725
0.706885 0.062692 -0.090939 0.000004 0.556302 -0.830171
-1.385333 -0.008886 0.110096 0.000053 -0.131895 0.990570
1.162567 0.173224 0.123822 -0.027149 0.636466 -0.770827
0.073000 0.574819 -0.431226 -0.046720 -0.571220 -0.819467
-0.077423 -0.259111 -0.202581 -0.046720 0.571220 -0.819467
0.302997 0.087738 -0.067098 0.000318 0.771311 -0.635306
0.177789 -0.044642 -0.101031 0.000272 -0.420320 -0.906535
1.294053 -0.008622 0.110117 0.000793 -0.118782 0.992221
0.064591 0.110028 0.009692 -0.000595 0.993638 0.106218
-0.155450 -0.011092 -0.109896 -0.000863 -0.117190 -0.992351
0.234248 -0.325526 -0.245964 0.062807 0.596299 -0.800301
-1.374338 -0.035950 -0.104440 -0.000013 -0.369981 -0.928310
1.395962 -0.110227 0.007090 -0.000897 -0.994912 0.095044
0.058482 -0.109938 -0.010669 -0.001347 -0.989365 -0.139738
-0.538848 -0.105098 0.033980 0.000770 -0.954597 0.295843
0.802704 -0.070362 -0.085143 0.000015 -0.614623 -0.787960
-0.038166 -0.105650 -0.097848 -0.046720 0.571220 -0.819467
0.043686 -0.218566 -0.181224 -0.010203 0.580213 -0.813957
-0.905693 -0.069327 -0.085988 -0.000114 -0.588395 -0.807730
0.463857 -0.071735 0.083989 -0.000008 -0.677022 0.735042
0.196057 -0.655600 0.479858 0.035324 -0.608021 -0.792313
0.017065 0.263370 -0.175336 -0.062750 0.629756 0.774254
0.176664 -0.593689 0.450289 0.026306 0.588573 0.807569
-0.576682 0.079650 0.076525 -0.000029 0.698547 0.714612
-0.275860 0.188479 -0.142033 -0.046720 -0.571220 -0.819467
1.196967 -0.157243 -0.109415 -0.027149 -0.636466 0.770827
-1.582522 -0.018102 -0.071563 -0.499776 -0.242803 -0.830247
-1.246901 0.045795 0.100513 -0.000282 0.436913 0.898823
1.160919 0.107483 0.025447 0.000575 0.968563 0.247212
1.242495 -0.014094 0.109551 0.000011 -0.169517 0.984882
0.586198 0.063986 0.090033 -0.000014 0.588647 0.807558
0.817470 0.109157 0.016877 -0.000982 0.989366 0.140108
0.768366 -0.049197 0.098893 0.000041 -0.478958 0.877067
1.487008 -0.049642 -0.092678 0.203182 -0.442563 -0.872579
-0.239086 -0.168988 -0.130543 -0.046720 0.571220 -0.819467
-0.985155 0.068168 -0.086910 0.000027 0.621349 -0.782669
0.304962 0.048817 0.099081 0.000562 0.455976 0.889272
0.134688 0.629073 0.472561 -0.046720 -0.571220 0.819467
-0.222021 0.063594 -0.090310 -0.000091 0.540613 -0.840464
0.165379 -0.025347 0.107507 -0.000202 -0.240511 0.969908
-1.114749 -0.079856 0.076310 -0.000470 -0.689061 0.723879
-0.095387 -0.138621 -0.117568 -0.046720 0.571220 -0.819467
1.349548 -0.101419 0.043754 0.000115 -0.919174 0.392105
0.171564 -0.105140 -0.033850 -0.000246 -0.954182 -0.297333
-0.143741 -0.078292 0.077913 -0.000073 -0.731936 0.680417
-0.545476 -0.021197 -0.108401 -0.001460 -0.148957 -0.987964
1.243962 0.251236 0.188889 -0.027149 -0.556568 0.830359
0.177477 0.686995 0.515376 -0.046720 -0.571220 0.819467
0.093387 -0.578234 0.434768 -0.046720 0.571220 0.819467
-0.134040 -0.084029 -0.071689 0.000007 -0.747080 -0.663716
-0.270153 -0.111487 0.088690 -0.046720 0.571220 0.819467
-1.412166 -0.109009 0.017808 -0.000002 -0.981804 0.186315
0.030745 -0.559740 -0.415286 -0.062750 -0.629756 0.774254
0.082731 -0.305512 0.207049 0.084330 -0.595351 -0.799028
-0.179400 -0.191733 -0.149800 -0.046720 0.571220 -0.819467
0.830765 0.000000 -0.110454 0.000714 0.017925 -0.999518
-1.632545 -0.000000 -0.034571 -0.720748 0.059764 -0.685197
1.116982 -0.075050 -0.066644 -0.027149 0.556568 -0.830359
0.007752 0.025351 0.107506 0.000126 0.198133 0.979506
-0.850783 0.110454 -0.000000 -0.000842 0.999193 -0.025095
1.001014 -0.063825 -0.090147 0.000083 -0.616618 -0.786466
-1.168140 -0.055085 -0.095738 -0.000208 -0.460697 -0.886816
1.218169 0.209621 -0.151917 -0.027149 0.636466 0.770827
1.132766 -0.136057 0.108052 -0.027149 0.556568 0.830359
1.474601 0.025359 0.104679 0.203691 0.182098 0.961325
-0.420983 -0.068430 0.086704 -0.000175 -0.630121 0.775709
0.260755 -0.449487 -0.333113 0.084330 -0.595351 0.799028
0.141233 0.442464 -0.340394 0.062807 -0.596299 -0.800301
0.337028 0.105227 0.033576 0.000269 0.948520 0.314629
0.415870 -0.086930 0.068142 0.000033 -0.762677 0.645727
0.081215 0.061670 -0.091635 -0.000021 0.562765 -0.825794
0.184238 0.639310 -0.482522 -0.046720 -0.571220 -0.819467
0.017100 0.135435 0.073400 0.084330 0.595351 -0.799028
0.185859 0.246395 0.190802 0.062807 -0.596299 0.800301
0.389373 0.089528 -0.064690 -0.000245 0.786771 -0.616178
-1.579043 -0.069168 -0.031186 -0.495071 -0.757218 -0.422469
0.146416 -0.661869 -0.496091 -0.046720 0.571220 -0.819467
0.258556 -0.026280 0.107282 -0.000231 -0.288623 0.956781
-0.259822 0.140030 0.109175 -0.046720 -0.571220 0.819467
0.185327 0.161027 -0.110222 0.084330 0.595351 0.799028
1.094929 0.037302 -0.103965 -0.000237 0.298637 -0.953640
0.223358 0.305230 0.221681 0.084330 0.595351 -0.799028
1.528524 -0.055591 0.016484 1.000000 0.000000 0.000000
1.452393 0.275846 -0.205531 0.054228 0.609894 0.790625
-0.719023 -0.096866 0.053076 -0.000211 -0.861087 0.507237
1.441326 -0.000000 0.110454 0.003322 0.050906 0.997992
0.025100 0.119954 -0.109207 0.062807 -0.596299 -0.800301
-0.303415 0.065401 -0.089010 -0.000422 0.553971 -0.831764
-1.016930 0.028732 0.106652 -0.000262 0.225594 0.973674
-0.921450 0.108258 0.021919 0.000427 0.973378 0.226106
-0.143708 0.263575 0.188533 -0.062750 0.629756 -0.774254
-0.192763 -0.281508 0.211618 -0.046720 0.571220 0.819467
-0.092415 -0.226529 0.154244 -0.062750 -0.629756 -0.774254
1.307137 -0.107386 -0.025854 0.000003 -0.958051 -0.284213
0.003732 -0.272638 0.183955 -0.062750 -0.629756 -0.774254
0.809909 0.015361 0.109381 0.000558 0.178761 0.983212
1.246117 -0.173059 0.136559 -0.027149 0.556568 0.830359
0.114770 -0.497919 0.380003 -0.046720 0.571220 0.819467
0.212210 0.228162 -0.163081 0.084330 0.595351 0.799028
1.383505 -0.208511 0.161697 0.054228 0.583139 0.810560
1.221580 -0.125368 0.103791 -0.027149 0.556568 0.830359
0.686143 -0.008337 0.110139 0.001226 -0.125183 0.991447
1.303046 -0.263662 -0.193549 -0.027149 -0.636466 0.770827
0.090419 0.164117 0.102508 0.084330 0.595351 -0.799028
0.806280 -0.110004 -0.009968 0.000279 -0.992050 -0.119114
1.279767 0.101561 -0.089736 -0.027149 -0.556568 -0.830359
0.324331 -0.102681 -0.040704 -0.000023 -0.909531 -0.414090
1.185495 0.157805 -0.110283 -0.027149 0.636466 0.770827
0.238765 0.121943 0.093921 0.062807 -0.596299 0.800301
1.247224 0.135842 -0.111650 -0.027149 -0.556568 -0.830359
0.175295 -0.160865 -0.127903 0.062807 0.596299 -0.800301
-1.504528 -0.104282 -0.010437 -0.231172 -0.964043 -0.123314
0.194908 -0.413727 0.314769 0.062807 0.596299 0.800301
0.059020 -0.093573 0.059281 -0.000000 0.801884 -0.597479
1.160881 0.228490 -0.169514 -0.027149 0.636466 0.770827
0.038557 0.392578 -0.278688 -0.062750 0.629756 0.774254
0.084154 0.210077 -0.136091 0.084330 0.595351 0.799028
1.265560 0.109115 0.017146 0.000186 0.980092 0.194971
0.179001 0.557440 0.404920 0.084330 0.595351 -0.799028
-0.103127 -0.344295 -0.250900 -0.062750 -0.629756 0.774254
-0.074781 0.040535 0.102748 -0.000333 0.317330 0.947563
-0.860706 -0.104454 0.035910 0.000036 -0.952569 0.302075
-0.257083 0.186796 0.141930 -0.046720 -0.571220 0.819467
1.320728 0.225451 -0.161375 -0.027149 0.636466 0.770827
0.160715 0.307437 0.238256 0.062807 -0.596299 0.800301
1.057699 0.051164 0.097890 -0.000048 0.472672 0.880543
0.095017 0.240335 -0.193416 0.062807 -0.596299 -0.800301
1.324968 -0.207236 -0.146185 -0.027149 -0.636466 0.770827
1.361253 0.000000 -0.110454 -0.000024 0.026108 -0.998977
-0.920363 -0.108230 -0.022054 0.000075 -0.982403 -0.183364
0.217685 0.015768 -0.109323 -0.000133 0.150334 -0.987904
-0.097380 0.301008 -0.230649 -0.046720 -0.571220 -0.819467
0.063963 0.519518 0.379879 -0.062750 0.629756 -0.774254
-0.139474 -0.325029 0.238175 -0.062750 -0.629756 -0.774254
0.054934 -0.107859 0.097854 0.062807 0.596299 0.800301
0.222639 -0.506162 -0.381465 0.062807 0.596299 -0.800301
0.091395 0.203728 0.132125 0.084330 0.595351 -0.799028
0.043140 -0.260211 -0.170653 -0.062750 -0.629756 0.774254
-0.130504 -0.107867 0.023767 -0.000262 -0.969028 0.244304
1.470060 -0.113212 -0.087346 0.054228 0.583139 -0.810560
-0.365634 -0.115195 0.085831 -0.046720 0.571220 0.819467
1.362982 0.237181 0.169572 0.001925 0.627373 -0.778396
0.082471 -0.327977 0.259701 0.026306 0.588573 0.807569
1.356850 -0.027123 0.107072 0.000011 -0.291285 0.955929
-0.465105 0.068401 0.086726 -0.000109 0.632337 0.773854
1.169502 -0.181550 0.139746 -0.027149 0.556568 0.830359
0.906421 -0.008356 -0.110138 -0.000028 -0.106577 -0.993558
0.071762 -0.147393 -0.125990 0.062807 0.596299 -0.800301
-0.152273 -0.177915 0.141715 -0.046720 0.571220 0.819467
0.006812 0.064475 0.089684 0.000049 0.540805 0.840347
0.101174 -0.322438 -0.254107 0.062807 0.596299 -0.800301
-0.083706 0.170981 0.108356 -0.062750 0.629756 -0.774254
0.139487 -0.164757 -0.108164 0.084330 -0.595351 0.799028
1.317385 -0.117738 -0.100817 0.054228 0.583139 -0.810560
0.047735 -0.160426 0.095253 0.084330 -0.595351 -0.799028
0.071724 0.120460 -0.105925 0.062807 -0.596299 -0.800301
0.196059 -0.264045 -0.188113 0.084330 -0.595351 0.799028
0.164832 0.333887 -0.236856 0.084330 0.595351 0.799028
0.986879 -0.108411 -0.021147 -0.000987 -0.977260 -0.208697
1.379645 0.122891 -0.082551 0.054228 0.609894 0.790625
1.278841 -0.279022 0.208653 -0.027149 0.556568 0.830359
-0.366713 -0.033070 -0.105388 0.000200 -0.346467 -0.937352
-1.301210 0.051133 0.097906 -0.000035 0.484938 0.873772
-0.173212 -0.133467 -0.109539 -0.046720 0.571220 -0.819467
0.224978 -0.512344 0.385888 0.062807 0.596299 0.800301
0.077734 0.414661 0.319856 -0.046720 -0.571220 0.819467
0.071721 0.634341 -0.472643 -0.046720 -0.571220 -0.819467
0.037898 -0.399199 -0.284127 -0.062750 -0.629756 0.774254
0.397953 -0.040045 -0.102940 -0.000244 -0.407980 -0.912327
-0.167036 0.007729 0.110184 0.001688 0.101773 0.994206
1.446353 0.026062 -0.107336 0.000201 0.260533 -0.964749
0.008072 -0.413562 0.315118 -0.046720 0.571220 0.819467
-0.572149 0.110213 0.007293 0.000014 0.992611 0.116354
1.113732 -0.107473 0.025490 0.000750 -0.965173 0.258588
0.123259 -0.219467 -0.147215 0.084330 -0.595351 0.799028
1.470060 -0.116080 0.083498 0.054228 -0.609894 -0.790625
0.006366 -0.205360 -0.169890 -0.046720 0.571220 -0.819467
0.944582 0.063143 -0.090626 -0.000146 0.582982 -0.811665
0.068749 -0.545330 -0.410428 -0.046720 0.571220 -0.819467
1.439164 -0.092555 0.063231 0.054228 -0.609894 -0.790625
0.157316 -0.299567 0.232659 0.062807 0.596299 0.800301
0.119054 0.471531 0.336383 -0.062750 0.629756 -0.774254
0.182252 0.436975 -0.315505 0.084330 0.595351 0.799028
0.150614 -0.148066 0.120303 0.062807 0.596299 0.800301
-0.853806 -0.008596 -0.110119 0.000976 -0.113663 -0.992888
-0.297448 0.108407 -0.021170 -0.000727 0.969918 -0.240777
0.035410 -0.174938 0.149366 0.062807 0.596299 0.800301
0.076117 -0.260407 0.209854 0.062807 0.596299 0.800301
0.978613 0.083079 0.055869 -0.027149 0.636466 -0.770827
-1.175785 0.045503 0.100646 -0.000050 0.367556 0.929359
-0.154708 0.129403 -0.080292 -0.062750 0.629756 0.774254
1.162893 -0.015585 -0.109349 0.000017 -0.189162 -0.981326
-1.524232 -0.037069 -0.092535 -0.302003 -0.319826 -0.897068
1.075294 -0.099915 -0.066365 -0.027149 -0.636466 0.770827
0.243453 0.079939 -0.076223 -0.000051 0.693571 -0.719449
-0.023900 0.228511 -0.184303 -0.046720 -0.571220 -0.819467
0.112015 0.347982 0.272289 0.062807 -0.596299 0.800301
0.600464 -0.026904 -0.107128 0.000092 -0.264587 -0.963692
1.287537 -0.122857 0.104265 -0.027149 0.556568 0.830359
0.023637 -0.276500 0.220464 -0.046720 0.571220 0.819467
1.177551 -0.107519 -0.025295 -0.000080 -0.959568 -0.279076
-0.209289 -0.107805 0.024045 -0.000024 -0.979926 0.196397
1.060075 -0.135393 0.105230 -0.027149 0.556568 0.830359
0.836431 0.066316 0.088331 0.000029 0.595385 0.802597
0.050686 -0.105052 -0.054305 0.084330 -0.595351 0.799028
0.036068 0.524033 -0.385812 -0.062750 0.629756 0.774254
-1.281744 -0.098739 0.049505 -0.000010 -0.868668 0.494041
1.129734 0.192138 0.140595 -0.027149 0.636466 -0.770827
0.151777 -0.429872 -0.306996 0.084330 -0.595351 0.799028
0.781047 0.051184 -0.097879 -0.000068 0.506964 -0.861176
-0.706827 0.088028 0.066718 0.000064 0.783041 0.620887
1.107098 0.075211 -0.066429 -0.000000 -0.801884 0.597479
-1.541111 0.092373 0.017063 -0.331507 0.928356 0.160394
0.276434 0.110221 -0.007175 -0.000135 0.994340 -0.101521
-0.069758 0.204169 -0.134221 -0.062750 0.629756 0.774254
-0.768296 0.067487 0.087439 0.000194 0.587310 0.808565
0.021257 0.574439 0.428011 -0.062750 0.629756 -0.774254
-0.180599 -0.334833 -0.249482 -0.046720 0.571220 -0.819467
-0.023600 -0.521194 0.388338 -0.046720 0.571220 0.819467
-0.264706 -0.234997 -0.175095 -0.046720 0.571220 -0.819467
0.049293 0.607718 -0.452807 -0.046720 -0.571220 -0.819467
-0.980803 -0.016682 -0.109187 0.000562 -0.098239 -0.994524
0.112106 0.407092 0.285836 0.084330 0.595351 -0.799028
0.014872 -0.089292 0.065028 -0.000000 0.801884 -0.597479
0.370341 -0.110454 -0.000000 -0.001048 -0.999301 -0.023555
0.277783 0.120586 -0.089848 0.062807 -0.596299 -0.800301
0.867079 0.060307 -0.092538 -0.000352 0.556173 -0.830335
0.504616 0.026618 0.107199 -0.000500 0.252642 0.966829
0.099027 -0.170181 0.107935 0.084330 -0.595351 -0.799028
0.472016 -0.102599 -0.040911 -0.000599 -0.946379 -0.320714
0.672080 -0.082900 0.072992 0.000088 -0.724235 0.688567
0.126333 -0.108891 0.018517 -0.000231 -0.979300 0.199043
1.089995 -0.206602 0.153938 -0.027149 -0.636466 -0.770827
1.388047 -0.336846 0.250982 -0.027149 -0.636466 -0.770827
1.230255 -0.267893 -0.199605 -0.027149 0.556568 -0.830359
1.063696 -0.195110 -0.145375 -0.027149 0.556568 -0.830359
1.133826 -0.225755 0.168209 -0.027149 -0.636466 -0.770827
0.897138 0.122326 -0.091144 -0.027149 0.636466 0.770827
0.277783 -0.312676 0.232973 0.084330 -0.595351 -0.799028
0.277783 -0.280661 0.209119 0.084330 -0.595351 -0.799028
0.277783 -0.616817 0.459586 0.084330 -0.595351 -0.799028
-0.413579 -0.060614 -0.092337 -0.000043 -0.589628 -0.806861
0.427874 -0.107648 0.024741 -0.000409 -0.976704 0.211237
-0.041998 0.300298 0.210159 -0.062750 0.629756 -0.774254
0.033711 -0.020237 0.108585 0.000296 -0.200655 0.978936
-0.850215 -0.107502 -0.025365 -0.000069 -0.959831 -0.278139
-0.210848 -0.099238 -0.048497 -0.000017 -0.906460 -0.420678
1.434824 0.321639 -0.239651 0.054228 0.609894 0.790625
1.434824 -0.321639 0.239651 0.054228 0.583139 0.810560
1.156425 -0.022365 0.108166 -0.000332 -0.247722 0.968081
1.344216 -0.317692 0.236710 -0.027149 -0.636466 -0.770827
-1.351941 0.098488 0.050002 0.000010 0.902417 0.429279
-0.059252 -0.371377 0.269371 -0.062750 -0.629756 -0.774254
-1.428091 -0.041666 -0.102294 -0.000372 -0.373432 -0.927040
1.528524 0.071714 -0.064615 1.000000 -0.000000 0.000000
-1.326433 -0.072192 0.083597 0.000003 -0.672451 0.739223
0.113565 0.087392 0.067549 0.000509 0.770090 0.636834
-0.254709 0.118358 -0.079414 -0.062750 0.629756 0.774254
-0.851722 -0.056838 0.094708 0.000066 -0.538621 0.841747
-1.353142 -0.075956 -0.080192 -0.000076 -0.690906 -0.722023
0.070335 0.427143 -0.304227 -0.062750 0.629756 0.774254
1.122627 -0.151685 -0.107444 -0.027149 -0.636466 0.770827
-0.257491 -0.192379 0.139846 -0.062750 -0.629756 -0.774254
-0.891852 -0.054997 0.095789 0.000057 -0.542203 0.839436
-1.290585 -0.061317 -0.091871 0.000015 -0.593817 -0.803758
0.937664 -0.072318 -0.083488 0.000224 -0.692007 -0.720968
0.047207 -0.515057 0.388097 -0.046720 0.571220 0.819467
0.203957 0.107864 -0.086163 0.062807 -0.596299 -0.800301
-1.315542 0.052231 -0.097325 0.000101 0.517121 -0.855142
0.042234 0.182511 -0.111128 0.084330 0.595351 0.799028
-0.028055 0.373444 -0.268524 -0.062750 0.629756 0.774254
1.321642 0.146565 -0.121271 -0.000014 -0.565792 -0.824288
0.641363 -0.038884 0.103384 -0.000025 -0.363236 0.930965
0.041715 -0.477890 0.347823 -0.062750 -0.629756 -0.774254
-0.569526 0.083704 -0.072068 0.000043 0.758720 -0.650386
1.321642 -0.158127 -0.105754 0.027111 -0.619153 0.784529
-1.320254 0.085185 -0.070311 0.000045 0.786308 -0.616730
0.277783 0.224635 -0.167374 0.062807 -0.596299 -0.800301
0.085017 0.453204 0.347138 -0.046720 -0.571220 0.819467
0.177994 -0.564657 0.410191 0.084330 -0.595351 -0.799028
1.528524 0.017583 -0.026570 1.000000 -0.000000 -0.000000
0.928464 0.105682 0.032116 -0.000614 0.953080 0.300423
1.396972 -0.075885 0.080260 0.000013 -0.689607 0.723259
-1.187705 0.059760 -0.092892 0.000610 0.550464 -0.834002
-0.710799 0.033470 0.105261 -0.000461 0.325080 0.944984
-1.493498 -0.033820 0.101469 -0.175913 -0.248900 0.950946
-0.050046 -0.110454 -0.000000 0.000024 -0.998423 -0.044563
-0.266607 -0.109973 -0.073558 -0.062750 -0.629756 0.774254
1.072506 -0.080108 0.059856 -0.000000 0.801884 -0.597479
0.224357 0.188181 0.144406 0.062807 -0.596299 0.800301
0.962262 -0.103470 0.038653 0.000104 -0.917619 0.395767
-0.122580 0.361695 -0.271514 -0.046720 -0.571220 -0.819467
-0.024226 0.186233 -0.115941 -0.062750 0.629756 0.774254
-0.513007 0.104836 0.034778 -0.000207 0.963008 0.266948
-1.481920 0.092101 0.057710 -0.099112 0.840094 0.531652
0.551819 0.076291 -0.079874 0.000138 0.661616 -0.748973
1.246178 -0.073123 -0.069230 -0.009312 0.583602 -0.811860
-0.158134 -0.154375 0.100882 -0.062750 -0.629756 -0.774254
-1.427176 0.110064 0.009279 -0.000207 0.993298 0.109308
-0.080834 0.024052 -0.107804 -0.000007 0.261387 -0.964568
0.074464 0.294352 -0.197861 0.084330 0.595351 0.799028
-1.260421 0.094817 -0.056656 0.000032 0.870847 -0.490226
0.186761 0.195754 0.152998 0.062807 -0.596299 0.800301
-0.002077 0.289779 0.228255 -0.046720 -0.571220 0.819467
0.196923 -0.450327 0.341881 0.062807 0.596299 0.800301
-0.094855 -0.184936 -0.149883 -0.046720 0.571220 -0.819467
1.185820 -0.105329 0.033255 0.000013 -0.937629 0.345675
-0.265358 -0.059378 0.093136 0.000138 -0.572682 0.819226
0.595743 -0.091120 0.062429 -0.000136 -0.830161 0.556312
0.104757 -0.254224 -0.203000 0.062807 0.596299 -0.800301
0.178825 -0.203593 0.141252 0.084330 -0.595351 -0.799028
0.620571 0.110454 -0.000000 0.000023 0.998894 -0.030663
0.926684 -0.113168 -0.082542 -0.027149 -0.636466 0.770827
-0.010037 -0.275770 -0.218035 -0.046720 0.571220 -0.819467
0.800305 -0.024338 -0.107739 -0.000009 -0.243004 -0.969333
0.238831 -0.414040 -0.311555 0.062807 0.596299 -0.800301
0.021955 0.108240 0.022006 0.000750 0.974195 0.223124
1.175707 0.114539 -0.074903 -0.027149 0.636466 0.770827
-0.961928 -0.105894 -0.031411 -0.000301 -0.959856 -0.277942
-0.122405 0.089487 -0.081778 -0.046720 -0.571220 -0.819467
-0.022589 0.308207 -0.215019 -0.062750 0.629756 0.774254
0.247301 -0.564215 0.422785 0.062807 0.596299 0.800301
-0.156129 0.316117 -0.237831 -0.046720 -0.571220 -0.819467
1.519740 -0.100303 -0.074735 0.054228 -0.609894 0.790625
0.018718 -0.059930 -0.092782 0.001330 -0.536524 -0.843299
1.261133 -0.201684 -0.143850 -0.027149 -0.636466 0.770827
0.970893 0.000000 -0.110454 0.000077 0.070698 -0.996590
1.384929 0.163024 0.113872 0.054228 0.609894 -0.790625
1.294152 0.191552 0.134321 -0.027149 0.636466 -0.770827
0.686121 -0.096538 -0.053671 0.000227 -0.882464 -0.468985
-1.301761 -0.005396 -0.110322 0.000094 -0.090520 -0.995394
-0.064507 -0.077494 -0.078708 -0.000005 -0.663535 -0.747241
0.047990 0.378605 0.266559 -0.062750 0.629756 -0.774254
0.241419 -0.109992 0.010100 0.000268 -0.991362 0.124102
-0.310286 -0.000000 0.110454 0.001734 0.023530 0.999167
1.438472 -0.217055 0.164167 0.054228 0.583139 0.810560
0.260937 0.050306 0.098333 0.000074 0.500524 0.864961
1.391105 -0.114013 -0.093205 0.054228 0.583139 -0.810560
-0.729046 0.106539 0.029148 -0.000761 0.948294 0.315013
0.118184 -0.177511 -0.144787 0.062807 0.596299 -0.800301
0.140135 0.274488 -0.215322 0.062807 -0.596299 -0.800301
-0.263782 0.103124 -0.039567 -0.000049 0.934614 -0.353769
1.292081 0.261643 0.192267 -0.027149 0.636466 -0.770827
-0.079027 0.146104 -0.123717 -0.046720 -0.571220 -0.819467
0.204595 -0.620712 0.454764 0.084330 -0.595351 -0.799028
-0.330532 0.108286 0.077366 -0.062750 0.629756 -0.774254
-0.859183 -0.065154 -0.089191 -0.000025 -0.628551 -0.776905
0.869918 -0.020933 -0.108453 -0.000792 -0.167279 -0.985311
0.828691 0.037992 -0.103715 -0.000109 0.381695 -0.923577
-0.048693 -0.282624 0.196326 -0.062750 -0.629756 -0.774254
0.921272 -0.107667 -0.024659 -0.000123 -0.966743 -0.253027
0.085848 -0.372817 -0.258783 -0.062750 -0.629756 0.774254
1.188876 -0.103109 0.087802 -0.027149 0.556568 0.830359
-0.018593 0.109112 -0.017171 -0.001516 0.993282 -0.110902
-1.561302 -0.025853 0.081255 -0.459504 -0.277647 0.841770
0.052627 -0.353596 -0.275858 -0.046720 0.571220 -0.819467
-1.103318 -0.011938 -0.109807 0.000214 -0.155024 -0.987199
-0.274211 0.008392 -0.110135 -0.000859 0.087821 -0.995703
-1.060976 0.110454 -0.000000 0.000727 0.999418 -0.020783
1.472890 -0.222420 -0.165723 0.054228 -0.609894 0.790625
0.151758 -0.252090 0.197721 0.062807 0.596299 0.800301
-0.197627 -0.142329 0.094285 -0.062750 -0.629756 -0.774254
0.063733 -0.302722 -0.241029 -0.046720 0.571220 -0.819467
1.162360 0.107175 -0.026716 -0.000295 0.967898 -0.249044
-1.196105 -0.069196 0.086094 0.001218 -0.646083 0.762131
-1.508038 0.019640 -0.102141 -0.235192 0.127795 -0.962479
0.240728 0.570855 0.421429 0.084330 0.595351 -0.799028
1.243387 -0.211680 0.152728 -0.027149 -0.636466 -0.770827
-0.338915 -0.074153 0.081862 -0.000019 -0.708493 0.704767
-0.007698 0.194390 -0.161442 -0.046720 -0.571220 -0.819467
0.241784 -0.595608 0.446609 0.062807 0.596299 0.800301
-0.155980 0.108789 0.019107 -0.000487 0.980775 0.191659
0.490670 0.107630 0.024818 0.000192 0.971021 0.235996
0.425772 0.041049 0.102543 -0.000008 0.390810 0.919472
1.028030 0.076495 0.064705 0.000000 -0.801884 -0.597479
0.037970 0.333334 -0.260899 -0.046720 -0.571220 -0.819467
0.038145 0.224063 -0.141657 -0.013702 0.619489 0.784055
-0.719742 -0.069493 0.085854 0.000342 -0.646431 0.762142
-0.470845 0.017819 -0.109007 0.000245 0.204777 -0.978109
0.027327 0.318921 0.219688 -0.062750 0.629756 -0.774254
0.936061 0.103049 -0.079496 -0.027149 -0.556568 -0.830359
0.034271 -0.132599 -0.117909 0.062807 0.596299 -0.800301
0.151076 0.574757 -0.435634 -0.046720 -0.571220 -0.819467
