1.436724 -0.025414 0.078238 -0.006584 -0.312568 0.944658
0.293029 0.223363 -0.278346 0.063366 -0.763969 -0.642134
-0.380296 0.074770 -0.034299 0.002999 0.954883 -0.279125
1.234863 -0.099949 0.105529 -0.025994 -0.796983 -0.603441
1.489648 0.075662 -0.034141 -0.020857 0.905028 -0.412537
0.372223 0.428164 -0.514190 0.063366 -0.763969 -0.642134
-0.706830 -0.067412 -0.047145 0.001980 -0.883107 -0.459978
1.306472 0.094880 -0.128057 -0.025994 -0.731532 -0.681311
0.117448 0.124200 -0.159866 -0.061706 -0.743793 -0.665555
0.158698 -0.068242 0.101154 -0.061706 0.743793 0.665555
-0.996325 -0.033320 0.075212 0.000088 -0.273623 0.956819
1.046310 -0.070128 -0.043001 -0.003373 -0.824259 -0.556803
0.567963 -0.048466 0.066469 0.001191 -0.534666 0.838579
-0.805146 0.071629 0.040452 -0.004442 0.799797 0.592564
1.500859 -0.136775 0.168030 0.056430 0.769949 0.635606
1.342969 0.206688 -0.241846 -0.025994 0.796983 0.603441
1.268669 -0.183630 -0.214593 -0.025994 -0.796983 0.603441
0.169368 -0.080451 0.017165 -0.001825 -0.984823 0.141391
0.293344 -0.144131 0.158573 0.065039 -0.763887 -0.642065
0.080536 -0.224170 -0.268165 -0.061706 0.743793 -0.665555
0.035882 -0.031845 -0.075848 -0.000321 -0.330804 -0.939281
1.135811 -0.082262 0.000000 -0.000048 -0.992748 -0.069151
-1.534685 0.000000 -0.073067 -0.236026 -0.075919 -0.961909
0.309088 0.480287 -0.575579 -0.061706 -0.743793 -0.665555
-0.281472 0.055719 -0.060518 0.003217 0.758030 -0.647573
0.179669 0.164920 -0.179696 -0.063334 0.783998 0.617524
1.370932 0.059909 0.056373 0.000655 0.711242 0.694120
0.399617 0.150823 0.181523 0.063366 -0.763969 0.642134
0.327382 0.315205 -0.365554 0.065039 0.763887 0.642065
0.375764 -0.083609 -0.094917 0.065039 -0.763887 0.642065
0.228061 -0.075923 0.070811 0.065039 -0.763887 -0.642065
0.287484 0.440244 -0.528826 -0.061706 -0.743793 -0.665555
-1.615928 -0.032206 0.011315 -0.558907 -0.744854 0.346441
-0.180315 -0.057890 -0.058445 -0.004532 -0.753798 -0.652655
-1.329225 0.012938 -0.081238 -0.000155 0.247818 -0.965609
-1.349546 -0.016894 0.080509 -0.000724 -0.285875 0.953634
0.376144 -0.337019 -0.396445 0.065039 -0.763887 0.642065
-0.518089 0.082262 -0.000000 -0.000763 0.992534 0.070149
0.966484 0.066550 -0.048355 -0.001215 0.843609 -0.527695
0.892759 -0.052788 -0.063091 0.004163 -0.707921 -0.698907
0.677927 -0.057881 -0.058453 -0.003325 -0.731294 -0.675782
0.375994 -0.063462 0.052341 0.000483 -0.662545 0.741009
1.170086 0.082361 -0.109411 -0.025994 -0.731532 -0.681311
0.962779 -0.071654 -0.090006 -0.025994 0.731532 -0.681311
1.540128 0.221407 -0.267064 0.056430 -0.769949 -0.635606
0.895528 0.062755 -0.077885 -0.000000 -0.643427 0.765508
1.218121 -0.171818 -0.201170 -0.025994 -0.796983 0.603441
0.278824 0.071439 -0.098998 0.063366 -0.763969 -0.642134
1.359005 -0.156800 0.175266 -0.025994 -0.796983 -0.603441
0.172117 0.277060 -0.335764 -0.061706 -0.743793 -0.665555
1.535024 0.201742 0.236420 0.056430 0.758567 -0.649147
0.564435 0.061434 0.054707 -0.003150 0.652357 0.751363
0.236704 -0.321422 -0.372539 -0.063334 -0.783998 0.617524
0.143857 0.199751 -0.227589 -0.063334 0.783998 0.617524
0.145703 -0.161480 0.178812 -0.063334 -0.783998 -0.617524
0.010182 -0.017035 0.080479 0.000839 -0.134355 0.986319
-1.231314 0.029728 -0.076702 -0.001333 0.467783 -0.878591
0.179605 0.137697 0.180712 -0.061706 -0.743793 0.665555
0.232412 0.200589 0.219570 -0.020542 0.778426 -0.626625
0.334464 -0.036668 -0.073638 -0.000386 -0.371892 -0.921661
1.480742 0.254062 0.298479 -0.025994 0.796983 -0.603441
0.370037 0.484267 0.571014 0.065039 0.763887 -0.642065
-1.601000 0.000000 -0.044081 -0.542216 -0.098765 -0.822274
0.269300 0.058272 0.084273 0.063366 -0.763969 0.642134
1.460494 -0.242846 0.292805 -0.025994 0.731532 0.681311
1.084746 -0.137950 -0.165841 -0.025994 0.731532 -0.681311
-1.437315 0.026967 0.077716 0.009273 0.320110 0.942851
0.627799 -0.080453 0.017157 0.000287 -0.984473 0.143020
-1.370742 -0.078600 -0.024271 -0.000834 -0.909580 -0.403188
0.270971 -0.423173 -0.498205 -0.063334 -0.783998 0.617524
1.508258 -0.044432 -0.070584 -0.021799 -0.526313 -0.844472
1.533387 -0.212253 0.248561 0.056430 -0.758567 -0.649147
-0.617693 0.059473 0.056833 -0.003678 0.682408 0.724774
-1.165864 0.060946 0.055250 -0.001305 0.715466 0.690142
1.307819 -0.135114 0.148830 -0.025994 -0.796983 -0.603441
-0.047901 -0.051952 0.063794 -0.061706 0.743793 0.665555
1.514975 -0.113286 0.131312 0.056430 -0.758567 -0.649147
0.316919 -0.134331 -0.149302 0.065039 -0.763887 0.642065
1.305123 -0.135877 -0.149954 -0.025994 -0.796983 0.603441
0.166783 0.114862 0.117464 -0.063334 0.783998 -0.617524
0.309675 -0.397843 0.462077 0.019186 -0.772190 -0.634210
-1.434709 0.082262 -0.000000 0.004333 0.991802 0.073853
0.386211 -0.470079 0.562678 0.063366 0.763969 0.642134
0.272448 -0.196089 -0.218273 0.065039 -0.763887 0.642065
1.547750 -0.270285 0.325596 0.001494 0.744987 0.666646
1.149098 -0.128555 -0.147004 -0.025994 -0.796983 0.603441
0.109735 -0.055569 -0.082452 -0.061706 0.743793 -0.665555
0.067664 0.093633 0.100677 -0.063334 0.783998 -0.617524
1.306472 0.094880 0.128057 -0.025994 -0.731532 0.681311
1.215700 -0.089650 -0.118977 -0.025994 0.731532 -0.681311
0.470379 -0.049662 0.065580 -0.002901 -0.476321 0.873030
-1.095958 -0.082262 0.000000 -0.000966 -0.992766 -0.070116
1.461274 0.244805 -0.287092 -0.025994 0.796983 0.603441
-0.537767 -0.075247 0.033239 0.000185 -0.934650 0.341219
0.360648 0.358226 -0.432124 0.063366 -0.763969 -0.642134
0.076523 -0.213717 0.252226 -0.063334 -0.783998 -0.617524
-0.208566 0.051183 0.064400 0.001290 0.539699 0.834916
0.318487 0.122886 -0.156292 0.063366 -0.763969 -0.642134
0.329826 -0.046452 0.067891 0.002813 -0.518954 0.849413
0.833847 -0.070250 0.083579 -0.025994 -0.796983 -0.603441
1.393754 -0.124849 0.134285 0.056430 -0.758567 -0.649147
1.563349 0.148046 0.176136 0.056430 0.758567 -0.649147
1.145257 -0.071091 0.096363 -0.025994 0.731532 0.681311
0.317780 0.295093 0.340653 0.065039 0.763887 -0.642065
-0.705294 0.067154 0.047512 0.001618 0.842961 0.529177
0.287951 -0.273608 -0.338625 0.063366 0.763969 -0.642134
1.126155 0.071537 0.096113 -0.025994 -0.731532 0.681311
1.477655 -0.192658 0.220818 0.056430 -0.758567 -0.649147
-0.941045 -0.040492 0.071606 0.002167 -0.609587 0.783860
1.477862 0.184219 -0.227544 0.056430 -0.769949 -0.635606
0.383719 -0.379115 0.454699 0.063366 0.763969 0.642134
1.105308 0.067407 0.047153 -0.001404 0.881925 0.462351
0.307261 -0.284620 0.349820 0.063366 0.763969 0.642134
1.176600 0.037325 0.073307 0.002880 0.356172 0.928101
1.159316 0.148341 -0.179843 -0.025994 -0.731532 -0.681311
1.372885 -0.213575 0.258034 -0.025994 0.731532 0.681311
1.453773 0.084511 0.092366 0.056430 0.758567 -0.649147
1.554762 -0.255607 -0.307194 0.056430 0.769949 -0.635606
0.942547 0.074728 -0.084811 -0.025994 0.796983 0.603441
0.169974 0.077675 -0.112742 -0.061706 -0.743793 -0.665555
1.245104 -0.141876 0.160462 -0.025994 -0.796983 -0.603441
1.268093 -0.071259 -0.041099 0.000147 -0.859733 -0.500709
0.388169 -0.418623 -0.501265 0.063366 0.763969 -0.642134
1.352972 0.113114 0.149409 -0.025994 -0.731532 0.681311
0.312434 -0.450595 0.542707 -0.061706 0.743793 0.665555
-1.046921 -0.052926 -0.062975 0.005276 -0.551419 -0.826317
-0.538064 -0.033383 -0.075184 0.000794 -0.278049 -0.954924
0.119549 0.033311 0.075216 0.000101 0.273518 0.956850
-0.169156 -0.017036 0.080479 0.000447 -0.144690 0.984105
0.391643 0.296019 0.349237 0.065039 0.763887 -0.642065
0.300017 -0.373186 -0.431764 0.022249 -0.771722 0.634805
0.420741 0.375220 0.446413 0.065039 0.763887 -0.642065
0.614529 0.043944 -0.069541 -0.002613 0.600313 -0.795605
0.149855 -0.109622 0.112548 -0.063334 -0.783998 -0.617524
0.209952 0.108250 0.107437 0.065039 0.763887 -0.642065
1.370980 -0.101551 0.105080 0.056430 -0.758567 -0.649147
1.535757 0.034772 0.041369 0.056430 0.758567 -0.649147
-1.522738 -0.048340 0.058754 -0.226972 -0.698249 0.671855
1.295606 -0.080968 0.112704 -0.025994 0.731532 0.681311
0.082954 -0.093129 0.121944 -0.061706 0.743793 0.665555
0.182314 -0.279435 0.324810 -0.063334 -0.783998 -0.617524
1.483079 0.148285 -0.169437 0.056430 0.758567 0.649147
0.256121 0.095508 -0.129874 0.063366 -0.763969 -0.642134
1.298961 -0.059322 0.056991 0.000877 -0.656518 0.750599
0.217199 -0.193307 0.246344 -0.061706 0.743793 0.665555
1.017425 0.099220 -0.113933 -0.025994 0.796983 0.603441
0.168554 -0.241771 -0.278404 -0.063334 -0.783998 0.617524
0.236473 0.258540 0.292728 -0.063334 0.783998 -0.617524
-1.333859 -0.078201 0.025528 0.000265 -0.948231 0.303658
0.200017 -0.170551 -0.184758 -0.063334 -0.783998 0.617524
0.136662 0.257724 -0.310868 -0.061706 -0.743793 -0.665555
0.137688 -0.194669 -0.240495 -0.061706 0.743793 -0.665555
1.147642 0.046916 -0.067572 -0.000291 0.621543 -0.778309
1.548020 0.085116 -0.101266 0.056430 0.758567 0.649147
-1.521382 0.074086 0.018612 -0.254760 0.909792 0.308465
1.330144 0.216684 0.255600 -0.025994 0.796983 -0.603441
1.515463 0.120841 0.147431 0.056430 -0.769949 0.635606
0.106497 0.097842 0.129393 -0.061706 -0.743793 0.665555
1.522339 -0.141132 -0.171401 0.056430 0.769949 -0.635606
0.386352 -0.150131 0.175132 0.065039 -0.763887 -0.642065
0.224466 0.217218 -0.273740 -0.061706 -0.743793 -0.665555
0.076521 0.109672 -0.120132 -0.063334 0.783998 0.617524
-0.398536 -0.075101 0.033569 0.000854 -0.932112 0.347052
-1.266479 -0.043230 0.069987 -0.000801 -0.621009 0.777233
1.441733 0.137605 0.174285 0.056430 -0.769949 0.635606
0.326782 0.234676 0.288474 0.063366 -0.763969 0.642134
0.334538 -0.181040 -0.206658 0.065039 -0.763887 0.642065
0.271522 -0.239772 0.299990 0.063366 0.763969 0.642134
1.301342 0.209652 -0.251092 -0.025994 -0.731532 -0.681311
0.359172 0.097476 -0.109734 0.065039 0.763887 0.642065
0.191409 -0.322759 0.388623 -0.061706 0.743793 0.665555
0.296823 0.254781 -0.315350 0.063366 -0.763969 -0.642134
1.514975 -0.109869 -0.134184 0.056430 0.769949 -0.635606
-1.474676 0.081043 0.014533 -0.066629 0.960715 0.252127
0.117266 -0.233657 0.273363 -0.063334 -0.783998 -0.617524
0.240678 -0.126516 0.132281 0.065039 -0.763887 -0.642065
0.242313 -0.366397 -0.442110 -0.061706 0.743793 -0.665555
-0.151399 0.042569 -0.070391 -0.003083 0.555720 -0.825327
0.187696 0.303672 -0.366948 -0.061706 -0.743793 -0.665555
0.336196 0.405562 -0.490854 0.063366 -0.763969 -0.642134
-0.007538 0.080335 -0.017703 -0.000573 0.985082 -0.137133
-0.099633 0.033332 0.075206 -0.000802 0.340573 0.934963
0.851810 0.076157 -0.090606 -0.025994 -0.731532 -0.681311
0.203004 -0.037964 -0.072978 0.001707 -0.533029 -0.839737
0.143512 -0.176456 0.220681 -0.061706 0.743793 0.665555
0.306653 0.047544 -0.067131 -0.003993 0.534372 -0.838566
0.201013 -0.159160 0.170194 -0.063334 -0.783998 -0.617524
1.176548 0.156612 0.189381 -0.025994 -0.731532 0.681311
0.271606 0.189785 0.240510 0.063366 -0.763969 0.642134
-1.007503 -0.064349 -0.051247 -0.003597 -0.867815 -0.482694
-0.439985 0.073179 -0.037575 -0.003824 0.926296 -0.360029
1.535757 0.000000 -0.041995 1.000000 -0.000000 0.000000
1.535757 0.041995 -0.000000 1.000000 -0.000000 0.000000
-0.585860 0.049920 -0.065384 -0.001643 0.550713 -0.827304
0.259045 0.033337 -0.075204 -0.000068 0.340611 -0.934946
-0.229155 0.080497 0.016948 0.000028 0.992795 0.068929
0.324162 0.425315 0.515543 -0.020014 -0.751565 0.658655
0.105845 -0.130501 -0.143569 -0.063334 -0.783998 0.617524
0.594992 -0.053734 -0.062287 0.001448 -0.688904 -0.715452
-0.567791 -0.017157 0.080453 -0.001291 -0.133512 0.986227
-1.183068 0.081318 -0.012427 -0.003355 0.967340 -0.239424
1.305683 0.084299 0.081809 -0.025994 0.796983 -0.603441
0.246195 0.134091 0.176757 0.063366 -0.763969 0.642134
1.243950 -0.087219 -0.088324 -0.025994 -0.796983 0.603441
0.304428 -0.336668 -0.412023 0.063366 0.763969 -0.642134
0.315131 0.060265 0.055992 -0.002533 0.697477 0.709001
0.296268 0.207631 -0.234417 0.065039 0.763887 0.642065
1.268669 -0.179810 0.217804 -0.025994 0.731532 0.681311
1.215564 -0.075113 0.033541 0.000707 -0.934793 0.341124
0.002067 -0.091745 0.105008 -0.063334 -0.783998 -0.617524
-1.369288 0.079651 -0.020562 -0.000723 0.920343 -0.374624
-0.438703 -0.035859 0.074035 0.000862 -0.361079 0.926050
1.544954 0.072530 0.086291 0.056430 0.758567 -0.649147
0.324545 -0.179236 0.222736 0.063366 0.763969 0.642134
0.049080 -0.127449 0.157158 -0.061706 0.743793 0.665555
-0.131322 -0.047635 -0.067067 0.000736 -0.643275 -0.758078
0.391199 0.074244 -0.085338 0.065039 0.763887 0.642065
1.325368 0.065215 -0.096925 0.001494 -0.744987 -0.666646
0.997636 -0.063021 -0.052872 -0.000364 -0.710046 -0.696570
1.124871 0.099883 0.126500 -0.025994 -0.731532 0.681311
1.124871 0.099883 -0.126500 -0.025994 -0.731532 -0.681311
0.076023 0.059957 -0.057066 -0.063334 0.783998 0.617524
0.292594 -0.228229 0.258551 0.065039 -0.763887 -0.642065
0.392576 -0.072664 0.089230 0.063366 0.763969 0.642134
1.418053 -0.185475 0.210594 -0.025994 -0.796983 -0.603441
0.225039 -0.113998 -0.115804 0.065039 -0.763887 0.642065
-1.320327 0.081150 -0.013479 0.000506 0.962171 -0.257105
1.132892 -0.105013 0.116609 -0.025994 -0.796983 -0.603441
1.297852 0.191486 0.223712 -0.025994 0.796983 -0.603441
0.091212 0.149288 -0.185470 -0.061706 -0.743793 -0.665555
0.223340 0.267032 -0.304857 -0.063334 0.783998 0.617524
1.083783 0.072577 -0.095614 -0.025994 -0.731532 -0.681311
0.377577 0.193226 0.234147 0.063366 -0.763969 0.642134
0.274344 0.345924 -0.422200 -0.061706 -0.743793 -0.665555
-0.096867 -0.074246 -0.035420 -0.001987 -0.952022 -0.285953
1.472616 -0.025378 -0.078652 -0.014721 -0.310082 -0.945447
-0.916619 -0.082262 0.000000 -0.000625 -0.992950 -0.068189
1.046413 0.071196 -0.041209 -0.003693 0.830048 -0.547978
1.454742 0.102267 -0.113199 0.056430 0.758567 0.649147
1.336337 -0.168039 0.207747 -0.025994 0.731532 0.681311
0.856811 -0.035978 -0.073977 -0.000239 -0.354587 -0.928814
-0.836962 0.075184 -0.033383 0.001510 0.955382 -0.277044
0.210919 0.196378 -0.216430 -0.063334 0.783998 0.617524
-0.627404 -0.050399 -0.065015 -0.001583 -0.478710 -0.870818
0.323616 0.377905 -0.459191 0.063366 -0.763969 -0.642134
0.389085 0.256890 0.302424 0.065039 0.763887 -0.642065
1.110401 -0.045133 0.068775 0.001614 -0.614603 0.785398
0.438383 -0.075189 0.033372 0.000685 -0.956368 0.274868
0.128899 0.065364 -0.049946 0.002116 0.769980 -0.633617
0.199281 -0.371462 -0.439907 -0.063334 -0.783998 0.617524
1.433537 -0.103703 0.113034 0.056430 -0.758567 -0.649147
1.343502 -0.065183 -0.095277 0.056430 0.769949 -0.635606
0.161104 0.126620 -0.166617 -0.061706 -0.743793 -0.665555
-0.836881 -0.075198 -0.033350 0.000400 -0.956968 -0.273401
-0.662300 0.063746 -0.051995 0.003765 0.707807 -0.698055
0.394391 -0.531058 -0.629149 0.065039 -0.763887 0.642065
-1.181017 -0.050557 0.064892 0.000926 -0.518482 0.849264
-0.647605 -0.080451 0.017165 0.000636 -0.984895 0.141102
-1.034101 0.062690 0.053264 -0.001204 0.650766 0.751387
1.382980 0.087024 0.089148 0.056430 0.758567 -0.649147
-0.891213 -0.063694 0.052059 0.000942 -0.665801 0.738074
0.941627 -0.105692 0.125745 -0.025994 -0.796983 -0.603441
1.575613 -0.198391 -0.236032 0.056430 0.769949 -0.635606
0.076023 0.046084 0.068726 -0.061706 -0.743793 0.665555
-1.006296 0.080451 -0.017165 -0.001080 0.984312 -0.139246
0.229845 -0.282511 0.323842 -0.063334 -0.783998 -0.617524
1.382980 -0.072851 -0.101060 0.056430 0.769949 -0.635606
-0.660227 0.073934 0.036066 -0.001712 0.922657 0.368556
0.990215 -0.076531 0.096288 -0.025994 0.731532 0.681311
1.234019 0.056009 -0.083556 -0.000000 -0.643427 0.765508
1.220783 0.114879 -0.146261 -0.025994 -0.731532 -0.681311
0.278620 -0.072818 0.038270 -0.002042 -0.946210 0.299544
1.418053 0.185475 -0.210594 -0.025994 0.796983 0.603441
1.489652 -0.075662 0.034141 -0.020860 -0.905027 0.412538
1.235164 0.163897 0.199440 -0.025994 -0.731532 0.681311
0.372223 0.428164 0.514190 0.063366 -0.763969 0.642134
1.438693 -0.119261 -0.152334 0.056430 0.769949 -0.635606
1.205554 -0.016948 -0.080497 -0.000360 -0.068305 -0.992927
0.489702 -0.080015 -0.019095 0.000609 -0.981774 -0.156858
0.777329 -0.033270 0.075234 0.000934 -0.276343 0.955493
1.437212 0.025021 0.078364 -0.006358 0.309168 0.945826
1.552381 -0.306530 0.364690 -0.014215 -0.791826 -0.610235
1.552381 0.306530 -0.364690 -0.014215 -0.737337 -0.675062
1.139224 -0.170669 0.203051 -0.025994 -0.796983 -0.603441
1.408674 0.259274 0.308467 -0.025994 0.796983 -0.603441
1.282931 -0.217925 0.259273 -0.025994 -0.796983 -0.603441
1.570344 -0.312437 -0.371717 -0.014215 0.737337 -0.675062
1.498491 -0.288809 -0.343606 -0.025994 0.731532 -0.681311
1.049407 0.141134 0.167912 -0.025994 0.796983 -0.603441
1.247004 0.206111 0.245217 -0.025994 0.796983 -0.603441
1.211077 0.194297 -0.231162 -0.025994 -0.731532 -0.681311
1.462564 -0.276995 0.329551 -0.025994 -0.796983 -0.603441
1.426638 -0.265181 -0.315495 -0.025994 0.731532 -0.681311
1.067371 -0.147041 0.174940 -0.025994 -0.796983 -0.603441
-0.913746 0.062909 -0.053005 -0.001111 0.705233 -0.700390
1.429757 -0.186346 -0.230969 -0.025994 0.731532 -0.681311
0.235199 -0.311049 0.379596 -0.061706 0.743793 0.665555
0.906722 -0.069051 0.044711 -0.004969 -0.794493 0.602362
0.309675 -0.326205 0.399058 0.063366 0.763969 0.642134
0.384524 -0.310613 0.373121 0.063366 0.763969 0.642134
1.255566 -0.033270 0.075234 0.000142 -0.272887 0.957048
0.213096 0.130822 -0.176134 -0.020014 -0.751565 -0.658655
1.375776 -0.071576 0.070471 0.056430 -0.758567 -0.649147
0.242313 -0.372580 0.436913 -0.063334 -0.783998 -0.617524
0.032394 0.140087 -0.169735 -0.061706 -0.743793 -0.665555
-1.495021 0.000000 -0.080811 -0.162931 -0.069377 -0.978364
0.169542 -0.235467 0.289043 -0.061706 0.743793 0.665555
0.177323 -0.139949 -0.148234 -0.063334 -0.783998 0.617524
0.815884 0.064343 -0.076551 -0.000000 -0.643427 0.765508
-1.315394 -0.033281 -0.075229 -0.003523 -0.274119 -0.956752
0.420741 0.207629 0.247024 0.065039 0.763887 -0.642065
0.420741 0.207629 -0.247024 0.065039 0.763887 0.642065
0.420741 0.517028 0.615127 0.065039 0.763887 -0.642065
0.420741 -0.517028 0.615127 0.065039 -0.763887 -0.642065
0.420741 0.517028 -0.615127 0.065039 0.763887 0.642065
0.420741 0.336545 -0.400400 0.065039 0.763887 0.642065
0.420741 0.117388 -0.139660 0.065039 0.763887 0.642065
0.420741 0.272087 -0.323712 0.065039 0.763887 0.642065
0.420741 -0.478353 -0.569114 0.065039 -0.763887 0.642065
0.420741 -0.246304 -0.293037 0.065039 -0.763887 0.642065
0.420741 0.349437 0.415738 0.065039 0.763887 -0.642065
0.420741 -0.297871 0.354387 0.065039 -0.763887 -0.642065
0.420741 0.388112 -0.461750 0.065039 0.763887 0.642065
0.420741 -0.130279 0.154998 0.065039 -0.763887 -0.642065
0.420741 0.452570 -0.538438 0.065039 0.763887 0.642065
0.420741 -0.426787 0.507763 0.065039 -0.763887 -0.642065
-1.248776 0.074265 0.035380 -0.002477 0.903600 0.414718
0.334976 0.528643 -0.632019 -0.061706 -0.743793 -0.665555
0.306788 0.474517 0.568918 -0.061706 -0.743793 0.665555
0.420741 0.233412 0.277699 0.065039 0.763887 -0.642065
-1.248254 -0.080644 0.016235 -0.000542 -0.954731 0.282302
1.304981 0.066624 -0.048252 -0.000443 0.842221 -0.529619
0.251868 0.432712 -0.512275 -0.063334 0.783998 0.617524
0.251547 0.297090 -0.365512 -0.061706 -0.743793 -0.665555
-0.627685 0.016948 0.080497 -0.000062 0.069121 0.992755
1.461568 -0.158266 -0.179231 0.056430 -0.758567 0.649147
-0.565944 -0.055710 0.060527 0.002155 -0.762531 0.640388
1.126184 -0.094110 -0.102499 -0.025994 -0.796983 0.603441
1.489228 -0.216319 -0.265420 0.028969 0.757792 -0.651411
-1.066130 -0.017188 -0.080446 -0.000018 -0.138802 -0.985390
0.833847 0.070250 0.083579 -0.025994 0.796983 -0.603441
1.198767 0.144193 -0.165518 -0.025994 0.796983 0.603441
-1.036381 0.033268 -0.075235 0.000210 0.344000 -0.933401
-0.258660 -0.072882 -0.038147 0.000292 -0.920823 -0.372594
-0.826886 0.048262 0.066617 0.003532 0.523565 0.846352
0.408500 -0.017165 0.080451 0.001014 -0.142412 0.984609
-0.837067 -0.061017 0.055172 0.002630 -0.703341 0.702249
-0.597847 0.075113 -0.033542 -0.000574 0.933775 -0.343392
1.337926 -0.113256 -0.148987 -0.025994 0.731532 -0.681311
-0.259045 0.033337 0.075204 0.000013 0.340826 0.934855
-0.816987 0.000000 -0.082262 0.001221 -0.071704 -0.992194
0.259045 0.082262 -0.000000 0.001205 0.991722 0.073814
0.657778 -0.033268 0.075235 -0.000917 -0.340134 0.935135
0.358677 -0.082262 0.000000 0.000033 -0.992714 -0.069312
-1.414782 0.000000 -0.082262 0.000801 -0.088569 -0.988431
0.916619 0.000000 -0.082262 0.000090 -0.070844 -0.992540
-1.095958 0.082262 -0.000000 -0.003097 0.992584 0.056135
-0.089676 0.080451 0.017165 -0.001863 0.984671 0.142090
-0.508133 0.017165 -0.080451 -0.000676 0.141019 -0.984913
1.174285 -0.057199 -0.082555 -0.000000 0.643427 0.765508
-0.199510 0.075047 -0.033690 -0.002893 0.927185 -0.358441
-1.146328 0.077365 -0.027960 0.000994 0.890676 -0.444245
1.333841 0.074783 0.034272 0.001032 0.928226 0.356849
-0.408555 0.017188 -0.080446 -0.000085 0.144644 -0.984119
0.288941 -0.017165 0.080451 -0.000212 -0.137927 0.985576
0.100475 -0.270036 0.321272 -0.061706 0.743793 0.665555
0.260608 -0.475716 -0.565977 -0.061706 0.743793 -0.665555
-0.024074 -0.110063 -0.130946 -0.061706 0.743793 -0.665555
0.055993 0.212903 0.253298 -0.063334 0.783998 -0.617524
0.020408 0.167196 0.198919 -0.063334 0.783998 -0.617524
0.091578 0.258610 0.307677 -0.063334 0.783998 -0.617524
-0.024074 -0.110063 0.130946 -0.061706 0.743793 0.665555
0.225023 -0.430010 -0.511598 -0.061706 0.743793 -0.665555
0.029304 -0.178623 -0.212514 -0.061706 0.743793 -0.665555
0.269504 0.487143 -0.579571 -0.063334 0.783998 0.617524
1.342378 0.038989 -0.072435 -0.004203 0.391922 -0.915126
-0.119559 0.000000 -0.082262 0.000019 -0.069223 -0.992733
-0.976410 0.033565 0.075103 0.000240 0.340146 0.935218
-0.478044 0.033672 0.075055 -0.000757 0.340281 0.935157
-0.358677 -0.082262 0.000000 0.000979 -0.992480 -0.070400
0.298898 -0.082262 0.000000 0.000000 -0.992726 -0.069256
0.916704 -0.075124 -0.033519 0.000964 -0.932063 -0.347136
0.372854 -0.174808 0.203125 0.065039 -0.763887 -0.642065
0.557698 0.075047 -0.033690 0.000350 0.933492 -0.344051
1.159316 -0.148341 -0.179843 -0.025994 0.731532 -0.681311
-1.127970 0.031234 -0.076102 -0.000399 0.483988 -0.869576
1.345101 0.017188 0.080446 0.000018 0.138802 0.985390
0.184123 0.077305 0.068003 -0.027688 0.779482 -0.625207
-1.368453 0.044388 -0.069259 -0.000355 0.629379 -0.770373
0.420741 -0.181846 -0.216348 0.065039 -0.763887 0.642065
1.371833 0.146032 -0.185472 -0.025994 -0.731532 -0.681311
-1.299654 0.045566 -0.068489 0.000384 0.550969 -0.828976
0.936546 -0.082262 0.000000 -0.000000 -0.992668 -0.069530
1.569481 -0.173218 0.206084 0.056430 -0.758567 -0.649147
1.569481 0.173218 -0.206084 0.056430 0.758567 0.649147
1.572547 0.185805 0.221058 0.056430 0.758567 -0.649147
1.600139 0.299079 -0.355825 0.042699 0.765306 0.641800
1.563349 -0.148046 0.176136 0.056430 -0.758567 -0.649147
1.563349 0.148046 -0.176136 0.056430 0.758567 0.649147
-1.560081 -0.036323 -0.053373 -0.343726 -0.434680 -0.824940
0.348868 0.017119 0.080461 -0.000081 0.138758 0.985400
0.976399 -0.082262 0.000000 -0.000031 -0.992715 -0.069306
0.269300 -0.073189 -0.071735 0.065039 -0.763887 0.642065
-0.856840 -0.000000 0.082262 -0.000042 0.069207 0.992736
0.527873 0.017089 -0.080467 -0.000700 0.136748 -0.985821
1.045872 -0.109879 0.134218 -0.025994 0.731532 0.681311
-0.986362 0.016948 -0.080497 0.000028 0.068929 -0.992795
0.000000 -0.082262 0.000000 -0.000017 -0.992653 -0.068882
0.269008 0.016948 0.080497 -0.000048 0.069151 0.992748
-0.338783 -0.033350 -0.075198 -0.000044 -0.273979 -0.956712
1.076057 0.033381 -0.075185 0.000963 0.345542 -0.932754
0.291057 0.454381 0.535767 -0.063334 0.783998 -0.617524
0.896693 0.082262 -0.000000 0.000011 0.992768 0.069060
1.215470 0.075190 -0.033368 -0.001005 0.956094 -0.275425
0.398530 0.082262 -0.000000 -0.000598 0.992527 0.070183
-0.059780 0.033332 0.075206 -0.000015 0.339266 0.935547
0.727324 0.017165 -0.080451 0.000065 0.138513 -0.985452
0.139486 0.033332 -0.075206 0.000388 0.338787 -0.935758
-1.624894 0.019391 0.019360 -0.605881 0.518264 0.597776
1.528002 0.189133 -0.229045 0.056430 -0.769949 -0.635606
1.420500 0.052356 -0.063449 -0.001509 0.528201 -0.843552
-0.239118 -0.082262 0.000000 -0.000887 -0.991808 -0.073439
-0.488117 -0.048436 0.066490 0.002000 -0.528424 0.843144
0.239111 0.075237 0.033262 0.001671 0.931848 0.347997
0.996355 -0.075111 0.033547 -0.001416 -0.933109 0.344839
-1.081550 -0.030030 0.076585 -0.002446 -0.449135 0.889433
-1.553484 -0.067055 0.000000 -0.374527 -0.910189 -0.100282
0.857088 0.033239 0.075247 0.001006 0.343309 0.933713
0.169079 0.171012 -0.216967 -0.061706 -0.743793 -0.665555
0.339454 -0.076041 -0.082234 0.065039 -0.763887 0.642065
1.385224 -0.015963 -0.080698 0.000142 -0.282663 -0.954397
-1.264087 0.015334 0.080820 0.000494 0.129616 0.986778
0.099616 -0.075350 0.033006 -0.002237 -0.932744 0.345867
-0.807602 -0.080733 0.015788 -0.001788 -0.993655 0.063487
-1.437315 0.058264 -0.058072 0.001401 0.703453 -0.704910
0.642168 0.063670 0.052088 -0.003615 0.706019 0.699829
0.324545 0.179236 0.222736 0.063366 -0.763969 0.642134
0.040129 0.072989 -0.037942 -0.000995 0.947356 -0.296342
0.296712 0.141901 0.181064 0.063366 -0.763969 0.642134
0.326293 -0.127846 0.142535 0.065039 -0.763887 -0.642065
0.056681 -0.081738 0.086703 -0.063334 -0.783998 -0.617524
1.195346 0.033238 -0.075248 0.001959 0.342765 -0.933943
-0.532201 0.051433 -0.064200 -0.001471 0.687584 -0.717624
0.139721 -0.075245 -0.033245 -0.000019 -0.935744 -0.338764
-0.714951 0.074923 -0.033965 -0.003238 0.936245 -0.337535
0.448340 -0.080451 -0.017165 0.002539 -0.983418 -0.148692
0.165260 0.211274 0.261608 -0.061706 -0.743793 0.665555
-0.024074 0.110063 -0.130946 -0.063334 0.783998 0.617524
0.923664 0.099785 0.118717 -0.025994 0.796983 -0.603441
1.095991 -0.075198 0.033350 -0.001498 -0.955663 0.276308
1.066574 0.065749 0.049437 0.000054 0.839806 0.533109
1.386499 0.192867 0.221717 -0.025994 0.796983 -0.603441
0.041235 0.141497 0.172130 -0.061706 -0.743793 0.665555
0.094305 -0.093340 -0.097574 -0.063334 -0.783998 0.617524
0.156970 0.122660 -0.128371 -0.063334 0.783998 0.617524
0.156802 -0.086051 -0.081910 -0.063334 -0.783998 0.617524
1.402675 -0.043848 0.069601 -0.001305 -0.528703 0.843271
0.179339 0.033333 -0.075206 0.001242 0.341096 -0.934726
0.138097 -0.257296 -0.310521 -0.061706 0.743793 -0.665555
-1.038375 -0.050659 0.064812 0.000239 -0.623899 0.776566
0.372543 0.226202 -0.264238 0.065039 0.763887 0.642065
0.343272 -0.273632 0.317702 0.065039 -0.763887 -0.642065
-1.060139 0.061562 -0.054564 0.005001 0.646196 -0.756429
-0.497388 -0.073237 0.037462 0.002621 -0.947688 0.296002
0.378312 0.329233 0.387402 0.065039 0.763887 -0.642065
1.001457 0.074295 0.094317 -0.025994 -0.731532 0.681311
1.265493 0.134171 0.168680 -0.025994 -0.731532 0.681311
0.906853 0.048055 0.066766 -0.002308 0.465508 0.880097
0.239072 0.075113 -0.033541 -0.000271 0.931179 -0.349077
0.309916 0.338257 -0.391210 0.065039 0.763887 0.642065
-1.402675 -0.069746 0.043618 0.001349 -0.847505 0.522501
0.321144 -0.380652 -0.462704 0.063366 0.763969 -0.642134
0.186793 0.349970 0.418604 -0.061706 -0.743793 0.665555
1.118445 0.142217 0.166368 -0.025994 0.796983 -0.603441
1.381185 -0.098490 -0.132278 0.056430 0.769949 -0.635606
1.410889 0.101575 -0.108578 0.056430 0.758567 0.649147
1.303003 -0.079473 -0.021240 0.000442 -0.952903 -0.287128
-1.315106 0.074639 0.034584 -0.001876 0.843931 0.526563
-1.403296 0.079446 0.021341 0.001502 0.908383 0.401181
1.345167 -0.066507 0.048414 0.000598 -0.840103 0.532543
-1.121859 0.061327 0.054827 0.004090 0.826528 0.552245
0.369178 0.131228 0.161215 0.063366 -0.763969 0.642134
0.018697 0.113924 0.139226 -0.061706 -0.743793 0.665555
0.387910 -0.300115 -0.353732 0.065039 -0.763887 0.642065
-0.508133 -0.017165 0.080451 -0.000021 -0.138618 0.985429
1.119135 -0.035996 -0.073968 0.000335 -0.360608 -0.926360
0.094266 0.122398 0.155703 -0.061706 -0.743793 0.665555
1.352583 -0.034483 -0.074686 0.001471 -0.389819 -0.913859
0.339941 0.522327 0.617016 -0.063334 0.783998 -0.617524
0.044535 -0.096328 -0.106472 -0.063334 -0.783998 0.617524
1.420500 -0.034379 -0.074734 -0.001368 -0.520310 -0.848260
1.157187 0.176576 -0.210079 -0.025994 -0.731532 -0.681311
1.175151 0.182483 0.217106 -0.025994 0.796983 -0.603441
-0.338751 0.082262 -0.000000 -0.000632 0.992847 0.068682
-0.305992 -0.065323 0.049999 -0.002256 -0.873349 0.475343
0.334048 -0.523080 0.618576 -0.063334 -0.783998 -0.617524
0.221635 -0.206778 -0.261811 -0.061706 0.743793 -0.665555
0.468266 0.017165 -0.080451 -0.000702 0.139696 -0.985198
0.383200 -0.226489 0.265660 0.065039 -0.763887 -0.642065
1.343502 0.065183 0.095277 0.056430 -0.769949 0.635606
0.338751 0.000000 -0.082262 0.000760 -0.080894 -0.990978
-1.386567 -0.035202 -0.074349 -0.002266 -0.400603 -0.909117
0.164891 0.225270 -0.277215 -0.061706 -0.743793 -0.665555
0.260330 -0.130223 -0.170761 0.063366 0.763969 -0.642134
0.251712 -0.464290 0.552382 -0.061706 0.743793 0.665555
1.383889 0.134261 -0.144426 0.028969 0.772045 0.634453
0.204639 0.205873 0.259224 -0.061706 -0.743793 0.665555
0.199265 0.075189 0.033372 0.001911 0.956446 0.275709
1.441733 -0.137605 0.174285 0.056430 0.769949 0.635606
1.474916 0.082694 -0.000000 -0.015709 0.993120 -0.066165
1.336527 0.171077 -0.195091 -0.025994 0.796983 0.603441
-1.518123 0.033938 0.069216 -0.169317 0.346422 0.916656
-1.562635 -0.023423 0.059064 -0.327132 -0.331128 0.876841
-1.562638 0.023422 0.059063 -0.327142 0.331123 0.876840
0.717272 0.072546 -0.038783 -0.000451 0.945176 -0.301877
-0.149594 0.063050 0.052837 -0.000178 0.864833 0.486898
0.074929 0.178865 0.217015 -0.061706 -0.743793 0.665555
0.434286 0.051998 0.063744 0.001414 0.694697 0.711165
1.268606 0.183688 -0.214672 -0.025994 0.796983 0.603441
0.222547 0.395945 0.468603 -0.063334 0.783998 -0.617524
1.303039 -0.019614 -0.079889 -0.000179 -0.275660 -0.956581
0.049080 -0.127449 -0.157158 -0.061706 0.743793 -0.665555
0.108155 0.164726 0.204294 -0.061706 -0.743793 0.665555
1.581744 -0.223563 0.265980 0.056430 -0.758567 -0.649147
0.281087 0.119887 -0.156415 0.063366 -0.763969 -0.642134
0.297838 0.326955 0.376540 0.065039 0.763887 -0.642065
-1.128955 -0.050801 -0.064702 -0.002229 -0.553264 -0.825076
0.345199 -0.229941 0.281023 0.063366 0.763969 0.642134
1.535757 0.081876 0.018728 1.000000 -0.000000 -0.000000
1.341126 0.117088 -0.123588 -0.025994 0.796983 0.603441
0.292403 0.380190 0.462169 -0.061706 -0.743793 0.665555
0.777082 0.075113 0.033542 -0.000446 0.934935 0.340818
0.182923 0.179033 0.197279 -0.063334 0.783998 -0.617524
1.374199 0.146053 0.160418 -0.025994 0.796983 -0.603441
0.062189 -0.169471 -0.197523 -0.063334 -0.783998 0.617524
0.949197 -0.053236 0.062713 0.005564 -0.733289 0.671254
1.373426 -0.232306 -0.274369 -0.025994 -0.796983 0.603441
0.185054 0.327642 0.385732 -0.063334 0.783998 -0.617524
0.361243 0.479045 -0.575808 0.063366 -0.763969 -0.642134
0.327382 -0.306010 0.373283 0.063366 0.763969 0.642134
-0.266046 -0.050890 0.064631 -0.001143 -0.561056 0.819091
1.489245 -0.051841 0.064818 -0.020952 -0.621475 0.777589
0.420741 -0.375220 -0.446413 0.065039 -0.763887 0.642065
-1.470615 -0.041537 0.071218 -0.045635 -0.580090 0.807561
0.248171 0.106221 0.143404 0.063366 -0.763969 0.642134
0.328978 -0.505350 -0.596587 -0.063334 -0.783998 0.617524
1.245104 -0.133667 -0.167361 -0.025994 0.731532 -0.681311
0.389453 -0.283376 0.340230 0.063366 0.763969 0.642134
-0.476081 0.074638 0.034587 -0.004727 0.953206 0.283438
0.211897 -0.286233 -0.330408 -0.063334 -0.783998 0.617524
0.304541 -0.499474 0.591633 -0.063334 -0.783998 -0.617524
-1.046544 -0.077425 0.027791 -0.002089 -0.945457 0.311983
0.133804 0.085731 -0.083862 -0.063334 0.783998 0.617524
0.278401 0.498570 0.593166 -0.063334 0.783998 -0.617524
0.326782 0.234676 -0.288474 0.063366 -0.763969 -0.642134
0.380692 -0.358610 0.422594 0.065039 -0.763887 -0.642065
0.138097 0.257296 0.310521 -0.061706 -0.743793 0.665555
1.327801 -0.106591 0.110298 -0.025994 -0.796983 -0.603441
-0.017559 0.065862 0.074161 -0.063334 0.783998 -0.617524
1.005351 0.069133 0.044584 -0.003850 0.794787 0.602011
-0.458310 -0.082262 0.000000 0.001007 -0.992492 -0.070340
0.243295 -0.419807 0.496771 -0.063334 -0.783998 -0.617524
1.535757 -0.018457 0.081937 1.000000 -0.000000 -0.000000
0.034715 0.048040 -0.067082 -0.061706 -0.743793 -0.665555
0.222547 0.395945 -0.468603 -0.063334 0.783998 0.617524
1.193692 0.117112 0.129971 -0.025994 0.796983 -0.603441
1.193692 -0.117112 -0.129971 -0.025994 -0.796983 0.603441
-1.318708 -0.050824 0.064684 0.000694 -0.514875 0.851572
0.229791 -0.063258 -0.052587 -0.002767 -0.657027 -0.745708
0.169615 -0.308304 0.362764 -0.063334 -0.783998 -0.617524
1.493328 -0.262411 -0.308964 -0.025994 -0.796983 0.603441
0.324528 -0.277327 -0.339440 0.063366 0.763969 -0.642134
0.291567 0.290947 -0.358897 0.063366 -0.763969 -0.642134
1.551086 -0.097702 -0.116240 0.056430 0.769949 -0.635606
1.540128 -0.221407 -0.267064 0.056430 0.769949 -0.635606
1.315650 0.165714 0.204461 -0.025994 -0.731532 0.681311
0.154902 -0.100054 -0.136353 -0.061706 0.743793 -0.665555
1.420500 -0.065020 -0.050393 -0.000365 -0.704426 -0.703335
0.322522 -0.479043 0.563850 -0.063334 -0.783998 -0.617524
-0.285147 0.069863 0.043431 -0.002592 0.799444 0.594897
-0.655698 -0.034733 0.074570 -0.003807 -0.284025 0.953201
0.055369 -0.058953 -0.057909 -0.000000 0.643427 0.765508
-1.419995 -0.074082 -0.035762 0.000883 -0.901593 -0.420309
0.383034 0.089042 0.102117 0.065039 0.763887 -0.642065
1.419371 -0.237697 -0.279509 -0.025994 -0.796983 0.603441
-0.355917 0.073860 0.036218 -0.000319 0.919258 0.375823
0.053983 0.190167 -0.224639 -0.063334 0.783998 0.617524
-0.006281 -0.132916 -0.158135 -0.061706 0.743793 -0.665555
-1.056105 0.033377 0.075187 -0.000307 0.343598 0.933751
-0.438586 0.075235 0.033268 0.000742 0.934687 0.341137
0.363666 -0.210548 -0.244715 0.065039 -0.763887 0.642065
-0.697097 -0.051089 0.064474 -0.003152 -0.701532 0.704302
1.522339 0.141132 -0.171401 0.056430 -0.769949 -0.635606
1.167638 0.068686 -0.045268 0.000198 0.791241 -0.605659
1.262544 0.110589 -0.118389 -0.025994 0.796983 0.603441
-1.473769 0.056539 -0.059895 -0.056911 0.751933 -0.649425
1.045872 0.109879 -0.134218 -0.025994 -0.731532 -0.681311
0.266844 0.168753 -0.215958 0.063366 -0.763969 -0.642134
-1.575601 0.054629 -0.019040 -0.440280 0.820395 -0.349209
0.295805 -0.035730 -0.074097 0.000730 -0.361546 -0.925864
1.265359 0.048160 -0.066691 0.000819 0.487670 -0.868553
0.299660 -0.219419 -0.272999 0.063366 0.763969 -0.642134
-0.099633 -0.082262 0.000000 -0.000461 -0.992055 -0.072341
0.193780 0.101961 -0.098317 -0.020542 0.778426 0.626625
0.876773 0.075215 -0.033314 -0.000097 0.956840 -0.273552
-1.285260 -0.080497 -0.016948 -0.003011 -0.992468 -0.068103
-0.668482 -0.065372 -0.049936 0.002399 -0.838367 -0.535201
1.455902 -0.207034 0.254179 -0.025994 0.731532 0.681311
0.260453 0.207483 -0.262666 0.063366 -0.763969 -0.642134
-1.116733 -0.061705 0.054401 0.000927 -0.826119 0.552521
0.129461 0.080446 0.017188 -0.000184 0.984922 0.140966
1.600139 -0.299079 -0.355825 0.045450 0.765140 -0.641971
0.856670 0.038816 -0.072529 0.004075 0.368983 -0.922373
0.046294 0.061629 0.083342 -0.061706 -0.743793 0.665555
-1.454635 -0.080251 0.018077 -0.009059 -0.935943 0.338416
-0.976577 -0.061034 0.055153 0.000384 -0.637980 0.764306
1.456460 0.213522 -0.245983 -0.025994 0.796983 0.603441
0.210833 0.067916 0.101516 0.063366 -0.763969 0.642134
1.381185 0.113366 0.119774 0.056430 0.758567 -0.649147
-0.747346 -0.079818 -0.019902 -0.001135 -0.978693 -0.170113
0.248527 -0.086772 -0.120230 0.063366 0.763969 -0.642134
0.281796 0.369036 0.428363 -0.063334 0.783998 -0.617524
1.105536 -0.065216 -0.050139 -0.000537 -0.832673 -0.543295
0.384555 0.069179 0.044512 -0.001639 0.804680 0.588661
0.215869 -0.095254 0.133543 0.063366 0.763969 0.642134
0.175070 0.113987 0.153795 -0.061706 -0.743793 0.665555
0.347405 0.212911 0.245879 0.065039 0.763887 -0.642065
-0.006593 -0.049996 0.065438 -0.061706 0.743793 0.665555
-0.390015 -0.049965 -0.065349 0.003054 -0.649374 -0.754977
0.145871 0.075127 0.069163 -0.063334 0.783998 -0.617524
0.384323 0.394502 0.472947 0.063366 -0.763969 0.642134
1.226409 -0.065027 -0.050384 -0.000550 -0.827092 -0.551099
0.210833 -0.067916 0.101516 0.063366 0.763969 0.642134
0.204188 0.255465 0.314603 -0.061706 -0.743793 0.665555
0.308928 0.079799 0.019977 -0.001556 0.981964 0.154843
0.296193 0.521423 0.620355 -0.063334 0.783998 -0.617524
1.508951 0.264796 0.318223 -0.025994 -0.731532 0.681311
-1.512204 0.063183 -0.046159 -0.132403 0.801515 -0.573890
1.054818 -0.069105 0.072548 -0.025994 -0.796983 -0.603441
1.075873 -0.086424 0.110179 -0.025994 0.731532 0.681311
1.196836 0.105724 -0.114794 -0.025994 0.796983 0.603441
0.224084 0.106013 -0.145534 0.063366 -0.763969 -0.642134
-0.078081 -0.035594 0.074163 0.000941 -0.486675 0.867348
0.266490 -0.319940 -0.392433 -0.061706 0.743793 -0.665555
0.941627 -0.105692 -0.125745 -0.025994 0.731532 -0.681311
0.468427 -0.017119 0.080461 -0.000993 -0.140222 0.985083
0.311353 -0.086274 0.113438 0.063366 0.763969 0.642134
0.142373 0.097464 0.097879 -0.063334 0.783998 -0.617524
0.233888 0.087525 -0.085204 0.065039 0.763887 0.642065
0.324162 0.434828 -0.507547 -0.020542 0.778426 0.626625
-1.301745 0.020280 0.079723 -0.000149 0.266360 0.959664
1.425636 0.242299 -0.285318 -0.025994 0.796983 0.603441
0.517956 0.074032 -0.035865 0.000437 0.929146 -0.353819
0.420741 0.439678 0.523101 0.065039 0.763887 -0.642065
-0.351760 -0.050209 0.065162 0.000281 -0.546189 0.830409
-0.229253 0.048260 -0.066618 -0.003447 0.523060 -0.846721
1.539488 -0.239204 0.288679 0.056430 0.769949 0.635606
0.836960 -0.075120 0.033527 -0.000389 -0.933726 0.343531
1.535757 -0.034241 0.021475 1.000000 0.000000 -0.000000
0.400729 0.408849 -0.484395 0.065039 0.763887 0.642065
1.388249 -0.139933 -0.179550 -0.025994 0.731532 -0.681311
0.143857 0.199751 0.227589 -0.063334 0.783998 -0.617524
0.336202 -0.229974 -0.265044 0.065039 -0.763887 0.642065
0.322368 0.164144 -0.185323 0.065039 0.763887 0.642065
0.114725 0.216487 0.262749 -0.061706 -0.743793 0.665555
0.092087 0.215558 -0.252967 -0.063334 0.783998 0.617524
0.895528 -0.062755 0.077885 -0.025994 0.731532 0.681311
0.209343 -0.017157 0.080453 0.000322 -0.136727 0.985828
0.248248 0.179042 0.195540 0.065039 0.763887 -0.642065
1.474349 0.162605 0.201673 0.056430 -0.769949 0.635606
1.374104 0.213184 -0.257661 -0.025994 -0.731532 -0.681311
-0.010065 0.075304 -0.093400 -0.061706 -0.743793 -0.665555
-0.059659 -0.064356 -0.076567 -0.061706 0.743793 -0.665555
-0.449378 0.049351 -0.065814 0.000441 0.473936 -0.874636
0.204447 -0.220387 0.275426 -0.061706 0.743793 0.665555
-0.209408 0.017089 -0.080467 0.000762 0.140266 -0.985074
1.495196 -0.083126 -0.000000 -0.019494 -0.988796 -0.085257
-1.232547 0.080104 -0.018718 0.003437 0.930766 -0.350722
1.407298 0.154260 0.169831 0.028969 0.772045 -0.634453
1.352798 -0.074687 -0.034481 0.002084 -0.910318 -0.397068
0.718205 -0.074680 0.034495 0.000085 -0.931428 0.348573
0.100263 -0.142329 0.178532 -0.061706 0.743793 0.665555
0.333958 -0.325698 -0.396058 0.063366 0.763969 -0.642134
0.268327 0.107971 0.113018 0.065039 0.763887 -0.642065
1.115914 0.033493 -0.075135 -0.001669 0.341270 -0.934735
1.525937 -0.272500 -0.320884 -0.025994 -0.796983 0.603441
0.385468 -0.416125 0.498560 0.063366 0.763969 0.642134
1.045872 0.109879 0.134218 -0.025994 -0.731532 0.681311
0.297871 -0.109874 -0.118275 0.065039 -0.763887 0.642065
-1.627425 -0.010313 -0.023198 -0.627940 -0.477430 -0.601471
0.575630 0.029390 -0.076833 0.002752 0.454714 -0.887172
0.299828 -0.174063 -0.219021 0.063366 0.763969 -0.642134
0.993507 0.080612 -0.090387 -0.025994 0.796983 0.603441
1.127845 0.067465 -0.047069 -0.004053 0.839346 -0.533211
0.977554 0.117506 0.139801 -0.025994 0.796983 -0.603441
0.977554 0.117506 -0.139801 -0.025994 -0.731532 -0.681311
-0.913299 -0.059253 -0.057062 -0.001704 -0.676591 -0.730916
0.128443 -0.175931 -0.198928 -0.063334 -0.783998 0.617524
1.454635 -0.074082 -0.035762 -0.006214 -0.944919 -0.311742
0.116719 -0.119252 0.128172 -0.063334 -0.783998 -0.617524
0.317724 -0.350768 0.427487 0.063366 0.763969 0.642134
1.402322 0.079251 -0.022052 0.000128 0.951643 -0.291536
0.240996 0.163841 -0.176720 0.065039 0.763887 0.642065
1.026236 -0.048288 -0.066598 0.000152 -0.527403 -0.843797
0.259557 -0.122302 0.161413 0.063366 0.763969 0.642134
0.029801 0.121660 -0.140144 -0.063334 0.783998 0.617524
1.493727 -0.164426 0.202159 0.056430 0.769949 0.635606
1.527960 -0.167646 -0.195962 0.056430 -0.758567 0.649147
1.493730 0.164425 -0.202157 0.056430 -0.769949 -0.635606
0.387157 0.313625 -0.369729 0.065039 0.763887 0.642065
1.533496 0.104658 -0.126228 0.056430 -0.769949 -0.635606
1.355003 0.082262 -0.000000 -0.003988 0.991320 0.078083
0.179932 -0.090699 0.128219 -0.061706 0.743793 0.665555
0.262935 0.406890 -0.478356 -0.063334 0.783998 0.617524
-0.547919 0.046110 0.068124 0.001255 0.515784 0.851477
1.535757 0.000000 0.041995 1.000000 -0.000000 -0.000000
1.002903 -0.103676 -0.120443 -0.025994 -0.796983 0.603441
0.527961 -0.048148 -0.066699 -0.000414 -0.469854 -0.876999
1.529803 0.275635 -0.324858 -0.025994 0.796983 0.603441
-1.027242 0.079992 0.019190 0.002061 0.978136 0.172546
-1.163610 0.013501 -0.081146 0.000542 0.256595 -0.962297
0.146080 -0.281793 0.338639 -0.061706 0.743793 0.665555
-0.767280 -0.048265 0.066614 -0.000378 -0.526702 0.844368
0.386134 -0.492410 0.589252 0.063366 0.763969 0.642134
0.083508 -0.030196 -0.076520 0.000214 -0.307440 -0.948154
1.385798 0.065049 -0.050355 -0.000230 0.783623 -0.613341
0.389085 -0.253772 -0.305045 0.063366 0.763969 -0.642134
-0.249163 -0.048436 -0.066490 0.001841 -0.530061 -0.841935
-0.328998 0.048212 0.066653 -0.000187 0.527722 0.843529
0.266490 0.319940 0.392433 -0.061706 -0.743793 0.665555
0.786880 -0.017039 -0.080478 0.000004 -0.138086 -0.985542
-1.065850 -0.080478 -0.017037 0.000395 -0.985457 -0.130443
1.522329 -0.067775 0.078768 0.056430 -0.758567 -0.649147
0.557942 0.000000 -0.082262 0.000685 -0.072990 -0.992119
0.747244 -0.016948 0.080497 -0.000028 -0.068929 0.992795
0.109609 -0.066720 -0.048119 -0.000308 -0.845946 -0.524320
1.155748 -0.075085 -0.033604 -0.002273 -0.932676 -0.345908
0.747398 -0.080461 -0.017119 0.001707 -0.983947 -0.145395
-0.876766 -0.082262 0.000000 0.001337 -0.992699 -0.069372
-0.368487 -0.017119 0.080461 -0.001701 -0.141380 0.984826
1.506550 0.044204 0.070684 -0.021540 0.525576 0.844986
0.261209 -0.164177 -0.211070 0.063366 0.763969 -0.642134
1.064780 -0.116289 -0.141823 -0.025994 0.731532 -0.681311
1.469065 0.075740 -0.083446 0.056430 0.758567 0.649147
1.275297 0.082262 -0.000000 0.000198 0.993297 0.066509
1.165762 -0.080446 0.017188 0.000403 -0.985837 0.136684
0.399968 0.161960 -0.190585 0.065039 0.763887 0.642065
1.489769 -0.070070 -0.088212 0.056430 0.769949 -0.635606
0.667647 0.048265 -0.066614 0.002229 0.520270 -0.848864
0.338762 0.075103 -0.033565 -0.000469 0.935041 -0.340541
0.767170 -0.048289 -0.066597 0.000766 -0.528493 -0.842933
-0.627692 -0.017165 -0.080451 0.001505 -0.140682 -0.984978
-0.787090 0.017165 0.080451 0.000138 0.138631 0.985427
0.508119 0.080451 0.017165 0.000162 0.984832 0.141379
0.826943 0.080451 -0.017165 -0.000957 0.984648 -0.142232
-0.547986 0.080451 0.017165 -0.000260 0.984986 0.140678
0.717306 0.075184 0.033383 -0.001935 0.955412 0.276971
1.245414 0.017165 0.080451 -0.001294 0.140360 0.985050
1.255756 0.061152 0.055023 -0.000031 0.690893 0.715930
0.199265 0.075189 -0.033372 0.000741 0.955912 -0.275818
0.538016 0.033372 0.075189 0.000105 0.274033 0.956690
0.478044 -0.033672 -0.075055 0.001361 -0.336082 -0.937001
0.797061 0.033336 -0.075205 0.000002 0.339223 -0.935568
-0.019926 0.033331 -0.075207 0.000002 0.339182 -0.935584
-0.876760 0.075101 0.033569 0.000740 0.934698 0.341346
0.199259 -0.075101 0.033569 0.003190 -0.926745 0.359414
1.175664 0.000000 0.082262 0.001403 0.071199 0.992304
0.328794 -0.080451 -0.017165 0.000065 -0.985428 -0.138624
-0.428413 0.017165 0.080451 0.001953 0.142727 0.984532
-0.328781 -0.080451 -0.017165 0.001844 -0.984350 -0.143564
-0.617722 -0.082262 0.000000 -0.000028 -0.992795 -0.068929
-0.976399 0.082262 -0.000000 -0.003831 0.990708 0.083880
-0.428427 -0.080451 0.017165 -0.000065 -0.985428 0.138624
0.099633 0.000000 0.082262 -0.000002 0.069022 0.992776
0.797060 0.000000 0.082262 -0.000349 0.068331 0.992921
1.185446 0.066527 0.048386 -0.000300 0.841766 0.530275
-0.856585 -0.058534 -0.057800 0.004423 -0.652584 -0.753835
0.186793 -0.349970 0.418604 -0.061706 0.743793 0.665555
-0.737476 0.033270 -0.075234 -0.000142 0.272887 -0.957048
0.996574 0.033239 0.075247 -0.000841 0.344971 0.932952
0.857088 -0.033239 0.075247 -0.000028 -0.340563 0.934943
-0.308922 0.080446 -0.017188 -0.000018 0.985390 -0.138802
-0.288996 0.017188 -0.080446 -0.000709 0.139118 -0.985320
0.458310 0.082262 -0.000000 0.001681 0.992129 0.071991
0.339929 0.096720 0.106885 0.065039 0.763887 -0.642065
-0.219140 -0.075113 0.033542 -0.000635 -0.932231 0.346791
0.236704 0.321422 0.372539 -0.063334 0.783998 -0.617524
1.537895 -0.186993 0.225574 0.056430 0.769949 0.635606
0.866796 -0.080451 0.017165 -0.000715 -0.985669 0.137476
0.627571 0.080453 -0.017157 -0.000328 0.985506 -0.138255
-0.050173 -0.079909 0.019533 0.001513 -0.983151 0.150732
-0.717354 -0.000000 0.082262 0.000042 0.069298 0.992717
1.505405 -0.190756 -0.221008 0.056430 -0.758567 0.649147
0.079706 0.082262 -0.000000 -0.001490 0.992288 0.071270
1.125733 0.080453 0.017157 -0.001198 0.985716 0.136486
-0.866996 0.048043 -0.066775 0.000194 0.465122 -0.880054
1.225480 -0.080497 -0.016948 0.000672 -0.992495 -0.070334
-0.667538 -0.080497 -0.016948 -0.000037 -0.992743 -0.069176
-0.577869 0.082262 -0.000000 0.000065 0.992677 0.069489
-0.418457 0.082262 -0.000000 0.000001 0.992795 0.068930
-0.199265 0.082262 -0.000000 -0.000279 0.992699 0.069385
-1.095958 0.000000 -0.082262 -0.000733 -0.067564 -0.992791
-1.205554 0.016948 0.080497 0.000775 0.061004 0.992685
1.095958 0.000000 0.082262 0.001240 0.069870 0.992593
-0.657575 -0.000000 0.082262 -0.000065 0.069414 0.992693
0.787097 -0.080497 -0.016948 -0.001340 -0.993184 -0.066345
-0.816987 0.082262 -0.000000 -0.000657 0.989770 0.084906
0.677501 0.000000 0.082262 -0.000001 0.068930 0.992795
0.418457 0.000000 -0.082262 -0.000901 -0.073855 -0.992232
-0.488200 0.080497 -0.016948 -0.001249 0.992623 -0.069730
-0.567906 -0.016948 -0.080497 -0.000887 -0.070658 -0.992424
0.408474 0.066703 -0.048143 0.000856 0.878608 -0.466940
0.488346 0.048257 0.066621 0.002612 0.523193 0.846665
0.751173 0.069601 -0.043850 -0.002526 0.874228 -0.478757
-0.159406 -0.075101 0.033569 0.000240 -0.935075 0.340506
1.102555 0.146960 -0.173318 -0.025994 0.796983 0.603441
1.046169 0.048121 -0.066719 0.001735 0.468752 -0.877907
0.159446 -0.033509 0.075128 0.000045 -0.469773 0.876966
1.441973 -0.222446 -0.258393 -0.025994 -0.796983 0.603441
0.966497 0.017188 0.080446 0.000018 0.138802 0.985390
-0.687403 0.017188 0.080446 -0.000034 0.139132 0.985320
0.717371 -0.033567 -0.075102 -0.000245 -0.340133 -0.935222
0.547972 -0.017165 0.080451 -0.000032 -0.138680 0.985416
-0.508133 -0.017165 -0.080451 -0.000142 -0.138550 -0.985444
0.229148 -0.080451 -0.017165 -0.000806 -0.985131 -0.140005
-0.747251 0.017165 0.080451 -0.000035 0.138664 0.985420
-0.946516 0.080451 0.017165 -0.001748 0.984847 0.141282
-0.787090 -0.017165 0.080451 0.000138 -0.138631 0.985427
0.687458 0.017165 -0.080451 -0.000135 0.138681 -0.985416
-0.747251 0.080451 -0.017165 -0.001422 0.984228 -0.144134
-0.906649 0.080451 -0.017165 0.001943 0.984737 -0.141793
0.199265 -0.082262 0.000000 0.000341 -0.992604 -0.069826
0.259045 -0.082262 0.000000 -0.000055 -0.992706 -0.069349
-0.876766 0.082262 -0.000000 -0.000009 0.992729 0.069241
-0.189295 -0.080451 -0.017165 0.000283 -0.984502 -0.142880
0.193919 0.363472 -0.430312 -0.063334 0.783998 0.617524
0.936546 0.082262 -0.000000 0.000026 0.992752 0.069134
1.065888 -0.017089 -0.080467 0.000622 -0.139466 -0.985247
-0.018829 -0.074677 -0.034503 -0.001507 -0.878227 -0.470433
-1.196734 0.047149 -0.067409 -0.000268 0.572396 -0.814290
-0.049931 0.080453 0.017157 0.004339 0.981062 0.156798
-0.816985 -0.033559 0.075105 0.000569 -0.339628 0.935449
1.006296 0.017165 -0.080451 0.000481 0.138492 -0.985456
-0.358677 0.000000 -0.082262 0.000048 -0.069151 -0.992748
-0.478236 0.000000 -0.082262 0.000048 -0.069151 -0.992748
