-0.764039 0.098668 -0.018928 -0.000199 0.966302 -0.243048
0.128699 0.125642 0.148775 -0.036196 -0.727585 0.685062
0.246978 -0.085955 -0.112874 -0.036196 0.727585 -0.685062
0.294612 -0.333859 0.378683 -0.036196 0.727585 0.685062
-0.497233 0.059426 0.081007 0.000737 0.506053 0.859540
-0.444714 0.085654 0.052507 0.000914 0.849659 0.521203
1.472482 0.104466 0.101673 0.000000 0.744139 -0.668025
0.340300 0.491200 0.548204 -0.036196 -0.727585 0.685062
1.525858 0.068233 0.068406 1.000000 -0.000000 -0.000000
-0.013061 -0.034262 0.094444 -0.000014 -0.382451 0.920560
1.139493 0.177568 -0.183103 0.000000 0.744139 0.668025
0.873474 0.087718 0.083016 -0.065239 0.809375 -0.576367
0.801213 -0.093521 0.036706 0.000018 -0.923271 0.376462
0.477910 -0.530195 -0.583923 0.095531 -0.740735 0.664970
1.139847 0.100467 0.000000 0.002708 0.992600 -0.095321
0.457701 0.311507 0.337415 0.095531 0.740735 -0.664970
0.288431 0.083967 -0.059632 0.000000 -0.668025 0.744139
1.167262 -0.117007 -0.115642 0.000000 -0.744139 0.668025
0.950517 -0.036251 0.093699 -0.002160 -0.362462 0.929030
1.509646 -0.080491 -0.082405 0.379468 -0.710101 0.593093
-0.399946 0.100467 -0.000000 0.000790 0.996128 -0.042045
1.101358 0.029826 0.095938 0.000734 0.282492 0.955709
0.147617 -0.257141 0.289436 -0.036196 0.727585 0.685062
0.978203 0.128548 -0.128498 -0.065239 0.809375 0.576367
0.829367 -0.037687 0.093130 0.000336 -0.345573 0.933145
0.331015 -0.128516 0.160230 0.058864 0.742848 0.666867
1.331435 0.234097 -0.275466 -0.000000 -0.744139 -0.668025
1.451683 -0.285966 0.303852 0.000000 -0.744139 -0.668025
-0.179976 0.100467 0.000000 0.001030 0.986394 -0.135821
0.314742 -0.095463 -0.076218 0.095531 -0.740735 0.664970
0.924957 0.081788 -0.105802 -0.000000 -0.744139 -0.668025
0.474394 -0.493975 0.554673 0.058864 0.742848 0.666867
0.481252 -0.349168 -0.382751 0.095531 -0.740735 0.664970
0.956446 0.032759 -0.094976 0.001075 0.339209 -0.936822
-0.059992 -0.100467 -0.000000 0.000709 -0.994441 -0.049059
0.025643 -0.072436 -0.069984 -0.058820 -0.768063 0.637668
0.046687 -0.100210 0.101495 -0.058820 -0.768063 -0.637668
0.394042 0.409432 0.441908 -0.058820 0.768063 -0.637668
0.344307 0.132747 0.121998 0.095531 0.740735 -0.664970
0.133024 0.179335 0.206029 -0.036196 -0.727585 0.685062
0.322315 0.172246 0.162837 0.044120 0.751444 -0.657250
0.067927 0.152145 -0.162091 -0.058820 0.768063 0.637668
0.417651 0.363200 0.389244 0.095531 0.740735 -0.664970
0.183644 0.275426 0.310760 -0.036196 -0.727585 0.685062
0.014435 -0.099101 0.016512 -0.000682 -0.970319 0.228014
1.267088 0.149237 0.180936 0.000000 -0.744139 0.668025
0.398640 0.180165 0.182624 0.095531 0.740735 -0.664970
0.119972 -0.164722 -0.172439 -0.058820 -0.768063 0.637668
-0.571694 -0.044147 -0.090248 -0.000173 -0.339566 -0.937318
0.397753 0.286413 -0.300849 0.095531 0.740735 0.664970
0.337842 0.095190 -0.032131 0.000701 0.943053 -0.322273
0.264376 -0.071216 0.098140 -0.036196 0.727585 0.685062
-0.719903 -0.100467 0.000000 0.001024 -0.997462 -0.034485
0.479936 -0.100467 -0.000000 0.000001 -0.996457 -0.041535
1.382504 0.198849 -0.206810 -0.000000 0.744139 0.668025
1.282228 0.129425 0.129475 -0.000000 0.744139 -0.668025
1.366222 -0.194263 0.231093 0.000000 0.744139 0.668025
1.414574 0.298672 0.318006 -0.065239 0.809375 -0.576367
-0.236322 0.074915 -0.066943 -0.000074 0.790371 -0.607396
1.365595 0.290704 -0.323826 -0.191992 0.907807 0.372862
0.505398 -0.128776 0.140716 0.095531 -0.740735 -0.664970
0.374029 0.344970 -0.366111 -0.058820 0.768063 0.637668
0.274724 0.216363 -0.252843 -0.036196 -0.727585 -0.685062
1.423816 0.209717 0.218916 0.000000 0.744139 -0.668025
1.228575 0.087860 -0.083174 0.000000 0.744139 0.668025
0.435981 0.392364 -0.444875 0.058864 -0.742848 -0.666867
1.481122 0.210207 -0.219462 0.128943 0.742195 0.651202
0.317830 -0.262556 0.272028 -0.058820 -0.768063 -0.637668
1.525858 0.047596 -0.021219 1.000000 -0.000000 -0.000000
0.284303 0.178270 -0.173599 -0.058820 0.768063 0.637668
0.227787 0.058395 0.082589 -0.000000 -0.668025 -0.744139
1.074398 0.106655 0.104111 0.000000 0.744139 -0.668025
1.030567 -0.134352 0.164356 -0.129236 0.568070 0.807551
1.506638 0.190657 0.212380 0.379468 0.710101 -0.593093
0.382169 -0.168272 0.200000 0.058864 0.742848 0.666867
0.335551 0.237376 -0.278374 -0.036196 -0.727585 -0.685062
-0.093573 0.089944 -0.044762 0.000910 0.857388 -0.508245
1.364190 0.094505 0.119968 -0.000000 -0.744139 0.668025
1.048022 0.155768 -0.158819 -0.065239 0.809375 0.576367
-0.346011 0.056768 -0.082891 0.000130 0.649765 -0.756011
1.525858 -0.026717 -0.045651 1.000000 0.000000 0.000000
0.331997 -0.197468 -0.192324 0.040433 -0.752080 0.656584
1.249589 -0.073532 -0.096606 0.000000 0.744139 -0.668025
0.438638 0.128059 -0.150221 0.058864 -0.742848 -0.666867
1.158061 0.116750 0.144748 0.000000 -0.744139 0.668025
1.366222 -0.208874 -0.217977 -0.000000 -0.744139 0.668025
0.018141 0.023107 -0.097773 0.001288 0.326816 -0.942137
0.243602 0.275422 0.294372 -0.058820 0.768063 -0.637668
-0.087003 0.029674 0.095985 0.000620 0.284922 0.954470
0.072903 0.091994 0.089182 -0.058820 0.768063 -0.637668
0.253955 -0.175252 -0.172764 -0.058820 -0.768063 0.637668
0.437658 0.293272 -0.334345 0.058864 -0.742848 -0.666867
0.249361 0.235150 0.245334 -0.058820 0.768063 -0.637668
1.212083 0.113662 0.111916 0.000000 0.744139 -0.668025
0.377456 -0.074700 -0.096183 0.058864 0.742848 -0.666867
0.504749 -0.068519 0.073501 -0.000000 0.668025 -0.744139
0.370722 -0.280638 -0.326180 0.027186 0.738350 -0.673474
0.262252 0.114108 0.143582 -0.036196 -0.727585 0.685062
0.928532 -0.095450 -0.091630 0.000000 -0.744139 0.668025
1.451683 0.285966 -0.303852 0.000000 0.744139 0.668025
0.137898 -0.107009 0.129472 -0.036196 0.727585 0.685062
0.471405 -0.178362 0.191069 0.095531 -0.740735 -0.664970
0.267634 -0.098624 -0.019156 -0.003614 -0.955619 -0.284072
0.407008 0.089853 0.110454 0.058864 -0.742848 0.666867
0.369816 -0.406394 -0.440484 -0.058820 -0.768063 0.637668
0.397753 0.286413 0.300849 0.095531 0.740735 -0.664970
1.188825 0.114607 -0.112969 0.000000 0.744139 0.668025
1.310757 0.223817 0.234623 -0.000000 0.744139 -0.668025
0.404823 0.538497 -0.596372 -0.058820 0.768063 0.637668
0.393579 -0.506256 0.558575 -0.058820 -0.768063 -0.637668
0.404607 -0.372823 0.425877 0.027186 0.738350 0.673474
1.474030 0.264647 0.280105 0.119711 0.742922 -0.652934
0.988536 -0.073162 0.096194 0.000000 0.744139 0.668025
-0.599919 0.100467 -0.000000 0.000631 0.990300 -0.106569
0.331470 0.241462 0.245363 -0.058820 0.768063 -0.637668
0.336838 0.210079 -0.207068 0.044120 0.751444 0.657250
1.421494 0.104659 0.101888 -0.000000 0.744139 -0.668025
1.331024 -0.073083 0.096106 -0.000000 0.744139 0.668025
0.346857 -0.321380 -0.340203 -0.058820 -0.768063 0.637668
0.243602 -0.275422 0.294372 -0.058820 -0.768063 -0.637668
0.094028 0.230982 -0.258822 -0.036196 -0.727585 -0.685062
0.128827 -0.081212 0.059146 -0.000576 -0.738042 0.669753
0.397514 -0.102487 0.125366 0.058864 0.742848 0.666867
0.423970 -0.425500 -0.482847 0.027186 0.738350 -0.673474
0.838564 0.074108 -0.067856 -0.081310 0.821847 0.550556
1.415387 0.152819 0.155535 -0.000000 0.744139 -0.668025
0.480848 0.462257 -0.508667 0.095531 0.740735 0.664970
0.463049 -0.395655 0.446152 0.058864 0.742848 0.666867
0.759898 -0.100467 -0.000000 0.002275 -0.990308 -0.113228
-1.544045 -0.083659 0.014077 -0.330763 -0.901046 0.267424
0.229848 -0.104403 0.089651 -0.058820 -0.768063 -0.637668
0.266542 -0.396120 -0.443325 -0.036196 0.727585 -0.685062
-1.459804 -0.098580 0.019382 -0.017890 -0.994354 0.060362
0.101567 0.128221 -0.150081 -0.036196 -0.727585 -0.685062
0.078771 -0.192069 0.216688 -0.036196 0.727585 0.685062
-0.261036 -0.099671 -0.012623 0.001187 -0.975419 -0.205325
0.312936 0.437740 0.489980 -0.036196 -0.727585 0.685062
0.480851 -0.094790 0.109436 0.058864 0.742848 0.666867
0.604421 0.023889 0.097585 -0.000050 0.329151 0.940582
0.428127 -0.481266 -0.542294 -0.036196 0.727585 -0.685062
0.483895 0.362152 0.406992 0.058864 -0.742848 0.666867
-0.911067 -0.091786 0.040853 0.000516 -0.861685 0.501144
1.409797 0.250372 -0.264202 -0.000000 0.744139 0.668025
1.211521 0.147158 0.178621 -0.000000 -0.744139 0.668025
1.345778 0.173000 0.207407 -0.000000 -0.744139 0.668025
1.005633 0.087244 0.049821 -0.002556 0.857536 0.509413
-0.287560 -0.021995 -0.098030 -0.002977 -0.341265 -0.935104
0.898590 -0.074108 -0.067856 0.000000 -0.744139 0.668025
1.433358 -0.093397 -0.089343 -0.000000 -0.744139 0.668025
1.174158 -0.216070 -0.240689 -0.191992 -0.907807 0.372862
0.385209 0.436602 0.492590 -0.036196 -0.727585 0.685062
0.148639 0.035329 -0.094050 0.000707 0.286274 -0.954981
0.225140 -0.211018 0.244547 -0.036196 0.727585 0.685062
1.313115 -0.070130 -0.092816 0.000000 0.744139 -0.668025
0.431575 0.150018 0.153773 0.095531 0.740735 -0.664970
1.086180 0.152365 0.155029 -0.000000 0.744139 -0.668025
-0.610489 -0.096184 -0.029022 -0.000137 -0.926604 -0.366927
1.394021 -0.177442 -0.212355 0.000000 0.744139 -0.668025
0.458057 0.343039 -0.372591 0.095531 0.740735 0.664970
0.211202 0.113899 0.102809 -0.058820 0.768063 -0.637668
-0.017549 -0.093825 -0.107256 -0.036196 0.727585 -0.685062
1.256983 0.220982 0.231464 -0.000000 0.744139 -0.668025
0.217261 0.085174 -0.110474 -0.036196 -0.727585 -0.685062
-1.442484 0.088686 -0.047206 -0.016616 0.880060 -0.467692
-0.004728 -0.110705 0.118879 -0.058820 -0.768063 -0.637668
1.231710 -0.198817 0.236165 -0.000000 0.744139 0.668025
-1.524566 -0.022268 0.088326 -0.301873 -0.318992 0.890807
0.032322 0.018606 0.098729 0.000298 0.211645 0.974543
0.542883 0.077934 -0.063403 -0.000036 0.779331 -0.621993
0.091752 0.258013 0.287410 -0.058820 0.768063 -0.637668
1.068306 -0.044106 0.090268 0.000649 -0.441003 0.894024
0.491401 0.271141 0.297291 0.095531 0.740735 -0.664970
1.103190 -0.161332 0.165017 0.000000 -0.744139 -0.668025
0.153219 0.080147 0.060581 0.000027 0.795852 0.600116
0.286764 0.154665 0.144940 -0.058820 0.768063 -0.637668
0.694788 -0.013039 0.099617 0.000385 -0.193862 0.978793
1.470593 -0.118703 0.146923 0.000000 0.744139 0.668025
-1.302282 0.046269 0.089178 0.000494 0.460767 0.884008
1.287665 0.016273 -0.099140 -0.000842 0.275509 -0.957339
1.344755 0.271452 0.287685 -0.065239 0.809375 -0.576367
0.294612 -0.333859 -0.378683 -0.036196 0.727585 -0.685062
1.390528 0.231609 0.243302 0.000000 0.744139 -0.668025
0.153734 -0.243897 -0.275693 -0.036196 0.727585 -0.685062
1.220864 0.147111 -0.178569 -0.000000 -0.744139 -0.668025
0.309742 0.375266 -0.408532 -0.058820 0.768063 0.637668
-1.158513 0.065807 0.075914 -0.000172 0.735394 0.672638
0.367690 0.378695 -0.430163 -0.036196 -0.727585 -0.685062
-0.068983 0.092241 0.039815 -0.001369 0.953007 0.290016
1.361850 -0.134821 0.135486 -0.000000 -0.744139 -0.668025
1.441842 0.027156 0.096727 0.016307 0.277348 0.956999
0.322514 -0.085488 0.113050 0.058864 0.742848 0.666867
0.213279 0.337707 -0.372191 -0.058820 0.768063 0.637668
0.075088 0.138146 0.159223 -0.036196 -0.727585 0.685062
0.437837 -0.342863 0.389570 0.058864 0.742848 0.666867
1.269510 0.029011 0.096187 -0.000263 0.279409 0.956088
1.308310 0.175048 -0.180297 0.000000 0.744139 0.668025
0.425027 0.189334 -0.196628 0.095531 0.740735 0.664970
0.425027 -0.189334 -0.196628 0.095531 -0.740735 0.664970
0.153842 0.188850 -0.198378 -0.058820 0.768063 0.637668
0.296154 0.340561 -0.367983 -0.058820 0.768063 0.637668
1.372382 -0.124228 -0.123687 -0.000000 -0.744139 0.668025
0.179819 -0.069269 -0.072827 -0.000000 0.668025 0.744139
0.153279 0.118993 -0.143012 -0.036196 -0.727585 -0.685062
0.357659 -0.473364 -0.530178 -0.036196 0.727585 -0.685062
0.324333 0.275239 0.317994 -0.036196 -0.727585 0.685062
0.422971 -0.212384 0.222009 0.095531 -0.740735 -0.664970
1.450892 0.174229 -0.179384 0.000000 0.744139 0.668025
0.367899 -0.235593 -0.239951 0.095531 -0.740735 0.664970
1.269493 -0.096413 0.028251 0.003020 -0.957626 0.275545
0.296266 -0.070025 0.072148 0.000000 0.668025 -0.744139
-1.139847 0.100467 -0.000000 -0.000810 0.990586 -0.108636
0.170535 -0.174534 0.179593 -0.058820 -0.768063 -0.637668
0.436944 -0.296766 0.318012 0.095531 -0.740735 -0.664970
-1.008513 -0.098774 -0.018364 -0.001333 -0.960730 -0.262442
-0.841768 -0.064072 0.077385 0.000680 -0.583223 0.808495
-1.035219 -0.026363 0.096946 0.001074 -0.360423 0.928659
1.440850 -0.211333 0.250108 0.000000 0.744139 0.668025
1.379663 0.154565 -0.186872 0.000000 -0.744139 -0.668025
0.370031 -0.099002 -0.017094 -0.001277 -0.977473 -0.198992
1.274755 -0.227598 -0.238834 0.000000 -0.744139 0.668025
0.304741 -0.422734 0.473610 -0.036196 0.727585 0.685062
-0.218984 -0.092094 -0.040154 0.000350 -0.877007 -0.476315
0.524415 0.080412 0.089574 0.095531 0.740735 -0.664970
0.333382 -0.377658 -0.409233 -0.058820 -0.768063 0.637668
0.262838 -0.130411 0.160927 -0.036196 0.727585 0.685062
0.351889 -0.108695 -0.096294 0.095531 -0.740735 0.664970
0.485370 0.196282 -0.222092 0.058864 -0.742848 -0.666867
0.482654 0.174665 0.198252 0.058864 -0.742848 0.666867
0.146333 -0.191713 -0.219879 -0.036196 0.727585 -0.685062
0.928532 0.095450 0.091630 -0.000000 0.744139 -0.668025
0.045858 -0.063299 0.078186 0.000000 0.668025 -0.744139
1.325270 -0.154089 -0.156949 -0.000000 -0.744139 0.668025
1.216631 -0.137244 -0.138186 -0.000000 -0.744139 0.668025
1.133717 -0.074241 0.097396 0.000000 0.744139 0.668025
1.066387 0.125448 -0.125045 -0.000000 0.744139 0.668025
-0.007547 0.106363 0.121101 -0.036196 -0.727585 0.685062
-0.922181 0.023780 0.097612 0.003835 0.284550 0.954985
0.405818 0.223566 -0.232000 0.095531 0.740735 0.664970
0.967432 0.090190 -0.044265 -0.000119 0.894140 -0.439435
0.941771 -0.092038 -0.040281 0.000021 -0.869347 -0.487593
0.425987 -0.376134 -0.427678 0.058864 0.742848 -0.666867
0.178664 -0.097886 -0.121936 -0.036196 0.727585 -0.685062
1.442311 -0.096731 -0.027142 0.016248 -0.956524 -0.278914
-0.191538 -0.029712 -0.095973 -0.003175 -0.403273 -0.911145
0.342412 0.403324 0.439314 -0.058820 0.768063 -0.637668
-0.659911 0.100467 -0.000000 -0.001382 0.994773 -0.057480
0.290063 0.206411 0.206964 -0.058820 0.768063 -0.637668
0.308096 0.057623 -0.083282 -0.000000 -0.668025 0.744139
0.307231 0.347193 0.393511 -0.036196 -0.727585 0.685062
-0.680362 -0.064841 0.076742 -0.000032 -0.725340 0.683682
1.116485 0.093672 -0.089649 0.000000 0.744139 0.668025
-0.387855 -0.038847 -0.092653 -0.001002 -0.335771 -0.937329
0.377969 0.503584 0.563347 -0.036196 -0.727585 0.685062
1.381331 -0.291275 -0.317115 -0.129236 -0.863931 0.477979
0.023518 0.095113 -0.032358 0.000045 0.930495 -0.357518
0.411372 0.096018 0.029566 0.000054 0.918860 0.386321
-1.183213 -0.053450 -0.085069 -0.001088 -0.600692 -0.795566
1.490913 0.311372 -0.346850 0.379468 0.710101 0.593093
1.511880 0.150419 -0.167557 0.379468 0.710101 0.593093
1.499649 -0.244308 0.272144 0.379468 0.665982 0.642239
1.499649 -0.244308 -0.272144 0.379468 0.665982 -0.642239
1.520616 -0.083355 0.092852 0.379468 0.665982 0.642239
1.497902 0.257721 -0.287085 0.379468 0.710101 0.593093
0.947915 0.127867 0.142435 -0.191992 0.907807 -0.372862
1.104545 -0.188931 0.210457 -0.191992 0.468277 0.862471
1.104545 0.188931 0.210457 -0.191992 0.907807 -0.372862
1.104545 0.188931 -0.210457 -0.191992 0.907807 0.372862
0.895705 0.107512 -0.119762 -0.191992 0.907807 0.372862
1.034932 0.161791 0.180225 -0.191992 0.907807 -0.372862
0.982722 -0.141436 -0.157551 -0.191992 -0.907807 0.372862
1.452612 -0.324628 0.361616 -0.191992 0.468277 0.862471
1.452612 -0.324628 -0.361616 -0.191992 -0.907807 0.372862
1.330712 0.087420 0.082685 0.000000 0.744139 -0.668025
1.388365 -0.087095 -0.082322 -0.000000 -0.744139 0.668025
1.132372 -0.063277 -0.078036 0.000003 -0.628770 -0.773390
0.884207 0.099403 -0.014582 -0.000109 0.972354 -0.220777
1.453538 -0.182487 -0.188584 0.000000 -0.744139 0.668025
0.036636 0.201866 0.224866 -0.058820 0.768063 -0.637668
0.400403 -0.572434 -0.637656 -0.000000 -0.668025 -0.744139
-0.062573 0.100802 -0.112288 -0.036196 -0.727585 -0.685062
0.069706 -0.235554 -0.262393 -0.058820 -0.768063 0.637668
0.025613 -0.190637 -0.212358 -0.058820 -0.768063 0.637668
0.091752 -0.258013 0.287410 -0.058820 -0.768063 -0.637668
0.224031 -0.392765 0.437515 -0.058820 -0.768063 -0.637668
0.213008 0.381535 -0.425007 -0.036196 -0.727585 -0.685062
0.168915 0.336618 -0.374972 -0.036196 -0.727585 -0.685062
0.168915 -0.336618 -0.374972 -0.058820 -0.768063 0.637668
0.378357 0.549975 0.612638 -0.058820 0.768063 -0.637668
0.124822 0.291701 -0.324937 -0.036196 -0.727585 -0.685062
0.124822 -0.291701 -0.324937 -0.058820 -0.768063 0.637668
-0.018480 -0.145720 0.162323 -0.058820 -0.768063 -0.637668
-0.018480 -0.145720 -0.162323 -0.058820 -0.768063 0.637668
0.135845 -0.302930 0.337445 -0.058820 -0.768063 -0.637668
1.178712 0.059497 0.080972 0.000000 -0.744139 0.668025
0.365660 -0.361240 0.411517 -0.036196 0.727585 0.685062
0.484882 -0.199052 -0.216052 0.095531 -0.740735 0.664970
1.448989 0.109123 -0.136252 0.000000 -0.744139 -0.668025
0.254464 -0.014271 0.099448 0.000556 -0.223675 0.971954
0.390054 -0.494500 -0.544740 -0.058820 -0.768063 0.637668
0.505748 -0.547939 -0.612017 0.058864 0.742848 -0.666867
-0.719903 -0.000000 0.100467 -0.001242 -0.108341 0.989782
-0.729769 -0.036850 -0.093465 0.001744 -0.282134 -0.955826
0.298112 -0.083098 -0.112542 0.024920 0.737980 -0.673902
0.141250 0.162320 0.167584 -0.058820 0.768063 -0.637668
0.508317 -0.268014 0.299972 0.058864 0.742848 0.666867
0.979868 0.100467 0.000000 -0.000223 0.992500 -0.063560
-1.279828 0.100467 -0.000000 -0.000597 0.992020 -0.103191
0.819890 -0.000000 -0.100467 -0.003977 0.033453 -0.996838
-1.299826 0.000000 -0.100467 0.001909 0.040920 -0.997210
-0.839887 -0.000000 -0.100467 -0.001087 0.058063 -0.995220
-0.479936 -0.000000 -0.100467 0.000302 0.133352 -0.986575
0.239968 -0.000000 -0.100467 -0.001022 0.122775 -0.988956
-0.219970 0.100467 0.000000 0.001901 0.987509 -0.128141
0.999866 -0.100467 -0.000000 0.001204 -0.991460 -0.108763
0.298112 0.109190 -0.089119 0.044120 0.751444 0.657250
0.793666 0.056293 0.083215 -0.000027 0.561773 0.823311
1.178712 -0.059497 0.080972 -0.000000 0.668025 -0.744139
0.950460 0.034648 0.094303 0.000369 0.431924 0.898069
-0.059992 -0.000000 -0.100467 -0.003424 0.175612 -0.978839
0.146930 0.077758 -0.065206 0.000000 -0.668025 0.744139
0.356336 -0.210089 0.209880 0.095531 -0.740735 -0.664970
0.843883 0.089941 0.044769 -0.001933 0.895556 0.437247
0.707173 0.062261 0.078849 -0.000040 0.538725 0.838647
0.276925 0.118828 -0.149370 -0.036196 -0.727585 -0.685062
-0.485513 -0.055999 -0.083413 -0.000484 -0.642898 -0.761591
1.028787 -0.045841 -0.089399 -0.001339 -0.451602 -0.888397
1.460554 0.229925 0.241426 0.000000 0.744139 -0.668025
1.373436 -0.096286 -0.028681 0.000102 -0.956727 -0.277430
1.407885 0.047083 0.088751 0.000345 0.466469 0.880693
0.106168 -0.084013 -0.055095 0.000065 -0.807156 -0.584794
0.402691 -0.467411 0.510946 -0.058820 -0.768063 -0.637668
1.234898 0.096121 -0.029230 0.000395 0.955934 -0.279903
1.321437 0.083499 -0.055871 -0.000058 0.828489 -0.554163
-1.629808 0.008414 -0.031587 -0.687170 0.245716 -0.677524
1.201733 -0.047589 -0.088481 0.000302 -0.469085 -0.879336
0.977016 -0.036324 -0.093670 0.001693 -0.447163 -0.890647
-1.408081 -0.096272 0.028727 0.000225 -0.922800 0.376797
-0.248453 0.095753 0.030412 0.001030 0.915963 0.392998
0.411277 0.028402 -0.096369 -0.000681 0.372587 -0.924622
-0.540848 -0.036918 0.093438 -0.000106 -0.419830 0.904027
1.408063 -0.028646 -0.096296 0.003153 -0.279422 -0.956451
0.480848 -0.462257 0.508667 0.095531 -0.740735 -0.664970
-1.356191 0.038282 -0.092887 -0.000077 0.468041 -0.879863
1.477123 -0.028675 -0.095234 0.036157 -0.285994 -0.953868
1.217855 0.093105 0.037750 0.000223 0.882491 0.463122
0.524415 -0.386264 -0.430274 0.095531 -0.740735 0.664970
0.524415 0.372966 -0.415460 0.095531 0.740735 0.664970
0.524415 -0.532540 0.593217 0.095531 -0.740735 -0.664970
0.524415 -0.319774 -0.356208 0.095531 -0.740735 0.664970
0.524415 0.572434 0.637656 0.095531 0.740735 -0.664970
0.524415 0.213391 0.237704 0.095531 0.740735 -0.664970
0.524415 0.426157 -0.474713 0.095531 0.740735 0.664970
0.524415 0.519242 0.578404 0.095531 0.740735 -0.664970
0.524415 0.545838 -0.608030 0.095531 0.740735 0.664970
0.524415 0.306476 -0.341395 0.095531 0.740735 0.664970
0.524415 -0.439455 0.489526 0.095531 -0.740735 -0.664970
0.524415 0.253285 -0.282143 0.095531 0.740735 0.664970
0.524415 0.492647 -0.548778 0.095531 0.740735 0.664970
0.524415 -0.492647 -0.548778 0.095531 -0.740735 0.664970
0.524415 0.146902 -0.163639 0.095531 0.740735 0.664970
0.524415 -0.173497 -0.193265 0.095531 -0.740735 0.664970
-0.670514 0.076983 -0.064554 -0.000101 0.798265 -0.596899
-1.425254 0.038421 -0.092830 -0.000470 0.469077 -0.879316
-0.697036 -0.094839 -0.033154 0.000010 -0.948625 -0.302709
1.481822 0.099184 0.000000 0.059995 0.990085 -0.102449
1.481822 -0.099184 -0.000000 0.059931 -0.990010 -0.103124
0.124909 -0.141866 0.144455 -0.058820 -0.768063 -0.637668
-0.319016 -0.084813 -0.053855 -0.000371 -0.800673 -0.593640
1.373373 -0.047487 0.088536 0.000020 -0.555611 0.827524
1.179100 0.170720 -0.175475 0.000000 0.744139 0.668025
0.244782 -0.249711 -0.286678 -0.036196 0.727585 -0.685062
-0.540059 -0.099246 0.015617 0.000423 -0.972840 0.216631
1.442484 -0.077753 0.063625 0.019421 -0.771272 0.630989
-0.479936 0.100467 -0.000000 0.000729 0.990478 -0.113075
-1.253618 -0.037657 0.093143 -0.000072 -0.460943 0.883546
-0.787358 -0.088840 -0.046914 0.000066 -0.826640 -0.556929
0.351889 0.088804 -0.114151 0.058864 -0.742848 -0.666867
0.000014 -0.033818 -0.094604 -0.000158 -0.280035 -0.956598
-0.936445 0.031671 -0.095344 0.000763 0.320170 -0.944892
-0.156293 0.094741 0.033433 -0.000863 0.904867 0.418108
0.581984 -0.075345 -0.066459 0.000294 -0.749029 -0.657787
-1.099613 -0.012307 -0.099710 -0.001767 -0.224015 -0.971744
-0.038771 -0.086529 -0.051052 -0.000102 -0.826615 -0.556951
-1.013583 0.071762 0.070313 0.001363 0.634801 0.768508
0.228051 -0.084142 -0.054897 -0.000682 -0.842425 -0.532183
-0.040004 -0.033771 -0.094621 0.000143 -0.226567 -0.970626
-0.779887 -0.033776 0.094619 -0.000038 -0.226431 0.970679
-0.511523 -0.078328 0.062915 -0.000512 -0.740907 0.666751
-0.770070 0.049440 -0.087460 0.000079 0.388988 -0.917720
-1.082268 -0.097652 0.023616 -0.000775 -0.970666 0.229384
0.637928 0.060456 0.080241 -0.000164 0.602904 0.793831
-0.695668 0.088446 0.047654 0.000003 0.863440 0.496427
1.215820 0.016584 -0.099089 0.000701 0.274680 -0.957602
-0.666124 -0.082676 -0.057081 -0.000425 -0.829796 -0.551882
-0.540861 0.038698 0.092715 -0.001567 0.341013 0.934497
0.285691 -0.267804 -0.308056 -0.036196 0.727585 -0.685062
-0.800033 -0.063657 0.077726 0.000097 -0.586670 0.805789
0.719766 -0.099841 0.011198 -0.001761 -0.975300 0.209173
0.431820 -0.100773 -0.098952 0.095531 -0.740735 0.664970
-0.843575 -0.077831 -0.063529 0.000168 -0.758831 -0.646324
0.321119 0.426086 -0.478035 -0.036196 -0.727585 -0.685062
1.349922 0.219950 -0.230315 0.000000 0.744139 0.668025
-1.269401 -0.095993 0.029646 0.000786 -0.955327 0.282618
1.183989 -0.098568 -0.019440 0.002995 -0.954530 -0.286180
-0.739943 -0.034108 0.094500 0.000035 -0.390457 0.917057
0.707988 0.099407 -0.014557 -0.000370 0.970931 -0.225287
0.759935 0.037974 0.093014 0.000087 0.461536 0.883257
1.525858 0.094756 -0.018879 0.067269 0.988030 -0.110857
1.525858 -0.094756 0.018879 1.000000 0.000000 0.000000
-0.859847 -0.033483 0.094723 0.000287 -0.275137 0.958093
1.234939 -0.047670 0.088437 0.000051 -0.471904 0.877766
1.078668 0.074108 0.067856 0.000000 0.744139 -0.668025
0.390142 0.092445 -0.039339 0.000126 0.915794 -0.393359
1.327609 -0.168185 -0.202044 -0.000000 0.744139 -0.668025
-0.391712 0.052118 0.085891 0.000107 0.424117 0.901815
1.354165 0.017056 0.099009 0.000507 0.193816 0.978477
0.489397 0.384653 -0.431570 0.058864 -0.742848 -0.666867
-0.304333 -0.059850 -0.080694 0.000362 -0.678472 -0.730112
0.420784 0.469166 0.511391 -0.058820 0.768063 -0.637668
0.401230 0.340413 0.361502 0.095531 0.740735 -0.664970
0.998341 0.086594 -0.111156 0.000000 -0.744139 -0.668025
1.373446 -0.077905 0.063438 -0.000000 -0.772914 0.629371
0.386757 0.076945 0.065936 0.095531 0.740735 -0.664970
-1.419809 -0.000000 0.100467 -0.000742 -0.042449 0.997308
1.124336 0.138773 -0.169281 0.000000 -0.744139 -0.668025
0.369795 -0.235267 0.239860 0.095531 -0.740735 -0.664970
0.394746 -0.094525 0.034038 -0.000393 -0.917649 0.389278
0.233037 0.287749 -0.310195 -0.058820 0.768063 0.637668
-0.163460 0.093071 -0.037834 -0.000507 0.875458 -0.476168
0.209301 0.230478 0.243402 -0.058820 0.768063 -0.637668
-0.178645 0.073519 -0.068473 -0.000915 0.682591 -0.726561
0.467789 0.481268 0.541101 0.058864 -0.742848 0.666867
0.443287 0.078260 -0.063000 0.000057 0.773392 -0.628790
-1.236410 0.038583 0.092763 0.004720 0.466479 0.880625
0.524415 0.200093 -0.222891 0.095531 0.740735 0.664970
0.499933 0.100467 0.000000 -0.000715 0.992268 -0.104957
1.413194 -0.280969 0.298285 0.000000 -0.744139 -0.668025
0.437699 0.242077 -0.257201 0.095531 0.740735 0.664970
-0.790345 0.075848 -0.065884 0.000138 0.714809 -0.694657
1.381693 0.182973 0.189125 0.000000 0.744139 -0.668025
0.394926 -0.361414 -0.383990 0.044120 -0.751444 0.657250
-0.620474 0.036654 -0.093542 0.000307 0.413011 -0.907235
-0.143493 -0.034391 0.094397 0.000694 -0.389292 0.917643
0.130127 -0.077809 0.098049 -0.036196 0.727585 0.685062
-1.480224 -0.050762 0.085365 -0.111468 -0.396740 0.905916
0.118306 -0.106053 -0.127421 -0.036196 0.727585 -0.685062
0.302303 -0.155493 -0.144504 -0.058820 -0.768063 0.637668
0.843249 -0.074192 -0.089994 -0.191992 0.468277 -0.862471
-0.531437 0.078270 -0.062987 -0.000561 0.700880 -0.708694
-1.359818 0.100467 -0.000000 -0.001083 0.997348 -0.037102
0.650071 -0.075387 -0.066411 0.000216 -0.749069 -0.657691
0.208828 0.237753 -0.272079 -0.036196 -0.727585 -0.685062
0.798614 0.075558 -0.066216 -0.000626 0.755653 -0.650425
-1.220323 0.079236 0.061767 0.000247 0.825639 0.558811
0.277752 0.388899 -0.436249 -0.036196 -0.727585 -0.685062
-0.780524 -0.086064 0.051832 -0.000031 -0.823102 0.562143
0.559925 -0.000000 -0.100467 -0.000323 0.059999 -0.996170
0.792297 0.084172 0.054851 0.001260 0.887301 0.453630
-1.359818 -0.100467 0.000000 0.001540 -0.992827 -0.095879
0.692560 0.020921 -0.098264 -0.000117 0.317202 -0.943863
1.295845 0.118623 -0.117443 -0.000000 0.744139 0.668025
0.461598 -0.468431 -0.527347 0.058864 0.742848 -0.666867
-1.321535 -0.038063 0.092978 -0.000656 -0.378610 0.922038
0.365941 0.166124 -0.162285 0.095531 0.740735 0.664970
0.513286 -0.028260 -0.096410 0.000736 -0.364046 -0.928372
0.617375 -0.039147 0.092526 -0.000620 -0.381268 0.921455
-0.899879 0.100467 -0.000000 -0.001556 0.997376 -0.025780
-0.940970 -0.034178 -0.094475 0.001793 -0.360760 -0.929358
1.525858 -0.000000 -0.077294 1.000000 -0.000000 0.000000
1.151971 -0.170305 -0.204405 0.000000 0.744139 -0.668025
1.151971 0.184916 0.191289 -0.000000 0.744139 -0.668025
1.086674 -0.096086 -0.121730 -0.000000 0.744139 -0.668025
0.739901 -0.000000 -0.100467 0.006048 0.125897 -0.987825
0.910724 -0.087475 0.082746 0.000000 -0.744139 -0.668025
0.221374 -0.107177 -0.134060 -0.036196 0.727585 -0.685062
0.326401 -0.423771 -0.475855 -0.036196 0.727585 -0.685062
0.513838 -0.086393 -0.051282 -0.000157 -0.862638 -0.499221
1.478843 0.059497 0.080972 0.138124 -0.725212 0.667187
-0.590065 0.093527 0.036691 -0.000940 0.955379 0.283376
-0.528902 0.075701 0.066052 -0.002555 0.737891 0.671203
-0.874508 0.065417 0.076251 0.000349 0.723387 0.685698
0.261976 0.383636 0.429825 -0.036196 -0.727585 0.685062
0.179819 -0.069269 0.072827 0.000000 0.668025 -0.744139
1.078668 -0.059497 -0.080972 -0.000000 0.668025 0.744139
-0.204810 -0.092600 0.038973 -0.001145 -0.941460 0.324827
1.266766 0.073674 -0.096764 -0.000000 -0.744139 -0.668025
0.428966 -0.204256 -0.235954 0.058864 0.742848 -0.666867
1.325267 -0.100886 0.127076 0.000000 0.744139 0.668025
0.213414 -0.275674 -0.312596 -0.036196 0.727585 -0.685062
-0.309242 0.088465 -0.047619 0.000443 0.906836 -0.414511
1.221934 0.099822 -0.125892 -0.000000 -0.744139 -0.668025
0.438810 0.574119 0.636143 -0.058820 0.768063 -0.637668
0.615331 -0.061339 -0.079568 0.000005 -0.609278 -0.788871
1.129074 -0.088981 -0.113815 0.000000 0.744139 -0.668025
-1.563154 -0.074047 -0.021005 -0.377341 -0.865392 -0.308141
0.177395 -0.213576 0.225987 -0.058820 -0.768063 -0.637668
-0.767908 -0.021152 -0.098215 0.001801 -0.245939 -0.965482
0.294901 -0.228439 -0.233050 -0.058820 -0.768063 0.637668
0.399713 -0.219900 -0.255963 0.058864 0.742848 -0.666867
0.180017 0.187889 0.194806 -0.058820 0.768063 -0.637668
1.210054 -0.165724 -0.199302 -0.000000 0.744139 -0.668025
-0.979868 0.100467 -0.000000 -0.000992 0.989347 -0.117378
0.063590 -0.125523 0.130425 -0.058820 -0.768063 -0.637668
-0.422768 -0.068409 0.073578 0.001154 -0.630679 0.771899
0.479050 -0.342911 0.385986 0.058864 0.742848 0.666867
-0.179976 -0.100467 0.000000 -0.000900 -0.995029 -0.045687
-0.462596 0.088100 -0.048291 0.000683 0.900391 -0.427852
1.058660 -0.074108 0.067856 -0.000000 0.668025 -0.744139
1.275401 0.214241 -0.253347 -0.000000 -0.744139 -0.668025
0.304903 -0.099275 0.015428 -0.001202 -0.969628 0.232105
-0.675888 -0.054226 -0.084576 0.001797 -0.556662 -0.826931
0.486028 -0.294902 0.322988 0.095531 -0.740735 -0.664970
0.031922 -0.093450 -0.036888 -0.000396 -0.949862 -0.300608
-0.185039 0.044533 0.090058 -0.001122 0.447541 0.891182
0.244902 -0.301940 -0.342156 -0.036196 0.727585 -0.685062
0.356310 -0.527517 -0.587621 -0.058820 -0.768063 0.637668
0.524415 -0.319774 0.356208 0.095531 -0.740735 -0.664970
0.361121 -0.136612 -0.128718 0.095531 -0.740735 0.664970
0.331176 0.123101 -0.109365 0.095531 0.740735 0.664970
-1.553703 -0.062400 0.051776 -0.337832 -0.710453 0.607820
0.938607 0.074108 -0.067856 0.000000 0.744139 0.668025
0.379758 -0.278322 -0.289252 0.095531 -0.740735 0.664970
-1.485850 -0.029945 -0.094062 -0.153466 -0.214530 -0.961459
-1.011435 -0.023325 -0.097722 -0.002470 -0.331449 -0.938559
1.339261 -0.011283 -0.099831 0.000324 -0.201849 -0.976796
0.179938 -0.347847 0.387480 -0.058820 -0.768063 -0.637668
0.090627 0.088001 -0.048470 -0.002303 0.887412 -0.453213
1.052188 0.074407 -0.067507 0.001116 0.671887 -0.736945
1.144552 -0.102265 0.128612 -0.000000 0.744139 0.668025
-0.829039 -0.099354 0.014910 -0.000690 -0.973835 0.213845
1.415225 -0.120148 0.119141 0.000000 -0.744139 -0.668025
1.038521 0.098753 -0.095309 -0.000000 0.744139 0.668025
0.210558 0.142979 -0.171513 -0.036196 -0.727585 -0.685062
0.310349 0.173865 -0.209590 -0.036196 -0.727585 -0.685062
0.610996 0.051842 -0.086058 -0.000050 0.509478 -0.856962
-0.050574 0.085430 0.096595 -0.036196 -0.727585 0.685062
0.234102 0.095506 0.078542 -0.058820 0.768063 -0.637668
0.307044 -0.195418 0.192156 -0.058820 -0.768063 -0.637668
-0.929323 0.093898 -0.035730 -0.000849 0.891601 -0.445858
-1.321819 -0.071242 -0.070839 0.000097 -0.772882 -0.629413
0.539928 -0.000000 0.100467 -0.000325 -0.043804 0.996473
0.483514 0.110386 -0.126573 0.058864 -0.742848 -0.666867
1.196518 0.123996 0.152820 -0.000000 -0.744139 0.668025
0.412654 -0.050873 0.086634 -0.000251 -0.447707 0.890147
1.525858 0.080284 -0.053754 0.064216 0.876888 -0.469598
1.525858 -0.080284 0.053754 1.000000 0.000000 -0.000000
0.261211 0.297367 0.338161 -0.036196 -0.727585 0.685062
-0.018736 0.048722 0.087862 -0.000034 0.566592 0.820039
-1.501622 0.067468 -0.068785 -0.207352 0.640882 -0.733866
-0.014785 0.064934 -0.076718 -0.000000 -0.668025 0.744139
0.156546 -0.035589 -0.093952 0.001799 -0.374658 -0.922947
0.421333 -0.546075 -0.603976 -0.058820 -0.768063 0.637668
0.435580 -0.083283 0.080010 0.095531 -0.740735 -0.664970
0.282598 -0.094018 0.123320 -0.036196 0.727585 0.685062
0.038336 0.099742 -0.101702 -0.058820 0.768063 0.637668
-0.002998 -0.120896 -0.136777 -0.036196 0.727585 -0.685062
0.214955 0.143149 0.171926 -0.036196 -0.727585 0.685062
1.023543 0.016761 0.099059 -0.000746 0.255957 0.963464
0.206127 0.099139 0.016277 0.000049 0.967236 0.242441
0.188456 -0.265924 0.288019 -0.058820 -0.768063 -0.637668
0.462962 -0.053712 -0.084903 0.000563 -0.614950 -0.784800
-1.233940 -0.099629 0.012948 -0.000539 -0.973974 0.215429
0.370722 0.280638 0.326180 0.027186 -0.738350 0.673474
-1.139847 0.000000 -0.100467 0.004423 0.151740 -0.983814
-1.600230 -0.011801 -0.054819 -0.538276 -0.267847 -0.791261
1.233241 0.011708 0.099782 0.000690 0.195075 0.978188
0.374892 -0.134952 0.128847 0.095531 -0.740735 -0.664970
1.296157 -0.130765 0.130968 -0.000000 -0.744139 -0.668025
0.487282 -0.129117 -0.138494 0.095531 -0.740735 0.664970
0.331015 0.128516 -0.160230 0.058864 -0.742848 -0.666867
0.979439 -0.098162 0.124042 -0.000000 0.744139 0.668025
0.233071 0.115834 -0.143873 -0.036196 -0.727585 -0.685062
-0.731037 0.093825 -0.035924 0.000036 0.884651 -0.459070
0.452551 -0.421346 -0.459029 0.095531 -0.740735 0.664970
0.262470 -0.206371 -0.241583 -0.036196 0.727585 -0.685062
-0.029472 -0.083812 0.088770 -0.058820 -0.768063 -0.637668
0.384105 0.467923 -0.525796 -0.036196 -0.727585 -0.685062
0.482710 0.048650 0.087902 0.000099 0.484139 0.871283
0.750061 -0.066175 0.075594 0.000231 -0.656008 0.750816
-0.357551 -0.096014 0.029577 -0.000118 -0.935014 0.346953
0.235494 0.133104 0.123700 -0.058820 0.768063 -0.637668
1.165895 0.077318 -0.064153 0.000213 0.768256 -0.635048
1.222848 -0.151224 0.153759 -0.000000 -0.744139 -0.668025
1.477123 -0.062986 -0.076972 0.038491 -0.630729 -0.770780
0.418239 -0.124122 -0.147636 0.058864 0.742848 -0.666867
0.204061 -0.157107 0.186175 -0.036196 0.727585 0.685062
0.356282 0.403348 -0.455743 -0.036196 -0.727585 -0.685062
1.443038 -0.204804 0.213443 -0.000000 -0.744139 -0.668025
0.137931 0.205804 0.234401 -0.036196 -0.727585 0.685062
-1.407885 -0.047328 -0.088621 -0.000079 -0.468173 -0.879852
-1.201311 -0.095735 0.030468 0.000784 -0.915276 0.395041
0.119794 0.116116 0.113911 -0.058820 0.768063 -0.637668
0.229738 -0.099098 0.016530 0.002250 -0.979671 0.189015
0.003790 0.147419 -0.162315 -0.058820 0.768063 0.637668
0.464751 0.018279 -0.098790 -0.000355 0.290173 -0.952745
1.085280 0.085575 -0.052635 -0.000491 0.792130 -0.605296
1.027053 -0.110333 -0.137601 0.000000 0.744139 -0.668025
0.256880 -0.181054 0.214399 -0.036196 0.727585 0.685062
0.220865 -0.029809 0.095943 -0.000424 -0.392810 0.916104
0.367899 0.235593 -0.239951 0.095531 0.740735 0.664970
-0.920107 0.088989 0.046632 0.001775 0.831817 0.549496
1.098677 0.059497 -0.080972 -0.000000 -0.668025 0.744139
0.865478 -0.017647 0.098905 -0.001501 -0.253515 0.964142
1.097067 -0.122496 0.151149 -0.000000 0.744139 0.668025
0.139981 -0.000000 0.100467 0.000003 -0.049459 0.995488
0.519930 -0.100467 -0.000000 0.000728 -0.989799 -0.113973
-1.002837 0.077236 -0.064251 -0.000231 0.695141 -0.714721
0.491401 0.271141 -0.297291 0.095531 0.740735 0.664970
0.263642 -0.041752 -0.091380 -0.001331 -0.411339 -0.908035
0.375743 0.264584 -0.273372 0.095531 0.740735 0.664970
0.945212 -0.018005 -0.098840 0.000176 -0.262136 -0.961831
0.991135 -0.093039 0.037911 -0.001089 -0.877352 0.472454
0.697708 0.058200 -0.081892 -0.000095 0.663134 -0.744074
1.165726 0.096070 -0.029396 -0.000371 0.953146 -0.291853
-0.186208 0.074242 0.067688 0.001182 0.672968 0.735805
1.045138 -0.104895 0.131543 -0.000000 0.744139 0.668025
0.369228 -0.085334 0.108755 0.058864 0.742848 0.666867
1.459804 0.083623 -0.055684 0.019407 0.771175 -0.631108
-1.571410 0.063506 -0.035996 -0.432981 0.681824 -0.576864
1.441884 0.027311 -0.096683 0.016464 0.278839 -0.956503
-1.022588 0.098585 0.019352 -0.000891 0.971673 0.224660
0.430823 -0.312308 -0.334446 0.095531 -0.740735 0.664970
0.234939 -0.298908 0.323460 -0.058820 -0.768063 -0.637668
0.475158 -0.093786 0.036026 0.000563 -0.906554 0.413882
0.547387 -0.059330 0.081077 -0.001271 -0.584273 0.807476
0.347427 0.059348 -0.081733 -0.000000 -0.668025 0.744139
1.266313 0.135955 -0.136750 0.000000 0.744139 0.668025
0.435640 -0.417205 0.472576 0.058864 0.742848 0.666867
0.809782 0.095761 -0.030387 -0.001013 0.950966 -0.295473
0.623552 0.093558 -0.036612 -0.000196 0.889387 -0.450594
0.340189 0.334182 -0.356239 -0.058820 0.768063 0.637668
-1.566691 0.036446 -0.065906 -0.428438 0.567991 -0.692767
0.502107 -0.221227 -0.243229 0.095531 -0.740735 0.664970
0.845938 0.049395 0.087485 -0.000073 0.492146 0.866576
-0.059500 -0.063706 -0.077686 0.000397 -0.541527 -0.836758
0.118791 -0.200864 0.216081 -0.058820 -0.768063 -0.637668
0.348053 0.466316 -0.514668 -0.058820 0.768063 0.637668
1.525858 -0.000000 0.077294 1.000000 -0.000000 -0.000000
1.525858 -0.038647 -0.000000 1.000000 0.000000 -0.000000
1.451257 -0.298672 -0.318006 -0.000000 -0.744139 0.668025
-1.459804 0.019382 0.098580 -0.014263 0.063097 0.994096
-1.168102 -0.045925 0.089356 -0.000141 -0.541816 0.836730
1.318912 0.185630 -0.221476 0.000000 -0.744139 -0.668025
0.259459 0.242528 0.279825 -0.036196 -0.727585 0.685062
-0.559925 -0.000000 0.100467 0.000477 -0.131305 0.987119
0.295443 -0.059630 -0.080857 -0.000514 -0.582057 -0.809274
1.039860 -0.000000 -0.100467 -0.005843 0.093143 -0.992580
0.375391 0.189083 -0.189218 0.095531 0.740735 0.664970
0.246071 0.165187 0.196976 -0.036196 -0.727585 0.685062
0.137940 -0.152075 0.177337 -0.036196 0.727585 0.685062
0.388049 -0.302345 0.317203 0.095531 -0.740735 -0.664970
-0.969892 -0.075583 0.066188 -0.000387 -0.814110 0.575738
1.297096 -0.134862 -0.135532 0.000000 -0.744139 0.668025
0.294765 -0.189767 -0.186483 -0.058820 -0.768063 0.637668
0.299388 0.145426 -0.178806 -0.036196 -0.727585 -0.685062
-1.117216 -0.070678 0.071401 0.000247 -0.695334 0.714285
0.226470 -0.222304 -0.231973 -0.058820 -0.768063 0.637668
-1.537392 0.073179 0.047354 -0.267479 0.779279 0.554192
-0.310453 0.099874 0.010898 0.000562 0.980009 0.188240
-1.500926 -0.063929 -0.072254 -0.133612 -0.683292 -0.712736
1.358203 -0.189076 0.195923 -0.000000 -0.744139 -0.668025
0.276457 -0.147533 -0.179832 -0.036196 0.727585 -0.685062
0.503046 0.354216 -0.391505 0.095531 0.740735 0.664970
0.252972 -0.374732 -0.413125 -0.058820 -0.768063 0.637668
-0.659911 -0.000000 0.100467 -0.000496 -0.120055 0.988241
-0.216969 0.020442 -0.098365 0.002432 0.252550 -0.963825
1.450774 0.159851 0.192760 -0.000000 -0.744139 0.668025
0.524415 0.479349 0.533965 0.095531 0.740735 -0.664970
1.097375 -0.088323 -0.047882 0.000201 -0.877329 -0.472719
1.424349 -0.151017 0.182920 0.000000 0.744139 0.668025
0.507047 -0.272765 -0.301348 0.095531 -0.740735 0.664970
0.276998 0.104457 0.085367 -0.058820 0.768063 -0.637668
1.208064 0.087718 0.083016 0.000000 0.744139 -0.668025
1.367857 0.106671 -0.133521 -0.000000 -0.744139 -0.668025
-0.251857 0.076811 0.064758 -0.001004 0.755305 0.650527
1.208566 -0.073249 0.096291 -0.000000 0.744139 0.668025
0.719228 -0.079207 0.061805 0.000223 -0.786047 0.613751
-1.199839 0.100467 -0.000000 0.001045 0.990842 -0.108519
-0.305773 0.066265 0.075515 0.002898 0.567499 0.819051
0.878581 -0.074108 0.067856 -0.000000 0.668025 -0.744139
-1.120678 -0.091417 -0.041671 0.001485 -0.865414 -0.494788
1.308812 0.125284 0.154255 0.000000 -0.744139 0.668025
0.247884 -0.122847 -0.110202 -0.058820 -0.768063 0.637668
0.246566 0.203771 -0.207797 -0.058820 0.768063 0.637668
0.322315 -0.172246 0.162837 -0.003645 -0.759884 -0.648787
0.323240 0.493829 -0.550094 -0.036196 -0.727585 -0.685062
1.265206 -0.109657 0.136847 -0.000000 0.744139 0.668025
0.109505 -0.098341 -0.020557 0.001309 -0.939802 -0.328938
0.392427 0.258540 0.269036 0.095531 0.740735 -0.664970
1.305649 -0.011988 0.099749 -0.000609 -0.197648 0.977681
1.190830 0.133108 -0.162970 -0.000000 -0.744139 -0.668025
-0.859885 0.100467 -0.000000 -0.001300 0.991934 -0.078586
0.545211 0.050643 -0.086769 0.000127 0.494273 -0.865489
0.353779 -0.193657 -0.230784 0.058864 0.742848 -0.666867
-0.592447 -0.094811 0.033235 0.000218 -0.918031 0.388272
-0.899658 -0.032102 0.095200 0.000829 -0.213539 0.973835
0.444435 0.543317 -0.609058 -0.036196 -0.727585 -0.685062
0.353779 0.193657 0.230784 0.058864 -0.742848 0.666867
0.247982 -0.345138 0.377941 -0.058820 -0.768063 -0.637668
-1.287972 -0.016612 0.099084 0.000442 -0.195636 0.978218
1.278756 -0.059497 -0.080972 -0.000000 0.668025 0.744139
0.032816 0.057532 0.082363 0.000005 0.649312 0.756245
0.343900 0.061841 0.079179 -0.000084 0.615532 0.784032
1.132679 0.014592 -0.099401 -0.001375 0.232777 -0.969868
-0.476083 0.020915 0.098266 0.001040 0.213255 0.974061
0.308096 0.082563 0.060893 0.035518 0.752877 -0.655652
-0.104302 -0.039090 0.092550 0.000452 -0.432953 0.897804
0.961842 -0.104301 -0.101489 0.000000 -0.744139 0.668025
0.201754 -0.311761 0.350307 -0.036196 0.727585 0.685062
0.872075 -0.098655 -0.018993 0.000015 -0.949595 -0.299946
0.411589 0.260255 -0.273699 0.095531 0.740735 0.664970
0.381828 -0.419951 0.455706 -0.058820 -0.768063 -0.637668
0.169051 0.296630 -0.326794 -0.058820 0.768063 0.637668
0.169051 -0.296630 -0.326794 -0.058820 -0.768063 0.637668
0.383842 -0.419120 -0.473950 -0.036196 0.727585 -0.685062
-1.321953 -0.098674 -0.018895 -0.000960 -0.955167 -0.285544
0.179976 -0.100467 -0.000000 0.001748 -0.996252 -0.051493
-0.511724 0.099146 0.016236 -0.002143 0.960578 0.266578
0.263697 -0.113576 0.097577 -0.058820 -0.768063 -0.637668
0.859885 -0.000000 -0.100467 -0.002905 0.125769 -0.987536
-0.909219 -0.093666 -0.036337 -0.000056 -0.893631 -0.441515
-0.294177 -0.097179 -0.025491 -0.001510 -0.943381 -0.321015
1.029417 -0.071411 0.094244 0.000000 0.744139 0.668025
0.279147 -0.448911 -0.500059 -0.058820 -0.768063 0.637668
0.443673 0.159509 -0.166084 0.095531 0.740735 0.664970
0.149314 0.289761 0.324171 -0.036196 -0.727585 0.685062
0.159979 -0.000000 -0.100467 0.001623 0.064059 -0.994482
0.414908 -0.087888 -0.048675 0.000620 -0.822625 -0.563475
0.166384 0.143371 0.142442 -0.058820 0.768063 -0.637668
0.248002 -0.082193 0.061225 0.000000 0.668025 -0.744139
1.372096 0.012786 -0.099650 -0.002613 0.198711 -0.977642
0.489486 0.233232 0.254788 0.095531 0.740735 -0.664970
0.025613 0.190637 -0.212358 -0.036196 -0.727585 -0.685062
0.436314 -0.503637 0.566486 -0.036196 0.727585 0.685062
1.080036 0.113103 0.140686 -0.000000 -0.744139 0.668025
1.183195 0.037772 -0.093096 0.001382 0.377302 -0.922742
0.448360 0.450128 -0.490489 0.095531 0.740735 0.664970
0.181466 0.099024 -0.123293 -0.036196 -0.727585 -0.685062
-1.142337 0.094173 0.035001 0.000521 0.916355 0.392300
0.435063 0.405813 0.459937 0.058864 -0.742848 0.666867
0.084877 -0.209554 -0.235580 -0.036196 0.727585 -0.685062
-0.119911 0.047238 0.088669 0.000350 0.466813 0.880837
0.324958 -0.035643 0.093932 -0.000792 -0.328532 0.939667
0.429152 -0.270142 0.287236 0.095531 -0.740735 -0.664970
0.433652 -0.462304 -0.501938 0.040433 -0.752080 0.656584
0.177543 -0.124947 0.119220 -0.058820 -0.768063 -0.637668
1.474282 0.013094 0.098759 0.035548 0.106409 0.990468
0.255113 0.031602 -0.095367 0.000571 0.403234 -0.911564
-0.126327 -0.094429 -0.034304 0.000679 -0.953753 -0.289396
0.049522 0.100004 0.009630 -0.002200 0.981354 0.180393
-0.252773 -0.064132 0.077335 0.000306 -0.653979 0.751973
-0.619917 -0.000000 0.100467 -0.001532 -0.133074 0.987449
1.302160 -0.196572 0.204273 -0.000000 -0.744139 -0.668025
1.089206 -0.086017 0.081121 0.000000 -0.744139 -0.668025
-0.206820 0.057393 -0.082460 0.001404 0.499743 -0.862170
0.203480 -0.099794 0.125274 -0.036196 0.727585 0.685062
1.198118 0.099822 -0.011367 0.001171 0.976330 -0.204829
0.305363 0.281284 -0.323412 -0.036196 -0.727585 -0.685062
-0.021149 0.096488 0.027993 0.004935 0.960034 0.267448
0.524415 0.399561 0.445087 0.095531 0.740735 -0.664970
0.925777 -0.098655 0.018992 -0.002124 -0.971422 0.225067
-0.118753 -0.032008 -0.095232 -0.000829 -0.274783 -0.958358
0.090828 0.099302 -0.118800 -0.036196 -0.727585 -0.685062
0.211457 0.205245 -0.212810 -0.058820 0.768063 0.637668
-0.051421 0.013178 0.099599 -0.000035 0.202486 0.976597
0.384022 0.135936 -0.163816 0.058864 -0.742848 -0.666867
1.138695 0.059497 0.080972 0.000000 -0.744139 0.668025
0.090627 -0.088001 0.048470 -0.002471 -0.887687 0.452711
0.502058 -0.366046 0.404540 0.095531 -0.740735 -0.664970
0.365882 -0.285747 0.295529 -0.007331 -0.760553 -0.648149
0.444435 -0.543317 0.609058 -0.036196 0.727585 0.685062
-0.343989 -0.063497 -0.077857 -0.000073 -0.576250 -0.813037
0.409879 -0.017155 0.098991 0.000934 -0.116915 0.990109
-0.846608 0.043937 0.090350 -0.001941 0.329697 0.939364
0.101871 0.058226 0.081874 -0.000054 0.578760 0.811522
0.213279 -0.337707 -0.372191 -0.058820 -0.768063 0.637668
0.447731 0.196382 0.207741 0.095531 0.740735 -0.664970
1.271471 -0.163651 0.196993 -0.000000 0.744139 0.668025
0.375874 -0.051247 0.086414 0.000207 -0.558428 0.825425
0.438638 -0.128059 0.150221 0.058864 0.742848 0.666867
0.346508 -0.425861 0.479137 -0.036196 0.727585 0.685062
-0.470823 -0.020642 0.098323 0.000270 -0.264036 0.960299
-1.033504 0.086966 -0.050304 0.000311 0.868197 -0.489664
0.632127 -0.098504 -0.019764 0.000237 -0.947549 -0.306135
0.590415 0.098761 -0.018433 0.000399 0.952238 -0.293227
0.267488 0.413775 0.458813 -0.058820 0.768063 -0.637668
0.267488 0.413775 -0.458813 -0.058820 0.768063 0.637668
1.404736 -0.140658 -0.141989 0.000000 -0.744139 0.668025
0.327673 -0.381706 0.431247 -0.036196 0.727585 0.685062
-0.368376 0.099339 -0.015014 0.000004 0.965799 -0.248990
-1.035353 0.050119 0.087073 0.000845 0.402857 0.911602
1.508594 0.028147 -0.093478 0.064367 0.289609 -0.951778
-1.126704 -0.068817 -0.073198 0.000272 -0.756115 -0.649609
-0.802709 0.082475 0.057371 0.000027 0.815431 0.573798
-0.045303 -0.046527 0.089044 -0.000774 -0.556235 0.826984
0.104032 0.019554 0.098546 -0.001191 0.303980 0.948240
-0.580682 0.036193 -0.093721 0.000147 0.305372 -0.948479
0.386200 0.419428 -0.474402 -0.036196 -0.727585 -0.685062
0.039799 0.108615 0.125995 -0.036196 -0.727585 0.685062
-1.152723 -0.098956 -0.017357 0.001276 -0.957406 -0.276285
0.485183 -0.294436 -0.322348 0.095531 -0.740735 0.664970
0.464817 -0.244672 -0.277810 0.058864 0.742848 -0.666867
1.408063 -0.088843 0.046910 0.000439 -0.881596 0.464812
-0.872990 -0.086367 0.051325 0.000956 -0.896285 0.436203
0.069186 0.184404 0.200830 -0.058820 0.768063 -0.637668
-0.959871 -0.100467 0.000000 0.001455 -0.995372 -0.050173
1.183944 -0.083669 -0.055616 -0.000048 -0.829737 -0.552354
0.322315 0.172246 -0.162837 0.044120 0.751444 0.657250
-1.253804 -0.056293 -0.083215 0.000812 -0.637668 -0.766184
1.339820 0.100467 0.000000 -0.000828 0.994915 -0.044317
-0.115781 0.053535 -0.085015 0.000134 0.567875 -0.819372
1.179842 -0.000000 0.100467 0.000710 -0.107724 0.990735
0.341678 0.201622 -0.240725 -0.004500 -0.733262 -0.679539
0.569951 0.020172 0.098421 0.000320 0.228196 0.970581
0.364975 -0.393783 0.425741 -0.058820 -0.768063 -0.637668
0.016860 -0.087627 0.049143 0.000057 -0.894408 0.440079
0.611889 0.015998 -0.099185 -0.000052 0.242922 -0.967054
0.405763 -0.256459 -0.296153 0.058864 0.742848 -0.666867
-1.477299 -0.087660 0.047248 -0.127042 -0.873520 0.459730
1.226485 0.192095 -0.228678 -0.000000 -0.744139 -0.668025
0.413667 0.046946 0.088824 0.000122 0.466031 0.880977
-0.640418 0.064852 -0.076732 -0.000486 0.600414 -0.795651
-0.580889 -0.066139 0.075625 -0.000295 -0.695663 0.713829
-1.321458 0.055613 -0.083670 0.000072 0.467692 -0.880160
-0.355820 0.036398 0.093642 0.000056 0.362593 0.927920
-0.346653 -0.094111 -0.035166 0.001230 -0.948985 -0.303873
0.307771 0.021081 -0.098230 0.000249 0.316338 -0.943991
0.486775 0.389320 0.428271 0.095531 0.740735 -0.664970
0.339954 -0.100467 -0.000000 0.000588 -0.991505 -0.086925
0.735760 -0.081653 -0.058535 -0.000025 -0.864782 -0.495385
-0.719903 -0.000000 -0.100467 0.001178 0.113238 -0.989856
0.584112 -0.099404 -0.014577 -0.000750 -0.972044 -0.222066
1.373458 0.088724 0.047135 -0.000002 0.880806 0.466283
0.165044 -0.092659 0.038831 -0.000141 -0.877162 0.473469
-1.407885 -0.077749 0.063629 0.000049 -0.771794 0.630804
-1.442484 0.077591 0.063821 -0.019385 0.767550 0.635400
-0.468693 -0.099062 -0.016744 -0.001141 -0.991214 -0.107025
1.286827 0.093062 0.037856 -0.000096 0.882196 0.463603
0.880557 0.050457 0.086877 -0.000013 0.504130 0.859843
0.505728 -0.218708 0.245277 0.058864 0.742848 0.666867
0.389380 0.561205 -0.625147 -0.036196 -0.727585 -0.685062
0.464068 0.084092 0.054973 0.000156 0.836369 0.541917
0.449722 -0.016920 0.099032 0.000982 -0.112722 0.990555
0.188741 0.032988 0.094897 -0.000201 0.314887 0.944529
1.338683 -0.047214 -0.088682 0.000001 -0.553052 -0.829227
