-1.450580 -0.020091 -0.112518 0.000251 -0.261256 -0.962715
-0.346662 -0.068118 0.091782 0.000041 -0.522773 0.849508
0.236713 0.139332 0.104066 0.093913 0.595759 -0.797654
0.236713 -0.648744 0.484540 0.093913 -0.595759 -0.797654
-0.934408 0.112399 0.020745 -0.000169 0.980180 0.187246
1.125121 0.088622 0.048456 -0.102116 0.734376 -0.669943
0.153175 -0.057385 0.098848 -0.000206 -0.574986 0.815203
1.513832 -0.241246 -0.197919 -0.076744 0.476777 -0.873808
-0.710534 -0.027011 0.111060 -0.001329 -0.315108 0.946066
-0.003225 -0.304523 -0.235304 -0.042090 0.575722 -0.816562
1.755523 -0.104521 -0.078066 0.236663 0.550070 -0.800883
-1.243301 0.107362 0.039210 0.000034 0.937265 0.341322
1.670959 0.225305 -0.186012 0.079469 -0.585115 -0.805029
-1.174526 -0.098766 -0.057526 0.000062 -0.863067 -0.500104
1.351885 0.231563 0.172952 -0.114693 0.749655 -0.651815
1.438644 -0.269423 -0.201229 -0.114693 0.412238 -0.903828
1.143662 0.140697 0.105085 -0.114693 0.749655 -0.651815
1.369236 -0.239135 0.178607 -0.114693 -0.749655 -0.651815
1.473348 -0.284568 0.212541 -0.114693 -0.749655 -0.651815
1.212075 -0.114298 -0.000000 -0.001223 -0.997122 -0.043074
-0.037831 0.449755 0.335917 -0.062873 0.629473 -0.774474
-0.242393 0.197702 0.147662 -0.062873 0.629473 -0.774474
0.048301 0.555882 0.415183 -0.062873 0.629473 -0.774474
0.171295 -0.517898 -0.379110 0.093913 -0.595759 0.797654
0.204955 -0.030682 0.110103 0.000875 -0.349332 0.934313
1.483549 -0.113210 -0.015732 -0.000449 -0.976782 -0.203500
0.545880 -0.113474 -0.013700 -0.000216 -0.978734 -0.195527
0.377975 0.078512 0.083066 -0.000053 0.683511 0.727004
-0.969368 -0.087189 -0.073906 -0.000231 -0.762603 -0.643085
0.020961 0.084355 0.077125 0.000297 0.674141 0.735211
0.278064 0.027421 0.110960 -0.002894 0.230596 0.970376
-1.329528 -0.080663 0.080978 -0.000009 -0.639709 0.765335
-1.398831 0.080871 0.080770 -0.000042 0.764501 0.640708
-0.031717 -0.195771 -0.128989 -0.062873 -0.629473 0.774474
-0.173125 -0.110589 0.028878 0.000666 -0.939461 0.335500
0.191771 -0.070594 -0.089891 0.000230 -0.544068 -0.836101
-0.692140 -0.111900 0.023289 -0.000793 -0.955380 0.286376
0.278597 0.022559 -0.112049 -0.001087 0.251864 -0.964806
1.683581 -0.163205 0.139631 0.158357 0.569004 0.804925
-0.024444 0.383080 -0.280639 -0.062873 0.629473 0.774474
-0.831423 0.000000 -0.114298 0.000953 0.104655 -0.991201
0.369230 0.064316 -0.094485 0.000095 0.526703 -0.847074
0.182662 0.213078 -0.163399 0.062926 -0.597218 -0.799607
1.549169 0.273672 -0.186668 -0.038513 0.652135 0.754973
0.095812 0.362636 -0.254260 0.041685 0.608344 0.791656
-0.867762 -0.099033 -0.057064 -0.000369 -0.862648 -0.501058
1.733511 -0.212820 -0.158953 0.236663 0.550070 -0.800883
1.708355 0.336592 0.251397 0.236663 0.611824 -0.754760
1.746090 0.150935 -0.112732 0.236663 -0.550070 -0.800883
1.624651 -0.237340 0.159532 0.000000 -0.598404 -0.801194
-1.071528 -0.087912 -0.073044 0.000092 -0.765074 -0.640060
1.265125 -0.193702 0.144674 -0.114693 -0.749655 -0.651815
1.542808 0.206222 -0.171760 -0.000000 -0.598404 -0.801194
0.092610 0.099709 -0.057505 0.093913 0.595759 0.797654
-1.710894 -0.104063 0.043145 -0.175577 -0.919327 0.337166
1.251143 0.106291 0.097122 -0.000000 -0.598404 0.801194
0.123912 -0.105644 -0.043626 0.000826 -0.922388 -0.379639
0.176327 0.600035 -0.452912 0.025427 -0.590111 -0.806449
0.393220 -0.106558 0.041345 -0.000007 -0.896236 0.438000
-0.045457 -0.351093 -0.265962 -0.042090 0.575722 -0.816562
0.095812 -0.362636 0.254260 -0.014322 -0.620374 -0.783358
0.016002 -0.516085 0.385458 -0.062873 -0.629473 -0.774474
0.480882 0.017689 0.112921 -0.002332 0.253520 0.964482
1.621946 -0.201004 -0.167862 -0.000000 0.598404 -0.801194
1.635142 -0.136455 0.119652 -0.000000 0.598404 0.801194
-1.769720 -0.058179 -0.078869 -0.393483 -0.558895 -0.722725
1.436587 0.104438 -0.095739 -0.000000 -0.598404 -0.801194
1.450043 -0.172710 -0.146730 -0.000000 0.598404 -0.801194
1.710913 -0.000000 0.103855 0.501557 0.044493 0.861662
0.067400 -0.093067 0.066352 -0.000038 -0.814733 0.575587
-0.089379 0.100598 0.056316 0.000000 -0.801194 -0.598404
-0.029593 -0.102853 0.053295 -0.062873 -0.629473 -0.774474
-0.129236 -0.086549 -0.075125 -0.042090 0.575722 -0.816562
-0.407073 0.098031 -0.058770 0.000104 0.867553 -0.492416
-0.370634 -0.000000 0.114298 0.001374 -0.040229 0.997064
0.097725 -0.538627 -0.405565 -0.042090 0.575722 -0.816562
1.201407 0.016557 0.113092 -0.001758 0.167035 0.984172
1.173981 0.038551 -0.107600 0.000173 0.338541 -0.938231
0.312368 0.108748 0.035183 -0.001620 0.918550 0.388521
1.633685 -0.069013 -0.051545 -0.103143 0.796921 0.595212
-0.472155 0.040312 -0.106953 0.000424 0.363248 -0.928925
0.085748 0.332250 0.230380 0.043182 0.607981 -0.791825
1.764957 0.072525 0.000000 0.511834 0.843082 0.132361
-0.513827 0.101265 0.053003 -0.000056 0.876901 0.475572
-1.111903 -0.000000 0.114298 0.000032 -0.034436 0.998023
-1.770991 -0.080762 0.054660 -0.378927 -0.809581 0.439212
0.012470 -0.170527 0.104884 -0.062873 -0.629473 -0.774474
0.067995 -0.197963 0.161134 0.062926 0.597218 0.799607
1.231145 -0.118907 0.071076 0.000000 -0.598404 -0.801194
0.877386 -0.012041 0.113662 -0.000055 -0.183619 0.981142
1.213464 0.127174 -0.077250 -0.038513 0.652135 0.754973
0.490840 -0.114298 -0.000000 0.002136 -0.997010 -0.035990
1.097807 0.013466 0.113502 -0.002011 0.175785 0.982463
-0.106659 0.185275 0.145897 -0.042090 -0.575722 0.816562
-0.199327 0.250766 -0.187294 -0.042090 -0.575722 -0.816562
0.577809 -0.078876 0.082720 0.000344 -0.745607 0.662216
0.751286 0.114298 -0.000000 -0.000615 0.994617 -0.070514
-0.074910 -0.137369 0.085028 -0.062873 -0.629473 -0.774474
-0.741324 0.112856 -0.018094 -0.001722 0.964138 -0.254598
0.050221 0.014385 -0.113389 -0.000971 0.220059 -0.972836
0.123912 0.105644 0.043626 0.000826 0.922388 0.379639
1.476775 0.154105 -0.097365 -0.000000 0.598404 0.801194
0.015806 -0.039204 0.107364 -0.000075 -0.341639 0.937147
1.443157 -0.210404 0.174884 -0.076744 0.476777 0.873808
0.052890 -0.394178 -0.283381 -0.062873 -0.629473 0.774474
-0.189023 0.096838 0.061349 0.000000 -0.801194 -0.598404
1.560138 -0.054779 -0.100316 0.000483 -0.520744 -0.850016
1.565195 -0.034703 0.108902 0.000263 -0.294189 0.952915
0.020329 0.114364 -0.102446 0.025427 -0.590111 -0.806449
0.072024 -0.085361 -0.076716 -0.000000 0.801194 0.598404
-1.012728 0.046900 -0.104232 0.000700 0.426066 -0.901329
-0.208951 0.088559 -0.072434 -0.000000 -0.801194 0.598404
1.619844 0.304514 0.209704 -0.076744 0.702552 -0.705179
0.639486 -0.059984 -0.097293 0.000023 -0.519319 -0.851612
1.085934 -0.110291 -0.029998 -0.000127 -0.962626 -0.259011
1.056903 -0.102836 0.076807 -0.114693 -0.749655 -0.651815
-1.260857 -0.012284 0.113636 -0.002634 -0.176350 0.982391
-1.364190 -0.065712 -0.093520 0.000021 -0.642237 -0.763207
1.479409 0.122156 0.073502 -0.000000 0.598404 -0.801194
0.154387 -0.611419 -0.451710 -0.062873 -0.629473 0.774474
0.035426 0.180321 -0.110981 0.037940 0.609136 0.791084
-0.129236 0.099094 -0.058329 -0.000000 -0.801194 0.598404
-1.031766 -0.000000 0.114298 0.000259 -0.031839 0.998027
0.538303 -0.054067 -0.100701 -0.001969 -0.496116 -0.866076
0.147004 0.340015 -0.243392 0.093913 0.595759 0.797654
1.064984 0.075868 0.065532 -0.114693 -0.412238 0.903828
1.064984 0.075868 -0.065532 -0.114693 -0.412238 -0.903828
1.213938 0.113274 -0.015264 -0.001689 0.983694 -0.167528
-1.828864 0.017300 0.063978 -0.549810 0.277532 0.781094
1.531501 -0.265962 0.180909 -0.076744 -0.702552 -0.705179
-0.256707 -0.102586 -0.050400 -0.000111 -0.893164 -0.443913
0.173555 -0.130560 0.090078 0.093913 -0.595759 -0.797654
0.179682 -0.360813 0.262773 0.093913 -0.595759 -0.797654
0.236713 0.298523 -0.222964 0.062926 -0.597218 -0.799607
-0.104870 -0.065915 0.093377 0.000094 -0.577002 0.813683
0.021227 -0.303713 0.212423 -0.062873 -0.629473 -0.774474
1.359853 -0.114979 -0.103611 0.000000 0.598404 -0.801194
1.571589 0.108316 0.036492 -0.001502 0.940296 0.333175
-0.217703 -0.194745 -0.143254 -0.062873 -0.629473 0.774474
1.591482 0.185713 -0.120972 -0.000000 0.598404 0.801194
0.101578 -0.565322 0.424584 -0.042090 0.575722 0.816562
1.303133 0.135412 -0.083403 0.000000 0.598404 0.801194
-0.253159 0.184436 -0.137754 -0.042090 -0.575722 -0.816562
0.117360 -0.493748 0.374934 -0.042090 0.575722 0.816562
-1.675578 -0.065444 -0.093707 -0.028824 -0.569344 -0.818333
0.112680 -0.450093 -0.343914 -0.042090 0.575722 -0.816562
0.150026 0.046032 -0.104618 -0.000207 0.492023 -0.867723
1.717258 -0.080288 0.046423 0.236663 -0.611824 -0.754760
0.537574 -0.011149 0.113753 -0.001021 -0.165033 0.984596
-0.136354 0.233695 0.178505 -0.042090 -0.575722 0.816562
1.195718 -0.163413 0.122052 -0.114693 -0.749655 -0.651815
-0.065115 0.085263 -0.076120 0.000442 0.750624 -0.656789
0.589089 0.030376 0.110187 0.000652 0.348469 0.934591
1.292830 0.080119 0.059840 0.000000 -0.801194 -0.598404
0.871381 -0.103326 0.048864 0.000013 -0.900124 0.429810
0.173603 0.186472 0.131844 0.093913 0.595759 -0.797654
0.236713 0.362200 -0.270523 0.062926 -0.597218 -0.799607
0.633216 0.028253 -0.110751 0.000524 0.308973 -0.948568
0.119794 0.150069 -0.098319 0.093913 0.595759 0.797654
-0.044313 0.015683 0.113217 -0.000018 0.203439 0.976705
0.866223 -0.044680 -0.105203 0.001115 -0.383426 -0.920812
0.761318 0.057224 0.098941 -0.000011 0.570311 0.818345
1.549110 -0.107627 -0.098120 -0.000000 0.598404 -0.801194
-0.131850 -0.209446 0.161640 -0.042090 0.575722 0.816562
-0.270954 0.017784 0.112906 0.002505 0.242325 0.967601
1.304211 0.181414 -0.123664 -0.114693 0.749655 0.651815
0.458515 0.070440 -0.090012 -0.000134 0.664169 -0.744355
1.345065 -0.112534 -0.019999 0.000588 -0.957330 -0.277277
0.705605 0.102298 0.050980 0.000015 0.890308 0.449773
-1.468041 0.093726 -0.065417 0.000018 0.864474 -0.497633
-0.510606 0.098017 -0.058793 0.000101 0.811426 -0.580257
0.106383 0.276951 -0.191507 0.093913 0.595759 0.797654
-1.398686 0.048551 -0.103473 -0.000087 0.424343 -0.902728
0.742454 -0.080169 -0.081467 -0.000031 -0.760436 -0.645510
-1.519793 -0.073377 0.087634 0.000005 -0.640613 0.764579
-1.640943 0.065620 -0.093584 -0.000021 0.572655 -0.816705
1.631721 -0.071144 0.089457 -0.000030 -0.615234 0.785188
-1.536991 0.110403 0.029582 0.000880 0.964981 0.250353
1.491688 0.026107 0.111276 0.000589 0.223370 0.972402
-0.012890 -0.034616 -0.108930 0.000772 -0.382168 -0.921353
0.026749 -0.442624 0.324878 -0.062873 -0.629473 -0.774474
0.482707 -0.061758 -0.096176 -0.001617 -0.598076 -0.798082
1.260444 0.065306 -0.093804 -0.000006 0.496681 -0.865018
1.399714 -0.116251 -0.069092 0.000000 -0.598404 0.801194
1.003700 0.069077 0.091062 0.000023 0.667460 0.741243
1.388361 -0.038749 -0.107529 -0.000020 -0.415318 -0.906892
-1.571749 -0.029631 0.110390 0.000019 -0.342181 0.937014
-1.658149 0.019806 0.112569 -0.003127 0.179958 0.981722
-0.695186 0.025471 0.111423 -0.003061 0.229553 0.970646
-1.071218 -0.112477 -0.020320 -0.000460 -0.980616 -0.186083
-0.623334 -0.070408 0.090037 0.000165 -0.615474 0.784908
1.589043 0.019871 -0.112557 -0.000076 0.183853 -0.981049
-1.037037 0.057386 0.098847 0.000072 0.501364 0.862356
0.950607 0.099750 -0.055803 -0.000317 0.818507 -0.570281
-1.035637 -0.072992 0.087955 0.000007 -0.567679 0.820180
-0.432249 -0.108675 0.035409 0.000817 -0.918432 0.389039
0.819948 -0.097628 0.059437 0.000011 -0.849998 0.521975
-0.267876 0.115031 0.088061 -0.042090 -0.575722 0.816562
-0.322214 -0.062420 -0.095748 -0.000038 -0.533818 -0.842692
-0.576523 0.039081 -0.107409 -0.000643 0.353713 -0.932625
0.203914 0.104347 -0.046645 -0.000121 0.886572 -0.457109
-1.554507 0.099022 -0.057084 0.000005 0.864122 -0.498248
-1.502490 0.080846 0.080796 -0.000035 0.641498 0.763826
-0.433163 -0.060640 0.096885 -0.000025 -0.600481 0.796464
-1.208511 -0.056713 0.099235 0.000002 -0.495383 0.865751
-1.606362 0.110352 0.029772 -0.000641 0.964450 0.252431
-1.692898 0.098947 0.057215 -0.074018 0.908036 0.403687
0.823154 -0.036937 0.108165 -0.000010 -0.302505 0.949277
-1.346914 0.107366 0.039197 -0.000161 0.937619 0.340373
0.218478 0.450393 -0.334247 0.093913 0.595759 0.797654
-0.811389 -0.000000 0.114298 0.003838 -0.056075 0.995701
1.167750 -0.066422 0.093016 -0.000004 -0.646601 0.759512
0.951199 -0.074288 -0.086863 0.000021 -0.643993 -0.761713
-1.312310 0.099127 -0.056902 0.000138 0.865171 -0.496474
-0.913036 0.088733 -0.072044 0.000018 0.787320 -0.612432
1.507243 -0.055001 -0.100194 -0.000034 -0.551727 -0.830991
0.550500 0.092905 0.066578 0.000028 0.813756 0.576857
0.002076 0.065741 -0.093499 -0.000020 0.496916 -0.864889
0.463536 -0.096192 -0.061733 0.000273 -0.881391 -0.467159
1.606308 0.103551 -0.048387 -0.000003 0.863519 -0.499283
-1.502457 0.029875 -0.110324 0.000138 0.342326 -0.936894
-1.260609 -0.103536 -0.048418 0.000213 -0.904252 -0.420845
-1.450849 0.112585 -0.019714 0.002555 0.981851 -0.179342
-1.071530 0.107177 0.039713 -0.000678 0.936342 0.343985
-1.087536 -0.080270 0.081368 -0.000007 -0.700361 0.710251
-1.122051 -0.110151 0.030507 0.000237 -0.963081 0.257388
0.826103 0.108650 0.035485 -0.000130 0.947251 0.311548
1.512403 0.220388 0.182340 -0.000000 -0.598404 0.801194
-0.768221 0.088537 0.072285 -0.000346 0.826419 0.558836
0.132653 0.607346 0.455815 -0.042090 -0.575722 0.816562
0.542316 0.107510 -0.038803 0.000702 0.957413 -0.277837
0.272737 0.094053 -0.064946 -0.000020 0.794067 -0.603716
-0.017425 0.248993 -0.195421 -0.042090 -0.575722 -0.816562
-1.174291 0.112473 0.020343 -0.000313 0.980889 0.183639
-0.845349 -0.113486 0.013598 -0.000319 -0.978942 0.194337
-1.208824 0.088090 -0.072830 -0.000250 0.821299 -0.566073
-0.526941 -0.033506 -0.109276 -0.000402 -0.371758 -0.925692
-1.312235 -0.039115 0.107396 -0.000172 -0.339923 0.937806
-0.732686 0.036624 -0.108271 0.001202 0.334743 -0.939760
-1.260871 0.080854 0.080787 -0.000091 0.764536 0.640690
-0.191431 -0.040297 0.106958 -0.000009 -0.431582 0.899266
0.496682 0.039314 -0.107324 -0.002894 0.432410 -0.898531
0.814897 -0.032747 -0.109506 -0.000638 -0.289029 -0.954523
-1.277810 -0.073595 -0.087451 0.000002 -0.642604 -0.762902
0.255687 -0.087593 0.073427 0.000190 -0.706389 0.704250
0.294334 -0.084616 -0.076838 -0.000403 -0.680902 -0.729383
-0.698734 -0.078288 -0.083277 0.000480 -0.614409 -0.785846
-0.744196 -0.092017 0.067800 -0.000062 -0.748711 0.659187
0.119147 -0.112958 0.017450 -0.000072 -0.964147 0.253607
1.608361 0.034775 0.108879 -0.001261 0.355994 0.931723
-0.219016 -0.012666 -0.113594 -0.002273 -0.178958 -0.981887
-1.692898 0.019873 -0.112557 -0.082448 0.265094 -0.956219
0.090445 -0.035042 -0.108794 -0.000029 -0.387051 -0.919368
-0.678476 -0.036618 -0.108273 -0.000368 -0.403800 -0.912018
-0.111885 -0.275978 -0.209577 -0.042090 0.575722 -0.816562
-1.020236 -0.065829 -0.093437 0.000114 -0.642974 -0.762614
-1.243152 0.113048 -0.016859 -0.000382 0.965583 -0.248241
1.628942 0.120904 0.072567 -0.000000 0.598404 -0.801194
-0.415858 0.057943 -0.098522 0.000531 0.519571 -0.851618
-0.933675 -0.107349 0.039245 0.000003 -0.903427 0.422934
0.892128 0.041512 -0.106493 0.000070 0.312509 -0.946380
0.669684 0.095329 -0.063058 -0.000020 0.861823 -0.502350
0.045671 0.311163 -0.242507 -0.042090 -0.575722 -0.816562
0.058339 0.423766 0.306987 -0.062873 0.629473 -0.774474
-0.984368 -0.113524 -0.013273 -0.000239 -0.981259 -0.181826
1.602834 -0.080079 0.042075 -0.103143 0.796921 -0.595212
0.340481 -0.065217 0.093865 0.000495 -0.639432 0.765584
-1.738776 0.086657 -0.063689 -0.234097 0.718987 -0.649977
-1.800412 0.076153 0.035517 -0.505816 0.789846 0.328884
-0.905798 0.048286 -0.103597 -0.000052 0.438293 -0.896056
1.163588 0.108733 -0.093035 -0.114693 -0.412238 -0.903828
1.582267 -0.081787 -0.043351 -0.103143 0.796921 0.595212
-0.884163 0.065954 0.093349 0.000391 0.643461 0.762195
1.439655 0.032756 0.109503 0.000589 0.273492 0.958473
0.187331 -0.107437 0.039003 0.000087 -0.904256 0.421099
-0.781236 -0.032316 -0.109634 -0.000297 -0.364530 -0.928520
1.458294 -0.110606 0.028814 -0.000327 -0.966040 0.246390
-1.346818 0.057408 0.098835 -0.000008 0.500385 0.862884
1.705898 0.062011 0.086906 0.502778 0.468916 0.723096
1.622775 0.170284 0.144918 -0.000000 -0.598404 0.801194
-0.294999 -0.059434 0.097630 -0.000001 -0.519229 0.851691
-0.028785 -0.233119 0.183643 -0.042090 0.575722 0.816562
0.878415 -0.112514 -0.020116 -0.000555 -0.957731 -0.275721
0.101357 -0.320203 0.223220 0.093913 -0.595759 -0.797654
-0.613481 0.096572 -0.061138 0.000416 0.842893 -0.532782
1.381104 0.112884 0.017919 -0.000611 0.980389 0.185650
1.003258 0.113332 -0.014828 0.001233 0.983337 -0.170311
0.030394 -0.145698 -0.125057 -0.007075 0.583464 -0.811705
0.991064 0.060614 -0.096901 0.000071 0.610246 -0.789105
-0.021763 0.162081 0.133919 -0.042090 -0.575722 0.816562
-0.022374 0.118685 0.103291 -0.042090 -0.575722 0.816562
-0.030051 0.114298 -0.000000 -0.000878 0.994141 -0.085284
0.042147 0.102110 -0.051358 -0.000009 0.851392 -0.519697
0.036989 0.512649 0.384118 -0.042090 -0.575722 0.816562
0.587131 -0.066127 -0.093227 0.000014 -0.647489 -0.758756
1.391993 0.127317 -0.077357 -0.000000 0.598404 0.801194
-1.345361 0.018311 -0.112821 -0.000497 0.183650 -0.980970
-0.475147 0.024555 0.111629 -0.000368 0.305490 0.949211
1.361887 -0.071617 0.071225 -0.000000 0.801194 -0.598404
-0.202718 0.057346 0.098871 0.000085 0.495044 0.866134
0.259474 0.084846 0.076584 -0.000483 0.678318 0.731495
1.637292 0.180019 -0.152189 -0.000000 -0.598404 -0.801194
-0.410369 -0.093444 -0.065819 -0.000010 -0.808819 -0.583839
1.335664 -0.044567 -0.105251 -0.000596 -0.382352 -0.921200
0.199168 -0.476783 -0.359059 0.062926 0.597218 -0.799607
0.074261 0.154633 0.096367 0.093913 0.595759 -0.797654
-0.801189 0.107507 0.038810 -0.000675 0.906199 0.417092
0.227348 -0.111627 -0.024565 0.000587 -0.951892 -0.297426
0.578902 0.089358 -0.071267 -0.000476 0.836685 -0.543155
0.736373 -0.043118 0.105853 -0.000757 -0.377864 0.923110
0.732470 0.023428 -0.111871 0.002323 0.242025 -0.967870
-0.406951 0.050131 0.102717 0.000051 0.424608 0.902595
1.105075 -0.073034 -0.069327 -0.102116 0.433958 -0.894322
0.048473 -0.130443 0.112240 0.062926 0.597218 0.799607
1.657614 -0.108216 -0.098560 0.000000 0.598404 -0.801194
1.675578 0.048362 -0.103562 0.186146 0.409384 -0.879909
-0.030298 0.061104 0.096593 -0.000203 0.457448 0.886368
1.584423 -0.136396 -0.119607 -0.000000 0.598404 -0.801194
-0.615495 -0.098542 -0.057909 0.000367 -0.856217 -0.511863
0.054897 0.105534 0.043892 0.000419 0.883851 0.462387
1.098620 -0.064262 0.094522 0.000081 -0.557616 0.827066
-0.285458 -0.144638 0.108029 -0.062873 -0.629473 -0.774474
0.440521 -0.064628 0.094272 -0.000487 -0.489301 0.869365
-0.171691 0.163394 0.114037 -0.062873 0.629473 -0.774474
0.437758 -0.018882 -0.112727 0.001210 -0.187088 -0.980158
0.151166 0.261122 0.184958 0.093913 0.595759 -0.797654
0.394986 -0.094944 -0.063637 0.000445 -0.783320 -0.618109
-1.502553 -0.113598 -0.012626 0.000081 -0.982530 -0.175085
1.276422 0.018098 -0.112856 0.002926 0.251249 -0.965021
1.628942 -0.120904 0.072567 -0.000000 -0.598404 -0.801194
0.055555 0.224032 0.181584 -0.007075 -0.583464 0.811705
-1.295008 0.048557 0.103471 0.000003 0.500683 0.862715
-0.123713 0.012906 -0.113567 0.001342 0.183499 -0.980930
-0.837933 0.102581 -0.050409 0.000007 0.858903 -0.507213
-1.589026 0.057160 0.098978 -0.000013 0.572085 0.817115
0.508716 -0.079104 0.082502 0.000929 -0.691384 0.719285
0.193820 0.141921 -0.109375 0.062926 -0.597218 -0.799607
-1.122083 -0.047575 0.103926 0.000086 -0.414781 0.907017
1.706524 0.148747 0.122921 0.236663 -0.550070 0.800883
1.482926 -0.080119 -0.059840 -0.017213 0.800838 0.598138
1.539993 0.172371 0.111007 0.000000 0.598404 -0.801194
-1.277614 -0.098838 0.057403 0.000021 -0.862362 0.501285
1.508638 0.279638 -0.214771 -0.114693 -0.412238 -0.903828
1.520068 -0.201783 -0.168444 -0.000000 0.598404 -0.801194
0.095641 -0.421709 0.302287 -0.062873 -0.629473 -0.774474
1.253625 -0.076830 0.084624 -0.000012 -0.666701 0.741941
-0.468015 0.109891 -0.031430 -0.001965 0.938588 -0.338047
-0.572508 0.110045 -0.030887 0.001174 0.931375 -0.357780
1.751043 0.015280 -0.079129 0.511400 0.131858 -0.843485
1.473348 0.284568 0.212541 -0.114693 0.749655 -0.651815
1.675578 -0.048155 -0.103658 0.186166 -0.409589 -0.879783
0.152319 0.414686 -0.316366 0.062926 -0.597218 -0.799607
-1.861645 -0.010688 0.036771 -0.723977 -0.230996 0.644265
-0.242602 -0.104296 0.046757 -0.000063 -0.871306 0.485617
0.002107 -0.397116 0.300863 -0.042090 0.575722 0.816562
1.591587 0.315837 -0.241807 -0.114693 -0.412238 -0.903828
0.109714 0.453034 -0.345834 -0.042090 -0.575722 -0.816562
1.663930 -0.318945 0.252404 -0.000957 0.472077 0.876570
1.663930 0.318945 -0.252404 -0.000957 -0.472077 -0.876570
1.711500 -0.321120 -0.239841 0.236663 0.550070 -0.800883
1.598884 0.245015 0.165264 0.000000 0.598404 -0.801194
1.479409 -0.105150 0.096270 0.000000 0.598404 0.801194
-0.441385 -0.046913 -0.104227 -0.000420 -0.482809 -0.872918
0.164810 -0.107347 -0.071711 0.093913 -0.595759 0.797654
0.242979 -0.061628 -0.096260 -0.000316 -0.541814 -0.837628
-1.085490 0.096060 -0.061939 -0.000361 0.853182 -0.517349
1.354814 0.171852 -0.146089 -0.076744 -0.476777 -0.873808
1.439793 -0.015384 -0.113258 0.000258 -0.201549 -0.977200
1.551417 -0.075848 0.056650 -0.103143 0.796921 -0.595212
0.925756 -0.019054 0.112698 0.000888 -0.186297 0.980463
-0.092042 0.300585 0.227950 -0.042090 -0.575722 0.816562
1.610155 -0.274721 0.187452 0.000000 -0.598404 -0.801194
0.653192 0.105282 0.044493 -0.000529 0.949102 0.305934
-0.137669 0.107883 0.037753 0.001390 0.939806 0.334498
0.146134 0.506034 -0.385080 0.027931 -0.590630 -0.806053
1.293417 -0.123319 0.074371 0.000000 -0.598404 -0.801194
1.700217 -0.191116 -0.130919 0.236663 -0.611824 0.754760
-0.204262 -0.106941 -0.040343 0.000235 -0.899034 -0.431902
1.513338 0.122559 -0.109273 0.000000 -0.598404 -0.801194
0.224631 0.611749 -0.455486 0.093913 0.595759 0.797654
0.070651 0.271032 0.215500 -0.004571 -0.583971 0.811292
1.720933 0.274706 0.205175 0.236663 0.611824 -0.754760
1.692898 -0.112596 0.019648 0.102183 -0.979253 0.049936
1.705669 -0.071535 -0.035694 0.210712 -0.611658 0.761600
0.019355 -0.236226 -0.188315 -0.042090 0.575722 -0.816562
1.705669 0.071535 0.035694 0.210712 0.611658 -0.761600
1.085934 0.110291 0.029998 -0.000127 0.962626 0.259011
0.345171 0.046957 0.104206 0.000390 0.407848 0.910675
-1.732094 -0.109059 0.000000 -0.170780 -0.977108 -0.071195
1.715976 0.113580 0.073009 0.236663 0.611824 -0.754760
-0.385387 0.016413 -0.113113 -0.002137 0.215652 -0.974034
0.110756 -0.116302 -0.096777 0.062926 0.597218 -0.799607
0.037589 -0.108764 -0.035132 0.000112 -0.919458 -0.386872
0.196017 0.017306 0.112980 -0.000392 0.217283 0.973527
-0.290497 0.114298 -0.000000 0.000103 0.989694 -0.118076
0.166566 0.331356 0.239227 0.093913 0.595759 -0.797654
1.189986 -0.120253 0.101639 -0.114693 0.412238 0.903828
1.633685 0.069013 0.051545 -0.103143 -0.796921 -0.595212
1.617159 0.257161 -0.174336 0.000000 0.598404 0.801194
-0.214801 0.112401 -0.020736 -0.000278 0.962784 -0.260968
1.430943 -0.080119 -0.059840 0.000000 0.801194 0.598404
0.158453 -0.308443 -0.221159 0.093913 -0.595759 0.797654
-0.123663 0.147462 0.118360 -0.042090 -0.575722 0.816562
0.801671 0.033620 -0.109241 -0.000206 0.332848 -0.940417
-0.947374 0.017515 -0.112948 0.001934 0.247176 -0.966374
0.015999 -0.107234 0.039559 -0.000146 -0.902662 0.424269
0.376662 -0.063732 -0.094880 -0.000297 -0.558245 -0.827017
0.133171 0.110329 -0.029857 0.001097 0.974098 -0.217282
0.119794 -0.150069 0.098319 0.093913 -0.595759 -0.797654
1.646866 -0.360289 -0.269096 -0.114693 0.412238 -0.903828
-0.188560 -0.264032 0.197203 -0.062873 -0.629473 -0.774474
0.084490 -0.244967 -0.194943 0.062926 0.597218 -0.799607
-0.071576 -0.187997 0.125906 -0.062873 -0.629473 -0.774474
0.236713 0.585067 0.436981 0.093913 0.595759 -0.797654
-0.094570 -0.265662 0.190898 -0.062873 -0.629473 -0.774474
0.175118 0.101493 0.052565 -0.000057 0.842555 0.533944
0.171770 -0.465030 0.339680 0.093913 -0.595759 -0.797654
1.526793 -0.105831 0.096779 0.000000 0.598404 0.801194
-0.081552 -0.254190 -0.180516 -0.062873 -0.629473 0.774474
-0.027064 0.463021 -0.345825 -0.042090 -0.575722 -0.816562
1.462390 0.250511 0.175299 -0.114693 0.749655 -0.651815
1.503965 -0.186298 -0.121409 0.000000 -0.598404 0.801194
0.482707 0.061758 0.096176 -0.001617 0.598076 0.798082
0.183875 -0.545266 0.411412 0.062926 0.597218 0.799607
0.074450 -0.244569 0.163561 0.093913 -0.595759 -0.797654
0.182480 -0.354739 -0.258565 0.093913 -0.595759 0.797654
-0.116585 -0.050513 -0.102530 0.000026 -0.516328 -0.853489
1.663930 0.332549 0.234190 0.003227 0.712651 -0.695365
-1.806096 -0.078446 0.019707 -0.538712 -0.788102 0.273886
1.678154 -0.288329 -0.227173 0.236663 0.550070 -0.800883
0.222246 0.434064 0.325336 0.062926 -0.597218 0.799607
-0.767398 -0.107601 -0.038550 -0.000206 -0.939684 -0.335575
1.346519 0.103995 -0.095408 0.000000 -0.598404 -0.801194
-0.042353 -0.129555 -0.076033 -0.062873 -0.629473 0.774474
-1.148097 0.105524 -0.043915 0.001307 0.944707 -0.321256
1.679507 -0.266511 -0.185543 0.236663 -0.611824 0.754760
1.470060 -0.196912 0.129337 0.000000 -0.598404 -0.801194
-0.167757 -0.259426 -0.195027 -0.042090 0.575722 -0.816562
1.387519 0.139490 -0.121918 0.000000 -0.598404 -0.801194
1.429834 0.185002 0.120442 -0.000000 0.598404 -0.801194
-0.074207 0.223058 -0.174208 -0.042090 -0.575722 -0.816562
1.515442 0.183362 0.154686 0.000000 -0.598404 0.801194
1.416925 0.117462 0.069997 0.000000 0.598404 -0.801194
0.024225 0.457216 0.336944 -0.062873 0.629473 -0.774474
0.402884 0.113462 -0.013798 -0.003947 0.980153 -0.189592
1.557663 0.227764 0.187849 -0.000000 -0.598404 0.801194
0.031396 0.353370 0.271528 -0.042090 -0.575722 0.816562
-1.802695 0.039404 -0.072809 -0.516628 0.468350 -0.709344
1.432853 -0.152736 0.131812 0.000000 0.598404 0.801194
1.304211 -0.170068 0.138854 -0.114693 0.412238 0.903828
1.265125 0.193702 -0.144674 -0.114693 -0.412238 -0.903828
-0.010562 -0.274655 -0.191386 -0.062873 -0.629473 0.774474
1.699358 0.102585 -0.058885 0.079469 0.605852 0.789541
0.058909 -0.182681 -0.115508 0.093913 -0.595759 0.797654
1.263234 -0.071617 -0.071225 0.000000 0.801194 0.598404
1.140479 -0.124647 -0.087186 -0.114693 -0.749655 0.651815
-0.390669 -0.114298 -0.000000 -0.000087 -0.993413 -0.090564
-0.566162 0.110550 0.029030 0.000973 0.938361 0.338688
1.637984 -0.249346 -0.168500 0.000000 -0.598404 0.801194
1.330334 -0.110704 0.100419 -0.000000 0.598404 0.801194
0.089820 -0.533674 0.393762 -0.062873 -0.629473 -0.774474
1.658671 -0.200924 0.132333 -0.000000 -0.598404 -0.801194
1.450674 0.080119 -0.059840 -0.000000 -0.801194 0.598404
-1.298229 -0.113497 -0.013504 0.000223 -0.980713 -0.185961
0.050414 0.500534 -0.370026 -0.062873 0.629473 0.774474
1.686736 0.164685 -0.105267 0.079469 0.605852 0.789541
-0.846582 0.113378 0.014472 -0.000460 0.978767 0.195428
1.648610 0.276270 0.188609 0.000000 0.598404 -0.801194
1.033469 -0.111849 -0.023533 -0.000928 -0.954058 -0.290641
0.653192 -0.105282 -0.044493 -0.000529 -0.949102 -0.305934
0.337522 0.018969 -0.112713 -0.001164 0.219398 -0.972656
0.191424 0.647035 0.486828 -0.001233 -0.584628 0.810718
1.501493 -0.121468 -0.072988 -0.000000 -0.598404 0.801194
-0.064766 0.361679 0.272431 -0.042090 -0.575722 0.816562
1.764957 -0.062754 0.036357 1.000000 0.000000 -0.000000
-0.022374 0.136213 -0.079823 -0.062873 0.629473 0.774474
-0.034343 0.400974 0.295986 -0.062873 0.629473 -0.774474
0.123666 -0.648744 0.484540 -0.062873 -0.629473 -0.774474
0.123666 0.648744 -0.484540 -0.000000 0.801194 -0.598404
0.195546 -0.618244 0.465000 0.062926 0.597218 0.799607
1.581499 -0.199839 0.166993 0.000000 0.598404 0.801194
1.677689 -0.088238 0.083639 0.000000 0.598404 0.801194
1.096846 -0.113473 0.013706 -0.001014 -0.979638 0.189997
-1.139375 0.035368 -0.108688 0.000587 0.375313 -0.924924
1.584423 -0.136396 0.119607 0.000000 0.598404 0.801194
0.187589 0.489060 -0.359490 0.093913 0.595759 0.797654
-1.746531 0.076932 0.072265 -0.269977 0.765522 0.578137
0.214068 0.513715 0.381022 0.093913 0.595759 -0.797654
1.367006 -0.157462 0.099872 0.000000 -0.598404 -0.801194
0.102062 0.480522 0.364821 -0.042090 -0.575722 0.816562
0.097725 0.538627 -0.405565 -0.042090 -0.575722 -0.816562
1.749047 0.063808 -0.051101 0.509421 0.673699 -0.527365
-0.468339 -0.024480 0.111645 0.000351 -0.215659 0.974172
-0.123962 0.343627 -0.256652 -0.042090 -0.575722 -0.816562
1.549388 -0.152490 -0.096159 -0.000000 -0.598404 0.801194
0.196554 0.022468 -0.112068 0.003909 0.276537 -0.957490
-1.758927 0.100337 -0.017309 -0.307387 0.908322 -0.269312
1.233638 0.080119 0.059840 0.000000 -0.801194 -0.598404
1.649870 -0.245780 0.201305 -0.000000 0.598404 0.801194
0.004499 -0.262889 0.180601 -0.062873 -0.629473 -0.774474
-0.030760 -0.186487 0.150663 -0.042090 0.575722 0.816562
-1.020171 -0.113521 0.013304 0.000108 -0.981623 0.179823
1.195795 -0.102458 -0.094260 -0.073990 0.481216 -0.871303
0.010286 -0.442280 -0.333127 -0.042090 0.575722 -0.816562
0.065677 -0.515385 -0.380857 -0.062873 -0.629473 0.774474
0.132556 0.363993 -0.280059 0.062926 -0.597218 -0.799607
1.438919 -0.228884 -0.182775 -0.114693 0.412238 -0.903828
0.101683 0.222275 0.150117 0.093913 0.595759 -0.797654
1.181151 0.116397 0.098759 -0.114693 -0.412238 0.903828
-1.853070 -0.020347 -0.041880 -0.684038 -0.403873 -0.600713
-0.003563 0.233232 0.185023 -0.042090 -0.575722 0.816562
-1.071146 0.020362 0.112469 0.000730 0.263866 0.961991
1.482926 -0.080119 0.059840 -0.017213 0.800838 -0.598138
-0.213529 0.167752 0.128033 -0.042090 -0.575722 0.816562
-0.230394 -0.000000 0.114298 -0.001335 -0.033251 0.997305
1.302695 -0.088622 0.048456 -0.000000 0.801194 -0.598404
1.701120 0.273764 -0.210383 0.236663 -0.550070 -0.800883
1.137296 -0.097260 0.084465 -0.114693 0.412238 0.903828
1.535463 -0.282352 -0.199063 -0.114693 -0.749655 0.651815
1.713712 -0.217475 0.156519 0.236663 -0.611824 -0.754760
-0.188956 0.176429 -0.126033 -0.062873 0.629473 0.774474
0.201077 -0.184262 0.133428 0.093913 -0.595759 -0.797654
-1.757556 -0.018367 -0.100602 -0.261585 -0.224726 -0.933973
0.134723 -0.152889 -0.102183 0.093913 -0.595759 0.797654
0.042223 -0.376101 0.269554 -0.062873 -0.629473 -0.774474
0.087644 -0.115891 0.098289 0.062926 0.597218 0.799607
1.378514 -0.170543 -0.109642 -0.000000 -0.598404 0.801194
1.425488 0.202694 0.169125 -0.076744 -0.476777 0.873808
1.390089 -0.103197 0.059342 0.000000 -0.598404 -0.801194
1.446566 -0.163014 -0.104019 0.000000 -0.598404 0.801194
-1.800596 -0.067917 -0.049309 -0.510686 -0.670754 -0.526449
1.562380 -0.210899 -0.175253 0.000000 0.598404 -0.801194
1.582267 0.064782 -0.066120 0.000000 -0.598404 -0.801194
0.092677 0.556242 0.411873 -0.062873 0.629473 -0.774474
0.105426 0.057586 -0.098731 0.001369 0.509091 -0.857707
1.729453 -0.134361 0.106264 0.236663 0.550070 0.800883
-0.111885 0.275978 -0.209577 -0.042090 -0.575722 -0.816562
0.236713 0.537310 -0.401311 0.062926 -0.597218 -0.799607
-0.298343 0.033163 -0.109381 -0.000218 0.374412 -0.924420
-0.488088 -0.014189 -0.113414 0.000477 -0.043033 -0.997114
1.764957 -0.044907 -0.020245 1.000000 0.000000 0.000000
-1.363647 -0.012460 0.113617 -0.000040 -0.174664 0.982625
1.165968 0.106857 -0.040565 0.000244 0.893009 -0.444020
0.135635 -0.608377 0.450759 -0.062873 -0.629473 -0.774474
0.124783 0.325871 0.252198 0.062926 -0.597218 0.799607
0.070651 0.271032 -0.215500 0.027931 -0.590630 -0.806053
0.132951 0.115833 0.094680 0.062926 -0.597218 0.799607
1.378514 0.153538 0.132411 -0.000000 -0.598404 0.801194
-0.069450 -0.085041 0.077144 -0.000000 0.801194 -0.598404
1.619844 0.304514 -0.209704 -0.038513 0.652135 0.754973
-0.136559 -0.164189 -0.129488 -0.042090 0.575722 -0.816562
1.317181 -0.216418 -0.161641 -0.114693 0.412238 -0.903828
-0.118461 0.209658 -0.147318 -0.062873 0.629473 0.774474
0.192563 0.464286 0.350245 0.062926 -0.597218 0.799607
-0.022374 -0.136213 0.079823 -0.062873 -0.629473 -0.774474
0.216037 -0.122649 0.089171 0.093913 -0.595759 -0.797654
0.722365 -0.106682 -0.041024 0.000672 -0.929489 -0.361956
0.122508 0.193533 -0.153535 0.062926 -0.597218 -0.799607
1.361887 0.088622 -0.048456 0.000000 0.598404 0.801194
0.200305 0.299675 0.226689 0.062926 -0.597218 0.799607
1.572169 0.171935 0.146151 -0.000000 -0.598404 0.801194
1.636604 0.222961 -0.148793 -0.000000 0.598404 0.801194
0.081610 -0.367559 -0.259414 -0.062873 -0.629473 0.774474
1.364334 0.101620 0.093633 -0.000000 -0.598404 0.801194
1.298415 -0.167570 -0.136979 -0.114693 0.412238 -0.903828
1.290085 -0.105475 -0.096513 0.000000 0.598404 -0.801194
-0.021770 -0.313416 0.240619 -0.042090 0.575722 0.816562
1.730570 -0.135092 -0.095023 0.236663 -0.611824 0.754760
0.203331 -0.231158 -0.168719 0.093913 -0.595759 0.797654
1.271109 0.115952 -0.104338 0.000000 -0.598404 -0.801194
1.227767 -0.162738 -0.115636 -0.114693 -0.749655 0.651815
1.105376 0.110481 -0.029291 -0.002916 0.957802 -0.275262
-0.043879 0.292298 -0.224590 -0.042090 -0.575722 -0.816562
-0.043345 -0.323304 -0.233588 -0.062873 -0.629473 0.774474
-0.018946 -0.073440 0.087582 0.000047 -0.571908 0.817283
0.024837 0.473016 -0.349736 -0.062873 0.629473 0.774474
-0.064188 0.103711 0.090578 -0.042090 -0.575722 0.816562
-1.212075 -0.000000 0.114298 0.000644 -0.081884 0.994245
0.000656 0.297996 0.209447 -0.062873 0.629473 -0.774474
1.144879 0.020267 0.112487 0.000638 0.277435 0.957228
1.575127 0.235699 -0.193776 0.000000 -0.598404 -0.801194
-0.669292 0.098575 -0.057852 0.001438 0.808728 -0.582648
-0.057171 -0.221103 -0.151644 -0.062873 -0.629473 0.774474
0.075683 -0.286699 0.226805 0.030435 0.591136 0.805641
1.179181 -0.044100 -0.105448 0.000126 -0.377276 -0.923314
0.132900 0.531231 0.402163 -0.042090 -0.575722 0.816562
1.586579 -0.182385 -0.153956 0.000000 0.598404 -0.801194
1.228053 0.148198 0.098863 -0.114693 0.749655 -0.651815
0.077815 -0.481153 -0.352049 -0.062873 -0.629473 0.774474
0.891526 0.114298 -0.000000 -0.000617 0.993064 -0.095736
0.236713 -0.298523 -0.222964 0.093913 -0.595759 0.797654
0.891526 0.000000 -0.114298 -0.005037 0.033377 -0.998196
-0.064149 0.144025 -0.119004 -0.042090 -0.575722 -0.816562
-0.051297 0.191811 0.127360 -0.062873 0.629473 -0.774474
1.443798 -0.057964 0.098510 0.000035 -0.577703 0.813188
1.619844 -0.304514 -0.209704 -0.076744 -0.702552 0.705179
1.147774 -0.107443 0.038988 0.000976 -0.936540 0.343461
1.655568 0.126500 -0.076747 0.000000 0.598404 0.801194
-1.243372 0.039907 -0.107105 0.000159 0.347120 -0.935169
1.554723 0.067547 0.092203 0.001171 0.559977 0.825413
1.659737 -0.011191 0.113748 0.001760 -0.075787 0.995486
1.764957 0.027433 0.013904 1.000000 0.000000 -0.000000
0.137158 -0.196061 -0.134715 0.093913 -0.595759 0.797654
1.060944 -0.093603 -0.065478 -0.114693 -0.749655 0.651815
1.675714 0.111135 0.026702 0.186441 0.941985 0.238284
-0.228880 0.089062 0.071761 0.000000 -0.801194 -0.598404
0.152704 -0.486607 -0.353551 0.093913 -0.595759 0.797654
1.091869 0.000000 -0.114298 0.002360 0.038000 -0.997546
0.204774 -0.416065 -0.313268 0.062926 0.597218 -0.799607
1.480270 0.088622 0.048456 0.000000 -0.801194 -0.598404
-0.164961 0.212278 -0.153222 -0.062873 0.629473 0.774474
0.195763 -0.287445 -0.209869 0.093913 -0.595759 0.797654
1.468930 0.214133 -0.142199 0.000000 0.598404 0.801194
1.654251 0.067304 -0.050269 -0.103143 -0.796921 0.595212
-0.132625 0.022175 0.112126 -0.000526 0.274426 0.958921
0.116570 0.366107 0.259296 0.093913 0.595759 -0.797654
1.498942 -0.014872 0.113326 0.000500 -0.204772 0.976715
-1.243215 -0.039516 -0.107249 0.000080 -0.342575 -0.936806
0.025111 0.251801 -0.199593 -0.042090 -0.575722 -0.816562
0.040458 -0.195514 0.122921 -0.010577 -0.619582 -0.783929
1.479753 -0.258381 -0.181296 -0.114693 -0.749655 0.651815
1.657107 -0.183206 -0.154569 -0.000000 0.598404 -0.801194
-0.132705 0.142097 -0.093562 -0.062873 0.629473 0.774474
-0.343769 0.112199 0.021805 -0.000025 0.949375 0.301833
0.975007 -0.104937 0.045300 -0.000367 -0.877752 0.473429
0.971663 0.000000 -0.114298 -0.002064 0.097847 -0.992852
-0.184422 -0.132796 0.090201 -0.062873 -0.629473 -0.774474
0.118206 -0.187959 0.149711 0.062926 0.597218 0.799607
0.673973 0.021195 -0.112315 0.003532 0.267488 -0.960120
1.532564 0.077414 -0.057820 -0.103143 -0.796921 0.595212
-0.111805 -0.294864 0.222897 -0.042090 0.575722 0.816562
-0.055457 -0.162042 -0.132155 -0.042090 0.575722 -0.816562
1.578568 0.118115 0.105953 0.000000 -0.598404 0.801194
-0.294095 -0.108046 0.037282 -0.000870 -0.942802 0.326472
-0.052777 0.042751 -0.106001 0.001120 0.382924 -0.920937
-0.249742 0.126658 -0.090516 -0.062873 0.629473 0.774474
0.236713 0.234847 0.175405 0.093913 0.595759 -0.797654
-0.094336 0.230258 0.162103 -0.062873 0.629473 -0.774474
1.552921 0.278634 0.219932 -0.114693 -0.412238 0.903828
1.479753 -0.247176 0.196299 -0.114693 0.412238 0.903828
0.236713 -0.203009 0.151625 0.093913 -0.595759 -0.797654
1.377396 -0.202036 0.162722 -0.114693 0.412238 0.903828
-0.031608 -0.108922 -0.034640 0.001366 -0.952969 -0.290725
-0.530909 -0.114298 0.000000 0.001453 -0.998168 -0.018418
1.416925 -0.100457 0.092765 -0.000000 0.598404 0.801194
0.081360 -0.376524 0.290429 -0.042090 0.575722 0.816562
0.081360 0.376524 -0.290429 -0.042090 -0.575722 -0.816562
0.168569 0.249103 -0.178030 0.093913 0.595759 0.797654
1.600790 0.212166 0.140730 0.000000 0.598404 -0.801194
0.042936 0.114849 0.101029 0.062926 -0.597218 0.799607
0.105457 -0.322848 -0.251461 0.062926 0.597218 -0.799607
-0.024444 -0.383080 -0.280639 -0.062873 -0.629473 0.774474
-0.933758 -0.021136 -0.112326 -0.000354 -0.187188 -0.980181
1.693917 0.210775 0.169249 0.236663 -0.550070 0.800883
0.032637 -0.221038 0.178291 -0.042090 0.575722 0.816562
0.780081 0.099936 -0.055469 -0.000312 0.819624 -0.568503
-1.745304 0.037528 0.099009 -0.211551 0.266030 0.936063
1.542755 -0.314856 -0.235163 -0.114693 0.412238 -0.903828
1.218928 0.151760 -0.119682 -0.114693 -0.412238 -0.903828
0.179579 0.303699 -0.220103 0.093913 0.595759 0.797654
0.709752 -0.045718 -0.104756 -0.000830 -0.393861 -0.916364
0.070120 -0.000000 0.114298 0.001286 -0.082941 0.993485
-0.611729 -0.040211 -0.106991 -0.000704 -0.347261 -0.935338
0.016651 0.172455 0.143214 -0.042090 -0.575722 0.816562
1.758668 0.089049 0.066510 0.236663 0.611824 -0.754760
1.257779 -0.112969 -0.017374 0.002709 -0.965977 -0.247602
-0.121296 -0.112977 0.017328 0.000090 -0.982817 0.173698
-0.002259 -0.175114 -0.109808 -0.062873 -0.629473 0.774474
1.694224 0.220518 -0.152874 0.236663 0.611824 0.754760
-0.019312 -0.017600 0.112935 0.000332 -0.178570 0.981895
1.304211 0.181414 0.123664 -0.114693 0.749655 -0.651815
1.023020 -0.022148 -0.112131 0.000914 -0.207347 -0.975921
0.197554 -0.610784 -0.451578 0.093913 -0.595759 0.797654
-0.039478 0.181247 -0.117815 -0.062873 0.629473 0.774474
-0.096807 -0.113460 -0.067373 -0.062873 -0.629473 0.774474
0.440774 -0.113540 0.013142 -0.000180 -0.979296 0.190943
0.210529 0.105132 0.080583 0.062926 -0.597218 0.799607
0.383434 0.034303 0.109029 0.001568 0.358121 0.931847
0.323728 0.100671 -0.054123 0.000142 0.857774 -0.509214
1.320999 0.138440 -0.121134 0.000000 -0.598404 -0.801194
0.030851 -0.083808 -0.078795 -0.000000 0.801194 0.598404
1.620847 -0.121837 -0.108734 0.000000 0.598404 -0.801194
0.196772 -0.291076 0.212699 0.093913 -0.595759 -0.797654
1.736656 0.197349 -0.147398 0.236663 -0.550070 -0.800883
0.100464 0.165543 -0.134365 0.062926 -0.597218 -0.799607
0.680021 -0.110793 0.028087 0.000492 -0.942802 0.325820
1.687613 -0.253127 0.177234 0.236663 -0.611824 -0.754760
1.546199 -0.235776 0.158364 0.000000 -0.598404 -0.801194
0.089605 0.391734 0.301578 -0.042090 -0.575722 0.816562
1.520711 0.112940 -0.017567 -0.000433 0.981769 -0.179519
0.212611 -0.532714 -0.395041 0.093913 -0.595759 0.797654
1.623279 -0.320674 0.227685 -0.114693 -0.749655 -0.651815
1.290085 0.122480 0.073745 0.000000 0.598404 -0.801194
1.074184 0.056050 0.099611 -0.000012 0.560296 0.825234
0.200207 -0.122962 -0.087541 0.093913 -0.595759 0.797654
-1.812978 -0.019516 0.074299 -0.549829 -0.277613 0.781048
1.407247 -0.156533 0.099178 0.000000 -0.598404 -0.801194
-1.042753 0.019559 -0.112612 0.002571 0.277256 -0.957423
-0.616278 0.107333 0.039290 0.000948 0.931430 0.357047
1.566838 -0.281383 0.192427 -0.076744 -0.702552 -0.705179
1.579317 -0.019171 -0.112679 -0.000423 -0.271522 -0.959374
-0.117700 0.082866 0.078722 0.000169 0.777470 0.624817
-0.135080 0.266820 0.201925 -0.042090 -0.575722 0.816562
1.681426 -0.357777 0.260126 0.003227 -0.712651 -0.695365
1.681426 0.357777 -0.260126 0.120346 0.666707 0.729680
-0.163310 -0.196500 0.140264 -0.062873 -0.629473 -0.774474
0.597525 -0.112887 -0.017905 0.001753 -0.982827 -0.173786
-1.485262 -0.039051 0.107420 -0.000184 -0.339963 0.937764
1.502570 0.048257 -0.103611 -0.000029 0.498370 -0.864049
-1.450613 -0.107269 0.039463 0.000033 -0.902689 0.424432
1.326967 -0.119348 -0.071405 0.000000 -0.598404 0.801194
-0.000361 -0.119729 -0.064639 -0.062873 -0.629473 0.774474
-1.332281 0.114298 -0.000000 -0.002225 0.997914 -0.036389
-0.570977 0.000000 -0.114298 0.000517 0.134824 -0.987292
0.631080 0.114298 -0.000000 -0.001486 0.997131 -0.028965
0.390669 -0.114298 -0.000000 0.002267 -0.997690 -0.023438
-1.592727 0.000000 -0.114298 0.001178 0.097724 -0.992475
-1.151972 -0.114298 0.000000 0.001472 -0.997742 -0.038103
0.310532 -0.000000 0.114298 -0.000167 -0.097026 0.993049
0.110189 -0.000000 0.114298 -0.000588 -0.035420 0.997654
0.210360 0.114298 -0.000000 0.000637 0.993832 -0.094835
0.711218 0.114298 -0.000000 0.001906 0.991856 -0.104486
1.372349 -0.000000 0.114298 -0.000807 -0.039828 0.998127
0.137788 -0.426074 -0.306583 0.093913 -0.595759 0.797654
1.570590 0.297681 -0.210512 -0.114693 0.749655 0.651815
0.094460 -0.475615 0.346197 -0.062873 -0.629473 -0.774474
0.898791 -0.079447 -0.082171 -0.000032 -0.754803 -0.652088
1.146025 0.101069 0.087310 -0.114693 -0.412238 0.903828
0.124515 0.103222 -0.085925 0.062926 -0.597218 -0.799607
-1.692898 -0.019873 0.112557 -0.033085 -0.246641 0.965148
0.194567 0.375694 0.283919 0.062926 -0.597218 0.799607
0.916621 0.072766 0.088143 -0.000005 0.697384 0.713161
0.790379 0.112854 0.018106 0.002150 0.966495 0.246568
-0.587766 -0.111810 0.023717 0.000747 -0.975691 0.207770
-1.606335 -0.065562 0.093625 0.000004 -0.498913 0.863733
0.809376 -0.104762 -0.045704 -0.000773 -0.945329 -0.317274
0.586124 0.081265 0.080374 0.000014 0.769073 0.635200
0.031564 0.394912 0.285709 -0.062873 0.629473 -0.774474
-0.984368 0.113524 0.013273 -0.000239 0.981259 0.181826
0.983484 -0.100533 -0.054379 -0.000593 -0.917637 -0.390575
1.212744 0.063720 0.094888 -0.000049 0.628161 0.774828
-0.984777 0.085051 -0.076357 0.000075 0.754972 -0.651883
0.847317 0.069592 0.090669 0.000021 0.671784 0.737327
-1.450583 -0.073589 -0.087456 0.000022 -0.641741 -0.763625
-0.129236 -0.099094 0.058329 -0.062873 -0.629473 -0.774474
-1.415932 -0.039229 -0.107355 0.000006 -0.343393 -0.936567
-1.658284 -0.107333 -0.039288 -0.000016 -0.903369 -0.422928
-1.606389 0.093645 -0.065534 -0.000002 0.863895 -0.498633
-1.519759 -0.087590 -0.073430 -0.000022 -0.705574 -0.705053
-0.796425 -0.037074 0.108118 0.001117 -0.400385 0.913415
-1.554249 -0.112525 0.020051 0.000373 -0.962626 0.261649
-1.640847 -0.029557 -0.110410 0.000638 -0.340094 -0.937747
1.433234 0.048186 -0.103644 0.000010 0.497565 -0.864510
-0.398749 -0.042618 0.106055 0.000811 -0.371663 0.925662
-0.519077 -0.096479 0.061285 0.000005 -0.842704 0.533664
-1.589052 -0.087486 -0.073554 -0.000006 -0.763521 -0.641867
0.983484 0.100533 0.054379 -0.000593 0.917637 0.390575
0.675190 0.044133 0.105434 0.000017 0.464458 0.882588
-1.433276 -0.065426 0.093720 -0.000041 -0.639978 0.765101
1.301128 0.042564 0.106077 0.000139 0.451816 0.889125
-1.554386 0.039358 -0.107308 0.000034 0.343849 -0.936403
0.925173 -0.074663 0.086541 -0.000000 -0.581737 0.810296
1.107562 0.074066 0.087053 0.000023 0.641793 0.763566
-1.346914 -0.107366 -0.039197 -0.000161 -0.937619 -0.340373
0.970293 0.050511 0.102531 -0.000023 0.445791 0.892313
1.588047 0.293962 0.231380 -0.114693 -0.412238 0.903828
-0.675597 -0.045289 0.104942 0.001002 -0.394833 0.915965
0.238730 0.024135 -0.111720 -0.000077 0.263348 -0.961468
-1.675578 -0.080901 0.080740 -0.031846 -0.704098 0.705367
-1.502518 0.029713 0.110368 0.000045 0.340932 0.937403
0.364014 0.099220 -0.056740 0.000636 0.887113 -0.455498
-0.883617 -0.029102 0.110531 -0.000161 -0.247610 0.965725
-0.428645 0.106624 0.041175 0.000148 0.894207 0.442059
0.796949 0.040911 0.106725 -0.000039 0.350846 0.933717
-1.329625 -0.048511 -0.103492 0.000009 -0.500375 -0.862896
0.995882 -0.043270 0.105791 -0.000027 -0.456995 0.886500
1.346802 0.056901 -0.099128 -0.000022 0.497243 -0.864701
-1.450519 -0.107365 -0.039201 -0.000634 -0.936981 -0.342176
-0.052504 -0.112497 0.020208 -0.000226 -0.980943 0.183418
0.496582 0.112735 -0.018837 0.000474 0.975522 -0.207840
0.259348 0.056969 -0.099088 0.000217 0.543822 -0.836216
-1.208960 -0.107299 -0.039381 -0.000637 -0.936847 -0.342614
-0.167379 -0.230181 -0.167970 -0.062873 -0.629473 0.774474
0.223919 0.229217 -0.169694 0.093913 0.595759 0.797654
-1.277843 0.107520 -0.038773 0.000104 0.905694 -0.417689
-0.102447 -0.313907 -0.230749 -0.062873 -0.629473 0.774474
-0.847887 -0.080077 0.081558 -0.000003 -0.698297 0.712270
-1.364049 -0.093456 0.065803 -0.000007 -0.762546 0.643021
0.303274 0.112576 -0.019765 0.000636 0.959368 -0.271946
-0.951398 -0.081361 0.080276 0.000047 -0.709344 0.701400
-0.208353 -0.094314 0.064567 0.000013 -0.869575 0.488721
-0.942923 0.102890 -0.049776 0.000054 0.852605 -0.517694
0.541465 0.019483 -0.112625 -0.000755 0.268766 -0.960321
-1.433313 0.065675 0.093545 0.000004 0.641946 0.763448
-1.191740 -0.065692 -0.093533 -0.000036 -0.642381 -0.763119
0.141324 -0.564928 0.426355 -0.042090 0.575722 0.816562
-0.169094 0.087554 -0.073779 -0.000000 -0.801194 0.598404
-1.208793 0.057545 0.098755 -0.000019 0.501069 0.862495
-1.173916 -0.072837 0.088083 -0.000040 -0.636402 0.768082
-1.381443 -0.098941 -0.057225 0.000024 -0.863792 -0.498819
-1.088359 -0.048668 -0.103419 0.000018 -0.501607 -0.862193
1.606038 0.131719 -0.080645 -0.000000 0.598404 0.801194
0.020329 -0.134743 0.075162 -0.014322 -0.620374 -0.783358
-0.198103 -0.156545 -0.120927 -0.042090 0.575722 -0.816562
-0.815388 0.059222 -0.097758 0.000126 0.534044 -0.842570
-0.935363 -0.099021 -0.057085 -0.000265 -0.863011 -0.500360
0.236713 -0.489553 0.365642 0.093913 -0.595759 -0.797654
0.236713 -0.569148 0.425091 0.093913 -0.595759 -0.797654
0.236713 -0.139332 -0.104066 0.093913 -0.595759 0.797654
0.236713 -0.409957 0.306193 0.093913 -0.595759 -0.797654
0.236713 -0.346281 -0.258633 0.093913 -0.595759 0.797654
0.236713 0.616906 0.460761 0.093913 0.595759 -0.797654
0.236713 -0.648744 -0.484540 0.093913 -0.595759 0.797654
0.236713 -0.234847 0.175405 0.093913 -0.595759 -0.797654
0.236713 0.155251 -0.115956 0.062926 -0.597218 -0.799607
-0.657742 -0.097202 0.060131 0.000112 -0.891401 0.447333
-0.306931 0.084428 0.077045 0.000104 0.734467 0.675026
0.085984 0.417532 -0.319581 -0.042090 -0.575722 -0.816562
1.764957 -0.000000 0.054394 1.000000 0.000000 -0.000000
0.497041 0.105980 0.042804 0.000663 0.923906 0.375842
0.880796 0.085544 0.075804 0.000023 0.742827 0.665689
1.021564 -0.061745 -0.096185 0.000026 -0.533962 -0.842513
0.118883 -0.073722 0.087344 0.000157 -0.573733 0.815973
0.152319 -0.414686 0.316366 0.062926 0.597218 0.799607
1.713285 -0.046270 -0.091439 0.503308 -0.359067 -0.782843
1.331793 0.091146 0.068966 0.000028 0.791360 0.607200
-0.529831 -0.083056 -0.078522 0.000042 -0.661183 -0.746906
1.067931 0.051452 -0.102062 -0.000041 0.410020 -0.909378
1.189575 0.111849 0.023531 -0.000720 0.953932 0.291061
0.914301 0.098467 0.058036 0.000006 0.898798 0.432558
0.132295 -0.255504 -0.199051 0.062926 0.597218 -0.799607
-0.588318 -0.096983 0.060483 -0.000056 -0.845678 0.528934
-0.519880 -0.053049 0.101241 0.000104 -0.382111 0.921243
-0.969368 0.087189 0.073906 -0.000231 0.762603 0.643085
-0.572148 -0.025709 0.111369 0.000276 -0.303909 0.949775
-1.640907 -0.110375 0.029686 0.000617 -0.964739 0.251283
-1.433369 0.093672 0.065494 0.000031 0.764524 0.640672
0.304990 -0.113593 0.012673 0.000172 -0.980213 0.188120
-0.535614 0.066769 -0.092767 0.000081 0.599193 -0.797599
-1.725723 0.051261 -0.097699 -0.190999 0.368340 -0.905901
0.715482 -0.104873 0.045449 0.000698 -0.914585 0.397862
-0.357503 0.088670 -0.072123 0.000678 0.782912 -0.618016
