0.767694 -0.062452 0.065152 -0.000706 -0.646347 0.757124
-0.398949 -0.075884 0.048854 0.000008 -0.865885 0.491129
-1.604328 -0.061717 -0.065288 -0.075357 -0.747813 -0.653424
0.025377 0.424905 0.366642 -0.042235 -0.627896 0.777150
0.089731 -0.033556 -0.083780 0.000008 -0.311032 -0.946157
-0.627949 -0.083805 0.033493 0.000002 -0.946317 0.310587
1.511579 0.100935 0.071808 0.000000 0.648103 -0.761553
1.524327 -0.116985 0.085467 -0.000000 -0.648103 -0.761553
0.153015 0.702791 0.598095 -0.053816 0.671564 -0.738990
0.019659 0.534571 -0.454935 -0.042235 -0.627896 -0.777150
1.250103 -0.153371 0.123478 -0.141227 -0.812756 -0.565228
-0.807578 -0.033556 -0.083780 0.000011 -0.311063 -0.946145
-1.306256 0.065341 0.062254 -0.000607 0.801175 0.591481
0.388834 0.083777 -0.033562 -0.000011 0.946128 -0.311114
-0.927220 0.090250 -0.000000 0.000024 0.993951 -0.063217
-0.111202 0.262957 -0.228374 -0.042235 -0.627896 -0.777150
-0.123954 -0.353411 -0.300763 -0.042235 0.627896 -0.777150
1.275995 0.017087 -0.088618 0.000000 0.126222 -0.987942
0.119733 0.017187 0.088599 -0.000023 0.130558 0.987091
0.607508 -0.082395 -0.036825 -0.000109 -0.883581 -0.458430
0.163586 -0.498896 -0.433933 -0.042235 0.627896 -0.777150
0.181960 0.390361 -0.318845 0.068598 0.646576 0.759759
0.927220 0.033556 0.083780 -0.000002 0.310994 0.946173
0.329967 0.266856 0.227102 0.068598 0.646576 -0.759759
0.329967 -0.617387 0.525414 0.053844 0.647163 0.760448
0.329967 -0.449742 0.382743 0.053844 0.647163 0.760448
1.561540 -0.297963 0.253575 -0.141227 0.427974 0.892689
-0.000857 -0.508691 0.432910 -0.053816 -0.671564 -0.738990
-1.425725 0.000000 -0.090250 0.000000 -0.063110 -0.993971
-0.073088 -0.255842 0.224697 -0.042235 0.627896 0.777150
1.578907 0.305356 0.259867 -0.141227 0.812756 -0.565228
-0.149551 0.033556 0.083780 -0.000011 0.311064 0.946145
-0.339155 0.017096 -0.088616 0.000010 0.126291 -0.987929
0.329967 0.617387 -0.525414 0.053844 -0.647163 -0.760448
-0.192686 0.198053 0.164585 -0.053816 0.671564 -0.738990
-0.518338 0.048991 0.075795 0.000068 0.485071 0.869880
-1.643500 0.084515 -0.000000 -0.248951 0.958296 -0.078230
-0.179466 0.049051 -0.075757 -0.000177 0.485988 -0.869331
0.173624 0.484271 0.398013 0.027803 0.655789 -0.753841
0.329967 0.434501 -0.369773 0.053844 -0.647163 -0.760448
0.329967 -0.266856 -0.227102 0.068598 -0.646576 0.759759
-1.395743 -0.075779 0.049017 0.000114 -0.869339 0.485983
-1.106681 -0.000000 -0.090250 -0.000008 -0.063187 -0.993956
-0.206019 -0.249890 -0.212664 -0.042235 0.627896 -0.777150
1.026927 -0.033532 -0.083790 -0.000073 -0.250421 -0.963982
-0.239105 -0.088618 0.017087 -0.000000 -0.987942 0.126220
1.468412 0.138635 -0.103891 -0.000000 0.648103 0.761553
-1.186310 -0.062462 0.065143 -0.000140 -0.640904 0.762377
0.153817 -0.248279 0.195388 0.068598 -0.646576 -0.759759
-0.857468 -0.051931 0.073813 -0.000076 -0.618130 0.780254
0.128759 0.180715 0.135627 0.068598 0.646576 -0.759759
0.107343 -0.179729 -0.132854 0.068598 -0.646576 0.759759
-0.677918 0.048918 -0.075843 -0.000056 0.491532 -0.865626
-0.125195 -0.119508 0.111714 -0.042235 0.627896 0.777150
1.613641 -0.320143 -0.272451 -0.141227 -0.812756 0.565228
0.038366 -0.345044 -0.302824 -0.042235 0.627896 -0.777150
0.717843 0.017191 -0.088598 -0.000158 0.126164 -0.987953
0.787481 0.083807 0.033488 0.000004 0.946349 0.310478
0.299107 -0.017191 0.088598 0.000099 -0.126647 0.987860
1.302031 0.168523 0.150464 -0.141227 -0.427974 0.892689
0.528243 0.033692 -0.083725 -0.000053 0.311745 -0.945921
1.497820 -0.161081 -0.122994 0.000000 -0.648103 0.761553
0.183789 -0.741611 -0.631132 -0.042235 0.627896 -0.777150
-1.622578 -0.036644 0.080142 -0.108459 -0.329799 0.933562
1.670408 0.110496 -0.094036 0.281887 0.570389 0.771489
0.209372 -0.090250 -0.000000 -0.000022 -0.993989 0.063018
1.457338 0.253601 -0.215822 -0.141227 0.812756 0.565228
0.907279 -0.090250 -0.000000 0.000027 -0.993951 0.063213
1.306083 -0.090250 -0.000000 0.000060 -0.993999 0.062966
0.359095 -0.048821 -0.075905 -0.001170 -0.487850 -0.868017
0.538545 0.017113 0.088613 -0.000020 0.126426 0.987902
1.720622 0.274760 -0.233829 0.281887 0.570389 0.771489
-1.006980 -0.000000 0.090250 -0.000001 -0.067125 0.993171
-0.019762 -0.017087 0.088618 -0.000001 -0.126221 0.987942
1.492072 -0.268388 -0.228406 -0.141227 -0.812756 0.565228
1.046824 0.083734 0.033672 -0.000223 0.898356 0.429913
0.070950 -0.599271 0.509997 -0.053816 -0.671564 -0.738990
0.329967 0.175413 -0.149282 0.053844 -0.647163 -0.760448
1.383035 -0.113554 0.110729 -0.000000 0.648103 0.761553
-1.216520 0.075903 -0.048825 0.000634 0.869529 -0.485522
0.209935 0.238951 -0.192516 0.068598 0.646576 0.759759
1.650376 -0.101090 -0.093076 0.188947 0.667707 -0.716718
-0.154138 -0.149401 -0.134293 -0.042235 0.627896 -0.777150
0.064677 0.437720 -0.363643 -0.053816 0.671564 0.738990
-0.002181 0.276239 0.221765 -0.053816 0.671564 -0.738990
1.375878 0.088598 -0.017191 0.000050 0.987865 -0.126623
1.206560 -0.033483 0.083809 0.000000 -0.250096 0.964075
0.148203 -0.412445 -0.334591 0.027803 -0.655789 0.753841
0.204802 0.375158 0.307969 0.068598 0.646576 -0.759759
0.086582 0.177140 -0.128776 0.068598 0.646576 0.759759
0.040176 -0.560451 -0.476960 -0.042235 0.627896 -0.777150
-0.408774 0.090250 -0.000000 -0.000035 0.993996 -0.062981
0.109670 0.083780 -0.033557 -0.000027 0.946153 -0.311044
1.596274 0.312750 -0.266159 -0.141227 0.812756 0.565228
-0.139265 0.162418 -0.145619 -0.042235 -0.627896 -0.777150
1.540393 0.209119 0.163875 0.000000 0.648103 -0.761553
1.690533 -0.302489 0.243336 0.094984 -0.626615 -0.770422
0.237762 -0.380856 0.330648 0.053844 0.647163 0.760448
0.103355 -0.458277 0.379507 -0.053816 -0.671564 -0.738990
1.665843 -0.095563 0.081327 0.281887 0.670340 0.686428
1.665843 0.095563 0.081327 0.281887 0.570389 -0.771489
-0.977248 0.017087 -0.088618 -0.000001 0.126225 -0.987941
1.226323 0.090250 0.000000 0.000054 0.993958 -0.063177
-1.515438 0.075946 -0.048758 -0.000054 0.899247 -0.428172
0.262447 -0.669596 -0.563749 0.068598 -0.646576 0.759759
0.069995 -0.083660 0.033854 -0.000207 -0.945868 0.311898
-1.515451 -0.088598 0.017191 -0.000079 -0.986347 0.134228
1.524542 -0.213992 0.168022 -0.000000 -0.648103 -0.761553
1.156354 -0.017087 -0.088618 0.000542 -0.132794 -0.986639
1.567043 0.035097 -0.083146 -0.000306 0.435817 -0.895781
-0.015726 0.322935 -0.282021 -0.042235 -0.627896 -0.777150
1.383035 -0.127464 -0.094385 -0.000000 -0.648103 0.761553
-0.628141 0.083767 0.033589 0.000244 0.943370 0.317904
1.720622 -0.274760 -0.233829 0.281887 -0.570389 0.771489
1.705578 0.288625 0.238583 0.281887 0.570389 -0.771489
1.545390 -0.083810 -0.033481 0.000462 -0.963640 -0.251889
0.797780 -0.073602 -0.052229 -0.000588 -0.777777 -0.621293
1.455813 -0.017087 0.088618 -0.000000 -0.126221 0.987942
0.249253 -0.000000 -0.090250 0.000000 -0.063110 -0.993971
0.269193 0.090250 0.000000 0.000000 0.993971 -0.063110
0.658204 -0.017088 0.088618 -0.000001 -0.126226 0.987941
-0.518397 -0.088594 -0.017212 0.000002 -0.987862 -0.126637
0.044838 -0.287817 0.228862 -0.053816 -0.671564 -0.738990
-0.012632 -0.136304 -0.131402 -0.042235 0.627896 -0.777150
-0.757723 -0.088598 0.017191 0.000142 -0.987954 0.126160
0.329967 0.525944 -0.447594 0.053844 -0.647163 -0.760448
-1.405784 0.090250 -0.000000 0.000002 0.993962 -0.063160
0.165312 0.595746 0.512277 -0.042235 -0.627896 0.777150
0.329967 0.495463 0.421653 0.068598 0.646576 -0.759759
1.214200 0.150091 -0.127732 -0.141227 0.812756 0.565228
0.194047 0.754551 -0.642145 -0.042235 -0.627896 -0.777150
0.408786 0.033737 0.083707 0.000164 0.311721 0.945924
0.009976 0.083790 0.033532 -0.000073 0.963982 0.250421
0.286750 0.672452 0.568374 0.068598 0.646576 -0.759759
-0.269193 -0.000000 0.090250 -0.000001 -0.063112 0.993971
-0.017493 0.197201 -0.180340 -0.042235 -0.627896 -0.777150
-0.807695 0.083742 -0.033652 -0.000142 0.946139 -0.311126
-0.029910 -0.000000 -0.090250 -0.000000 -0.063110 -0.993971
-0.279185 0.088604 -0.017161 -0.000113 0.987946 -0.126203
0.120245 0.590799 -0.498708 -0.053816 0.671564 0.738990
0.152881 -0.113600 0.109215 0.053844 0.647163 0.760448
0.214194 0.224919 0.199610 0.053844 -0.647163 0.760448
0.937141 0.088594 -0.017212 -0.000069 0.987780 -0.127059
-1.096716 -0.088598 -0.017191 -0.000088 -0.987886 -0.126511
1.585246 -0.000000 0.090250 0.019344 -0.070521 0.992289
-0.618001 -0.048849 -0.075887 -0.000000 -0.491212 -0.865825
-0.185502 -0.275770 0.234689 -0.053816 -0.671564 -0.738990
0.295605 -0.503940 -0.425765 0.068598 -0.646576 0.759759
-0.308600 -0.120490 0.102541 -0.053816 -0.671564 -0.738990
0.329967 -0.221135 0.188192 0.053844 0.647163 0.760448
1.409928 0.154368 0.117281 0.000000 0.648103 -0.761553
0.299900 -0.533529 0.451334 0.068598 -0.646576 -0.759759
-0.082922 0.405171 0.344812 -0.053816 0.671564 -0.738990
0.204167 -0.616023 0.530771 -0.042235 0.627896 0.777150
0.498111 -0.073709 -0.052077 -0.000299 -0.849728 -0.518540
0.272333 -0.342822 -0.295832 0.053844 0.647163 -0.760448
0.209214 -0.584829 -0.486804 0.027803 -0.655789 0.753841
0.213092 -0.755217 0.641363 -0.053816 -0.671564 -0.738990
1.425725 -0.090250 -0.000000 0.000008 -0.993993 0.062997
0.015985 -0.400318 0.346267 -0.042235 0.627896 0.777150
1.284722 -0.168109 -0.136020 -0.141227 -0.812756 0.565228
0.189761 -0.217071 -0.194661 0.053844 0.647163 -0.760448
1.166502 -0.090250 -0.000000 -0.000044 -0.993925 0.063350
-0.109671 0.090250 0.000000 -0.000220 0.993923 -0.063356
0.498413 0.088599 0.017187 0.000110 0.987844 0.126731
0.244805 0.685387 -0.575594 0.027803 0.655789 0.753841
-0.408609 -0.062653 -0.064959 0.000027 -0.648761 -0.754951
-1.046861 0.083780 -0.033557 0.000055 0.946130 -0.311102
-1.699209 -0.065671 0.000000 -0.457797 -0.875963 -0.085608
-1.286143 -0.083770 0.033581 0.000135 -0.963905 0.250694
-1.316231 0.048822 -0.075904 0.000001 0.484613 -0.870118
0.037464 0.353809 0.289369 -0.053816 0.671564 -0.738990
0.215492 -0.310765 0.254134 0.068598 -0.646576 -0.759759
-1.355774 -0.075892 -0.048842 -0.000482 -0.869812 -0.485021
0.268002 -0.685204 0.577534 0.068598 -0.646576 -0.759759
0.073941 -0.264639 -0.205679 -0.053816 -0.671564 0.738990
0.290061 0.354136 -0.304206 0.053844 -0.647163 -0.760448
0.186088 0.094976 0.067837 0.068598 0.646576 -0.759759
-0.667997 -0.000000 0.090250 -0.000064 -0.063072 0.993979
-0.208512 0.118623 0.093555 -0.053816 0.671564 -0.738990
0.081236 0.349337 -0.308623 -0.042235 -0.627896 -0.777150
-0.857476 0.051970 0.073785 0.000014 0.619321 0.779315
1.126654 0.033597 0.083764 0.000024 0.311349 0.946041
1.326751 0.109421 -0.107211 -0.000000 -0.648103 -0.761553
-0.249244 -0.033651 -0.083742 -0.000003 -0.311906 -0.945849
-0.378694 0.017099 0.088616 -0.000290 0.133945 0.986405
0.338983 -0.088633 0.017010 -0.000022 -0.993989 0.063018
-0.538535 0.088610 -0.017126 0.000496 0.987734 -0.127289
1.603113 0.089254 0.000000 0.036073 0.991465 -0.071363
-1.693351 0.022796 -0.064429 -0.436360 0.370621 -0.807936
0.230664 0.604950 -0.505864 0.068598 0.646576 0.759759
0.168345 -0.097529 -0.094443 0.053844 0.647163 -0.760448
-0.090724 0.229874 0.202757 -0.042235 -0.627896 0.777150
-1.395642 0.017096 0.088616 -0.000007 0.126294 0.987928
1.693232 0.185162 -0.157578 0.281887 0.570389 0.771489
0.226149 -0.469340 0.390048 0.068598 -0.646576 -0.759759
-1.206299 0.033524 0.083793 0.000061 0.428696 0.898967
-0.498373 -0.048763 0.075943 0.000178 -0.591251 0.801476
0.558320 -0.073600 0.052231 0.000564 -0.774324 0.626307
1.006980 -0.090250 -0.000000 -0.000064 -0.993980 0.063063
-0.877369 -0.088633 -0.017010 -0.000038 -0.993956 -0.063186
-0.000857 0.508691 0.432910 -0.053816 0.671564 -0.738990
-0.216277 0.236950 -0.201652 -0.042235 -0.627896 -0.777150
-0.134212 0.340471 -0.289750 -0.042235 -0.627896 -0.777150
-0.031631 0.469871 -0.399873 -0.042235 -0.627896 -0.777150
0.113780 0.494882 -0.427984 -0.042235 -0.627896 -0.777150
0.176044 0.311336 -0.251059 0.068598 0.646576 0.759759
0.068204 0.106783 0.109410 0.053844 -0.647163 0.760448
-0.026802 -0.332667 0.289283 -0.042235 0.627896 0.777150
0.118707 0.412497 0.336787 -0.053816 0.671564 -0.738990
0.232137 0.755882 0.640581 -0.053816 0.671564 -0.738990
0.240555 0.297507 0.259518 0.053844 -0.647163 0.760448
0.011217 -0.081341 -0.043673 -0.000000 0.761553 0.648103
0.234901 0.453545 -0.377396 0.068598 0.646576 0.759759
1.262336 -0.084720 -0.086190 -0.000000 0.648103 -0.761553
1.027102 0.062345 -0.065255 0.000059 0.647370 -0.756140
1.475575 0.088633 -0.017010 0.000000 0.993941 -0.063269
0.329967 0.190654 0.162252 0.068598 0.646576 -0.759759
-0.049216 -0.188796 0.145725 -0.053816 -0.671564 -0.738990
1.577941 0.136288 -0.101894 0.000000 0.648103 0.761553
-1.710338 0.018644 0.057127 -0.434963 0.339346 0.826220
-0.103027 -0.280172 -0.242727 -0.042235 0.627896 -0.777150
1.418582 0.069200 0.072982 0.000000 -0.761553 -0.648103
-0.019762 -0.111623 0.073448 -0.053816 -0.671564 -0.738990
1.298485 0.102389 0.073045 0.000000 0.648103 -0.761553
1.588261 0.135482 0.129390 -0.000000 -0.648103 0.761553
0.329967 -0.190654 -0.162252 0.068598 -0.646576 0.759759
0.305794 0.107256 -0.089095 0.068598 0.646576 0.759759
1.163558 -0.116527 0.092122 -0.141227 -0.812756 -0.565228
-0.139553 -0.192849 0.170190 -0.042235 0.627896 0.777150
0.081140 -0.463832 -0.386174 -0.053816 -0.671564 0.738990
0.698085 -0.088618 -0.017087 0.000032 -0.987916 -0.126356
0.039064 0.201008 0.186489 -0.042235 -0.627896 0.777150
0.234901 -0.453545 -0.377396 0.068598 -0.646576 0.759759
-0.707888 -0.065403 -0.062190 -0.000166 -0.799234 -0.593475
1.092632 -0.098336 -0.083687 -0.141227 -0.812756 0.565228
-0.217213 -0.126982 0.112752 -0.042235 0.627896 0.777150
0.817726 0.017087 0.088618 -0.000000 0.126220 0.987942
-0.061832 -0.405428 -0.343510 -0.053816 -0.671564 0.738990
0.618146 0.017010 -0.088633 -0.000009 0.062996 -0.993993
-0.887339 0.033556 -0.083780 0.000001 0.310995 -0.946173
-1.515633 -0.017087 -0.088618 0.000000 -0.126220 -0.987942
0.977242 -0.048820 0.075906 -0.001267 -0.487998 0.867918
0.438531 0.017117 -0.088612 0.000003 0.126197 -0.987947
0.209375 -0.033569 0.083775 -0.000009 -0.311082 0.946142
-1.096672 -0.017003 0.088634 0.000141 -0.250390 0.963963
1.365904 -0.000000 -0.090250 0.000003 -0.063131 -0.993967
-0.428701 0.033762 -0.083697 0.000074 0.312995 -0.945449
-0.105877 0.111322 0.106150 -0.042235 -0.627896 0.777150
-1.605185 0.030554 -0.084432 -0.107429 0.330905 -0.933407
1.336649 -0.183261 0.163006 -0.141227 0.427974 0.892689
1.606669 -0.153934 0.116911 0.000000 -0.648103 -0.761553
-0.185502 0.275770 0.234689 -0.053816 0.671564 -0.738990
-0.117475 -0.320183 0.274268 -0.042235 0.627896 0.777150
-1.455555 -0.075797 -0.048989 -0.000057 -0.869831 -0.485137
-0.119819 -0.017087 -0.088618 0.000002 -0.126216 -0.987943
0.847330 0.083726 -0.033690 0.000084 0.945973 -0.311567
-1.036982 -0.075873 0.048871 -0.000051 -0.869750 0.485290
0.877461 -0.048896 0.075857 0.000058 -0.491489 0.865654
0.084604 -0.529828 0.454633 -0.042235 0.627896 0.777150
-1.585246 0.056136 0.070667 -0.027416 0.528949 0.843446
0.213259 0.546047 0.454164 0.068598 0.646576 -0.759759
1.605633 -0.227751 0.207913 -0.000000 0.648103 0.761553
-0.149551 -0.083780 0.033557 -0.000003 -0.946168 0.311005
-0.319047 -0.075854 -0.048901 -0.001304 -0.868016 -0.487848
0.717799 0.048918 0.075843 0.000034 0.491689 0.865522
0.257016 0.454879 0.392280 0.053844 -0.647163 0.760448
0.087125 0.482434 0.416478 -0.042235 -0.627896 0.777150
-0.947155 -0.065127 0.062478 0.000435 -0.759916 0.643574
-1.485601 -0.037207 0.082224 0.000591 -0.459136 0.883258
-0.179303 -0.075897 -0.048834 0.000005 -0.866131 -0.490740
0.937340 -0.052469 -0.073431 0.000623 -0.675463 -0.731773
-0.777490 -0.017087 0.088618 0.000018 -0.126266 0.987933
1.578116 -0.252251 -0.228764 -0.000000 0.648103 -0.761553
0.239902 -0.233830 0.190864 0.068598 -0.646576 -0.759759
0.329967 0.068730 0.058491 0.068598 0.646576 -0.759759
-1.295936 -0.017087 0.088618 0.000019 -0.133907 0.986413
0.313146 0.337595 0.285784 0.068598 0.646576 -0.759759
1.136446 0.088609 0.017131 0.000030 0.987876 0.126562
-1.016859 0.075856 0.048898 0.000536 0.866271 0.490555
0.727807 0.083772 -0.033576 0.000098 0.945753 -0.311956
1.037069 0.017087 0.088618 0.000001 0.126225 0.987941
-0.578262 -0.017191 0.088598 0.000139 -0.126164 0.987953
-1.196412 -0.088633 -0.017010 -0.000028 -0.993950 -0.063222
0.169492 0.033556 -0.083780 0.000001 0.311181 -0.946098
0.031264 0.058291 -0.070758 -0.031563 -0.630269 -0.775577
1.445314 -0.170155 0.130716 0.000000 -0.648103 -0.761553
0.279400 -0.075994 -0.048682 -0.000044 -0.899347 -0.427961
1.296816 -0.088925 0.089769 -0.000000 0.648103 0.761553
1.406533 0.207963 -0.162892 -0.044184 0.704266 0.705595
-0.318858 0.107550 -0.091528 -0.042235 -0.627896 -0.777150
1.656713 -0.000000 -0.086267 1.000000 0.000000 0.000000
1.678460 0.328780 -0.286846 -0.117945 -0.466612 -0.873831
-1.037070 -0.048830 -0.075900 -0.000000 -0.484827 -0.869985
1.638846 -0.087263 -0.000000 0.058703 -0.990742 -0.070264
-0.109634 -0.212676 -0.171826 -0.053816 -0.671564 0.738990
-0.043479 -0.326562 -0.283444 -0.042235 0.627896 -0.777150
1.509514 0.209426 -0.164137 -0.000000 0.648103 0.761553
0.057907 -0.223165 0.169157 -0.053816 -0.671564 -0.738990
1.665742 0.342324 0.291328 -0.141227 0.812756 -0.565228
0.329967 -0.114452 0.097402 0.053844 0.647163 0.760448
1.203524 0.078461 -0.080863 -0.000000 -0.648103 -0.761553
1.622992 0.248976 0.197795 0.000000 0.648103 -0.761553
-1.600097 -0.088901 0.014370 -0.070688 -0.965018 0.232302
0.001231 0.394511 -0.328997 -0.053816 0.671564 0.738990
1.509740 0.256951 0.225718 -0.117945 -0.466612 0.873831
-0.114873 0.113479 -0.082062 -0.053816 0.671564 0.738990
1.216236 0.052110 0.073686 -0.000079 0.619245 0.779367
1.460837 -0.201337 -0.185435 -0.000000 0.648103 -0.761553
0.126877 -0.576966 -0.485654 -0.053816 -0.671564 0.738990
0.129683 0.542384 0.454024 -0.053816 0.671564 -0.738990
-0.199494 0.088599 0.017187 0.000102 0.987810 0.126906
0.101724 0.638091 0.543034 -0.053816 0.671564 -0.738990
-0.228146 0.113577 -0.090399 -0.053816 0.671564 0.738990
0.248483 0.175945 -0.155504 0.053844 -0.647163 -0.760448
-0.017382 0.270019 -0.217219 -0.053816 0.671564 0.738990
-0.917426 -0.048814 -0.075910 0.001215 -0.487837 -0.868021
-0.707877 0.090250 -0.000000 0.000023 0.993970 -0.063118
0.348954 0.033559 -0.083779 -0.000005 0.311035 -0.946158
-0.267567 0.172250 0.146590 -0.053816 0.671564 -0.738990
1.588261 -0.149391 -0.113045 -0.000000 -0.648103 0.761553
0.110720 0.242914 0.186931 0.068598 0.646576 -0.759759
0.134936 -0.172996 0.161033 0.053844 0.647163 0.760448
0.072910 -0.119849 -0.078785 0.068598 -0.646576 0.759759
0.158075 0.180160 -0.165492 0.053844 -0.647163 -0.760448
0.329967 0.693589 -0.590264 0.053844 -0.647163 -0.760448
0.329967 -0.388780 0.330863 0.053844 0.647163 0.760448
-0.598047 0.048835 -0.075896 -0.000005 0.484785 -0.870011
0.147245 0.451356 -0.370022 -0.053816 0.671564 0.738990
-1.136684 0.075857 -0.048896 -0.000028 0.865893 -0.491127
-1.186442 0.000000 -0.090250 -0.000049 -0.063122 -0.993969
-0.937131 0.048926 0.075838 0.001219 0.488251 0.867787
0.030265 -0.410735 -0.355459 -0.042235 0.627896 -0.777150
0.797432 0.017090 -0.088617 -0.000016 0.126288 -0.987929
1.492072 -0.268388 0.228406 -0.141227 0.427974 0.892689
1.526806 0.283176 -0.240991 -0.141227 0.812756 0.565228
1.683108 -0.349718 -0.297620 -0.141227 -0.812756 0.565228
1.466439 -0.096363 -0.067916 0.000000 -0.648103 0.761553
-0.052147 -0.443991 0.377849 -0.053816 -0.671564 -0.738990
-0.247051 -0.198130 -0.168615 -0.042235 0.627896 -0.777150
0.123786 -0.286272 0.258224 0.053844 0.647163 0.760448
0.167703 -0.416536 0.339834 0.068598 -0.646576 -0.759759
1.540393 -0.195209 -0.180220 0.000000 0.648103 -0.761553
1.497820 0.147172 0.139338 -0.000000 -0.648103 0.761553
0.032652 -0.185355 -0.173493 -0.042235 0.627896 -0.777150
1.585246 -0.070667 0.056136 0.021418 -0.709630 0.697432
0.251895 -0.267320 -0.220448 0.068598 -0.646576 0.759759
0.289890 0.232780 -0.194484 0.068598 0.646576 0.759759
0.206673 0.167717 0.131600 0.068598 0.646576 -0.759759
0.135511 0.110036 -0.107412 0.053844 -0.647163 -0.760448
0.195892 0.656026 0.552475 -0.053816 0.671564 -0.738990
-0.059646 0.048817 0.075908 -0.000011 0.484562 0.870147
-0.189432 -0.033556 0.083780 -0.000015 -0.311155 0.946108
-0.767698 0.033556 -0.083780 0.000015 0.311155 -0.946108
-0.109671 -0.033556 0.083780 -0.000005 -0.311016 0.946164
-0.041889 0.456931 0.388861 -0.053816 0.671564 -0.738990
0.567627 0.082123 -0.037429 -0.000253 0.881902 -0.461744
-0.085516 -0.110318 -0.106445 -0.042235 0.627896 -0.777150
0.260057 -0.722924 -0.620179 -0.011120 0.634645 -0.772357
0.127866 0.354983 0.283853 0.027803 0.655789 -0.753841
1.688667 -0.170229 -0.144870 0.281887 -0.570389 0.771489
0.011184 -0.281725 -0.250189 -0.042235 0.627896 -0.777150
1.337163 -0.069200 -0.072982 0.000000 0.761553 0.648103
0.096764 -0.323656 -0.257650 -0.053816 -0.671564 0.738990
1.405290 0.086703 -0.087877 -0.000000 -0.648103 -0.761553
0.255441 0.298088 -0.246953 0.068598 0.646576 0.759759
0.329967 -0.693589 -0.590264 0.068598 -0.646576 0.759759
1.655987 0.250044 -0.198703 0.000000 0.648103 0.761553
1.585246 -0.038966 -0.081405 0.022500 -0.540026 -0.837040
0.144657 -0.586806 0.493302 -0.053816 -0.671564 -0.738990
0.329967 -0.129692 -0.110372 0.068598 -0.646576 0.759759
-0.037227 0.344995 0.298676 -0.042235 -0.627896 0.777150
0.176707 -0.685562 -0.580713 -0.053816 -0.671564 0.738990
0.264207 -0.089173 0.069951 0.068598 -0.646576 -0.759759
0.259248 0.048869 0.075875 0.000007 0.484761 0.870034
1.590775 0.073772 0.076873 -0.000000 -0.648103 0.761553
0.110918 0.078492 0.047021 0.068598 0.646576 -0.759759
1.454456 -0.091733 0.092159 -0.000000 0.648103 0.761553
0.089284 -0.515643 -0.443426 -0.042235 0.627896 -0.777150
0.408980 -0.083815 -0.033470 -0.000057 -0.946263 -0.310722
-0.707748 -0.062262 0.065334 -0.000051 -0.646112 0.757204
1.656713 -0.018958 0.084158 1.000000 -0.000000 -0.000000
0.957081 0.017212 -0.088594 -0.000038 0.126953 -0.987801
-1.226323 0.083780 0.033557 0.000002 0.946166 0.311011
1.376138 -0.048902 0.075853 0.000111 -0.491475 0.865666
0.189432 0.083780 -0.033556 0.000011 0.946145 -0.311064
-1.296291 0.088618 -0.017087 -0.000002 0.987940 -0.126234
0.817620 -0.088598 0.017188 0.000018 -0.987855 0.126673
1.631008 -0.327537 0.278743 -0.141227 0.427974 0.892689
0.638240 -0.075802 0.048981 -0.000086 -0.870025 0.484795
0.185321 -0.152912 -0.140375 0.053844 0.647163 -0.760448
1.232794 0.139048 0.125379 -0.141227 -0.427974 0.892689
1.295959 0.075690 -0.049154 0.000119 0.869029 -0.486484
-0.088220 0.214974 -0.172355 -0.053816 0.671564 0.738990
0.677786 -0.049302 -0.075594 0.001022 -0.598777 -0.795198
-0.003515 -0.231029 0.208430 -0.042235 0.627896 0.777150
-0.259145 0.048958 -0.075817 0.000074 0.492102 -0.865304
0.129816 -0.083660 -0.033854 -0.000091 -0.945946 -0.311706
1.391248 0.142111 -0.135031 0.000000 -0.648103 -0.761553
1.495677 0.048905 -0.075851 0.000069 0.485263 -0.869755
0.258019 -0.579279 0.498078 0.053844 0.647163 0.760448
0.887263 0.082991 0.035463 -0.001247 0.852978 0.512859
-0.448706 0.065096 0.062511 -0.000132 0.761949 0.641423
0.201849 -0.365570 -0.320182 0.053844 0.647163 -0.760448
-0.109092 0.186398 0.147906 -0.053816 0.671564 -0.738990
-0.478745 -0.048684 -0.075993 0.000534 -0.428876 -0.898773
1.645952 -0.275236 -0.220143 -0.000000 -0.648103 0.761553
1.411536 -0.161307 -0.151367 0.000000 0.648103 -0.761553
0.458793 0.075887 -0.048849 -0.000695 0.866323 -0.490486
-0.309073 -0.083780 0.033556 -0.000000 -0.946166 0.311012
0.139675 -0.050615 0.074721 -0.000525 -0.496302 0.862726
0.049837 0.033748 0.083703 0.000185 0.311666 0.945942
-1.386118 0.062378 -0.065223 0.000112 0.646862 -0.756589
0.368915 -0.033621 0.083754 -0.000069 -0.311497 0.945999
0.977153 0.075714 0.049117 -0.000029 0.864605 0.493223
1.086741 -0.090250 -0.000000 0.000008 -0.993993 0.062997
0.428715 0.083772 0.033576 -0.000003 0.946111 0.311173
1.236432 -0.088609 0.017131 -0.000057 -0.987629 0.127833
0.107112 0.229530 -0.175215 0.068598 0.646576 0.759759
0.458673 -0.017212 0.088594 0.000031 -0.126890 0.987813
0.587916 0.065390 0.062204 -0.000567 0.800147 0.592432
-1.146557 -0.065127 -0.062478 0.000583 -0.757280 -0.646293
-0.219338 0.048900 0.075854 0.000035 0.491145 0.865859
-0.079760 0.048902 -0.075853 0.000002 0.484790 -0.870001
0.568102 -0.033536 -0.083788 0.000079 -0.428556 -0.899022
-0.039885 0.088598 -0.017191 -0.000128 0.987849 -0.126705
1.495540 -0.088603 0.017161 0.000109 -0.987938 0.126244
-1.565306 0.090250 -0.000000 -0.005963 0.992297 -0.072057
1.371267 0.197999 0.175548 -0.141227 -0.427974 0.892689
-0.175244 0.288711 -0.245701 -0.042235 -0.627896 -0.777150
-0.448655 -0.090250 0.000000 -0.000030 -0.993946 0.063239
0.667528 0.062714 -0.064900 -0.000010 0.648613 -0.755154
1.106680 0.033557 -0.083780 0.000022 0.311049 -0.946151
-0.478576 0.073525 -0.052337 0.001072 0.734827 -0.671753
0.867453 -0.062235 -0.065359 0.000399 -0.734593 -0.672682
-1.356112 -0.017087 -0.088618 0.000002 -0.126230 -0.987940
-0.976925 0.075884 -0.048853 -0.000001 0.865771 -0.491300
-0.217177 -0.132232 -0.106553 -0.053816 -0.671564 0.738990
0.121944 -0.637670 0.543792 -0.042235 0.627896 0.777150
-1.545366 -0.000000 0.090250 -0.001725 -0.062693 0.993723
-0.807382 -0.083702 -0.033751 -0.000154 -0.946006 -0.311488
-0.448655 -0.000000 0.090250 -0.000097 -0.063213 0.993951
1.711492 -0.244894 0.208412 0.281887 0.670340 0.686428
-0.064239 0.155236 -0.143893 -0.042235 -0.627896 -0.777150
0.069818 -0.033693 0.083725 0.000229 -0.430016 0.898304
0.165683 0.627899 -0.538275 -0.042235 -0.627896 -0.777150
0.287160 0.570119 -0.481322 0.068598 0.646576 0.759759
0.043178 -0.328439 0.289670 -0.042235 0.627896 0.777150
-1.535392 -0.075939 -0.048768 -0.000102 -0.870352 -0.484201
-1.116529 -0.075921 0.048797 -0.000704 -0.897327 0.431324
0.478634 0.050610 0.074724 -0.000370 0.495788 0.863088
0.051601 0.117370 -0.119595 -0.010204 -0.634844 -0.772217
-1.475753 0.088618 0.017087 0.000063 0.987931 0.126276
-0.069789 -0.083780 0.033555 -0.000006 -0.946179 0.310976
0.258012 -0.201150 -0.164687 0.068598 -0.646576 0.759759
1.092632 0.098336 0.083687 -0.141227 0.812756 -0.565228
0.035122 -0.464619 0.390240 -0.053816 -0.671564 -0.738990
0.191360 0.415082 0.363061 0.053844 -0.647163 0.760448
0.237282 -0.534914 -0.446859 0.068598 -0.646576 0.759759
0.206471 -0.639233 -0.536443 -0.053816 -0.671564 0.738990
0.249408 0.065086 -0.062522 0.000011 0.756908 -0.646574
-1.715900 0.057046 -0.000000 -0.457476 0.873659 -0.098026
1.545495 0.082166 -0.037334 -0.001769 0.850748 -0.517179
-0.339082 0.088609 0.017131 -0.000064 0.987918 0.126347
-0.687937 -0.090250 0.000000 -0.000008 -0.993990 0.063011
-1.256411 0.017087 -0.088618 0.000015 0.126349 -0.987917
-0.329013 -0.033559 0.083779 0.000015 -0.311128 0.946120
1.276351 -0.017087 0.088618 -0.000015 -0.126401 0.987907
1.515633 0.017087 0.088618 -0.000000 0.126220 0.987942
-1.046879 0.033581 -0.083770 -0.000016 0.311211 -0.946092
0.498597 -0.088599 0.017187 0.000578 -0.986496 0.133497
-0.557959 -0.073591 0.052244 0.000051 -0.773482 0.627429
0.089309 -0.131778 0.090418 0.068598 -0.646576 -0.759759
0.064135 0.290660 0.230040 -0.053816 0.671564 -0.738990
0.189432 -0.033556 -0.083780 -0.000055 -0.311095 -0.946132
0.295584 -0.266606 0.229324 0.053844 0.647163 0.760448
1.406255 -0.065226 -0.062375 0.000105 -0.799512 -0.593547
0.038791 0.235001 -0.181305 -0.053816 0.671564 0.738990
0.265142 0.742848 -0.626332 0.030527 0.655166 0.754227
1.368133 0.103414 0.102099 -0.000000 -0.648103 0.761553
-0.857501 0.088598 0.017188 -0.000001 0.987860 0.126644
1.531927 -0.151233 0.142795 0.000000 0.648103 0.761553
1.524327 -0.103075 -0.101811 -0.000000 0.648103 -0.761553
-0.164986 -0.301651 -0.256713 -0.042235 0.627896 -0.777150
0.136975 -0.246628 -0.223552 0.053844 0.647163 -0.760448
1.477040 0.196087 0.180966 0.000000 -0.648103 0.761553
0.036838 0.165171 0.117988 -0.053816 0.671564 -0.738990
-0.039509 0.209816 0.164121 -0.053816 0.671564 -0.738990
-0.359126 0.075859 -0.048892 -0.000719 0.869669 -0.485369
1.194681 -0.069200 -0.072982 0.000000 0.761553 0.648103
-1.651252 0.054025 0.062644 -0.229563 0.540665 0.804305
0.260328 0.410373 0.342952 0.068598 0.646576 -0.759759
0.294075 0.478687 -0.404136 0.068598 0.646576 0.759759
1.594236 0.269737 -0.215463 -0.000000 0.648103 0.761553
1.656713 0.077689 -0.037503 1.000000 -0.000000 0.000000
0.199119 -0.180194 0.141536 0.068598 -0.646576 -0.759759
-0.279261 0.075950 0.048751 0.000025 0.898951 0.428696
1.515832 -0.052324 0.073534 -0.000098 -0.621440 0.777664
0.268447 -0.332611 0.287417 0.053844 0.647163 0.760448
0.274360 0.521520 0.447766 0.053844 -0.647163 0.760448
0.329967 0.632627 0.538384 0.068598 0.646576 -0.759759
0.135511 0.110036 0.107412 0.053844 -0.647163 0.760448
-0.052265 -0.187279 -0.144568 -0.053816 -0.671564 0.738990
1.687177 -0.221477 -0.195528 0.188947 0.667707 -0.716718
0.147964 0.540449 -0.466657 -0.042235 -0.627896 -0.777150
0.050116 0.484490 -0.416127 -0.042235 -0.627896 -0.777150
-0.011639 0.091188 0.095004 -0.042235 -0.627896 0.777150
1.632842 0.160776 -0.150916 0.000000 -0.648103 -0.761553
-1.671870 -0.038793 -0.066160 -0.310326 -0.327200 -0.884734
0.234023 0.610208 0.526098 0.053844 -0.647163 0.760448
0.265442 0.179371 0.157219 0.053844 -0.647163 0.760448
0.209503 -0.703574 0.601798 -0.042235 0.627896 0.777150
0.099295 -0.394747 0.346293 -0.042235 0.627896 0.777150
1.126675 -0.033621 0.083754 0.000033 -0.318683 0.943055
1.086739 0.083787 -0.033539 -0.000064 0.963960 -0.250500
0.089731 0.033556 -0.083780 0.000008 0.311032 -0.946157
0.134549 -0.491503 0.426383 -0.042235 0.627896 0.777150
0.081868 0.548037 -0.469196 -0.042235 -0.627896 -0.777150
1.630331 -0.284722 0.228216 -0.000000 -0.648103 -0.761553
0.056938 0.319099 -0.256408 -0.053816 0.671564 0.738990
0.271066 -0.396228 -0.331883 0.068598 -0.646576 0.759759
1.712997 -0.334003 0.294815 0.281887 0.670340 0.686428
1.460837 -0.201337 0.185435 -0.000000 0.648103 0.761553
0.240474 0.397141 -0.344315 0.053844 -0.647163 -0.760448
0.178829 0.321528 0.259984 0.068598 0.646576 -0.759759
-0.202050 0.188015 -0.162887 -0.042235 -0.627896 -0.777150
0.086835 -0.397019 -0.325041 -0.053816 -0.671564 0.738990
1.600175 0.189972 0.175763 -0.000000 -0.648103 0.761553
0.232014 -0.094471 -0.087333 0.053844 0.647163 -0.760448
0.022137 0.173570 -0.126692 -0.053816 0.671564 0.738990
0.329967 -0.693589 0.590264 0.053844 0.647163 0.760448
0.132950 -0.353684 -0.314945 -0.010204 0.634844 -0.772217
-0.066871 0.353816 -0.304193 -0.042235 -0.627896 -0.777150
-0.176273 -0.205317 -0.178268 -0.042235 0.627896 -0.777150
1.285775 0.156553 -0.119140 -0.047587 0.708283 0.700921
-0.059988 0.283005 0.247355 -0.042235 -0.627896 0.777150
-1.730363 -0.027234 -0.039835 -0.546180 -0.550653 -0.625876
0.189434 0.033579 0.083771 -0.000003 0.311184 0.946106
1.531927 0.151233 -0.142795 -0.000000 -0.648103 -0.761553
0.163456 -0.442301 -0.388201 -0.010204 0.634844 -0.772217
0.265772 -0.632524 0.542841 0.053844 0.647163 0.760448
1.524327 0.103075 -0.101811 0.000000 -0.648103 -0.761553
0.191647 -0.359499 0.293455 0.068598 -0.646576 -0.759759
0.314815 -0.639790 -0.545552 0.053844 0.647163 -0.760448
-0.039105 -0.075692 -0.080992 -0.042235 0.627896 -0.777150
-0.153437 0.232898 0.201792 -0.042235 -0.627896 0.777150
-0.598001 0.048674 0.075999 0.000084 0.427798 0.899414
-1.545843 -0.062271 0.065326 -0.000100 -0.641159 0.762148
0.241469 -0.519176 0.433844 0.068598 -0.646576 -0.759759
-1.425616 0.065324 0.062273 0.000074 0.799070 0.593691
-0.678145 -0.017087 -0.088618 0.000000 -0.126221 -0.987942
0.438857 -0.048837 -0.075895 0.000064 -0.484557 -0.870153
-0.628141 0.083767 -0.033589 0.000060 0.946066 -0.311284
0.228246 0.345019 -0.300824 0.053844 -0.647163 -0.760448
-0.588069 -0.083805 -0.033493 -0.000000 -0.946313 -0.310596
0.275175 0.246508 0.204838 0.068598 0.646576 -0.759759
-0.917074 -0.017091 0.088617 -0.000001 -0.126268 0.987933
0.126830 0.394621 -0.347687 -0.042235 -0.627896 -0.777150
0.024315 -0.507074 -0.429608 -0.053816 -0.671564 0.738990
0.286274 0.719315 0.615251 0.053844 -0.647163 0.760448
0.041432 -0.087831 0.095176 0.021823 0.641267 0.766650
-0.138468 -0.247475 0.205549 -0.053816 -0.671564 -0.738990
0.000000 -0.088633 0.017010 0.000026 -0.993932 0.063310
-0.378689 -0.088617 -0.017092 -0.000004 -0.987935 -0.126260
0.117697 0.309375 -0.278317 -0.010204 -0.634844 -0.772217
-0.068953 0.297004 -0.258178 -0.042235 -0.627896 -0.777150
0.329967 -0.327818 -0.278983 0.068598 -0.646576 0.759759
1.664176 0.153190 0.123323 0.188947 0.600711 -0.773734
-0.258666 -0.091020 0.081444 -0.042235 0.627896 0.777150
0.157206 0.265476 -0.210329 0.068598 0.646576 0.759759
0.210931 -0.116950 0.088780 0.068598 -0.646576 -0.759759
-0.011440 -0.381292 -0.317906 -0.053816 -0.671564 0.738990
0.179244 0.272036 0.217902 0.068598 0.646576 -0.759759
-0.022676 0.395507 0.340278 -0.042235 -0.627896 0.777150
1.648296 0.279363 -0.251837 0.000000 -0.648103 -0.761553
1.656713 0.057387 0.021055 1.000000 -0.000000 0.000000
1.356088 0.075690 0.049154 -0.000139 0.865234 0.492285
-0.054748 -0.126364 0.121082 -0.042235 0.627896 0.777150
-0.259498 -0.098339 -0.078835 -0.053816 -0.671564 0.738990
1.453837 0.112827 0.110110 -0.000000 -0.648103 0.761553
1.691777 0.243480 0.200163 0.188947 0.600711 -0.773734
0.192812 0.703868 -0.601128 -0.042235 -0.627896 -0.777150
0.269378 -0.576591 -0.485225 0.068598 -0.646576 0.759759
-1.686695 -0.037014 0.060786 -0.353532 -0.524754 0.767019
1.582239 -0.178885 0.166327 -0.000000 0.648103 0.761553
-0.143787 -0.250845 -0.208999 -0.053816 -0.671564 0.738990
0.092275 -0.235527 0.217270 0.019532 0.640802 0.767041
1.734317 -0.319560 -0.271955 0.281887 -0.570389 0.771489
1.679538 -0.140363 0.119453 0.281887 0.670340 0.686428
1.738882 0.334493 0.284663 0.281887 0.570389 -0.771489
1.738882 0.334493 -0.284663 0.281887 0.570389 0.771489
1.594717 -0.099232 -0.070359 -0.000000 -0.648103 0.761553
0.329967 0.541185 0.460564 0.068598 0.646576 -0.759759
0.329967 0.114452 0.097402 0.068598 0.646576 -0.759759
0.329967 -0.175413 0.149282 0.053844 0.647163 0.760448
0.329967 0.449742 0.382743 0.068598 0.646576 -0.759759
0.329967 -0.373540 -0.317893 0.068598 -0.646576 0.759759
0.329967 -0.541185 -0.460564 0.068598 -0.646576 0.759759
0.737807 -0.048757 -0.075946 -0.000580 -0.490062 -0.866533
0.068147 0.531597 0.448702 -0.053816 0.671564 -0.738990
-0.135438 0.087298 0.059767 -0.053816 0.671564 -0.738990
0.329967 -0.464982 -0.395713 0.068598 -0.646576 0.759759
0.273797 -0.418615 0.360231 0.053844 0.647163 0.760448
0.329967 -0.571666 0.486504 0.053844 0.647163 0.760448
0.106325 0.589237 0.503813 -0.042235 -0.627896 0.777150
-1.455511 -0.088605 0.017155 -0.000337 -0.987745 0.127238
-1.425703 -0.035514 0.082969 -0.000508 -0.323611 0.941204
1.515407 -0.017212 -0.088594 -0.000167 -0.134610 -0.986269
-1.146404 0.033446 0.083824 -0.000009 0.249731 0.964177
0.997015 0.088598 -0.017191 0.000027 0.987858 -0.126655
-0.154138 0.149401 0.134293 -0.042235 -0.627896 0.777150
-0.558155 -0.048825 -0.075903 -0.001280 -0.488073 -0.867874
0.708010 -0.065373 0.062221 0.000032 -0.799378 0.593293
-0.687802 0.062271 0.065326 -0.000194 0.646062 0.757325
0.598381 -0.017092 0.088617 -0.000004 -0.126260 0.987935
-0.977248 -0.048815 -0.075909 0.000054 -0.484629 -0.870104
0.329013 0.083780 -0.033557 -0.000001 0.946095 -0.311190
0.029910 -0.033556 -0.083780 0.000002 -0.310994 -0.946173
1.365904 -0.090250 -0.000000 -0.000064 -0.993981 0.063058
1.216175 0.017087 -0.088618 0.000000 0.126220 -0.987942
-0.827519 0.033556 -0.083780 0.000008 0.311032 -0.946157
1.086740 -0.033557 -0.083780 0.000001 -0.311006 -0.946168
-1.445797 0.065143 -0.062462 -0.000002 0.757082 -0.646386
-1.036842 -0.088594 -0.017212 0.000009 -0.987825 -0.126826
0.658178 0.052311 0.073544 0.000610 0.670468 0.735812
1.612463 0.089026 -0.089854 0.000000 -0.648103 -0.761553
0.224103 0.690649 0.592149 -0.042235 -0.627896 0.777150
1.162100 0.127910 -0.108855 -0.141227 0.812756 0.565228
0.787481 0.083807 -0.033488 0.000004 0.946349 -0.310478
1.319332 -0.151984 0.115252 -0.000000 -0.648103 -0.761553
-0.179462 -0.017010 -0.088633 0.000016 -0.063239 -0.993946
-0.010841 -0.282153 0.249338 -0.042235 0.627896 0.777150
0.906831 0.064923 -0.062691 0.000055 0.761036 -0.642496
0.101724 0.638091 -0.543034 -0.042235 -0.627896 -0.777150
-0.113696 0.366351 0.311775 -0.053816 0.671564 -0.738990
-0.216277 -0.236950 0.201652 -0.053816 -0.671564 -0.738990
0.070950 -0.599271 -0.509997 -0.042235 0.627896 -0.777150
-0.277825 -0.159310 0.135578 -0.053816 -0.671564 -0.738990
-0.567630 0.082186 0.037290 0.000044 0.849451 0.519085
1.648296 0.279363 0.251837 -0.000000 -0.648103 0.761553
-0.195369 -0.178332 0.146859 -0.053816 -0.671564 -0.738990
-1.366166 0.065191 0.062412 0.000033 0.756819 0.646668
-1.605984 0.076525 -0.046873 -0.083427 0.790780 -0.599486
-0.827361 -0.083713 0.033724 -0.000252 -0.898196 0.430257
1.385251 -0.170845 0.131303 -0.000000 -0.648103 -0.761553
1.317461 -0.122047 -0.117956 -0.000000 0.648103 -0.761553
1.355753 -0.167570 -0.128516 -0.000000 -0.648103 0.761553
1.166507 0.083741 -0.033654 0.000587 0.943432 -0.317837
-1.286143 -0.083770 -0.033581 0.000135 -0.963905 -0.250694
0.329967 0.388780 -0.330863 0.053844 -0.647163 -0.760448
-0.478630 0.088598 0.017192 -0.001180 0.987490 0.128521
0.747758 -0.000000 0.090250 -0.000000 -0.063110 0.993971
0.498403 -0.017129 -0.088610 -0.000060 -0.126345 -0.987918
-1.545722 0.033556 -0.083780 0.000015 0.311506 -0.945967
-0.777668 0.088633 0.017010 -0.000069 0.994000 0.062961
-1.066904 0.033805 0.083680 0.000044 0.311906 0.945846
-0.737802 0.075884 -0.048854 0.000066 0.870171 -0.484549
-1.166502 0.090250 -0.000000 0.000000 0.993971 -0.063110
0.697907 0.088633 0.017010 0.000000 0.993989 0.063018
-1.365727 -0.033486 0.083808 0.001079 -0.256112 0.961984
-1.236115 -0.017087 0.088618 -0.000129 -0.133459 0.986505
-0.737965 -0.017087 -0.088618 0.000000 -0.126220 -0.987942
1.136696 -0.075942 -0.048764 -0.000083 -0.899127 -0.428451
1.395992 0.017087 0.088618 -0.000003 0.126237 0.987939
0.039703 0.088618 -0.017087 0.000002 0.987943 -0.126216
-0.152160 0.235839 -0.195973 -0.053816 0.671564 0.738990
0.036838 -0.165171 -0.117988 -0.053816 -0.671564 0.738990
-1.736968 -0.030955 0.030972 -0.592622 -0.512423 0.614014
-0.216277 0.236950 0.201652 -0.053816 0.671564 -0.738990
0.029917 -0.547511 0.465947 -0.053816 -0.671564 -0.738990
0.280466 0.643198 -0.542910 0.068598 0.646576 0.759759
0.097146 -0.224484 -0.170021 0.068598 -0.646576 0.759759
-0.148924 -0.112059 -0.083250 -0.053816 -0.671564 0.738990
1.564626 0.258780 0.206138 -0.000000 0.648103 -0.761553
0.086582 -0.177140 0.128776 0.068598 -0.646576 -0.759759
1.679459 -0.311938 -0.251377 0.094984 -0.626615 0.770422
1.250330 0.112890 -0.081982 -0.000000 0.648103 0.761553
0.259286 0.357744 0.298069 0.068598 0.646576 -0.759759
-0.174739 0.122270 -0.111254 -0.042235 -0.627896 -0.777150
1.468629 0.168870 -0.157804 0.000000 -0.648103 -0.761553
0.069995 -0.083660 -0.033854 -0.000207 -0.945868 -0.311898
1.296113 0.088633 0.017010 0.000000 0.993941 0.063269
1.194681 -0.083110 0.056638 -0.000000 -0.648103 -0.761553
0.083365 0.318227 0.283603 -0.042235 -0.627896 0.777150
0.159344 0.088618 0.017087 -0.000000 0.987942 0.126220
0.197846 -0.260009 0.230630 0.053844 0.647163 0.760448
0.164455 0.195623 0.178200 0.053844 -0.647163 0.760448
0.168540 -0.469906 0.385329 -0.013001 -0.664118 -0.746918
0.290408 -0.480057 0.411344 0.053844 0.647163 0.760448
0.270226 -0.752463 0.644598 0.043177 0.645257 0.762585
0.011832 -0.095427 -0.099705 -0.042235 0.627896 -0.777150
1.547449 0.236426 -0.215296 -0.000000 -0.648103 -0.761553
0.264491 0.518977 -0.435753 0.068598 0.646576 0.759759
1.547449 -0.236426 0.215296 -0.000000 0.648103 0.761553
0.069200 0.384077 0.336037 -0.042235 -0.627896 0.777150
1.425726 0.033576 -0.083772 -0.000006 0.311193 -0.946103
1.233759 -0.103168 0.101890 -0.000000 0.648103 0.761553
0.083718 0.447728 0.371351 -0.053816 0.671564 -0.738990
-0.169543 -0.092939 0.087838 -0.042235 0.627896 0.777150
1.355753 0.167570 0.128516 -0.000000 0.648103 -0.761553
1.133617 -0.083110 0.056638 -0.048930 -0.709704 -0.698885
-0.034675 -0.380479 0.318860 -0.053816 -0.671564 -0.738990
0.132950 0.369349 -0.296538 0.027803 0.655789 0.753841
1.443072 -0.143272 -0.107838 0.000000 -0.648103 0.761553
1.656713 0.037246 0.077812 0.062971 0.531436 0.840126
1.234021 -0.134520 -0.100390 -0.052334 -0.713721 0.694210
1.422604 -0.238814 -0.203238 -0.141227 -0.812756 0.565228
1.276202 0.050629 0.074711 -0.001701 0.494810 0.863701
-0.087936 -0.208968 0.186018 -0.042235 0.627896 0.777150
0.183628 0.580053 -0.484327 -0.053816 0.671564 0.738990
0.232277 -0.320208 -0.263686 0.068598 -0.646576 0.759759
1.348217 -0.097879 0.069207 0.000000 -0.648103 -0.761553
-0.388913 0.065419 0.062173 0.000167 0.802427 0.589966
0.190572 -0.074942 0.051192 0.068598 -0.646576 -0.759759
-0.877205 0.075861 -0.048889 0.000045 0.865677 -0.491494
-0.309075 -0.033579 -0.083771 0.000003 -0.311184 -0.946106
1.535396 0.088633 0.017010 0.000388 0.993957 0.062392
-0.067566 -0.306392 0.253928 -0.053816 -0.671564 -0.738990
0.195568 0.485179 -0.400767 0.068598 0.646576 0.759759
0.558326 0.088633 0.017010 0.000000 0.993989 0.063018
0.208347 -0.666117 0.560738 -0.053816 -0.671564 -0.738990
1.037115 -0.075732 -0.049089 -0.001142 -0.867098 -0.489460
-0.637863 -0.049087 0.075734 -0.000138 -0.486188 0.869232
-1.455489 0.017131 0.088609 -0.000030 0.126552 0.987878
0.757732 -0.088598 0.017191 0.000158 -0.987953 0.126164
0.937164 -0.075970 0.048720 0.000689 -0.870027 0.484656
-1.266163 0.033600 0.083762 -0.001091 0.314772 0.944653
-0.127420 0.278011 0.239656 -0.042235 -0.627896 0.777150
0.176009 -0.550839 -0.458333 -0.053816 -0.671564 0.738990
-0.847459 -0.000000 0.090250 0.000003 -0.063148 0.993964
0.966726 0.065080 -0.062527 0.000955 0.666628 -0.739383
-0.319167 0.048871 0.075873 -0.000140 0.491760 0.865469
-1.485901 0.033556 -0.083780 -0.000015 0.311106 -0.946128
-0.169660 0.083682 -0.033801 0.000119 0.896371 -0.433042
-1.226323 -0.083770 0.033581 -0.000026 -0.963824 0.250961
-1.650087 -0.080506 -0.020225 -0.198550 -0.910012 -0.347181
1.336042 0.048919 -0.075842 -0.000185 0.491181 -0.865859
1.169672 0.094126 0.066013 -0.000000 0.648103 -0.761553
0.279163 -0.088633 0.017010 -0.000022 -0.993989 0.063018
0.216949 -0.483674 -0.419623 0.053844 0.647163 -0.760448
1.706927 0.229961 -0.195704 0.281887 0.570389 0.771489
-0.097688 -0.163453 0.148715 -0.042235 0.627896 0.777150
0.193912 -0.271127 -0.218453 0.068598 -0.646576 0.759759
1.632842 -0.160776 -0.150916 0.000000 0.648103 -0.761553
0.141410 -0.189303 -0.174453 0.053844 0.647163 -0.760448
1.561540 -0.297963 -0.253575 -0.141227 -0.812756 0.565228
1.427935 0.202122 0.157921 -0.000000 0.648103 -0.761553
0.489062 -0.062276 0.065321 0.000152 -0.591229 0.801535
0.115078 -0.114996 -0.113080 0.053844 0.647163 -0.760448
0.081068 0.151440 0.146503 0.053844 -0.647163 0.760448
0.568296 -0.090250 -0.000000 -0.000691 -0.993391 0.066047
0.204130 -0.560458 0.485876 0.021823 0.641267 0.766650
1.656713 -0.044624 -0.055325 1.000000 0.000000 0.000000
0.011411 0.434405 -0.373558 -0.042235 -0.627896 -0.777150
-0.014482 0.316049 0.258838 -0.053816 0.671564 -0.738990
0.358748 0.088617 0.017090 0.000003 0.987938 0.126242
-0.050475 -0.281553 -0.230110 -0.053816 -0.671564 0.738990
0.329967 0.327818 -0.278983 0.053844 -0.647163 -0.760448
-0.005980 -0.150772 0.108022 -0.053816 -0.671564 -0.738990
0.289890 -0.232780 -0.194484 0.068598 -0.646576 0.759759
0.284462 -0.201321 0.167222 0.068598 -0.646576 -0.759759
1.246441 -0.063732 0.063901 0.000582 -0.663498 0.742410
-0.458643 -0.074754 0.050566 -0.000536 -0.862956 0.495897
-0.787449 -0.063860 0.063773 0.000757 -0.753395 0.650387
0.268704 -0.622524 -0.524255 0.068598 -0.646576 0.759759
1.656122 -0.237046 0.187642 0.000000 -0.648103 -0.761553
-1.046667 -0.035549 0.082954 -0.000330 -0.458019 0.883657
1.246134 -0.033674 -0.083733 0.001136 -0.313376 -0.945231
-0.847390 -0.064112 -0.063520 -0.000112 -0.602023 -0.792428
0.235683 0.492028 0.425406 0.053844 -0.647163 0.760448
-0.275007 0.131779 -0.110353 -0.053816 0.671564 0.738990
0.129816 -0.083660 0.033854 -0.000091 -0.945946 0.311706
0.528475 0.065222 0.062380 0.000042 0.757117 0.646404
-0.129539 -0.063819 -0.063814 0.000008 -0.750281 -0.653772
-0.059606 0.101418 0.067076 -0.053816 0.671564 -0.738990
-0.103058 -0.160731 -0.124141 -0.053816 -0.671564 0.738990
1.535936 0.136913 0.102426 0.000000 0.648103 -0.761553
0.213367 0.116959 0.107791 0.053844 -0.647163 0.760448
-0.318858 -0.107550 -0.091528 -0.042235 0.627896 -0.777150
-0.029943 0.063285 -0.064344 -0.000153 0.750410 -0.653792
-0.078520 -0.350091 0.294437 -0.053816 -0.671564 -0.738990
-1.658537 -0.073226 0.034167 -0.276162 -0.910312 0.294448
0.062585 0.108787 -0.068439 0.068598 0.646576 0.759759
0.056262 0.095519 0.056577 0.068598 0.646576 -0.759759
0.058733 0.183528 -0.173435 -0.042235 -0.627896 -0.777150
-0.211092 0.160625 0.131913 -0.053816 0.671564 -0.738990
0.178768 0.155518 -0.118699 0.068598 0.646576 0.759759
0.060692 0.586331 -0.498984 -0.042235 -0.627896 -0.777150
-1.345796 -0.083805 0.033493 -0.000164 -0.946165 0.310965
-0.807564 0.065267 0.062333 0.000675 0.753565 0.650173
-0.857607 -0.017087 -0.088618 -0.000000 -0.126220 -0.987942
0.219164 0.088618 0.017087 0.000000 0.987942 0.126220
0.987041 0.033557 0.083780 0.000000 0.310992 0.946174
1.056653 0.017087 -0.088618 0.000002 0.126216 -0.987943
0.309073 -0.033557 -0.083780 -0.000011 -0.311070 -0.946143
-0.657867 -0.075996 -0.048680 0.000112 -0.899503 -0.427623
1.176650 0.017087 0.088618 0.000015 0.126401 0.987907
0.329967 0.693589 0.590264 0.068598 0.646576 -0.759759
0.827567 -0.062566 0.065043 0.000749 -0.742435 0.662804
-1.066801 0.083780 0.033556 0.000000 0.946166 0.311011
-1.087055 0.062381 -0.065220 0.000024 0.646721 -0.756770
1.338429 0.159381 -0.121547 -0.000000 0.648103 0.761553
-0.927188 -0.083737 -0.033663 -0.000086 -0.945913 -0.311748
1.425721 0.083702 -0.033750 -0.000197 0.945813 -0.312017
-0.368890 -0.033534 -0.083789 -0.000070 -0.250446 -0.963975
0.777672 0.048900 0.075854 0.000051 0.491236 0.865799
0.339075 0.017187 0.088599 -0.000038 0.126920 0.987807
0.389038 -0.083801 0.033504 -0.000070 -0.963995 0.250381
-1.395814 -0.088633 -0.017010 0.000029 -0.993933 -0.063305
-0.548244 0.062399 -0.065203 -0.001270 0.645140 -0.758275
-0.717847 0.017010 0.088633 0.000069 0.062961 0.994000
-1.146562 -0.090250 0.000000 -0.000474 -0.993746 0.064263
0.957130 -0.088633 -0.017010 0.000064 -0.993999 -0.062964
-0.907251 -0.083777 0.033564 0.000031 -0.963888 0.250767
0.190572 -0.074942 -0.051192 0.068598 -0.646576 0.759759
0.927220 -0.033556 0.083780 -0.000007 -0.311034 0.946157
0.139490 -0.048896 -0.075857 -0.000032 -0.491326 -0.865761
0.617942 -0.048674 -0.075999 -0.000084 -0.427798 -0.899414
0.617798 0.073950 -0.051734 0.001024 0.852642 -0.513828
-0.927304 0.062375 -0.065226 -0.000004 0.646463 -0.756976
-0.219568 0.075998 -0.048676 0.000017 0.899450 -0.427751
-1.196346 -0.052193 -0.073627 -0.000100 -0.620189 -0.778702
0.857562 -0.088607 -0.017144 0.000529 -0.986560 -0.133185
-1.146404 -0.033446 0.083824 -0.000009 -0.249731 0.964177
0.299249 0.048849 -0.075887 -0.000055 0.491326 -0.865749
-1.345989 0.083768 -0.033586 -0.000015 0.946082 -0.311240
0.877528 0.048834 0.075897 -0.001158 0.486281 0.869037
1.156365 0.048825 -0.075903 0.000010 0.484630 -0.870105
-1.306429 -0.033571 -0.083774 0.000006 -0.318500 -0.943118
1.317461 0.122047 0.117956 -0.000000 -0.648103 0.761553
-1.465961 -0.033556 -0.083780 -0.000011 -0.311064 -0.946145
1.086741 -0.000000 0.090250 0.000003 -0.063129 0.993967
0.052318 0.391198 -0.340872 -0.042235 -0.627896 -0.777150
-0.408776 -0.033582 0.083770 -0.000000 -0.311206 0.946100
0.837317 -0.017096 -0.088616 0.000007 -0.126390 -0.987909
-1.395998 -0.048820 -0.075906 -0.000119 -0.490860 -0.866047
-0.059646 -0.048817 0.075908 -0.001201 -0.487743 0.868084
-0.967100 0.083776 0.033566 -0.000011 0.946119 0.311139
1.475807 0.048870 0.075874 0.000028 0.490787 0.866111
0.388834 -0.000000 -0.090250 0.000009 -0.063145 -0.993964
-1.335817 0.017089 0.088618 0.000001 0.126246 0.987937
1.315876 -0.017088 -0.088618 -0.000007 -0.126278 -0.987931
1.266332 -0.083723 -0.033698 -0.000086 -0.945955 -0.311618
