0.756404 -0.017731 -0.089232 -0.000126 -0.238511 -0.970072
0.148978 0.474443 0.473402 -0.061182 0.724690 -0.686353
0.148978 -0.474443 -0.473402 -0.061182 -0.724690 0.686353
0.184556 -0.081076 -0.041272 0.000002 -0.895847 -0.442101
0.025721 0.227317 0.223460 -0.061182 0.724690 -0.686353
0.710925 -0.054040 -0.073188 -0.000020 -0.629551 -0.775684
0.019422 -0.090452 0.009758 0.000521 -0.987059 0.151540
-1.335099 -0.049849 0.076104 -0.000018 -0.493622 0.868529
1.449054 0.209351 0.212166 0.028189 -0.706269 0.707382
0.330723 0.393480 0.388288 0.073693 0.704409 -0.705958
0.776692 0.059765 0.068592 0.001928 0.638423 0.768153
0.101983 0.262809 0.268612 -0.050809 -0.688644 0.723318
0.876652 0.050042 0.075977 0.000081 0.544505 0.837567
0.264764 0.162237 0.171187 0.061207 -0.705006 0.706556
0.760310 -0.073368 0.053795 -0.000214 -0.823803 0.565131
0.219448 -0.452665 0.444126 -0.061182 -0.724690 -0.686353
-0.219763 0.053433 0.073632 0.000351 0.617957 0.784813
0.928801 0.088305 -0.021886 -0.000205 0.966271 -0.253571
1.504959 -0.256339 0.256852 0.028189 0.706269 0.707382
1.102002 -0.084873 0.032762 -0.000515 -0.906221 0.420218
0.171726 0.300046 -0.287236 -0.061182 0.724690 0.686353
1.164265 -0.127829 -0.130924 -0.012848 0.688286 -0.725326
-0.760374 -0.059753 -0.068602 -0.000470 -0.686284 -0.726013
-1.344975 -0.000000 0.090976 -0.000034 0.065012 0.996788
-0.347278 -0.089134 0.018214 -0.000039 -0.964586 0.259888
0.126418 -0.144541 -0.157730 -0.050809 0.688644 -0.723318
0.381075 -0.051736 0.074834 0.001652 -0.617861 0.785089
-0.440785 -0.081755 -0.039911 0.000336 -0.889387 -0.454959
1.296987 -0.031452 -0.085367 0.000459 -0.287854 -0.956567
-0.281374 -0.066678 0.061893 -0.000017 -0.715434 0.697365
0.994981 0.000000 -0.090976 0.001176 0.009646 -0.999255
0.556799 0.090493 0.009370 0.000032 0.987905 0.147680
0.262306 0.450869 -0.438409 0.028744 0.712304 0.700529
0.699800 0.077233 0.048081 0.000301 0.820943 0.569310
0.363547 0.443483 -0.443259 0.061207 -0.705006 -0.706556
0.277107 0.222778 -0.212364 0.073693 0.704409 0.705958
0.334284 -0.654752 0.649358 0.073693 -0.704409 -0.705958
0.514188 -0.044897 0.079126 0.001164 -0.550665 0.833392
-1.566979 -0.021942 0.063323 -0.425179 -0.385649 0.816064
0.329871 0.544893 -0.539280 0.073693 0.704409 0.705958
-0.787713 -0.090468 -0.009602 -0.000894 -0.988452 -0.143185
1.292926 0.052968 0.073967 -0.000070 0.624152 0.780025
1.294487 -0.167070 0.162746 -0.012848 -0.723812 -0.689877
-0.098540 0.087145 -0.026125 -0.000149 0.945197 -0.323453
1.285582 0.112737 0.105906 -0.012848 0.723812 -0.689877
0.036327 -0.301456 0.300795 -0.050809 0.688644 0.723318
0.208187 0.441057 0.445776 -0.050809 -0.688644 0.723318
0.208187 -0.441057 -0.445776 -0.050809 0.688644 -0.723318
0.785257 0.051331 -0.075112 -0.000021 0.594094 -0.803156
-0.874331 0.066774 -0.061790 0.000380 0.754272 -0.655142
-0.165309 -0.063016 -0.065618 0.000685 -0.670953 -0.740515
-0.298159 0.007794 0.090642 -0.000010 0.120378 0.991740
-1.131711 -0.090827 -0.005212 -0.002120 -0.993869 -0.104834
1.489069 0.025308 0.094996 -0.210436 0.195518 0.957042
-1.569685 -0.063310 0.017714 -0.451125 -0.862292 0.220701
0.310556 0.283962 0.276905 0.073693 0.704409 -0.705958
-0.299095 -0.090413 0.010109 -0.001889 -0.983355 0.175079
1.482789 -0.096959 0.000000 -0.210596 -0.976332 -0.028416
0.848278 0.038308 -0.082518 0.000135 0.394464 -0.917864
0.240245 -0.502146 -0.494517 -0.061182 -0.724690 0.686353
-1.132872 0.089236 -0.017712 -0.001514 0.982257 -0.182413
1.134733 -0.094883 0.099137 -0.012848 0.688286 0.725326
0.029867 -0.236193 -0.232462 -0.061182 -0.724690 0.686353
1.091814 -0.134261 -0.135744 -0.012848 0.688286 -0.725326
1.455096 -0.275929 -0.273968 -0.012848 -0.723812 0.689877
1.188002 0.205493 0.205042 -0.012848 -0.688286 0.725326
1.369469 0.096409 0.102574 0.028189 -0.706269 0.707382
1.529369 0.089853 -0.089656 0.028189 -0.706269 -0.707382
1.310124 0.137365 0.131289 -0.012848 0.723812 -0.689877
0.325592 -0.363459 -0.357797 0.073693 -0.704409 0.705958
0.287721 -0.600387 -0.603054 -0.050809 0.688644 -0.723318
0.107348 -0.268624 0.274525 -0.050809 0.688644 0.723318
1.285123 -0.180592 -0.183133 -0.012848 0.688286 -0.725326
1.006028 0.078512 -0.045963 0.000422 0.855178 -0.516458
0.083069 0.207318 0.214453 -0.050809 -0.688644 0.723318
-0.487925 0.046108 0.078426 0.000404 0.481480 0.875089
0.336018 0.563476 0.558463 0.073693 0.704409 -0.705958
0.533025 0.046812 0.078009 0.000268 0.505422 0.861790
1.002910 0.007328 0.090681 -0.000744 0.132650 0.990364
1.233774 0.072820 0.054534 0.000017 0.801687 0.596066
-0.005178 0.011269 -0.090276 0.001846 0.192709 -0.980141
1.336198 0.055445 0.072129 0.000063 0.652418 0.756551
-1.059852 -0.024532 0.087606 -0.000707 -0.208276 0.977105
0.057882 -0.265741 0.268306 -0.050809 0.688644 0.723318
1.412300 0.040907 0.081261 0.000068 0.449848 0.891995
-0.729351 0.069149 0.059119 0.000002 0.799108 0.599548
-0.521765 0.090189 0.011944 -0.001642 0.984021 0.172361
1.318168 0.067431 -0.061071 -0.000437 0.699184 -0.713646
1.213252 -0.182227 -0.180161 -0.012848 -0.723812 0.689877
0.157051 -0.311986 0.319300 -0.050809 0.688644 0.723318
0.118859 0.310185 -0.302654 -0.061182 0.724690 0.686353
0.327477 -0.084476 -0.033772 0.000439 -0.903758 -0.425841
-1.010353 0.048220 -0.077146 0.000146 0.494052 -0.868301
0.243325 0.302507 -0.313007 0.061207 -0.705006 -0.706556
1.011466 0.079079 0.044980 -0.000167 0.840239 0.540385
-0.781436 0.017762 -0.089226 -0.000083 0.224510 -0.973437
-0.020963 0.034361 0.084238 -0.000225 0.351440 0.935186
0.441177 -0.007541 0.090663 0.000112 -0.111488 0.992914
-0.461929 -0.023764 -0.087818 -0.000313 -0.291637 -0.955606
0.284923 -0.412982 -0.419636 0.061207 0.705006 -0.706556
0.190287 0.073895 0.054744 0.073693 0.704409 -0.705958
0.154303 0.078649 -0.045728 -0.000190 0.845317 -0.532374
0.157452 -0.117384 -0.134055 -0.050809 0.688644 -0.723318
0.174397 0.157793 -0.136800 0.028744 0.712304 0.700529
0.402553 -0.063770 -0.064886 -0.000090 -0.731565 -0.680312
0.973297 -0.080362 0.042645 0.000013 -0.874512 0.483003
0.466851 0.028501 0.086397 -0.000185 0.343461 0.938286
-1.111114 -0.035929 -0.083581 0.000454 -0.428630 -0.902495
0.208375 -0.364420 -0.351939 -0.061182 -0.724690 0.686353
0.198845 0.207035 0.188485 0.073693 0.704409 -0.705958
0.123944 0.436002 0.435045 -0.061182 0.724690 -0.686353
0.123944 -0.436002 -0.435045 -0.061182 -0.724690 0.686353
1.404384 0.059048 -0.069210 0.000173 0.670418 -0.740798
-1.276921 0.088159 0.022467 0.000038 0.959246 0.279080
0.150926 -0.205989 0.217954 -0.050809 0.688644 0.723318
0.107228 0.167797 -0.178523 -0.050809 -0.688644 -0.723318
-0.820004 0.036422 -0.083367 0.000532 0.366935 -0.929175
-1.542556 -0.000000 -0.076875 -0.347283 -0.028516 -0.936066
0.182039 -0.205929 -0.220082 -0.050809 0.688644 -0.723318
-0.378684 0.014660 -0.089788 0.000542 0.138506 -0.989628
0.664987 -0.090976 0.000000 0.001332 -0.998913 -0.026001
0.377765 0.033199 0.084702 -0.000260 0.325024 0.944593
1.421284 0.146335 0.150356 0.028189 -0.706269 0.707382
0.031508 -0.119167 -0.126906 -0.050809 0.688644 -0.723318
-1.189224 -0.082075 -0.039247 0.000136 -0.889822 -0.454183
1.061805 0.126672 -0.128011 -0.012848 -0.688286 -0.725326
-1.160752 0.072575 0.054860 0.000241 0.833872 0.550147
0.216105 0.146117 0.129503 0.073693 0.704409 -0.705958
0.134930 0.399234 -0.395244 -0.061182 0.724690 0.686353
1.111916 -0.081791 -0.076672 -0.012848 -0.723812 0.689877
1.192194 0.084964 -0.032525 0.000193 0.922589 -0.383134
1.505815 0.149076 -0.147774 0.028189 0.705829 0.707821
1.308800 0.232381 -0.231003 -0.012848 0.723812 0.689877
0.290276 0.048495 0.076974 -0.000051 0.514103 0.856569
0.473751 -0.049066 0.076611 0.000415 -0.565484 0.823564
1.043017 -0.103070 -0.100281 -0.012848 -0.723812 0.689877
-1.331404 0.018100 -0.089158 -0.000470 0.257053 -0.965343
0.576298 0.048301 0.077095 0.000260 0.478618 0.876905
1.426073 -0.166368 -0.170167 0.028189 0.706269 -0.707382
0.238951 -0.325448 0.336276 0.061207 0.705006 0.706556
0.891536 -0.083175 0.083719 -0.012848 0.688286 0.725326
0.158041 0.082815 0.101184 -0.013465 -0.694860 0.718513
0.328782 -0.465683 0.468422 0.061207 0.705006 0.706556
0.372193 -0.567457 0.566212 0.073693 -0.704409 -0.705958
1.487893 -0.113640 0.111724 0.028189 -0.705829 -0.707821
0.176711 -0.454107 0.449458 -0.061182 -0.724690 -0.686353
1.066130 0.068521 0.072906 -0.000000 -0.707883 -0.706330
1.443896 -0.075385 -0.078617 0.028189 0.706269 -0.707382
1.489032 0.254505 0.252238 0.028189 0.705829 -0.707821
1.368415 -0.071851 0.055804 0.000595 -0.815147 0.577953
0.158041 -0.103268 -0.080686 -0.016214 -0.719064 0.693994
0.240307 0.476915 -0.467871 -0.061182 0.724690 0.686353
-1.536942 0.078273 0.008578 -0.287582 0.946763 0.135826
0.865141 -0.067492 -0.061004 0.000132 -0.772041 -0.634115
-1.560148 0.052272 0.046662 -0.372867 0.687912 0.620046
1.241847 0.052166 -0.074535 -0.000374 0.617979 -0.785174
-0.928178 0.010815 0.090331 -0.000972 0.195837 0.979050
0.032713 -0.088700 -0.097983 -0.050809 0.688644 -0.723318
0.114416 0.163650 0.148331 -0.061182 0.724690 -0.686353
0.136050 0.186974 0.198805 -0.050809 -0.688644 0.723318
-0.919589 0.090531 -0.008989 -0.000424 0.990862 -0.127752
1.358132 -0.032452 -0.084992 0.000098 -0.413136 -0.909572
0.112108 -0.313410 0.306661 -0.061182 -0.724690 -0.686353
1.423760 -0.016350 0.089495 0.000109 -0.204646 0.977905
0.342393 -0.297618 0.293855 0.073693 -0.704409 -0.705958
0.817103 -0.090577 -0.008512 0.000399 -0.987273 -0.152913
-0.267360 -0.013573 -0.089958 0.001114 -0.191676 -0.980264
0.339599 0.178738 -0.181170 0.061207 -0.705006 -0.706556
0.614097 0.082933 0.037400 0.000474 0.884489 0.464687
0.311386 0.398624 -0.403017 0.061207 -0.705006 -0.706556
-0.234613 -0.084673 -0.033274 0.000289 -0.951096 -0.305678
-1.626717 -0.028471 0.000000 -0.666336 -0.737796 -0.062040
1.529149 0.038883 -0.000000 1.000000 0.000000 0.000000
0.332308 -0.554194 -0.556433 0.061207 0.705006 -0.706556
-1.425043 -0.033746 0.084486 -0.000012 -0.341164 0.938937
0.372193 -0.227362 -0.226864 0.073693 -0.704409 0.705958
0.128833 0.094513 -0.110270 -0.050809 -0.688644 -0.723318
0.372193 0.199021 0.198585 0.073693 0.704409 -0.705958
0.372193 -0.347812 0.347049 0.073693 -0.704409 -0.705958
0.372193 0.227362 -0.226864 0.061207 -0.705006 -0.706556
0.372193 0.092742 -0.092538 0.061207 -0.705006 -0.706556
0.734738 0.054800 0.072620 0.001107 0.550511 0.833727
0.171025 -0.351756 0.341897 -0.061182 -0.724690 -0.686353
1.529369 0.089853 0.089656 0.028189 -0.706269 0.707382
1.531245 0.210215 -0.209754 0.028189 -0.706269 -0.707382
1.489687 -0.092734 -0.090948 0.028189 -0.705829 0.707821
-1.184978 0.000000 -0.090976 -0.001212 0.051595 -0.997802
0.335998 0.323543 -0.325968 0.061207 -0.705006 -0.706556
0.564545 0.048134 -0.077200 0.000068 0.487849 -0.871574
0.329931 0.122869 -0.118188 0.073693 0.704409 0.705958
1.229862 -0.074492 0.081473 -0.012848 0.688286 0.725326
0.086394 -0.378339 -0.377509 -0.061182 -0.724690 0.686353
0.053016 -0.327084 -0.326367 -0.061182 -0.724690 0.686353
-0.080497 0.122063 -0.121795 -0.061182 0.724690 0.686353
0.261629 -0.647430 0.646010 -0.050809 0.688644 0.723318
-0.034602 0.192539 0.192117 -0.061182 0.724690 -0.686353
-0.097186 -0.096435 -0.096224 -0.061182 -0.724690 0.686353
0.119772 -0.429595 0.428652 -0.050809 0.688644 0.723318
0.186528 -0.532105 -0.530938 -0.061182 -0.724690 0.686353
-0.063808 -0.147691 -0.147367 -0.061182 -0.724690 0.686353
0.069705 0.352712 -0.351938 -0.061182 0.724690 0.686353
0.049624 -0.273198 -0.269773 -0.061182 -0.724690 0.686353
0.257621 -0.281266 0.268689 0.073693 -0.704409 -0.705958
0.636813 -0.033176 -0.084712 -0.000005 -0.349819 -0.935746
1.432734 0.217750 -0.213345 0.015489 0.711533 0.702402
0.170505 -0.271496 0.257201 -0.061182 -0.724690 -0.686353
1.125283 -0.016540 -0.089460 -0.000301 -0.241254 -0.969418
0.842884 0.080410 0.080234 -0.012848 -0.688286 0.725326
1.497723 -0.317747 -0.317050 -0.012848 -0.723812 0.689877
0.878281 0.093239 -0.093035 -0.012848 0.723812 0.689877
1.276494 -0.237566 -0.237045 -0.012848 -0.723812 0.689877
1.161454 0.195871 -0.195442 -0.012848 0.723812 0.689877
1.064113 0.160592 -0.160239 -0.012848 0.723812 0.689877
-1.164017 -0.056282 -0.071478 0.000038 -0.598204 -0.800147
0.009612 0.139465 0.132137 -0.061182 0.724690 -0.686353
0.265288 -0.377088 0.385522 0.061207 0.705006 0.706556
0.287617 -0.565035 -0.569390 -0.050809 0.688644 -0.723318
1.173297 -0.082009 -0.039385 -0.000097 -0.919443 -0.390740
0.073342 0.319925 0.316996 -0.061182 0.724690 -0.686353
0.009274 0.092344 0.099806 -0.050809 -0.688644 0.723318
0.882265 -0.042937 0.080206 -0.000042 -0.452237 0.890776
1.203444 0.181825 -0.179922 -0.012848 0.723812 0.689877
-1.484610 -0.029778 -0.084573 -0.078056 -0.354616 -0.930089
0.028504 -0.205588 0.200269 -0.061182 -0.724690 -0.686353
0.309556 -0.652722 -0.654415 -0.050809 0.688644 -0.723318
-0.166658 0.012149 -0.090162 -0.000943 0.151078 -0.987448
-1.380911 -0.090054 0.012921 0.000171 -0.984887 0.166249
0.266584 -0.066456 -0.075459 0.061207 0.705006 -0.706556
-0.091026 0.051803 -0.074787 0.000279 0.547685 -0.835497
-0.981850 0.077531 -0.047599 -0.000102 0.864820 -0.500180
-1.010821 -0.030832 -0.085593 -0.000017 -0.397051 -0.916729
0.321594 0.643692 -0.646663 0.023874 -0.700314 -0.712925
1.493196 0.097782 0.016697 -0.210543 0.966613 0.140603
0.082221 0.371933 0.371117 -0.061182 0.724690 -0.686353
1.459480 -0.210171 0.212570 0.028189 0.706269 0.707382
-0.650412 0.080331 -0.042703 -0.000365 0.850131 -0.524658
0.341795 -0.040361 0.081533 -0.000682 -0.454026 0.889905
1.463886 -0.189207 -0.186123 0.028189 -0.705829 0.707821
0.240430 0.258926 0.244604 0.073693 0.704409 -0.705958
1.228374 -0.025548 -0.087316 0.000174 -0.321884 -0.945797
-0.995555 0.086782 0.027307 -0.000520 0.945403 0.322688
0.340692 0.304578 0.300622 0.073693 0.704409 -0.705958
0.132289 0.448816 -0.447831 -0.061182 0.724690 0.686353
0.996188 -0.072421 -0.068997 -0.000000 0.707883 0.706330
0.504890 0.081483 -0.040463 -0.000324 0.906215 -0.420630
0.384993 0.090976 -0.000000 -0.002751 0.996785 0.065705
-0.028743 -0.068269 -0.060383 -0.061182 -0.724690 0.686353
1.316998 0.184702 0.180826 -0.012848 0.723812 -0.689877
0.198328 -0.055842 0.071822 0.000458 -0.600562 0.798385
0.364993 0.000000 -0.090976 -0.001468 0.034220 -0.997447
1.381660 0.085690 0.030559 0.000452 0.942178 0.332369
-1.199373 0.090645 0.007753 -0.000441 0.997591 0.051957
0.302118 -0.084665 0.033295 0.000150 -0.914406 0.402307
0.272793 0.523835 0.514516 -0.061182 0.724690 -0.686353
1.382892 -0.092041 0.086005 0.028189 -0.705829 -0.707821
1.445141 -0.055822 0.071838 0.001867 -0.581246 0.812392
-0.820890 0.090625 -0.007988 -0.000323 0.992282 -0.116693
0.189148 0.470833 -0.466010 -0.061182 0.724690 0.686353
1.081354 -0.108437 -0.105198 -0.012848 -0.723812 0.689877
-1.580835 0.053596 -0.027126 -0.452593 0.785391 -0.416368
0.186717 -0.133914 -0.114259 0.073693 -0.704409 0.705958
0.284470 0.133699 -0.141005 0.061207 -0.705006 -0.706556
-0.039542 0.084508 0.033692 -0.000173 0.920580 0.388336
1.246582 0.164379 0.160815 -0.012848 0.723812 -0.689877
1.529149 0.000000 -0.048604 1.000000 -0.000000 -0.000000
0.146746 -0.100848 0.079139 -0.061182 -0.724690 -0.686353
0.095054 -0.114017 -0.126466 -0.050809 0.688644 -0.723318
0.278801 -0.328658 0.318188 0.073693 -0.704409 -0.705958
1.423088 -0.128010 -0.131988 0.028189 0.706269 -0.707382
1.309202 0.088663 0.080208 -0.012848 0.723812 -0.689877
1.232248 -0.221530 -0.221044 -0.012848 -0.723812 0.689877
0.192147 -0.250300 0.232891 -0.061182 -0.724690 -0.686353
0.282750 -0.519026 0.508551 0.028744 -0.712304 -0.700529
0.002813 -0.079776 0.087387 -0.050809 0.688644 0.723318
0.322490 0.075340 0.050996 -0.000071 0.816332 0.575863
0.187680 -0.400395 0.391768 -0.061182 -0.724690 -0.686353
0.261430 -0.144368 -0.153646 0.061207 0.705006 -0.706556
0.756370 -0.024551 0.087601 -0.000152 -0.298490 0.953366
1.425718 0.260726 -0.261665 -0.012848 -0.688286 -0.725326
0.166780 -0.171975 0.186684 -0.050809 0.688644 0.723318
1.383816 -0.094487 -0.088480 0.028189 -0.705829 0.707821
0.288884 0.539473 -0.529593 0.033250 0.711604 0.701161
1.179189 -0.078144 0.046586 -0.000005 -0.876003 0.480223
0.138334 -0.082954 0.037353 0.000042 -0.884541 0.464344
0.270346 -0.073526 0.082188 0.061207 0.705006 0.706556
0.644988 0.090976 -0.000000 -0.000829 0.999209 0.025987
0.074342 -0.007374 -0.090677 0.001863 -0.110623 -0.992953
-0.662451 0.030839 -0.085590 -0.000619 0.372565 -0.927113
0.260312 0.170664 -0.179981 0.061207 -0.705006 -0.706556
0.511803 -0.090145 0.012274 -0.002626 -0.991663 0.123540
0.839260 0.080780 -0.041848 0.000125 0.857814 -0.512134
1.164889 0.081664 0.087127 -0.012848 -0.688286 0.725326
0.248030 -0.593881 0.594072 -0.050809 0.688644 0.723318
1.024628 0.119678 -0.120716 -0.012848 -0.688286 -0.725326
0.340814 -0.384426 -0.386301 0.061207 0.705006 -0.706556
0.342728 0.608196 0.603786 0.073693 0.704409 -0.705958
0.170365 0.260213 -0.270944 -0.050809 -0.688644 -0.723318
0.071827 -0.222074 0.213814 -0.061182 -0.724690 -0.686353
-0.042401 -0.121374 -0.117671 -0.061182 -0.724690 0.686353
0.081349 0.090612 -0.008129 0.000376 0.992261 -0.116739
-1.083000 -0.089473 -0.016470 -0.000189 -0.977383 -0.206755
0.252505 -0.106219 0.116355 0.061207 0.705006 0.706556
0.049230 0.168474 -0.159235 -0.061182 0.724690 0.686353
0.254995 -0.090976 0.000000 0.001524 -0.998703 -0.035561
0.660461 0.059062 0.069198 0.000179 0.638063 0.768733
1.117131 0.016067 0.089546 -0.000865 0.226939 0.972843
-0.062610 0.059459 0.068857 -0.000361 0.623127 0.780858
-0.772847 0.049067 0.076610 -0.000147 0.506878 0.860817
0.136050 0.186974 -0.198805 -0.050809 -0.688644 -0.723318
-0.596324 0.019690 0.088820 0.000211 0.255053 0.965991
0.007649 0.197797 -0.193902 -0.061182 0.724690 0.686353
0.281339 -0.184099 0.191566 0.061207 0.705006 0.706556
-0.366183 -0.088790 -0.019826 -0.000940 -0.980749 -0.189893
1.332806 -0.090808 -0.082780 0.028189 -0.705829 0.707821
0.218733 0.420644 -0.410381 -0.061182 0.724690 0.686353
0.227672 -0.203976 -0.188443 0.073693 -0.704409 0.705958
0.298602 -0.255473 -0.261288 0.061207 0.705006 -0.706556
1.529149 -0.047625 0.095738 -0.207397 -0.391760 0.895594
0.744986 0.090976 -0.000000 -0.001406 0.997471 0.057558
-0.036222 -0.079138 0.072526 -0.061182 -0.724690 -0.686353
1.366189 0.084649 -0.033335 -0.001151 0.919897 -0.389997
0.197710 -0.093754 -0.075335 0.073693 -0.704409 0.705958
1.049705 0.122417 0.120455 -0.012848 0.723812 -0.689877
0.257690 0.083649 0.093385 0.061207 -0.705006 0.706556
0.274076 0.593088 0.595147 -0.050809 -0.688644 0.723318
0.085920 -0.071172 0.085034 -0.050809 0.688644 0.723318
-0.558188 -0.042147 0.080625 0.001616 -0.420917 0.906071
-0.026134 0.157641 -0.159487 -0.050809 -0.688644 -0.723318
0.533653 -0.079710 0.043853 -0.000172 -0.859697 0.509060
0.368163 -0.090747 -0.006452 0.001776 -0.992108 -0.120122
0.107767 -0.090727 0.006737 0.000812 -0.993884 0.103557
0.324555 -0.094387 0.089207 0.073693 -0.704409 -0.705958
0.280950 0.196951 0.186994 0.073693 0.704409 -0.705958
0.340722 -0.604402 -0.605802 0.061207 0.705006 -0.706556
0.163545 -0.164762 -0.179590 -0.050809 0.688644 -0.723318
1.370233 0.246898 -0.245090 -0.012848 0.723812 0.689877
0.372193 -0.340727 -0.339980 0.073693 -0.704409 0.705958
-1.514750 -0.072284 -0.044271 -0.235304 -0.794753 -0.556946
0.178588 -0.089366 0.017044 0.000728 -0.972011 0.230421
0.120478 -0.242498 0.231042 -0.061182 -0.724690 -0.686353
0.129339 0.340923 -0.344903 -0.050809 -0.688644 -0.723318
1.454973 -0.020182 -0.088710 -0.141366 -0.271253 -0.949796
1.496135 -0.289009 0.286928 0.014512 -0.711962 -0.701976
1.354968 0.160786 -0.165575 -0.012848 -0.688286 -0.725326
-0.026760 0.144983 0.141205 -0.061182 0.724690 -0.686353
-1.476364 0.073090 0.053150 -0.093791 0.786563 0.607104
1.462149 0.042077 -0.082398 -0.210690 0.409246 -0.886746
0.305239 0.587604 -0.592115 0.023874 -0.700314 -0.712925
0.200476 0.090703 -0.007054 0.000114 0.993661 -0.105223
1.190965 0.132530 -0.135858 -0.012848 -0.688286 -0.725326
0.026822 0.038668 0.082350 -0.000072 0.457036 0.887714
1.239138 0.090366 -0.010522 0.002449 0.985189 -0.163837
-0.844477 0.027256 0.086798 -0.000371 0.254853 0.965935
1.127756 0.086081 -0.029440 0.000856 0.937370 -0.345602
0.600962 -0.090497 -0.009326 -0.000177 -0.991623 -0.121852
-1.627030 0.000000 0.028201 -0.640024 -0.072802 0.757679
0.097993 0.100174 0.113493 -0.050809 -0.688644 0.723318
0.037034 0.241356 -0.237275 -0.061182 0.724690 0.686353
1.421919 -0.094586 0.090096 0.028189 -0.705829 -0.707821
0.130194 0.281095 0.288003 -0.050809 -0.688644 0.723318
1.231100 -0.081629 -0.074282 -0.012848 -0.723812 0.689877
1.410018 -0.249918 -0.247517 -0.012848 -0.723812 0.689877
0.183397 -0.255912 -0.239597 -0.061182 -0.724690 0.686353
0.150439 0.228590 0.239438 -0.050809 -0.688644 0.723318
1.155289 0.097269 -0.092104 -0.012848 0.723812 0.689877
1.133256 0.044437 -0.079385 -0.000363 0.458292 -0.887747
1.470665 0.195169 -0.192337 0.028189 0.705829 0.707821
-1.055123 -0.087929 0.023350 -0.000422 -0.958131 0.282786
-0.030430 -0.198946 -0.198509 -0.061182 -0.724690 0.686353
0.323695 -0.212544 0.216279 0.061207 0.705006 0.706556
1.346190 0.127966 0.134276 -0.012848 -0.688286 0.725326
1.453868 0.238402 0.240980 0.000833 -0.694416 0.719484
0.219738 0.380561 0.388991 -0.050809 -0.688644 0.723318
0.205518 0.513085 0.514163 -0.050809 -0.688644 0.723318
1.361113 0.028343 -0.086449 -0.000159 0.330967 -0.942612
-0.018653 0.085345 -0.077514 -0.061182 0.724690 0.686353
0.127978 -0.381490 0.383430 -0.050809 0.688644 0.723318
-0.703146 0.085944 -0.029839 -0.000122 0.957001 -0.286500
0.928257 -0.087917 -0.023396 -0.000812 -0.961854 -0.270344
1.119477 0.052530 0.074279 -0.000200 0.579707 0.813577
-0.400933 0.042981 -0.080183 0.000453 0.442581 -0.895660
0.273121 -0.524424 -0.515108 -0.061182 -0.724690 0.686353
1.353653 0.183839 0.187428 -0.012848 -0.688286 0.725326
1.294086 0.207326 0.208660 -0.012848 -0.688286 0.725326
1.529149 -0.019290 0.026206 1.000000 0.000000 0.000000
0.084640 -0.092403 -0.075759 -0.061182 -0.724690 0.686353
0.232423 -0.602582 -0.601260 -0.061182 -0.724690 0.686353
0.113723 0.138573 -0.151157 -0.050809 -0.688644 -0.723318
-0.537171 -0.079316 -0.044561 0.000121 -0.882709 -0.467792
0.603344 0.023807 -0.087806 -0.000211 0.292724 -0.955242
1.490852 -0.281417 -0.282453 0.014512 0.700410 -0.713502
0.402208 0.061673 -0.066882 -0.000013 0.700618 -0.712132
0.209255 0.356426 0.343419 -0.061182 0.724690 -0.686353
0.286540 -0.295321 0.302093 0.061207 0.705006 0.706556
0.199045 -0.551326 0.550117 -0.050809 0.688644 0.723318
0.293958 0.249487 -0.240773 0.073693 0.704409 0.705958
0.293560 -0.466145 0.456914 0.073693 -0.704409 -0.705958
1.432436 0.107593 -0.111231 0.028189 -0.706269 -0.707382
0.063062 0.172392 0.179796 -0.050809 -0.688644 0.723318
0.219521 0.556571 0.553830 -0.061182 0.724690 -0.686353
0.282685 -0.125768 0.133246 0.061207 0.705006 0.706556
0.282024 -0.427718 0.417368 0.073693 -0.704409 -0.705958
1.351241 0.109689 -0.116559 0.028189 -0.706269 -0.707382
-0.437883 -0.090687 0.007245 0.000026 -0.989396 0.139295
-1.486964 -0.040374 0.079776 -0.086214 -0.462153 0.880938
0.207267 -0.183540 0.197425 0.061207 0.705006 0.706556
1.047896 -0.090613 -0.008127 0.000488 -0.987647 -0.150465
0.186814 0.482184 0.478203 -0.061182 0.724690 -0.686353
0.228857 -0.281509 0.293309 0.061207 0.705006 0.706556
0.217942 -0.108689 -0.121813 0.061207 0.705006 -0.706556
1.328275 -0.133062 -0.126436 -0.012848 -0.723812 0.689877
-1.044680 0.041620 0.080898 0.000373 0.420952 0.906051
0.187021 -0.482476 -0.478493 -0.061182 -0.724690 0.686353
1.283484 -0.086225 -0.078129 -0.012848 -0.723812 0.689877
0.277781 0.424657 0.431904 0.061207 -0.705006 0.706556
-0.655292 0.085024 0.032366 -0.001514 0.917240 0.396623
-0.981142 -0.089368 0.017030 -0.001443 -0.970207 0.239317
0.871946 0.063620 -0.065032 0.000009 0.682534 -0.729509
0.006027 -0.243970 0.243936 -0.050809 0.688644 0.723318
1.529149 0.066041 0.029942 1.000000 0.000000 0.000000
0.329829 -0.385479 0.380211 0.073693 -0.704409 -0.705958
0.342981 -0.261977 0.258353 0.073693 -0.704409 -0.705958
1.235715 -0.203362 0.203865 -0.012848 0.688286 0.725326
0.188859 -0.148317 0.128854 0.073693 -0.704409 -0.705958
-0.859554 -0.011173 -0.090288 -0.002259 -0.169948 -0.984111
1.173164 -0.039275 0.082062 0.000943 -0.459376 0.886985
0.099378 -0.178136 0.164966 -0.061182 -0.724690 -0.686353
0.511148 0.019468 0.088869 -0.000866 0.193057 0.980126
1.373733 0.095205 -0.088795 0.028189 0.705829 0.707821
0.321271 0.215749 0.209960 0.073693 0.704409 -0.705958
0.173149 0.265525 0.276197 -0.050809 -0.688644 0.723318
0.948650 0.090547 0.008831 -0.000116 0.988980 0.141657
0.816337 -0.070788 0.070633 -0.012848 -0.723812 -0.689877
0.199584 0.295774 0.306853 -0.050809 -0.688644 0.723318
1.428453 0.125512 0.121195 0.028189 0.705829 -0.707821
-0.025035 -0.194297 0.193120 -0.061182 -0.724690 -0.686353
1.036155 -0.072784 -0.068633 -0.000000 0.707883 0.706330
-1.072449 0.087671 0.024300 0.000603 0.952064 0.302703
0.201588 0.077702 -0.092310 0.061207 -0.705006 -0.706556
1.342801 -0.150467 0.155568 -0.012848 0.688286 0.725326
0.232638 -0.168730 -0.153792 0.073693 -0.704409 0.705958
0.278662 0.505394 -0.494522 0.028744 0.712304 0.700529
0.965652 -0.096640 -0.094976 -0.012848 -0.723812 0.689877
0.220834 0.172316 -0.156138 0.073693 0.704409 0.705958
0.259368 -0.393541 -0.402451 0.061207 0.705006 -0.706556
0.156982 0.357666 0.362786 -0.050809 -0.688644 0.723318
0.176326 0.172604 0.187954 -0.050809 -0.688644 0.723318
1.180802 -0.147759 0.150129 -0.012848 0.688286 0.725326
1.338293 -0.008548 0.090574 0.000334 -0.114228 0.992711
-0.794005 0.089052 0.018612 0.000074 0.963223 0.264799
1.232248 0.221530 -0.221044 -0.012848 0.723812 0.689877
0.188587 0.336694 -0.345039 -0.050809 -0.688644 -0.723318
0.477338 0.067601 -0.060884 0.000799 0.715996 -0.696511
-0.043532 -0.011733 -0.090217 -0.001969 -0.200555 -0.978450
0.844984 0.000000 -0.090976 -0.000728 0.043007 -0.997530
1.434897 -0.120949 0.116902 0.028189 -0.705829 -0.707821
1.094637 -0.079155 -0.044846 0.000049 -0.837337 -0.544850
0.443255 -0.036651 -0.083267 0.000542 -0.428367 -0.902676
-0.954310 -0.052329 -0.074420 -0.000541 -0.553367 -0.831760
0.307144 -0.567553 0.559518 0.073693 -0.704409 -0.705958
1.157244 0.134240 0.136883 -0.012848 -0.688286 0.725326
0.239084 0.072535 -0.054912 0.000068 0.756844 -0.652071
0.245782 -0.268715 -0.279076 0.061207 0.705006 -0.706556
0.080150 0.078339 0.046257 0.000301 0.881650 0.469892
0.172410 -0.039753 -0.081832 -0.000245 -0.425794 -0.903730
-1.126731 0.013821 0.089920 -0.000514 0.208204 0.977235
-0.598305 0.090608 0.008175 -0.000245 0.991960 0.118758
-0.505001 -0.088518 -0.021004 -0.001041 -0.980963 -0.187010
1.001823 -0.061490 0.067050 0.000014 -0.660174 0.749838
0.330553 0.251205 -0.254261 0.061207 -0.705006 -0.706556
-1.344379 -0.077589 -0.047504 -0.000032 -0.817409 -0.574344
0.271770 -0.362575 -0.370479 0.061207 0.705006 -0.706556
-0.940963 -0.049677 0.076216 0.000038 -0.525048 0.849906
-1.491834 0.086478 0.020265 -0.131829 0.978282 0.148995
1.453115 0.164943 0.167667 0.028189 -0.706269 0.707382
-0.270750 0.053791 -0.073370 -0.000122 0.639739 -0.767298
-0.807966 -0.041951 -0.080727 -0.000205 -0.495978 -0.867195
-1.227412 0.085490 -0.031115 0.000025 0.921570 -0.385659
-0.485626 0.082906 -0.037461 0.000017 0.922761 -0.382760
-1.430221 0.078664 0.045701 -0.000022 0.847508 0.528898
0.372193 0.113998 0.113748 0.073693 0.704409 -0.705958
0.372193 -0.113998 0.113748 0.073693 -0.704409 -0.705958
1.374801 0.264747 0.263732 -0.012848 0.723812 -0.689877
-0.532337 -0.078531 0.045930 0.000009 -0.846215 0.530958
0.351117 0.041159 -0.081133 0.000754 0.468726 -0.882234
-1.296200 0.056470 -0.071329 0.000104 0.665921 -0.744657
0.103623 0.028598 0.086365 -0.000140 0.355930 0.933418
0.571968 -0.041445 -0.080988 -0.000004 -0.414512 -0.908941
-0.651793 -0.047494 0.077595 0.000002 -0.549937 0.834010
1.299024 0.160928 0.156217 -0.012848 0.723812 -0.689877
0.166360 -0.312766 -0.320697 -0.050809 0.688644 -0.723318
0.239798 -0.084068 -0.034774 0.000038 -0.919634 -0.390311
0.019896 0.090445 -0.009817 0.000022 0.989479 -0.136437
-0.584993 0.033491 -0.084588 -0.000061 0.397605 -0.916474
1.532127 0.266856 -0.266270 0.028189 -0.706269 -0.707382
-1.627030 -0.000000 -0.028201 -0.640539 -0.069312 -0.757386
-0.940494 0.018652 -0.089044 -0.000457 0.265234 -0.963121
1.007909 0.117916 0.116511 -0.012848 0.723812 -0.689877
0.705406 -0.077600 0.047486 -0.000068 -0.835330 0.547921
1.409204 -0.139265 0.143778 0.028189 0.706269 0.707382
0.235545 -0.165622 0.150994 0.073693 -0.704409 -0.705958
0.249422 0.358274 -0.368123 0.061207 -0.705006 -0.706556
0.052778 0.271447 -0.273380 -0.050809 -0.688644 -0.723318
1.174813 0.085990 0.029705 0.000007 0.945437 0.322716
-0.881751 -0.074884 0.051664 -0.000361 -0.809272 0.585791
1.445453 0.012827 0.090068 0.000790 0.135220 0.989825
0.634045 -0.069800 -0.058349 0.000030 -0.726069 -0.686162
-1.265329 0.088919 -0.019236 -0.000227 0.980795 -0.187414
-0.711116 -0.062148 0.066441 -0.000073 -0.660790 0.749233
0.712190 0.026958 -0.086891 0.000039 0.322153 -0.945637
-0.343722 -0.053752 0.073399 -0.000036 -0.561884 0.826084
0.237700 -0.017648 -0.089248 0.000170 -0.207007 -0.977319
-0.074791 -0.050445 0.075710 0.000050 -0.532495 0.845249
0.261781 -0.553841 -0.547179 -0.061182 -0.724690 0.686353
0.353054 0.088221 -0.022221 -0.000214 0.961648 -0.270123
0.201081 0.213936 -0.195605 0.073693 0.704409 0.705958
0.248177 -0.329108 -0.315441 0.073693 -0.704409 0.705958
1.361271 0.033165 0.084716 0.000098 0.415539 0.908489
-1.591135 -0.053414 -0.009209 -0.533835 -0.817891 -0.206216
-0.893305 -0.043141 -0.080097 0.000043 -0.504764 -0.862095
-0.767101 0.016170 0.089528 -0.000892 0.153599 0.987145
-1.192769 0.065112 -0.063538 -0.000092 0.725853 -0.686414
0.914983 0.000000 -0.090976 0.001795 0.073493 -0.996112
0.863735 0.011733 0.090217 -0.000247 0.179035 0.982783
0.699705 0.080066 -0.043198 -0.000128 0.868025 -0.494492
0.894983 -0.090976 0.000000 0.000774 -0.998147 -0.045535
-0.602212 -0.046246 0.078346 -0.000102 -0.481600 0.875272
0.725724 0.056374 -0.071405 0.000018 0.598581 -0.799830
1.050776 -0.026838 -0.086928 -0.000113 -0.351865 -0.934973
-0.385307 0.086398 0.028496 0.000897 0.961158 0.272484
0.334352 0.414549 0.416917 0.061207 -0.705006 0.706556
-0.203081 0.075393 0.050918 0.000120 0.816499 0.575663
0.925164 0.074915 0.051619 0.000043 0.788565 0.613327
0.286435 -0.088316 -0.095551 0.061207 0.705006 -0.706556
0.665230 -0.080004 -0.043314 -0.000003 -0.871194 -0.488895
0.136993 0.306497 0.312666 -0.050809 -0.688644 0.723318
-0.068659 -0.017890 0.089200 -0.000297 -0.233899 0.971249
-0.281621 0.081778 -0.039862 0.000187 0.868301 -0.494008
0.305813 -0.046574 -0.078151 -0.000319 -0.520224 -0.852910
1.103254 -0.088295 0.083657 -0.012848 -0.723812 -0.689877
1.522533 -0.305104 0.304841 0.028189 0.706269 0.707382
-0.938105 0.087287 0.025645 -0.000115 0.939395 0.339882
0.206301 -0.503752 0.505333 -0.050809 0.688644 0.723318
-0.167321 0.071186 -0.056650 0.000050 0.741432 -0.669576
-1.121879 -0.080531 0.042327 -0.000071 -0.872277 0.486957
0.548368 -0.021626 0.088369 0.000862 -0.264630 0.963070
-0.650644 -0.009538 -0.090475 -0.000057 -0.166475 -0.984976
1.135069 0.152844 -0.150789 -0.012848 0.723812 0.689877
1.401375 -0.090725 -0.006762 -0.002198 -0.991213 -0.126534
1.186287 -0.090315 0.010949 0.002496 -0.992348 0.117778
-0.674808 -0.034876 -0.084026 0.000119 -0.440292 -0.896749
0.406022 -0.013108 0.090027 -0.000214 -0.158263 0.986263
-0.659697 -0.069263 -0.058986 0.000023 -0.780221 -0.623903
0.236595 0.608988 0.607652 -0.061182 0.724690 -0.686353
1.496162 0.240486 -0.238542 0.028189 0.705829 0.707821
-0.440180 0.042619 -0.080376 0.000067 0.523021 -0.851145
0.230361 0.149920 0.161877 0.061207 -0.705006 0.706556
1.415717 0.138611 -0.133750 0.028189 0.705829 0.707821
-0.407291 -0.014845 0.089757 0.000061 -0.136421 0.989837
1.126058 -0.183042 0.182641 -0.012848 -0.723812 -0.689877
1.443626 0.241309 -0.237860 -0.012848 0.723812 0.689877
0.963462 0.045913 -0.078541 -0.000211 0.487981 -0.871716
0.295315 -0.370644 0.361806 0.073693 -0.704409 -0.705958
0.090846 -0.121892 0.106341 -0.061182 -0.724690 -0.686353
-0.039247 0.084686 -0.033242 -0.000134 0.915688 -0.399391
0.130652 -0.130137 0.144314 -0.050809 0.688644 0.723318
0.006539 0.189018 0.191654 -0.050809 -0.688644 0.723318
-0.378146 -0.060533 0.067915 -0.000193 -0.616655 0.785927
0.646089 -0.066611 0.061965 -0.000004 -0.708862 0.704004
0.120399 0.253824 -0.261351 -0.050809 -0.688644 -0.723318
0.163179 0.019349 0.088895 0.000197 0.253415 0.966324
1.331210 -0.082620 -0.038086 0.000163 -0.898831 -0.435958
1.475421 0.078366 0.076053 0.028189 0.705829 -0.707821
0.572099 -0.080472 0.042438 -0.000657 -0.853061 0.519818
0.240940 -0.068442 0.059937 -0.000225 -0.735851 0.675793
0.206210 -0.502728 -0.504352 -0.050809 0.688644 -0.723318
1.161454 -0.195871 0.195442 -0.012848 -0.723812 -0.689877
0.624843 0.079528 -0.044182 -0.000027 0.861003 -0.506658
0.208581 0.104279 0.118224 0.061207 -0.705006 0.706556
0.306579 -0.013020 -0.090040 -0.000669 -0.186769 -0.981337
-1.228678 -0.074217 -0.052617 -0.000129 -0.776690 -0.628268
0.676480 0.022645 -0.088113 0.000876 0.283672 -0.957839
-1.045879 0.087718 -0.024131 -0.000101 0.954404 -0.295184
-1.175763 -0.049527 0.076314 -0.000180 -0.571541 0.819351
0.401673 0.059781 0.068578 -0.000169 0.702462 0.710362
-0.134358 0.062635 -0.065982 -0.000225 0.732002 -0.679837
0.656134 0.027812 0.086621 -0.000140 0.361071 0.931503
0.155214 0.110349 0.127200 -0.050809 -0.688644 0.723318
1.498620 -0.024985 0.097204 -0.210547 -0.189677 0.958232
-0.994981 0.000000 0.090976 0.000838 0.029243 0.998691
-0.271205 0.067322 0.061192 -0.000111 0.723949 0.688425
0.476188 -0.082288 -0.038800 -0.001731 -0.927317 -0.371840
-0.696038 0.040547 -0.081441 -0.000539 0.412068 -0.910105
-1.209129 -0.089139 0.018193 0.000419 -0.970075 0.238251
1.296844 0.014884 -0.089751 0.000271 0.225240 -0.973363
0.426032 0.033768 -0.084477 0.000261 0.372361 -0.926945
1.266498 0.083905 -0.035166 -0.000023 0.906892 -0.419096
1.326300 0.033473 -0.084595 -0.000125 0.391572 -0.918996
0.288247 0.640262 -0.636068 -0.061182 0.724690 0.686353
-0.103956 -0.081679 -0.040066 0.000244 -0.881498 -0.470121
0.372193 -0.177765 -0.177375 0.073693 -0.704409 0.705958
1.088704 0.084872 -0.032763 0.000034 0.944598 -0.325269
-1.211615 -0.044935 0.079105 0.000195 -0.545948 0.836671
0.315429 0.300989 -0.294403 0.073693 0.704409 0.705958
0.876916 0.089945 0.013661 -0.000126 0.977410 0.205469
0.832692 -0.082261 -0.038857 -0.000353 -0.898166 -0.437508
-1.321453 -0.088327 0.021796 0.000434 -0.977145 0.208720
-1.300396 -0.088244 -0.022131 -0.000512 -0.975063 -0.217807
-0.340265 -0.074055 -0.052845 -0.000291 -0.795076 -0.604875
0.940693 -0.034522 0.084172 -0.000005 -0.397170 0.916656
0.183513 0.102160 -0.118281 0.061207 -0.705006 -0.706556
0.596684 -0.065882 0.062739 -0.000060 -0.700878 0.711955
-0.025000 0.000000 0.090976 -0.000817 0.066287 0.996538
1.503468 0.056620 0.084127 -0.211588 0.508697 0.833607
-1.056731 0.010520 -0.090366 -0.000351 0.184931 -0.981451
-0.466309 -0.065553 -0.063083 -0.000808 -0.691720 -0.720616
0.302017 -0.090496 -0.009334 -0.000103 -0.985570 -0.163386
-1.406715 -0.041774 -0.080818 -0.001929 -0.410251 -0.910782
1.312835 0.206308 -0.208027 -0.012848 -0.688286 -0.725326
1.336750 -0.204889 0.201638 -0.012848 -0.723812 -0.689877
-0.267847 0.087747 0.024024 -0.000668 0.958377 0.281805
1.415416 0.088298 0.021914 -0.000073 0.954923 0.293608
0.543469 -0.015010 -0.089730 -0.000270 -0.225320 -0.973305
1.483918 -0.162693 0.160481 0.028189 -0.705829 -0.707821
-1.001184 0.089489 -0.016385 0.000270 0.976818 -0.209479
0.219698 -0.386791 -0.394920 -0.050809 0.688644 -0.723318
-0.744986 0.000000 -0.090976 -0.000069 0.030858 -0.998544
0.253912 -0.558165 0.560482 -0.050809 0.688644 0.723318
0.328038 -0.149993 -0.145055 0.073693 -0.704409 0.705958
0.311119 0.512060 0.516227 0.061207 -0.705006 0.706556
-0.416580 0.047584 0.077540 0.000061 0.537385 0.842176
-1.415015 0.049105 0.076586 0.000012 0.484975 0.873382
0.262315 0.230656 0.239669 0.061207 -0.705006 0.706556
1.355179 -0.208408 -0.204987 -0.012848 -0.723812 0.689877
0.222497 -0.235954 -0.248404 0.061207 0.705006 -0.706556
1.186949 0.115227 0.119367 -0.012848 -0.688286 0.725326
-0.078404 -0.109674 0.108528 -0.061182 -0.724690 -0.686353
-1.280829 -0.042412 0.080486 0.000064 -0.495692 0.867438
1.181383 0.053436 0.073630 -0.000306 0.632503 0.773176
0.337743 -0.262681 -0.258509 0.073693 -0.704409 0.705958
1.029710 0.079130 -0.075412 -0.012848 0.723812 0.689877
0.004492 0.141053 -0.145845 -0.050809 -0.688644 -0.723318
-0.926042 -0.032815 -0.084852 0.000544 -0.299843 -0.952976
0.344817 -0.641087 -0.642052 0.061207 0.705006 -0.706556
0.420465 -0.082005 -0.039395 0.001074 -0.878425 -0.475614
-0.098781 0.040419 0.081504 -0.000720 0.496535 0.866940
-1.274976 -0.000000 0.090976 -0.001011 0.018179 0.999067
0.763087 0.071976 -0.055643 0.000036 0.773753 -0.631910
-0.129245 -0.085643 0.030692 0.000192 -0.930694 0.363000
0.801455 0.039013 0.082187 -0.000308 0.434712 0.899585
1.305166 0.090171 0.012082 0.000273 0.990306 0.132761
0.150713 -0.084052 -0.034814 -0.000014 -0.927670 -0.370712
-1.124484 -0.062655 -0.065963 0.000175 -0.670062 -0.741068
0.118173 -0.069019 -0.059271 0.000067 -0.795803 -0.603899
-0.530324 0.068717 -0.059621 -0.000001 0.711691 -0.701066
0.605754 -0.015682 -0.089615 -0.000211 -0.232281 -0.971658
0.816928 0.062103 -0.066482 0.000208 0.634531 -0.771628
-0.100971 -0.076579 0.049116 0.000037 -0.826692 0.560878
-0.379803 0.084782 -0.032996 0.000082 0.908522 -0.415744
1.180521 0.171338 0.169346 -0.012848 0.723812 -0.689877
-0.561129 0.023139 0.087985 0.000537 0.292160 0.955327
0.252186 0.089714 0.015100 -0.001977 0.982754 0.177250
-0.544377 0.065642 0.062991 0.000183 0.675862 0.735729
-0.167546 0.089230 -0.017740 0.000191 0.971843 -0.231338
0.961156 0.076318 0.078445 -0.012848 -0.688286 0.725326
0.335324 0.487825 -0.489949 0.061207 -0.705006 -0.706556
-0.836862 -0.072680 -0.054720 -0.000069 -0.783349 -0.620005
-1.228339 -0.034156 -0.084321 -0.000009 -0.346594 -0.936986
0.639886 -0.087429 0.025157 -0.000473 -0.941482 0.334011
-1.261599 -0.008583 -0.090571 0.000077 -0.126300 -0.990992
-0.728808 -0.090723 -0.006781 -0.000698 -0.992238 -0.116776
-0.978465 0.021183 -0.088476 -0.000573 0.291069 -0.955632
0.136084 -0.179698 -0.163343 -0.061182 -0.724690 0.686353
1.406650 0.094446 0.089349 0.028189 0.705829 -0.707821
0.787430 -0.064536 -0.064124 0.000078 -0.664230 -0.746218
-0.368342 0.039163 0.082116 -0.000067 0.449920 0.891954
-0.209583 0.062793 -0.065832 0.000067 0.715609 -0.697070
1.131954 0.088161 0.022458 0.000010 0.953679 0.297473
-0.132120 0.076963 0.048512 0.000012 0.867561 0.495383
1.489069 -0.025308 -0.094996 -0.210436 -0.195518 -0.957042
0.292135 0.449524 -0.455473 0.061207 -0.705006 -0.706556
-1.013859 -0.063475 0.065173 0.000173 -0.680002 0.731844
-0.895494 0.070954 0.056941 0.000001 0.791451 0.609592
-1.009278 0.040243 0.081592 0.000115 0.460136 0.886789
-0.808478 0.076555 0.049153 0.000016 0.860471 0.507528
-0.976597 -0.046299 0.078314 0.000015 -0.539915 0.840575
-1.518771 0.011826 0.082991 -0.253461 0.212015 0.941647
0.420376 -0.087450 0.025084 0.000070 -0.949259 0.311344
-0.609281 -0.085987 -0.029714 0.000001 -0.921709 -0.385292
1.285914 0.076950 0.048533 -0.000052 0.846703 0.530197
0.128267 -0.199104 -0.209808 -0.050809 0.688644 -0.723318
-0.563629 -0.089002 0.018853 -0.000674 -0.960447 0.273593
-1.288032 -0.033054 -0.084759 -0.000003 -0.334326 -0.941405
0.198485 -0.366532 0.374142 -0.050809 0.688644 0.723318
-1.454973 -0.085890 0.029992 -0.008605 -0.962286 0.268042
-0.946794 0.072532 -0.054917 0.000129 0.831163 -0.554452
1.414106 -0.224494 -0.220767 -0.012848 -0.723812 0.689877
-1.223472 0.012132 0.090164 0.000381 0.168533 0.984624
-0.950513 -0.079567 0.044111 0.000032 -0.841884 0.537836
0.247499 -0.205889 0.216239 0.061207 0.705006 0.706556
0.369108 -0.055863 -0.071805 0.000263 -0.622164 -0.781651
1.246260 0.193361 0.191228 -0.012848 0.723812 -0.689877
1.117209 -0.179835 -0.179441 -0.012848 -0.723812 0.689877
0.338307 0.536151 0.537910 0.061207 -0.705006 0.706556
-0.815426 0.068278 -0.060124 0.000025 0.710379 -0.702556
1.040331 0.008123 0.090613 -0.000250 0.059044 0.997364
0.224226 0.522622 -0.517564 -0.061182 0.724690 0.686353
1.472639 0.287145 -0.287566 -0.012848 -0.688286 -0.725326
0.212738 -0.313544 0.297832 -0.061182 -0.724690 -0.686353
0.363767 0.251343 0.249912 0.073693 0.704409 -0.705958
0.224098 0.069887 0.058245 -0.000022 0.753228 0.656233
0.217926 -0.102714 0.115853 0.061207 0.705006 0.706556
1.248890 -0.038295 0.082524 0.000442 -0.478396 0.877068
1.046415 -0.154177 -0.153839 -0.012848 -0.723812 0.689877
-0.600957 -0.081030 0.041362 -0.000074 -0.875455 0.481316
0.148123 0.033429 -0.084612 0.000005 0.338488 -0.939923
1.529149 0.099703 0.038640 1.000000 0.000000 0.000000
-0.637566 0.060844 -0.067636 -0.000112 0.640299 -0.766946
-0.661519 0.056407 0.071379 -0.000184 0.598475 0.799984
0.361136 -0.086038 0.029567 0.000311 -0.931293 0.361583
0.234651 0.231858 -0.216991 0.073693 0.704409 0.705958
0.320576 -0.214951 -0.209091 0.073693 -0.704409 0.705958
0.695282 -0.089623 0.015634 0.000047 -0.978201 0.203074
1.497919 -0.187584 -0.188487 0.028189 0.706269 -0.707382
0.264995 0.000000 0.090976 0.002446 0.045564 0.997632
0.776300 0.009922 -0.090434 0.001179 0.185055 -0.981260
-1.169180 0.007867 0.090636 0.000063 0.147001 0.988225
1.283675 0.023227 0.087961 0.000128 0.303528 0.951845
0.184563 -0.214372 0.228298 -0.050809 0.688644 0.723318
0.301026 0.607090 0.610371 -0.050809 -0.688644 0.723318
-0.762236 0.090730 0.006696 -0.000957 0.994614 0.096667
1.426930 -0.292089 -0.291449 -0.012848 -0.723812 0.689877
0.692023 0.014642 0.089790 0.000171 0.205283 0.977754
-0.219821 -0.033536 -0.084570 0.000308 -0.394582 -0.917884
1.283231 -0.121832 -0.127340 -0.012848 0.688286 -0.725326
-1.107203 0.088603 0.020644 -0.000688 0.959241 0.279531
-1.064355 0.015410 0.089662 0.000330 0.189217 0.981124
-0.157654 0.035508 0.083761 0.000263 0.446556 0.893658
0.345176 0.157653 0.154487 0.073693 0.704409 -0.705958
0.079770 0.192936 -0.182340 -0.061182 0.724690 0.686353
-1.463298 0.090080 -0.012567 -0.036703 0.990063 -0.129158
-0.728000 -0.068496 -0.059875 0.000412 -0.735318 -0.676549
-1.042045 0.057891 -0.070181 -0.000691 0.604218 -0.795622
-0.209662 -0.081757 0.039907 -0.000258 -0.888721 0.456219
0.909968 0.082287 0.080954 -0.012848 0.723812 -0.689877
0.981701 0.079263 -0.076445 -0.012848 0.723812 0.689877
1.226195 0.141171 0.144682 -0.012848 -0.688286 0.725326
0.123392 -0.226211 -0.235272 -0.050809 0.688644 -0.723318
0.086131 -0.198106 -0.187232 -0.061182 -0.724690 0.686353
1.251068 0.102001 0.107952 -0.012848 -0.688286 0.725326
0.144605 0.139995 0.154680 -0.050809 -0.688644 0.723318
0.587894 -0.038448 0.082453 -0.000031 -0.480582 0.875812
-1.143993 0.045679 -0.078677 -0.000201 0.553079 -0.831918
0.286122 0.164352 -0.155006 0.073693 0.704409 0.705958
-1.434973 -0.090976 0.000000 -0.001167 -0.995883 -0.072008
0.335245 0.205517 -0.201209 0.073693 0.704409 0.705958
0.359548 0.342245 0.340174 0.073693 0.704409 -0.705958
1.089668 0.114434 -0.111335 -0.012848 0.723812 0.689877
1.532678 0.302256 -0.301593 0.028189 -0.706269 -0.707382
0.339550 0.016799 0.089412 -0.000539 0.161106 0.985917
0.039893 -0.008051 0.090619 0.001900 -0.130610 0.990733
-0.490622 -0.040247 -0.081590 -0.000682 -0.416860 -0.907869
0.088406 0.073925 -0.053026 0.000020 0.793122 -0.607635
0.307283 -0.600814 0.592721 0.028744 -0.712304 -0.700529
0.259008 0.322817 0.310294 0.073693 0.704409 -0.705958
1.310122 0.131584 -0.137070 -0.012848 -0.688286 -0.725326
1.183045 0.033692 -0.084508 0.000374 0.389356 -0.920165
0.754986 -0.090976 0.000000 0.000340 -0.997975 -0.051641
0.175259 0.096652 0.075882 0.073693 0.704409 -0.705958
1.240283 -0.160639 0.157009 -0.012848 -0.723812 -0.689877
0.068965 0.136767 0.123997 -0.061182 0.724690 -0.686353
1.058552 -0.079343 -0.044513 -0.000065 -0.839852 -0.540980
0.221674 0.199180 0.211782 0.061207 -0.705006 0.706556
1.283072 -0.231490 0.231396 -0.012848 0.688286 0.725326
1.174878 -0.175586 -0.173908 -0.012848 -0.723812 0.689877
0.104110 0.238504 0.245622 -0.050809 -0.688644 0.723318
0.313911 0.660752 0.655415 -0.061182 0.724690 -0.686353
0.336621 0.668507 -0.663327 0.073693 0.704409 0.705958
1.389865 0.216100 -0.212412 -0.012848 0.723812 0.689877
1.257012 0.141485 -0.145526 -0.012848 -0.688286 -0.725326
0.243502 -0.242044 0.228080 0.073693 -0.704409 -0.705958
0.001899 0.049882 -0.076082 -0.000678 0.520968 -0.852527
-1.269929 -0.077996 0.046833 -0.000298 -0.844001 0.534673
0.241449 -0.345020 -0.355589 0.061207 0.705006 -0.706556
0.372193 0.652480 0.651049 0.073693 0.704409 -0.705958
0.251832 -0.114346 -0.124521 0.061207 0.705006 -0.706556
1.440280 -0.257851 0.259195 -0.012848 0.688286 0.725326
1.398697 -0.079597 0.044057 0.002110 -0.899886 0.434628
1.529149 -0.070799 -0.019887 1.000000 0.000000 0.000000
0.260262 -0.433363 -0.442108 -0.013465 0.694860 -0.718513
0.360260 0.071433 0.056338 0.000151 0.771296 0.635004
1.512169 -0.087798 -0.054386 -0.210238 -0.830542 -0.514394
0.127087 -0.339346 -0.332711 -0.061182 -0.724690 0.686353
-1.119564 0.051819 0.074777 -0.000328 0.540210 0.840624
-1.533827 0.031938 -0.073039 -0.278105 0.432549 -0.855821
0.904884 0.031979 -0.085171 -0.000440 0.409334 -0.911368
0.234174 0.261873 -0.246891 0.073693 0.704409 0.705958
-0.091948 0.007565 0.090661 -0.000822 0.119374 0.991911
-0.078357 -0.066120 -0.062536 -0.061182 -0.724690 0.686353
-0.032441 0.098639 0.092780 -0.061182 0.724690 -0.686353
-0.138360 -0.044274 -0.079477 -0.000648 -0.507146 -0.861031
1.041172 -0.125269 0.126314 -0.012848 0.688286 0.725326
1.446190 -0.079331 -0.044535 0.000263 -0.866130 -0.497935
0.239400 0.335484 -0.320886 0.073693 0.704409 0.705958
0.067858 -0.220577 -0.226008 -0.050809 0.688644 -0.723318
0.320565 -0.101366 -0.105616 0.061207 0.705006 -0.706556
-1.110759 0.051918 -0.074708 -0.000273 0.577923 -0.814986
-0.466974 -0.088016 0.023019 0.000033 -0.958175 0.282654
1.497367 -0.090926 0.089452 0.028189 -0.705829 -0.707821
0.312563 -0.518343 -0.510981 0.073693 -0.704409 0.705958
1.213045 -0.133689 -0.137349 -0.012848 0.688286 -0.725326
-1.415301 0.070727 -0.057223 -0.000216 0.745215 -0.665349
0.896863 0.024913 0.087499 -0.000472 0.266585 0.962714
-0.065802 -0.088019 0.084540 -0.061182 -0.724690 -0.686353
-0.240965 -0.043582 0.079858 0.000226 -0.531336 0.846008
0.095840 -0.335309 0.337206 -0.050809 0.688644 0.723318
1.478659 -0.240217 -0.237578 0.028189 -0.705829 0.707821
-1.454973 -0.020255 0.088693 -0.010525 -0.266772 0.962546
0.282229 -0.240886 -0.230967 0.073693 -0.704409 0.705958
0.349745 0.274034 -0.271089 0.073693 0.704409 0.705958
1.344800 -0.086050 0.029532 0.000928 -0.951498 0.304460
-1.091266 0.007257 -0.090687 -0.000957 0.113605 -0.992656
0.139734 -0.095770 -0.112233 -0.050809 0.688644 -0.723318
-1.220611 0.051971 0.074670 0.000054 0.582505 0.811263
-0.895695 -0.052369 0.074392 -0.000280 -0.603817 0.795910
0.148359 0.388136 0.382330 -0.061182 0.724690 -0.686353
1.395314 0.030893 -0.085571 -0.000457 0.372259 -0.927231
0.309400 0.371285 -0.375910 0.061207 -0.705006 -0.706556
0.293004 0.327886 -0.334026 0.061207 -0.705006 -0.706556
-1.354974 0.090976 -0.000000 -0.001584 0.996149 0.070740
1.434814 0.160297 -0.156136 0.028189 0.705829 0.707821
1.491829 -0.217160 0.215109 0.028189 -0.705829 -0.707821
1.244977 -0.090976 0.000000 -0.001336 -0.995194 -0.080770
0.051630 -0.085052 -0.070939 -0.061182 -0.724690 0.686353
1.373973 0.133379 -0.139306 0.028189 -0.706269 -0.707382
-0.242947 -0.010716 0.090343 0.000079 -0.140117 0.989008
-1.153864 0.016163 -0.089529 -0.000214 0.234681 -0.971174
0.221467 -0.290201 -0.273830 0.073693 -0.704409 0.705958
-0.409155 -0.077484 -0.047676 -0.000039 -0.865562 -0.498921
0.180560 0.088569 0.020790 0.000196 0.956614 0.287599
0.167910 -0.076048 0.093578 0.061207 0.705006 0.706556
0.279246 -0.606919 0.608679 -0.050809 0.688644 0.723318
0.196885 0.216023 0.230735 -0.013465 -0.694860 0.718513
0.340079 0.600032 -0.595364 0.073693 0.704409 0.705958
0.316259 0.055638 -0.071980 -0.000282 0.587794 -0.808200
