1.478156 0.123377 -0.122566 -0.000000 -0.661038 -0.750352
-1.637943 0.082666 -0.008293 -0.321653 0.932647 -0.155908
1.238403 -0.091545 0.031776 0.000413 -0.924951 0.377961
-0.945915 0.050299 0.082827 0.000065 0.543912 0.838096
1.153387 0.075035 -0.066104 0.000000 -0.750352 0.661038
-0.287541 -0.028778 0.092532 -0.001681 -0.321979 0.945773
0.112559 0.396690 -0.353332 0.058933 -0.659889 -0.749048
0.161621 0.326248 -0.287415 0.077757 0.659037 0.748080
-1.556093 -0.094798 0.020089 -0.009239 -0.986615 0.157151
-0.530242 0.093921 0.023855 0.000305 0.962560 0.267728
-1.489250 -0.078236 -0.057178 0.000271 -0.811337 -0.583067
-1.619650 -0.061987 -0.063275 -0.262419 -0.727037 -0.632002
0.000654 0.442178 0.393741 -0.044624 -0.639432 0.767551
-1.010840 -0.093921 -0.023855 -0.000305 -0.962560 -0.267728
-0.068151 0.025330 -0.093534 0.000013 0.294935 -0.954611
0.017014 -0.440478 -0.380739 -0.058894 -0.686766 0.724489
1.122215 -0.145182 -0.127901 -0.100315 -0.787260 0.608407
1.407083 0.088901 -0.064445 0.000000 0.661038 0.750352
1.578321 -0.101073 -0.102917 -0.000000 0.661038 -0.750352
1.578321 0.101073 -0.102917 0.000000 -0.661038 -0.750352
0.161621 0.549956 0.484495 0.077757 0.659037 -0.748080
0.161621 0.549956 -0.484495 0.077757 0.659037 0.748080
0.161621 0.378446 0.333400 0.077757 0.659037 -0.748080
0.088958 0.547396 -0.486530 -0.044624 -0.639432 -0.767551
0.060049 0.326655 -0.295765 0.058933 -0.659889 -0.749048
-0.394664 0.012652 0.096074 0.000510 0.128943 0.990918
-0.066619 -0.366487 -0.317399 -0.058894 -0.686766 0.724489
0.072008 0.209734 0.175455 0.077757 0.659037 -0.748080
-0.015445 0.104375 -0.073547 0.077757 0.659037 0.748080
-0.074366 0.136204 0.134478 -0.044624 -0.639432 0.767551
-1.170285 0.093767 0.024452 0.000336 0.951055 0.306437
-1.562790 0.086365 -0.043671 -0.046706 0.879399 -0.471638
0.883217 -0.082983 -0.050041 -0.000056 -0.844998 -0.533115
0.485924 0.072586 -0.064199 -0.000653 0.734183 -0.677644
0.045032 -0.096903 -0.000000 -0.000241 -0.997522 -0.056396
-0.650910 -0.087966 -0.040647 0.000060 -0.880673 -0.472003
1.303479 -0.155349 -0.150733 -0.000000 0.661038 -0.750352
1.586588 0.208662 0.197700 0.071597 -0.657746 0.748113
-1.465838 0.095896 -0.013937 0.000336 0.979847 -0.195913
0.981211 0.082198 0.051320 0.000014 0.874418 0.483212
-0.617303 -0.080283 0.054267 0.000519 -0.795573 0.604602
-0.054615 0.368683 -0.318505 -0.058894 0.686766 0.724489
-0.018974 -0.383231 0.329399 -0.058894 -0.686766 -0.724489
0.161621 0.475386 -0.418802 0.077757 0.659037 0.748080
-0.397419 -0.078711 0.056522 -0.000288 -0.825356 0.563200
-0.689920 -0.005887 -0.096724 -0.003402 -0.112734 -0.993009
-1.414090 0.061055 0.075250 0.000108 0.583653 0.810975
-1.272334 0.090282 -0.035205 -0.001306 0.923145 -0.382392
-1.425676 -0.046869 -0.084814 0.000423 -0.516383 -0.855452
1.431918 -0.102517 0.104189 0.000000 0.661038 0.750352
-0.421563 0.094206 0.022703 -0.000274 0.961173 0.272609
-0.118551 -0.198672 -0.183950 -0.044624 0.639432 -0.767551
0.110236 0.086992 -0.080681 0.058933 -0.659889 -0.749048
1.268112 0.156070 -0.151368 -0.033633 -0.611057 -0.789245
-1.357379 -0.075421 -0.060843 0.000002 -0.767585 -0.639571
-0.743960 -0.033927 -0.090770 -0.000169 -0.405284 -0.913222
1.448131 0.176374 -0.141506 -0.000000 0.661038 0.750352
1.232195 -0.104565 -0.078244 -0.000000 -0.661038 0.750352
1.474393 -0.033750 0.090836 -0.000147 -0.327708 0.943845
0.116406 -0.465339 0.405251 0.077757 -0.659037 -0.748080
1.326121 0.091190 0.032782 -0.000011 0.938269 0.343350
1.174404 -0.091745 0.031193 -0.000355 -0.925462 0.376429
-0.895629 0.096903 -0.000000 0.001223 0.998594 0.029253
-0.179179 -0.175205 0.145227 -0.058894 -0.686766 -0.724489
-1.216123 0.078675 0.056573 -0.000326 0.831331 0.554235
-0.251232 0.073220 -0.063480 -0.000000 -0.750352 0.661038
0.232575 -0.095126 0.018472 0.000216 -0.973728 0.223800
-0.978592 -0.031406 -0.091673 0.000355 -0.362242 -0.931111
-0.480879 -0.059276 0.076659 -0.000579 -0.635458 0.770947
-1.347250 0.029594 -0.092274 0.000542 0.334236 -0.941414
0.202381 -0.067299 -0.069722 -0.000286 -0.735700 -0.676019
0.980380 -0.095195 0.018116 0.000475 -0.984574 0.167986
0.528268 0.091689 0.031359 -0.000189 0.926591 0.373645
-0.172104 -0.078971 -0.056159 0.002318 -0.788433 -0.613487
0.023796 -0.321650 -0.269038 0.077757 -0.659037 0.748080
1.269526 0.184084 0.153950 -0.100315 0.787260 -0.608407
-0.008794 -0.518309 -0.456615 -0.058894 -0.686766 0.724489
0.902294 -0.082673 0.050551 0.000149 -0.857634 0.512538
-0.061867 -0.246072 -0.202868 -0.058894 -0.686766 0.724489
1.576551 -0.271753 -0.253281 -0.000000 0.661038 -0.750352
1.576551 0.271753 -0.253281 0.000000 -0.661038 -0.750352
-0.764406 0.007008 0.096650 0.001347 0.102070 0.994046
1.348103 0.132879 0.103188 -0.000000 0.661038 -0.750352
-0.274629 0.016041 -0.095566 0.000301 0.140240 -0.989326
1.349646 -0.089771 -0.036489 -0.000550 -0.903767 -0.426239
-1.094498 0.077996 -0.057505 0.000056 0.785924 -0.616891
-1.045712 0.052070 -0.081725 0.000295 0.558964 -0.828025
0.720121 0.090665 0.034208 0.000068 0.952695 0.301056
-0.276891 -0.095975 -0.089190 -0.044624 0.639432 -0.767551
0.739794 0.088751 -0.038904 0.000177 0.932386 -0.359053
-1.148634 0.061192 -0.075138 0.000307 0.652618 -0.756619
-0.145125 0.352802 0.310808 -0.058894 0.686766 -0.724489
0.014193 0.453360 -0.393179 -0.058894 0.686766 0.724489
0.034580 0.121449 0.093788 0.077757 0.659037 -0.748080
-1.715007 -0.000000 -0.040971 -0.610189 -0.048055 -0.786587
1.637019 0.030239 -0.046062 1.000000 0.000000 0.000000
-0.165116 -0.000000 0.096903 0.000324 0.050616 0.997878
1.335455 -0.216251 -0.194631 -0.100315 0.504314 -0.857674
1.547781 0.110236 0.083240 -0.000000 0.661038 -0.750352
-0.009527 -0.081535 -0.054041 0.077757 -0.659037 0.748080
1.165719 0.143589 0.132053 -0.100315 -0.504314 0.857674
-0.150236 -0.290993 0.259019 -0.044624 0.639432 0.767551
-1.436595 -0.096294 0.010847 0.001263 -0.988996 0.141008
-0.994658 0.071272 -0.065654 0.000687 0.759475 -0.649318
-0.097934 0.410093 0.361280 -0.058894 0.686766 -0.724489
0.161621 0.378446 -0.333400 0.077757 0.659037 0.748080
1.494172 0.276882 0.236987 -0.100315 0.787260 -0.608407
-0.168556 -0.128076 -0.122231 -0.044624 0.639432 -0.767551
-1.368372 -0.023833 0.093927 -0.000058 -0.279196 0.959307
-0.995699 0.096903 -0.000000 0.000979 0.997657 0.047154
1.322948 -0.053731 0.080643 -0.000220 -0.504131 0.862639
-1.079511 -0.088653 -0.039127 -0.000038 -0.929711 -0.365880
1.043147 -0.113616 -0.100092 -0.100315 -0.787260 0.608407
-0.250012 -0.091124 0.032964 0.001357 -0.926081 0.374954
0.283108 0.048316 -0.083999 0.000059 0.484513 -0.873777
1.589626 -0.029145 0.087077 0.149819 -0.258671 0.953310
-0.003111 -0.188838 0.149239 0.077757 -0.659037 -0.748080
1.207694 0.061219 0.075116 0.000046 0.592958 0.804154
0.136170 -0.155812 0.134621 0.077757 -0.659037 -0.748080
-0.028805 -0.154011 -0.150662 0.058933 0.659889 -0.749048
1.492140 -0.282108 0.251681 -0.100315 0.504314 0.857674
-1.266153 -0.079350 -0.055622 0.000049 -0.809165 -0.586094
0.690591 -0.047931 0.084219 0.000434 -0.461221 0.886389
0.032574 0.341964 0.287847 0.077757 0.659037 -0.748080
1.030381 -0.080959 0.053252 0.000023 -0.800765 0.597513
0.490875 -0.018601 -0.095101 0.000011 -0.223480 -0.973762
0.350752 -0.089932 0.036090 -0.000102 -0.918640 0.392795
1.508856 -0.289465 -0.257962 -0.100315 0.504314 -0.857674
1.508856 0.289465 -0.257962 -0.100315 -0.504314 -0.857674
0.034580 -0.121449 0.093788 0.077757 -0.659037 -0.748080
1.637019 0.059821 0.047227 1.000000 -0.000000 -0.000000
-1.070517 -0.069692 0.067329 -0.000005 -0.697676 0.715181
0.231088 -0.010960 0.096281 0.000482 -0.146891 0.988087
-0.857034 -0.069967 -0.067044 0.000004 -0.745053 -0.665718
-0.162684 0.023332 -0.094052 0.000253 0.296200 -0.954147
-1.312223 0.068555 0.068487 0.000620 0.728332 0.683870
-0.711801 0.068555 -0.068487 0.000620 0.728332 -0.683870
1.624334 -0.186325 -0.167174 0.213548 0.643570 -0.734994
1.624334 0.186325 -0.167174 0.213548 -0.643570 -0.734994
-1.127973 0.016295 0.095523 0.001181 0.209504 0.976799
-1.414308 0.008006 0.096572 -0.000124 0.140132 0.989342
1.157356 0.159212 -0.140261 -0.100315 0.787260 0.608407
-0.177098 0.123252 0.095810 -0.058894 0.686766 -0.724489
0.027195 -0.549265 0.484496 -0.044624 0.639432 0.767551
-0.083421 -0.273288 -0.248154 -0.044624 0.639432 -0.767551
-1.629772 0.010884 -0.085026 -0.269570 0.164050 -0.946900
1.576751 -0.271035 0.224899 -0.000000 -0.661038 -0.750352
0.074077 0.435627 0.374675 0.077757 0.659037 -0.748080
1.368539 0.023997 0.093885 0.000007 0.253232 0.966492
1.517074 -0.051661 -0.081984 0.000122 -0.562327 -0.825845
-1.275896 0.000000 -0.096903 0.000856 0.067219 -0.996634
1.500353 -0.225363 -0.184664 -0.000000 -0.661038 0.750352
-1.360469 0.095148 -0.018358 -0.000685 0.974452 -0.220528
0.224602 0.093752 -0.024513 -0.000241 0.962351 -0.268428
-0.241545 0.084142 0.048066 0.000009 0.894527 0.445032
1.257843 -0.158739 0.125970 0.000000 -0.661038 -0.750352
1.146045 -0.075343 -0.060939 0.000076 -0.802260 -0.595502
-1.486988 0.025519 -0.093483 -0.000039 0.293757 -0.954958
1.591987 0.089308 0.019757 0.150385 0.950323 0.268841
0.800783 0.088033 -0.040501 0.000465 0.925108 -0.377403
-0.140907 -0.288960 -0.249947 -0.058894 -0.686766 0.724489
1.346280 -0.130125 0.100762 0.000000 -0.661038 -0.750352
-0.418918 -0.025643 -0.093449 0.000385 -0.234864 -0.971100
1.637019 -0.079141 -0.030034 0.151996 -0.900979 -0.404407
1.537858 0.056934 -0.078414 0.000261 0.552883 -0.832332
1.324276 0.225851 -0.198968 -0.100315 0.787260 0.608407
1.577864 -0.227851 -0.214605 -0.000000 0.661038 -0.750352
-0.075053 -0.000000 0.096903 0.000948 0.058566 0.997349
1.578061 0.227574 -0.214361 0.000000 -0.661038 -0.750352
0.475334 0.096903 -0.000000 0.000187 0.998545 0.032147
-1.010902 -0.088578 0.039296 0.000028 -0.887489 0.458959
-0.035469 0.229161 0.184691 -0.058894 0.686766 -0.724489
-0.096623 -0.307980 0.276288 -0.044624 0.639432 0.767551
-0.104714 0.118440 -0.117915 -0.044624 -0.639432 -0.767551
-0.200240 0.092058 -0.030258 0.000207 0.928733 -0.368348
0.033006 0.036882 0.089610 0.000036 0.430824 0.901531
-0.058459 -0.239705 0.221628 -0.044624 0.639432 0.767551
-0.792051 -0.011269 -0.096246 0.000223 -0.187918 -0.980857
-1.615793 -0.040817 0.079709 -0.234633 -0.390389 0.889034
0.595213 0.007782 -0.096590 -0.000109 0.124672 -0.991389
-1.617653 -0.079073 0.041043 -0.237878 -0.885353 0.396301
-0.155584 -0.254588 0.218559 -0.058894 -0.686766 -0.724489
0.044243 -0.502433 0.437254 -0.058894 -0.686766 -0.724489
-0.469714 -0.094217 -0.022656 -0.000709 -0.964134 -0.262072
-0.189263 0.096446 -0.094677 -0.044624 -0.639432 -0.767551
1.519390 0.210495 -0.199314 -0.000000 -0.661038 -0.750352
-0.706251 -0.094895 -0.019625 -0.000083 -0.971296 -0.233793
0.020160 0.190272 0.152921 0.077757 0.659037 -0.748080
1.380166 -0.007414 -0.096619 -0.000346 -0.055662 -0.997953
-1.055701 -0.017125 0.095378 -0.000034 -0.206262 0.977597
-0.944613 0.091830 0.030942 0.000381 0.936535 0.348290
1.416825 -0.060115 0.076003 0.000273 -0.647094 0.761280
-0.050694 0.328845 -0.280423 -0.058894 0.686766 0.724489
0.027579 -0.024860 -0.093660 0.000162 -0.308998 -0.950241
1.030588 0.084621 -0.047218 0.001709 0.868668 -0.493974
1.082379 -0.091472 -0.031987 -0.000138 -0.922757 -0.383118
-0.127319 0.303113 -0.262260 -0.058894 0.686766 0.724489
0.119009 -0.428171 -0.380559 0.058933 0.659889 -0.749048
1.069978 -0.056981 0.078380 -0.000026 -0.611605 0.790046
-0.706941 0.086089 0.044484 0.000010 0.875179 0.481974
-0.018475 -0.210679 0.199772 -0.010098 0.646875 0.762111
1.301739 0.048909 0.083655 0.000002 0.509611 0.859382
-0.258238 -0.127850 0.116829 -0.044624 0.639432 0.767551
0.799820 0.054384 0.080203 -0.000125 0.605222 0.794959
0.694854 0.048043 0.084155 0.000084 0.542314 0.839141
0.120641 -0.479086 -0.425285 0.058933 0.659889 -0.749048
-1.105475 -0.025626 -0.093454 -0.000023 -0.303587 -0.951875
-0.291185 0.104476 -0.095441 -0.044624 -0.639432 -0.767551
-0.259419 -0.139185 -0.126203 -0.044624 0.639432 -0.767551
-0.232754 -0.073221 -0.063478 0.000000 0.750352 0.661038
1.262779 0.201300 -0.177339 -0.100315 0.787260 0.608407
0.404445 -0.077669 -0.057947 0.000106 -0.787020 -0.615574
-0.002337 -0.210274 -0.168204 0.077757 -0.659037 0.748080
1.473778 0.091290 0.032503 -0.000080 0.921526 0.386015
0.880751 0.094156 0.022911 -0.000530 0.971488 0.233180
-0.011426 -0.361191 -0.325570 -0.044624 0.639432 -0.767551
0.035025 0.096903 -0.000000 0.001778 0.997261 0.059141
0.432993 -0.085851 0.044942 -0.000236 -0.903276 0.427151
-1.160651 -0.057269 0.078170 0.000009 -0.637260 0.769502
0.533221 -0.035303 0.090244 -0.000092 -0.416600 0.908116
-0.545146 -0.063875 -0.072871 -0.000009 -0.680987 -0.731088
0.450465 0.044367 0.086150 -0.000255 0.441370 0.896334
1.479162 -0.246534 0.203315 0.000000 -0.661038 -0.750352
0.138826 0.009604 0.096426 0.000617 0.130034 0.990554
1.629976 -0.089348 0.080621 0.213548 0.643570 0.734994
-1.514454 0.018669 0.095088 -0.000037 0.224252 0.973589
-0.069939 -0.166266 0.127873 -0.058894 -0.686766 -0.724489
-0.966469 -0.063244 0.073420 0.000253 -0.676228 0.735578
-0.208725 -0.235536 0.209419 -0.044624 0.639432 0.767551
-1.321066 -0.092490 0.028912 -0.000286 -0.933905 0.355029
-0.320606 -0.067998 0.069040 0.000347 -0.721895 0.690818
0.028330 -0.395832 -0.356740 -0.044624 0.639432 -0.767551
0.086581 0.307311 0.262933 0.077757 0.659037 -0.748080
-1.229746 0.008789 0.096504 -0.000809 0.127186 0.991239
1.115070 0.020298 0.094753 0.000259 0.201558 0.978658
0.161621 0.482843 0.425371 0.077757 0.659037 -0.748080
-0.087784 0.278644 0.252363 -0.044624 -0.639432 0.767551
-1.419821 0.089570 -0.036979 0.000127 0.899469 -0.434971
0.938597 -0.082834 -0.050287 0.000072 -0.873281 -0.485401
0.122046 -0.278186 -0.248187 0.058933 0.659889 -0.749048
1.530212 -0.090455 -0.034757 0.000173 -0.931433 -0.361446
1.087074 0.131153 -0.115542 -0.100315 0.787260 0.608407
-0.753193 -0.080181 -0.054417 0.000105 -0.792308 -0.608684
-0.116043 0.044303 -0.086183 -0.000014 0.508464 -0.860056
0.102446 0.556139 0.494598 0.024421 -0.653694 0.755943
1.521718 0.161085 0.128037 0.000000 0.661038 -0.750352
-0.174944 0.195336 -0.163965 -0.058894 0.686766 0.724489
-0.077819 -0.099724 -0.103887 -0.044624 0.639432 -0.767551
0.671408 -0.096530 0.008493 -0.000313 -0.993578 0.106438
1.586403 -0.088361 0.026721 0.149819 -0.929979 0.332767
1.108710 0.008803 -0.096503 0.000629 0.103678 -0.993943
0.606937 0.039712 0.088392 0.000084 0.458956 0.887465
0.058111 -0.276614 0.232930 0.077757 -0.659037 -0.748080
0.079987 -0.327070 -0.279654 0.077757 -0.659037 0.748080
0.083567 -0.425649 0.381125 0.058933 0.659889 0.749048
-0.672678 -0.066021 0.070933 -0.000100 -0.722402 0.690206
1.587270 -0.185421 0.149476 0.142779 -0.654888 -0.740382
-1.509682 0.088473 -0.039532 0.000022 0.900710 -0.432386
0.048076 0.524614 -0.457969 -0.058894 0.686766 0.724489
-0.653975 0.016298 0.095523 -0.000328 0.227108 0.972981
1.587270 0.185421 0.149476 0.071597 0.659233 -0.746803
1.209730 -0.014914 0.095749 0.000060 -0.185410 0.981835
1.637019 -0.037621 -0.000000 1.000000 0.000000 0.000000
0.112405 0.145177 0.122781 0.077757 0.659037 -0.748080
-1.223695 0.083246 -0.049601 0.000367 0.843652 -0.535501
-0.527576 -0.080632 0.053746 0.000959 -0.798776 0.600401
1.464844 0.020202 0.094774 0.000239 0.214202 0.975932
0.895629 0.000000 -0.096903 0.000976 0.059251 -0.997261
-0.792731 -0.090530 0.034562 -0.000221 -0.941193 0.334492
1.412077 -0.173106 0.166376 -0.000000 0.661038 0.750352
1.452709 0.116393 0.088664 -0.000000 0.661038 -0.750352
0.298894 -0.092980 -0.027293 -0.000611 -0.966877 -0.251736
0.749124 0.010191 -0.096366 0.001067 0.165217 -0.985217
-0.908298 0.076103 -0.059988 0.000610 0.746768 -0.663831
0.317962 -0.047011 -0.084736 -0.002293 -0.523039 -0.851001
1.573133 0.019435 0.092299 0.149602 0.253298 0.954749
1.308457 0.097186 0.099493 0.000000 -0.661038 0.750352
-1.262041 0.089453 0.037262 -0.000224 0.934728 0.352976
-0.084996 0.096138 0.100482 -0.044624 -0.639432 0.767551
1.329787 0.091930 -0.030644 -0.000189 0.950359 -0.308348
-1.316542 0.016342 0.095515 -0.000493 0.206433 0.977609
1.187846 0.121006 -0.092728 0.000000 0.661038 0.750352
1.193199 -0.046050 -0.085262 -0.000014 -0.510690 -0.858741
1.402555 0.163759 0.158141 0.000000 -0.661038 0.750352
1.510367 0.093014 -0.027177 0.000810 0.960152 -0.275855
-0.281045 0.103146 0.094922 -0.044624 -0.639432 0.767551
0.915685 0.014489 0.095814 -0.000209 0.157906 0.986575
0.504531 -0.092264 -0.029623 -0.000066 -0.942703 -0.330971
0.723114 -0.066670 -0.070323 0.001033 -0.709534 -0.703372
1.373644 -0.026369 0.093246 -0.000329 -0.328484 0.943589
-1.530481 -0.044968 -0.085838 0.000058 -0.414036 -0.909293
1.423070 0.095181 0.018188 0.000453 0.982645 0.180325
0.151740 -0.210496 -0.186218 0.058933 0.659889 -0.749048
1.075690 -0.091960 0.030556 -0.000375 -0.957527 0.285151
-0.033795 0.117805 -0.119157 0.058933 -0.659889 -0.749048
0.119380 -0.328369 0.292607 0.058933 0.659889 0.749048
0.802182 -0.048153 0.084092 0.000135 -0.525352 0.849927
0.085284 -0.034005 0.090741 0.000025 -0.380095 0.923964
0.642096 0.081905 -0.051786 0.000118 0.840553 -0.540378
1.442288 -0.101851 -0.075853 0.000000 -0.661038 0.750352
1.157344 0.085507 0.045593 -0.000134 0.860862 0.507132
-1.585673 0.095034 -0.000000 -0.139232 0.988949 -0.027860
1.275896 0.000000 -0.096903 -0.001585 0.026071 -0.999052
1.456023 0.000000 -0.096903 -0.000855 0.059425 -0.997282
0.138471 -0.082597 -0.050675 0.000004 -0.819096 -0.572160
-0.076625 0.199248 -0.159682 -0.058894 0.686766 0.724489
-0.370797 -0.093767 -0.024452 -0.000336 -0.951055 -0.306437
0.273599 -0.067775 0.069259 0.000067 -0.683152 0.729077
1.356430 0.202127 0.188780 -0.100315 -0.504314 0.857674
-1.041212 0.080614 0.053774 -0.000005 0.814466 0.578686
1.488328 0.243987 -0.228820 -0.031229 -0.614787 -0.786643
-0.203862 -0.251258 -0.222799 -0.044624 0.639432 -0.767551
-0.755509 0.093624 0.024996 0.000066 0.957993 0.283665
-0.337800 -0.056584 -0.078667 0.000121 -0.613168 -0.788973
1.410640 -0.089315 -0.037591 0.001459 -0.904308 -0.424561
-0.056049 -0.091916 0.030687 -0.000022 -0.938557 0.342551
0.506867 -0.080944 0.053275 0.000151 -0.856850 0.513875
-0.150369 0.346436 -0.305200 -0.044624 -0.639432 -0.767551
-0.281457 -0.187294 0.165000 -0.044624 0.639432 0.767551
-1.105228 0.063550 0.073155 0.000362 0.676118 0.735659
-0.126992 -0.061055 -0.075250 -0.000108 -0.583653 -0.810975
-0.455033 0.030130 0.092100 0.000019 0.326591 0.944232
1.616787 -0.000000 -0.087712 0.148794 0.091499 -0.983556
-0.110968 0.170109 -0.134851 -0.058894 0.686766 0.724489
-0.119123 -0.354899 -0.310683 -0.058894 -0.686766 0.724489
0.161621 -0.393360 0.346539 0.077757 -0.659037 -0.748080
1.227638 -0.187270 -0.164980 -0.100315 -0.787260 0.608407
0.056983 0.097623 -0.094235 0.058933 -0.659889 -0.749048
-0.075375 -0.037069 -0.089533 0.000470 -0.414382 -0.909191
0.074920 -0.041683 -0.087480 -0.000196 -0.435991 -0.899229
-0.440200 -0.069524 -0.067503 -0.000053 -0.737642 -0.673914
1.391433 -0.219067 -0.179117 -0.067071 -0.747995 0.658357
1.081795 0.093948 0.023751 -0.000155 0.970680 0.236774
1.453282 0.102263 -0.076216 -0.000000 0.661038 0.750352
-0.436029 0.091969 -0.030528 -0.000002 0.927863 -0.370546
0.415292 0.000000 -0.096903 -0.002150 0.028784 -0.998758
0.034696 0.262227 0.217821 0.077757 0.659037 -0.748080
1.585769 0.266831 0.221196 0.071597 0.659233 -0.746803
0.316016 0.031468 0.091652 0.000108 0.368102 0.928902
1.488328 -0.243987 -0.228820 -0.031229 0.614787 -0.786643
-1.657957 -0.074788 0.008802 -0.416907 -0.895515 0.145413
0.072096 -0.560758 -0.490279 -0.058894 -0.686766 0.724489
0.187998 -0.086366 0.043946 0.000108 -0.879539 0.473926
-0.537724 0.007862 0.096584 0.000479 0.096008 0.994716
0.183295 -0.022461 0.094264 0.000541 -0.242859 0.969190
1.426162 -0.229339 0.212936 -0.100315 0.504314 0.857674
0.026727 -0.264783 -0.243879 0.058933 0.659889 -0.749048
0.801926 -0.080752 -0.053566 0.000074 -0.820893 -0.569611
-0.027259 0.161287 -0.156950 0.058933 -0.659889 -0.749048
-1.517203 -0.077759 0.057825 0.000029 -0.785724 0.617237
0.198311 0.035662 -0.090103 -0.000558 0.420579 -0.906309
-0.812020 0.092933 -0.027453 -0.000397 0.940032 -0.338629
-0.866131 0.052727 -0.081303 -0.000339 0.516570 -0.855255
1.596681 0.113900 0.088831 0.213548 0.648004 -0.731087
1.312245 0.156954 -0.124398 0.000000 0.661038 0.750352
-1.550162 -0.021727 0.094436 -0.001580 -0.260743 0.964192
0.035553 -0.365034 0.331503 -0.010098 0.646875 0.762111
1.485545 -0.096224 0.011451 0.000399 -0.988284 0.144028
1.127174 0.099803 0.101798 -0.068026 -0.557246 0.825951
1.197643 -0.141701 -0.110960 -0.067071 -0.747995 0.658357
0.121237 -0.274836 0.237925 0.077757 -0.659037 -0.748080
-0.003972 0.309066 0.282579 -0.044624 -0.639432 0.767551
1.355577 0.112987 -0.085664 -0.000000 0.661038 0.750352
-0.071716 0.441921 0.389320 -0.058894 0.686766 -0.724489
1.500648 -0.200677 0.190665 0.000000 0.661038 0.750352
1.258489 0.095669 -0.070407 -0.000000 0.661038 0.750352
-0.066472 -0.448287 0.394928 -0.044624 0.639432 0.767551
0.115081 0.000000 -0.096903 -0.000237 0.042239 -0.998071
-1.278114 -0.067701 0.069332 0.000051 -0.717901 0.694922
0.071009 -0.246141 -0.223972 0.058933 0.659889 -0.749048
-0.257748 0.153499 -0.131038 -0.058894 0.686766 0.724489
-0.087545 0.323327 0.289601 -0.044624 -0.639432 0.767551
-1.722222 0.034309 0.007036 -0.645093 0.713076 0.260712
0.050267 0.150199 -0.141082 0.058933 -0.659889 -0.749048
-1.320648 0.082915 -0.050153 -0.000502 0.841171 -0.539217
1.399129 0.102160 0.076125 -0.000000 0.661038 -0.750352
0.109665 0.091183 -0.032801 0.000014 0.933974 -0.354843
-0.099536 -0.083494 0.051817 -0.058894 -0.686766 -0.724489
0.662893 0.008391 -0.096539 -0.000797 0.138955 -0.989457
-1.206552 -0.091551 0.031758 -0.000351 -0.934978 0.352313
0.985692 0.096903 -0.000000 0.000970 0.999150 0.022478
-0.016170 -0.122962 0.089846 0.077757 -0.659037 -0.748080
-0.125204 -0.089866 -0.036254 0.000250 -0.917301 -0.396153
1.461964 0.151427 0.119528 -0.000000 0.661038 -0.750352
1.637019 -0.040092 0.057187 1.000000 0.000000 -0.000000
-0.160118 0.229203 -0.194863 -0.058894 0.686766 0.724489
1.426862 0.230145 0.213492 -0.100315 -0.504314 0.857674
0.992784 -0.092863 -0.027689 0.000668 -0.967966 -0.247823
0.105632 0.058249 0.077442 0.000328 0.559036 0.828190
0.904753 0.095188 -0.018150 0.000515 0.970818 -0.236116
1.518893 -0.154518 0.122251 -0.000000 -0.661038 -0.750352
-0.176586 0.314607 0.277160 -0.058894 0.686766 -0.724489
-1.659093 -0.064851 -0.037283 -0.391065 -0.823935 -0.406070
-0.881041 -0.007664 -0.096600 0.000247 -0.115208 -0.992496
1.292576 -0.187242 0.154236 -0.100315 -0.787260 -0.608407
1.409050 0.212337 -0.200937 -0.033633 -0.611057 -0.789245
-0.606447 -0.095657 -0.015493 0.000166 -0.981728 -0.185984
1.599280 0.323821 -0.280395 -0.100315 0.787260 0.608407
-0.265004 -0.193653 -0.171255 -0.044624 0.639432 -0.767551
0.040641 0.056219 -0.078928 0.000136 0.558110 -0.828584
1.171662 0.034600 -0.090516 -0.000086 0.406836 -0.912551
0.063855 -0.207378 -0.172532 0.077757 -0.659037 0.748080
-0.150241 0.175826 0.163076 -0.044624 -0.639432 0.767551
0.123596 -0.098879 0.083157 0.077757 -0.659037 -0.748080
0.373049 0.090218 -0.035369 0.000010 0.924481 -0.378898
0.018009 -0.440940 0.393719 -0.044624 0.639432 0.767551
1.391266 -0.108578 -0.081779 -0.000000 -0.661038 0.750352
1.100748 0.103017 -0.076881 -0.067071 0.747995 0.658357
1.191587 0.093901 -0.023932 0.000144 0.966632 -0.252557
-0.112451 0.096480 -0.065177 -0.058894 0.686766 0.724489
0.877866 -0.096036 0.012933 -0.000634 -0.986182 0.158227
0.124315 -0.515734 0.450469 0.077757 -0.659037 -0.748080
1.268925 -0.081917 -0.058292 -0.000000 0.750352 0.661038
-0.153381 -0.139524 0.109306 -0.058894 -0.686766 -0.724489
-1.536079 0.000000 -0.096903 -0.000831 0.027451 -0.998789
1.386533 -0.141171 -0.138242 0.000000 0.661038 -0.750352
-0.104714 -0.118440 0.117915 -0.044624 0.639432 0.767551
-1.666352 0.034077 -0.062803 -0.417569 0.486546 -0.765243
-0.515867 -0.017460 -0.095317 -0.000045 -0.150863 -0.987646
0.568170 0.096633 0.007231 0.001035 0.992091 0.120152
1.587834 0.331072 0.291665 -0.100315 -0.504314 0.857674
1.587834 -0.331072 0.291665 -0.100315 -0.787260 -0.608407
1.543236 -0.116800 0.089023 -0.000000 -0.661038 -0.750352
0.161621 -0.348618 -0.307123 0.077757 -0.659037 0.748080
-0.849761 0.096445 0.009414 -0.000179 0.987068 0.154267
-1.250372 0.037649 -0.089290 -0.002309 0.432106 -0.900457
-0.120397 0.011179 0.096256 0.002861 0.126252 0.991330
1.614797 0.073092 -0.049029 0.150108 0.818924 -0.552249
-0.930086 -0.007530 -0.096610 0.000345 -0.133824 -0.990249
-1.586485 0.024988 -0.091586 -0.104060 0.226833 -0.967295
1.421273 -0.257453 -0.223867 -0.100315 -0.787260 0.608407
-1.205847 0.000000 -0.096903 -0.000149 0.055224 -0.997554
-0.102691 0.172858 0.136784 -0.058894 0.686766 -0.724489
0.028226 -0.087493 0.041655 0.000154 -0.890500 0.453114
0.941932 -0.068219 0.068821 -0.000034 -0.742145 0.668925
1.549668 0.014173 -0.095861 -0.002588 0.140242 -0.989245
1.361988 -0.144638 0.141297 0.000000 0.661038 0.750352
-0.163273 -0.044729 0.085963 0.000167 -0.491590 0.869825
1.421450 0.254505 -0.227183 -0.100315 -0.504314 -0.857674
1.320964 0.177170 0.169956 -0.067071 -0.558816 0.825018
0.602437 -0.086953 0.042771 -0.000000 -0.889009 0.455951
1.462916 -0.165521 -0.131945 -0.000000 -0.661038 0.750352
-0.360272 0.042845 -0.086917 -0.000010 0.466836 -0.883344
0.677970 -0.049990 -0.083013 -0.000278 -0.565198 -0.823963
0.275919 0.086102 -0.044461 0.000115 0.880860 -0.471536
1.056705 0.085434 0.061390 -0.076021 0.759061 -0.645472
-0.244163 -0.018046 -0.095208 -0.000041 -0.223598 -0.973789
1.458799 -0.139212 0.108767 -0.000000 -0.661038 -0.750352
-1.115784 -0.096903 0.000000 0.003619 -0.996416 -0.069785
1.422935 0.037584 0.089318 -0.000074 0.383586 0.922545
0.821191 0.058011 -0.077621 -0.000857 0.636130 -0.770404
0.093515 -0.083682 -0.079080 0.058933 0.659889 -0.749048
0.244745 0.090949 0.033445 0.000004 0.919076 0.391839
0.120921 0.219832 0.196868 0.058933 -0.659889 0.749048
-0.829281 -0.068555 0.068487 -0.000651 -0.728400 0.683802
1.605906 -0.319623 -0.273870 0.004949 -0.748996 0.656911
-0.119794 -0.195560 0.159695 -0.058894 -0.686766 -0.724489
1.238352 -0.102934 0.076807 -0.000000 -0.661038 -0.750352
0.624341 0.089443 0.037284 -0.000034 0.900012 0.433835
0.761837 0.081879 0.051827 -0.000021 0.813419 0.580135
-1.372269 -0.068415 0.068626 -0.000099 -0.686300 0.726116
-0.217122 -0.197715 0.177422 -0.044624 0.639432 0.767551
-0.204763 0.204022 0.174623 -0.058894 0.686766 -0.724489
1.356198 0.205001 -0.166725 -0.067071 0.747995 0.658357
-0.003414 0.090688 0.034146 -0.000123 0.914454 0.402549
0.079291 0.489987 0.438142 0.024421 -0.653694 0.755943
0.122225 -0.220312 0.189993 0.077757 -0.659037 -0.748080
-0.033422 -0.087115 -0.092091 0.058933 0.659889 -0.749048
1.057524 0.037592 -0.089315 0.000566 0.418144 -0.907269
-0.242328 -0.046911 0.084791 0.000759 -0.518548 0.854035
1.158996 -0.069555 0.067471 0.000246 -0.695618 0.717202
-0.441988 -0.082911 0.050160 -0.000082 -0.822851 0.566706
1.519390 0.210495 0.199314 -0.000000 -0.661038 0.750352
0.245345 0.025366 -0.093524 0.000282 0.300128 -0.953014
-0.120695 -0.348414 0.308573 -0.044624 0.639432 0.767551
-0.031171 -0.440428 -0.390433 -0.044624 0.639432 -0.767551
1.636465 0.093526 0.082394 0.213548 -0.643570 0.734994
-1.356429 -0.094801 -0.020074 0.000430 -0.966868 -0.251763
1.083741 0.109630 0.088242 -0.100315 0.787260 -0.608407
-0.307626 -0.118103 0.101540 -0.058894 -0.686766 -0.724489
-0.888156 -0.094708 0.020508 0.000258 -0.971755 0.232140
-0.791718 0.041643 0.087499 -0.000132 0.481486 0.875451
-1.187176 0.036631 0.089713 0.000017 0.342288 0.938779
-0.839291 -0.035646 -0.090109 0.000112 -0.422778 -0.905307
-0.023751 -0.041165 0.087725 -0.000103 -0.476882 0.877973
0.212140 0.069178 0.067857 0.000275 0.745584 0.665123
0.341596 -0.095906 -0.013866 0.000093 -0.978364 -0.202087
-0.034348 -0.328509 0.297010 -0.044624 0.639432 0.767551
0.152494 -0.137181 -0.119904 0.077757 -0.659037 0.748080
0.006224 -0.157962 -0.123008 0.077757 -0.659037 0.748080
0.039951 0.309236 -0.259781 0.077757 0.659037 0.748080
-0.290119 -0.096531 0.008487 0.000066 -0.991713 0.121384
1.398972 -0.214862 0.175412 0.000000 -0.661038 -0.750352
-0.792825 0.033089 -0.091079 0.000388 0.310337 -0.949795
0.097408 0.040407 -0.088077 -0.000011 0.434376 -0.899780
-0.023786 -0.224214 -0.210738 -0.044624 0.639432 -0.767551
-1.672275 0.000000 0.068511 -0.471187 0.047122 0.878131
-0.092103 -0.187535 -0.149837 -0.058894 -0.686766 0.724489
-0.059477 -0.310998 -0.264219 -0.058894 -0.686766 0.724489
0.016022 0.084029 -0.048263 0.000221 0.883674 -0.466249
1.547409 -0.232350 0.190819 0.000000 -0.661038 -0.750352
0.125657 0.571197 -0.499470 0.077757 0.659037 0.748080
-0.008130 0.394127 0.338845 -0.058894 0.686766 -0.724489
0.088618 -0.485406 0.433372 0.058933 0.659889 0.749048
-0.594043 0.019776 -0.094864 0.000402 0.220608 -0.974488
0.003351 0.476611 0.422584 -0.044624 -0.639432 0.767551
1.162858 -0.133009 0.125497 -0.100315 0.504314 0.857674
-1.619551 0.052499 0.071376 -0.265780 0.540575 0.797193
0.313137 0.094229 0.022607 0.000368 0.958278 0.282601
0.154459 0.093121 0.026809 0.000254 0.971635 0.232804
-0.339864 0.081013 -0.053171 -0.000214 0.815816 -0.576884
-1.185309 0.095243 -0.017862 0.000198 0.975839 -0.214458
0.059240 -0.154571 -0.125531 0.077757 -0.659037 0.748080
-1.046537 0.096122 0.012282 -0.000086 0.986511 0.155776
-0.223490 -0.109833 0.086861 -0.058894 -0.686766 -0.724489
0.051044 -0.061361 0.075000 0.000221 -0.677288 0.734501
0.032141 -0.241575 0.223007 0.058933 0.659889 0.749048
1.273371 0.127027 0.098032 -0.000000 0.661038 -0.750352
1.545819 0.053608 0.080724 0.000331 0.596873 0.801244
1.333312 -0.103182 -0.077026 0.000000 -0.661038 0.750352
0.086294 -0.161083 0.134080 0.077757 -0.659037 -0.748080
0.815573 0.096903 -0.000000 0.001344 0.997190 0.060644
1.282501 -0.090871 0.033656 0.000090 -0.922016 0.384921
0.006214 0.384790 -0.328829 -0.058894 0.686766 0.724489
1.294381 -0.134126 0.104286 0.000000 -0.661038 -0.750352
-0.626253 0.090092 0.035689 0.000315 0.918937 0.392204
-0.200868 0.139171 -0.112832 -0.058894 0.686766 0.724489
-0.135659 -0.092572 0.028646 -0.000128 -0.946540 0.319826
-0.050769 0.379093 0.338196 -0.044624 -0.639432 0.767551
1.614808 -0.256112 -0.231048 0.213548 0.643570 -0.734994
1.614808 0.261490 -0.224944 0.213548 0.648004 0.731087
0.230748 -0.093088 -0.026924 0.000432 -0.966610 -0.252999
-0.379854 0.088119 0.040315 0.000010 0.924734 0.378298
0.871457 0.071085 0.065857 -0.000060 0.735731 0.675996
-1.120423 -0.069898 0.067116 -0.000014 -0.699442 0.713451
-0.151540 0.161068 -0.150705 -0.044624 -0.639432 -0.767551
1.538986 -0.213161 -0.201663 -0.000000 0.661038 -0.750352
-1.084290 -0.061404 -0.074965 -0.000033 -0.676695 -0.735069
-0.221531 0.056885 0.078450 0.000029 0.620023 0.783459
-1.102999 0.096367 -0.010177 0.000005 0.984720 -0.167940
-1.409080 -0.082735 0.050450 -0.000053 -0.820626 0.569917
-0.675289 0.044528 -0.086067 0.000310 0.512733 -0.857431
1.449949 0.201049 0.190993 -0.000000 -0.661038 0.750352
1.249777 -0.094764 -0.020249 0.000420 -0.973716 -0.223742
1.351402 -0.044777 -0.085937 0.000296 -0.408533 -0.911790
1.394674 0.102155 -0.103870 -0.000000 -0.661038 -0.750352
1.234986 0.093857 -0.024104 -0.000007 0.952775 -0.300752
1.392678 -0.083741 0.048761 0.000097 -0.883090 0.467396
1.332464 -0.148931 -0.117329 0.000000 -0.661038 0.750352
0.245009 -0.048277 -0.084021 0.000120 -0.547989 -0.835449
0.543865 -0.085039 -0.046461 -0.000021 -0.891312 -0.451442
1.500784 0.094810 0.069650 0.000000 0.661038 -0.750352
-1.447695 -0.019629 0.094894 0.000143 -0.223973 0.973697
1.431206 -0.096608 0.007553 0.000765 -0.989983 0.135382
-0.017547 0.182166 0.174580 0.058933 -0.659889 0.749048
0.959832 -0.010203 0.096365 -0.000076 -0.132420 0.990248
1.491510 -0.078935 -0.056210 0.000090 -0.799590 -0.599086
-1.428208 0.058057 -0.077586 -0.000080 0.624228 -0.780118
-0.008579 -0.292913 -0.268855 -0.044624 0.639432 -0.767551
0.072337 0.379930 0.325427 0.077757 0.659037 -0.748080
0.628647 -0.087493 -0.041655 0.000154 -0.890500 -0.453114
-0.627494 0.061271 -0.075074 -0.000162 0.655679 -0.753997
-1.461468 -0.092912 -0.027525 -0.001161 -0.972027 -0.231466
0.239178 0.032399 0.091327 0.000024 0.382863 0.922845
-0.074422 -0.385345 0.335909 -0.058894 -0.686766 -0.724489
-1.215509 -0.035385 0.090211 0.000204 -0.335075 0.941285
-0.455404 0.033874 -0.090790 0.000010 0.293066 -0.955168
1.371845 0.035366 -0.090219 0.000073 0.371893 -0.927329
-0.310229 0.054280 0.080274 0.000031 0.546743 0.836245
1.009963 -0.056526 -0.078709 0.000381 -0.593192 -0.804027
0.006351 0.487565 -0.426241 -0.058894 0.686766 0.724489
-0.946689 0.062433 -0.074111 -0.000169 0.626162 -0.778598
1.188551 -0.081917 -0.058292 -0.000000 0.750352 0.661038
1.127661 -0.105918 0.105451 -0.100315 0.504314 0.857674
0.379434 0.024681 -0.093707 0.000325 0.267954 -0.962480
1.299967 0.077481 -0.058197 -0.000114 0.830526 -0.555408
0.863759 0.070520 -0.066462 0.000016 0.724367 -0.688141
-0.814388 -0.032797 0.091184 -0.000554 -0.283256 0.958157
-1.323964 -0.006202 -0.096705 -0.000919 -0.103429 -0.993873
1.368591 0.087605 0.041420 0.000020 0.925108 0.377375
-1.318604 -0.027821 0.092824 -0.000227 -0.342469 0.938606
-1.392828 0.036974 -0.089572 0.000155 0.407549 -0.912212
0.035005 -0.514893 -0.449817 -0.058894 -0.686766 0.724489
-0.067885 0.127581 -0.091036 -0.058894 0.686766 0.724489
0.576185 -0.041791 0.087429 0.000042 -0.467729 0.882870
-0.208567 0.070521 -0.066460 0.000192 0.708080 -0.704914
0.058288 0.458809 -0.394760 -0.058894 0.686766 0.724489
-0.595888 0.055662 0.079322 0.000880 0.607631 0.793246
0.123419 0.362558 0.322408 0.058933 -0.659889 0.749048
1.220535 0.105215 0.078817 0.000000 0.661038 -0.750352
1.613031 -0.069532 -0.068193 0.213548 0.643570 -0.734994
0.877905 -0.059239 0.076688 0.000392 -0.626916 0.778058
-0.129252 -0.151510 -0.118707 -0.058894 -0.686766 0.724489
-0.793293 0.075194 0.061123 0.000050 0.759917 0.648683
1.146500 -0.125233 -0.098084 -0.100315 -0.787260 0.608407
0.119009 0.428171 0.380559 0.058933 -0.659889 0.749048
1.395152 -0.120896 0.092632 0.000000 -0.661038 -0.750352
-0.199705 0.094412 0.070309 -0.058894 0.686766 -0.724489
-1.130602 0.088578 0.039296 -0.000028 0.887489 0.458959
1.144959 0.055513 0.079426 0.000330 0.580463 0.813411
1.554967 -0.070203 -0.075721 0.000000 0.661038 -0.750352
-0.035728 0.067117 -0.069896 -0.000578 0.675989 -0.735823
0.118620 -0.363857 0.316078 0.077757 -0.659037 -0.748080
0.090297 0.498477 -0.431730 0.077757 0.659037 0.748080
1.558797 0.272120 0.253605 -0.067071 -0.558816 0.825018
1.320473 0.041129 -0.087742 0.000019 0.472245 -0.880469
0.025386 0.372930 0.316028 -0.058894 0.686766 -0.724489
1.424937 -0.030474 -0.091987 -0.000034 -0.336772 -0.940654
0.014989 -0.091660 -0.092286 0.058933 0.659889 -0.749048
0.176480 -0.060113 0.076004 -0.000463 -0.663323 0.747111
-0.003111 0.108389 0.108448 0.058933 -0.659889 0.749048
-0.031171 0.440428 -0.390433 -0.044624 -0.639432 -0.767551
-0.155087 0.093624 -0.024996 0.000066 0.957993 -0.283665
-1.715363 -0.032665 0.024259 -0.636841 -0.548001 0.535593
0.114474 0.157092 -0.142103 0.058933 -0.659889 -0.749048
0.405285 0.096903 -0.000000 0.000480 0.998896 0.031888
0.161621 0.169652 0.149458 0.077757 0.659037 -0.748080
1.411640 0.150551 -0.146506 0.000000 -0.661038 -0.750352
-0.165964 0.285343 -0.248556 -0.058894 0.686766 0.724489
0.852569 -0.008608 -0.096520 -0.000211 -0.054303 -0.997649
0.082746 0.082238 0.051256 -0.000390 0.822099 0.567851
1.600353 -0.119943 0.095261 0.213548 -0.648004 -0.731087
-0.160587 0.081468 0.052472 0.000002 0.833297 0.551298
-0.208638 -0.093492 -0.025484 0.000505 -0.956408 -0.288866
0.012441 -0.150267 0.116875 0.077757 -0.659037 -0.748080
-0.211114 -0.146815 -0.120911 -0.058894 -0.686766 0.724489
0.160782 -0.010970 -0.096280 0.001433 -0.150888 -0.987374
0.364427 0.083645 0.048927 0.000035 0.860483 0.507928
-0.291944 0.174562 0.153784 -0.058894 0.686766 -0.724489
-0.979124 -0.028029 0.092761 -0.000248 -0.316725 0.947594
-0.019072 -0.429609 0.373369 -0.058894 -0.686766 -0.724489
1.470740 -0.087055 0.090568 0.000000 0.661038 0.750352
0.948360 0.065029 -0.071843 -0.000200 0.671001 -0.740301
0.118378 0.326119 0.282807 0.077757 0.659037 -0.748080
0.655699 0.096671 0.006701 0.000773 0.991664 0.122373
-0.052181 -0.094973 -0.019247 -0.000465 -0.985089 -0.166032
0.089533 0.266050 -0.240054 0.058933 -0.659889 -0.749048
1.319493 -0.093759 0.096474 -0.000000 0.661038 0.750352
1.198078 0.138860 -0.133057 -0.100315 -0.504314 -0.857674
-0.828028 0.066388 -0.070590 0.000112 0.643551 -0.764357
1.061087 0.081101 -0.083072 -0.100315 -0.504314 -0.857674
0.093120 0.429360 -0.371134 0.077757 0.659037 0.748080
1.075118 0.039829 0.088340 0.000163 0.425162 0.904174
0.526383 0.065218 -0.071672 -0.000791 0.680108 -0.731949
0.710325 -0.090009 -0.035897 -0.000043 -0.937544 -0.345416
-0.525497 -0.095754 0.014878 -0.000071 -0.977294 0.208339
-0.592458 -0.026103 0.093321 0.000169 -0.321474 0.946116
1.257470 0.093403 0.025810 -0.000003 0.949085 0.312207
1.565980 -0.163930 -0.158293 -0.000000 0.661038 -0.750352
1.565980 0.163930 -0.158293 0.000000 -0.661038 -0.750352
-0.769936 0.095875 -0.014076 -0.000529 0.990933 -0.128832
1.504515 -0.158638 -0.125881 -0.000000 -0.661038 0.750352
1.504693 0.159372 -0.126527 -0.000000 0.661038 0.750352
-0.916781 -0.077759 -0.057825 0.000029 -0.785724 -0.617237
0.048530 -0.316476 0.287704 0.058933 0.659889 0.749048
1.531911 -0.282846 0.238482 -0.100315 -0.787260 -0.608407
-0.204763 -0.204022 -0.174623 -0.058894 -0.686766 0.724489
-0.325568 0.019032 -0.095016 0.000297 0.222042 -0.974097
0.124919 -0.518346 -0.459535 0.058933 0.659889 -0.749048
-0.064035 -0.397896 -0.353089 -0.044624 0.639432 -0.767551
-0.052330 0.034207 0.090665 0.000106 0.346541 0.937112
1.257479 0.157233 0.124643 0.000000 0.661038 -0.750352
0.121100 -0.321253 -0.278803 0.077757 -0.659037 0.748080
-0.124217 0.230723 0.193386 -0.058894 0.686766 -0.724489
0.151594 0.086502 -0.076995 0.058933 -0.659889 -0.749048
0.436978 0.064912 -0.071949 -0.000010 0.660830 -0.749430
1.437982 0.190019 -0.181276 0.000000 -0.661038 -0.750352
-0.110573 0.130827 0.097582 -0.058894 0.686766 -0.724489
-0.146005 0.099819 -0.100002 -0.044624 -0.639432 -0.767551
-0.568795 -0.078368 0.056997 0.000536 -0.828163 0.558941
-0.517438 -0.037614 0.089305 0.000181 -0.429349 0.902475
1.001025 0.089253 -0.075513 -0.100315 0.787260 0.608407
-1.181211 0.078492 -0.056827 -0.000471 0.828634 -0.558294
0.120697 -0.247201 -0.220996 0.058933 0.659889 -0.749048
0.792577 -0.096307 -0.010729 0.001435 -0.983716 -0.173465
0.067031 -0.555961 0.492391 -0.044624 0.639432 0.767551
1.598506 -0.146836 0.140101 0.213548 0.643570 0.734994
0.058390 -0.399406 0.341135 0.077757 -0.659037 -0.748080
1.372077 0.088270 -0.039984 -0.000151 0.907434 -0.418117
-0.091819 -0.086447 0.092012 -0.044624 0.639432 0.767551
-0.299744 -0.137091 -0.118898 -0.058894 -0.686766 0.724489
1.346996 -0.206074 0.189997 -0.100315 0.504314 0.857674
1.013385 0.018558 0.095110 -0.000079 0.202648 0.978314
1.120191 0.086004 -0.044649 -0.000055 0.863019 -0.503703
-0.061932 -0.167665 -0.128549 -0.058894 -0.686766 0.724489
-0.239072 0.158716 0.143657 -0.044624 -0.639432 0.767551
-0.157201 -0.032500 -0.091291 -0.000482 -0.307751 -0.950582
-0.231375 0.190901 -0.170917 -0.044624 -0.639432 -0.767551
0.006351 -0.487565 0.426241 -0.058894 -0.686766 -0.724489
-0.170906 -0.096798 -0.096037 -0.044624 0.639432 -0.767551
-0.057082 0.348611 0.299678 -0.058894 0.686766 -0.724489
0.017065 0.413805 -0.355450 -0.058894 0.686766 0.724489
0.077443 -0.371736 -0.318739 0.077757 -0.659037 0.748080
-0.745961 0.082354 -0.051070 0.000048 0.816605 -0.575703
-0.105098 0.083634 0.048944 -0.000726 0.846389 0.530731
0.580297 0.089932 -0.036091 -0.000046 0.924453 -0.378978
-0.046881 0.232292 -0.216125 -0.044624 -0.639432 -0.767551
-1.535630 -0.095741 -0.014964 0.000100 -0.986019 -0.161160
1.459668 -0.195838 -0.158653 -0.000000 -0.661038 0.750352
0.161621 -0.542499 -0.477926 0.077757 -0.659037 0.748080
-0.600148 -0.042701 -0.086988 -0.000015 -0.467388 -0.883062
-0.044204 0.155821 0.115880 0.032222 0.669405 -0.741448
1.264047 0.141917 -0.111151 -0.000000 0.661038 0.750352
-1.589747 -0.008520 0.094122 -0.115522 -0.111915 0.986028
-0.876166 -0.075177 0.061144 0.001157 -0.764194 0.643612
-0.157382 0.287657 0.250052 -0.058894 0.686766 -0.724489
-0.757622 -0.032500 0.091291 -0.000482 -0.307751 0.950582
-0.170906 -0.096798 0.096037 -0.044624 0.639432 0.767551
1.611518 0.151525 0.140427 0.213548 -0.643570 0.734994
0.122027 0.210804 -0.181597 0.077757 0.659037 0.748080
0.118689 -0.546016 0.476562 0.077757 -0.659037 -0.748080
-0.060263 -0.279370 0.234302 -0.058894 -0.686766 -0.724489
1.485726 0.211381 -0.172346 -0.000000 0.661038 0.750352
-0.064035 0.397896 -0.353089 -0.044624 -0.639432 -0.767551
-0.064403 0.201418 0.189386 -0.044624 -0.639432 0.767551
0.125686 0.253415 0.219516 0.077757 0.659037 -0.748080
1.345612 0.173913 -0.139337 -0.000000 0.661038 0.750352
-0.052919 -0.223331 0.180583 -0.058894 -0.686766 -0.724489
0.053563 -0.426273 -0.364303 0.032222 -0.669405 0.741448
0.899729 0.039167 -0.088635 -0.000074 0.402376 -0.914511
-0.332876 0.093696 0.080456 -0.058894 0.686766 -0.724489
1.417314 0.094466 -0.021598 0.000153 0.960599 -0.274598
1.553843 -0.160983 0.155696 -0.000000 0.661038 0.750352
1.493977 0.206876 0.168377 0.000000 0.661038 -0.750352
-0.496408 0.047070 0.084703 0.000081 0.449704 0.892220
1.214877 -0.155794 0.126355 -0.100315 -0.787260 -0.608407
-0.041459 -0.091537 0.096620 0.058933 0.659889 0.749048
-0.360110 -0.091809 -0.080881 -0.058894 -0.686766 0.724489
-0.195137 0.000000 -0.096903 -0.000654 0.061342 -0.997344
-0.156346 -0.251649 -0.225887 -0.044624 0.639432 -0.767551
1.266345 -0.176930 -0.145217 -0.100315 -0.787260 0.608407
1.441202 -0.148982 0.145124 -0.000000 0.661038 0.750352
0.435306 -0.096903 -0.000000 -0.000706 -0.996580 -0.069161
0.075053 0.096903 -0.000000 -0.000475 0.998935 0.029064
0.615432 -0.000000 0.096903 -0.000908 0.022449 0.999242
0.755531 -0.000000 0.096903 0.000753 0.065400 0.996735
-0.714959 -0.094934 0.019437 -0.000029 -0.972544 0.228756
-0.375508 -0.095004 0.019091 0.000265 -0.972592 0.228989
1.632314 -0.318599 0.280676 0.213548 0.643570 0.734994
1.632314 0.318599 0.280676 0.213548 -0.643570 0.734994
1.634113 -0.221067 0.194754 0.213548 0.643570 0.734994
1.634113 0.221067 0.194754 0.213548 -0.643570 0.734994
-0.210444 -0.095102 0.018594 0.000328 -0.968121 0.246975
-0.643098 0.094926 -0.019476 -0.000474 0.973271 -0.225825
-0.275616 0.094115 0.023078 -0.000220 0.966756 0.252079
-0.011350 0.157259 -0.120562 0.077757 0.659037 0.748080
0.119847 -0.394038 -0.342794 0.077757 -0.659037 0.748080
0.043642 -0.581966 -0.512695 -0.058894 -0.686766 0.724489
-0.234265 0.244585 -0.215472 -0.044624 -0.639432 -0.767551
-0.118908 0.384630 0.338848 -0.058894 0.686766 -0.724489
-0.097934 -0.410093 0.361280 -0.044624 0.639432 0.767551
-0.500461 0.069524 -0.067503 0.000053 0.737642 -0.673914
-0.011609 -0.088231 0.040069 -0.000052 -0.920763 0.387857
0.129124 0.113431 0.096552 0.077757 0.659037 -0.748080
-0.905554 -0.046743 0.084884 -0.000068 -0.511341 0.858417
1.320964 -0.190934 -0.154333 -0.067071 -0.747995 0.658357
-0.001645 0.226977 -0.212805 0.058933 -0.659889 -0.749048
0.999221 0.096079 0.084643 -0.100315 -0.504314 0.857674
1.078288 -0.127645 -0.112452 -0.100315 -0.787260 0.608407
-1.020958 0.056863 0.078466 0.000004 0.609789 0.791447
0.643561 0.053353 0.080893 0.000043 0.594994 0.802630
-0.120097 0.229648 -0.209666 -0.044624 -0.639432 -0.767551
0.056983 -0.097623 -0.094235 0.058933 0.659889 -0.749048
-1.100170 -0.088867 0.038638 -0.000014 -0.891001 0.452055
0.161621 0.199480 0.175736 0.077757 0.659037 -0.748080
0.161621 0.244221 -0.215152 0.077757 0.659037 0.748080
0.161621 -0.326248 0.287415 0.077757 -0.659037 -0.748080
0.161621 -0.460473 0.405663 0.077757 -0.659037 -0.748080
0.161621 -0.281506 -0.247999 0.077757 -0.659037 0.748080
-0.480792 0.088758 -0.038887 -0.000044 0.902820 -0.427998
0.069859 -0.098120 0.093661 0.058933 0.659889 0.749048
-0.958330 0.025071 -0.093604 -0.000059 0.315088 -0.948250
0.496604 0.038157 -0.089074 -0.000249 0.420789 -0.906556
0.315149 0.094694 -0.020574 -0.000216 0.962743 -0.266952
-0.185634 0.254765 0.221169 -0.058894 0.686766 -0.724489
0.063565 -0.475365 -0.425046 -0.044624 0.639432 -0.767551
0.826242 -0.093793 0.024355 0.000007 -0.961255 0.272479
0.004680 0.276831 0.256228 0.024421 -0.653694 0.755943
-0.682539 0.094214 -0.022670 0.000061 0.966493 -0.252934
-1.674380 0.067007 0.007448 -0.474180 0.864669 0.157441
0.120370 -0.584051 -0.510244 0.077757 -0.659037 0.748080
0.005566 0.215039 -0.173223 0.077757 0.659037 0.748080
0.065426 0.271331 0.246603 0.058933 -0.659889 0.749048
0.193321 0.072228 -0.064601 0.000000 0.733323 -0.678576
1.093482 -0.072222 -0.064608 0.000092 -0.772264 -0.633919
-0.410480 -0.088578 -0.039296 0.000028 -0.887489 -0.458959
1.559545 -0.076911 0.053882 -0.000000 -0.661038 -0.750352
-0.676635 -0.021509 0.094486 -0.000088 -0.277693 0.959792
1.635220 -0.161048 0.141878 0.213548 0.643570 0.734994
-0.280252 -0.081266 -0.052784 0.000476 -0.856759 -0.513881
-0.016164 -0.273408 0.252164 -0.044624 0.639432 0.767551
0.046457 0.183543 -0.170756 0.058933 -0.659889 -0.749048
1.275896 -0.000000 0.096903 0.001424 0.068625 0.996487
1.206452 0.145217 0.114058 -0.067071 0.747995 -0.658357
-0.117750 0.363622 -0.318840 -0.058894 0.686766 0.724489
-1.572702 0.060556 0.074844 -0.089174 0.646725 0.755736
1.475421 -0.090712 -0.093789 -0.000000 0.661038 -0.750352
0.143072 -0.096372 -0.010135 -0.000114 -0.989585 -0.136484
1.253711 -0.131361 -0.101851 0.000000 -0.661038 0.750352
1.091783 -0.112950 0.091211 -0.100315 -0.787260 -0.608407
-0.785573 -0.093624 -0.024996 -0.000066 -0.957993 -0.283665
1.633006 -0.281087 0.247629 0.213548 0.643570 0.734994
1.633006 0.281087 0.247629 0.213548 -0.643570 0.734994
1.039908 -0.089063 -0.038185 0.000129 -0.909916 -0.412787
-1.556093 0.088518 0.039431 -0.004688 0.918797 0.392898
0.064045 0.057696 0.077855 0.000300 0.633707 0.772525
0.473054 -0.065267 -0.071627 0.000039 -0.694628 -0.718161
1.554519 0.161767 0.156386 0.000000 -0.661038 0.750352
-0.936573 -0.094319 -0.022229 -0.000674 -0.964592 -0.260632
0.161621 0.505214 -0.445079 0.077757 0.659037 0.748080
-1.452065 -0.069784 -0.067234 -0.000344 -0.676812 -0.734945
0.121814 -0.428626 0.373470 0.077757 -0.659037 -0.748080
-0.138533 0.044330 0.086169 -0.000573 0.413188 0.909540
-0.083154 -0.218432 -0.178397 -0.058894 -0.686766 0.724489
-0.073609 -0.331579 -0.297285 -0.044624 0.639432 -0.767551
0.035701 0.427911 0.383893 -0.044624 -0.639432 0.767551
0.011897 0.285890 -0.236299 0.077757 0.659037 0.748080
-1.257139 0.069450 -0.067579 -0.000147 0.733073 -0.679096
1.270072 -0.094025 -0.096708 -0.000000 0.661038 -0.750352
-0.288347 -0.083838 0.048594 0.000858 -0.878410 0.475786
1.563071 -0.095600 -0.006862 0.151367 -0.981839 -0.107985
-0.187074 -0.301876 0.265944 -0.044624 0.639432 0.767551
-0.178682 0.251080 -0.224115 -0.044624 -0.639432 -0.767551
0.125792 -0.188216 -0.162089 0.077757 -0.659037 0.748080
1.637019 0.010556 0.046982 1.000000 -0.000000 -0.000000
1.606669 -0.067374 0.058526 0.150159 -0.707421 0.689185
0.022080 0.110079 -0.082472 0.077757 0.659037 0.748080
-1.017227 -0.020451 -0.094721 0.000334 -0.228021 -0.972718
0.389002 -0.087112 0.042446 -0.000537 -0.921725 0.385886
1.132290 -0.092132 0.030033 0.001959 -0.933557 0.355725
-0.094696 0.269425 -0.227673 -0.058894 0.686766 0.724489
-0.001790 -0.120195 -0.118745 0.058933 0.659889 -0.749048
-0.005004 0.000000 -0.096903 -0.000136 0.021421 -0.998925
1.556093 -0.048472 0.083909 0.100546 -0.449532 0.885913
0.934059 -0.010724 -0.096308 -0.001189 -0.139141 -0.989161
0.457494 -0.021573 0.094471 0.000454 -0.217751 0.975064
0.487965 0.053003 0.081123 0.001013 0.549470 0.834757
-0.088449 0.096763 0.005208 -0.001943 0.995356 0.092310
0.121588 0.117281 -0.106471 0.058933 -0.659889 -0.749048
1.171009 -0.016738 0.095447 -0.000074 -0.199552 0.979048
0.122387 0.323584 -0.288155 0.058933 -0.659889 -0.749048
1.389810 0.058018 0.077616 0.000004 0.602909 0.796702
-0.312918 0.149100 0.131353 -0.058894 0.686766 -0.724489
