1.270835 0.076007 0.120524 0.000000 -0.807274 0.590177
-0.068530 -0.347740 -0.475656 -0.022887 0.797242 -0.603226
1.494449 -0.097457 -0.149865 -0.000000 0.807274 -0.590177
-0.058717 -0.173095 -0.245213 -0.022887 0.797242 -0.603226
-0.088388 0.193227 -0.270693 -0.022887 -0.797242 -0.603226
-0.036882 -0.302436 0.416983 -0.022887 0.797242 0.603226
1.258074 0.091653 -0.018578 0.001059 0.977840 -0.205083
0.981447 -0.069281 -0.062813 -0.000051 -0.774734 -0.630817
-0.176203 0.073281 -0.108837 -0.022887 -0.797242 -0.603226
0.202018 -0.083605 -0.041899 0.000060 -0.914321 -0.402668
0.964492 -0.063526 0.077432 -0.000000 0.590177 -0.807274
1.424381 -0.085424 -0.038053 -0.000117 -0.912863 -0.406030
0.079946 -0.000000 0.093516 -0.001896 0.026629 0.999007
-0.040405 -0.098600 -0.104754 -0.050812 -0.827251 0.559529
-0.188453 -0.095552 -0.113693 -0.050812 -0.827251 0.559529
1.550022 0.125820 -0.188661 0.000000 -0.807274 -0.590177
-0.046792 0.193654 0.245870 -0.050812 0.827251 -0.559529
0.738342 0.050417 -0.078762 -0.000066 0.588071 -0.807674
0.040612 0.429673 -0.586882 -0.000000 0.590177 -0.807274
1.085143 -0.079186 -0.049749 -0.000019 -0.844343 -0.534039
-0.318677 0.075972 -0.054530 -0.000188 0.825206 -0.563520
0.065656 0.089727 -0.026352 0.000040 0.944232 -0.326457
-0.069588 0.104760 0.116513 -0.050812 0.827251 -0.559529
1.043783 0.090478 0.123761 -0.136230 0.939747 -0.313554
0.485341 0.084112 -0.040872 0.000140 0.904084 -0.425354
-0.302024 0.105481 0.146620 -0.022887 -0.797242 0.603226
-0.390966 0.030307 0.088469 0.000019 0.374882 0.926055
-1.178545 0.012350 0.092697 -0.000199 0.183335 0.982096
-0.131531 0.008495 -0.093130 -0.000672 0.142853 -0.988880
1.534943 0.078729 0.019417 0.164679 0.943006 0.284945
0.484135 -0.052704 -0.077250 0.000068 -0.554623 -0.830979
0.078772 0.085922 0.123217 0.050846 -0.806230 0.589413
-0.120762 -0.187842 0.243995 -0.050812 -0.827251 -0.559529
1.477874 0.088533 -0.104542 0.000000 0.807274 0.590177
0.004203 -0.357457 0.491259 -0.022887 0.797242 0.603226
0.099933 0.000000 -0.093516 -0.002669 -0.062388 -0.996876
1.552120 -0.164759 -0.241925 -0.000000 0.807274 -0.590177
1.497529 -0.211480 0.289273 -0.136230 0.583879 0.800329
-0.221391 -0.190899 -0.257652 -0.050812 -0.827251 0.559529
0.096729 0.323108 -0.432759 0.112489 0.802150 0.586431
0.629578 -0.093516 -0.000000 0.000421 -0.997309 -0.059050
-0.010277 0.072166 0.059476 -0.000412 0.770794 0.635854
-0.346831 -0.065020 -0.067214 0.000046 -0.695929 -0.716800
1.579204 -0.233260 0.319065 -0.136230 0.583879 0.800329
-1.266911 0.079096 0.049891 0.000278 0.871635 0.488524
1.138252 0.056893 -0.094380 0.000000 -0.807274 -0.590177
1.142877 0.069965 0.062050 -0.000059 0.734081 0.677782
0.654533 0.073407 -0.057937 0.000282 0.744849 -0.665885
1.467795 -0.084759 0.099379 -0.000000 -0.807274 -0.590177
0.082865 0.227455 0.299260 0.112489 0.802150 -0.586431
-0.998476 -0.077045 -0.053004 0.000212 -0.792215 -0.608828
0.144715 -0.286763 -0.392250 0.112489 -0.802150 0.586431
0.122667 0.154859 0.213726 0.050846 -0.806230 0.589413
1.453427 -0.191072 -0.266877 -0.136230 0.583879 -0.800329
-0.342424 -0.064519 0.067695 0.000590 -0.708885 0.704016
1.585396 -0.226264 -0.315015 -0.136230 0.583879 -0.800329
-1.595685 0.038676 0.039289 -0.509706 0.563318 0.645100
1.183761 -0.087239 -0.102771 0.000000 -0.807274 0.590177
-0.126867 0.171351 0.220166 -0.050812 0.827251 -0.559529
-1.177218 -0.091293 0.020271 -0.000217 -0.975960 0.213792
0.330543 -0.014380 -0.092404 0.000297 -0.198439 -0.979268
-0.081869 -0.105735 0.155310 -0.022887 0.797242 0.603226
0.007435 -0.275042 -0.361276 -0.050812 -0.827251 0.559529
1.401593 0.156556 -0.197587 0.000000 0.807274 0.590177
0.857056 -0.079616 0.049057 -0.000172 -0.846719 0.530368
0.619584 -0.000000 0.093516 0.000186 0.069628 0.996602
0.773531 -0.089485 0.027162 -0.000065 -0.938693 0.341992
-1.459021 0.028847 0.088956 -0.006556 0.257635 0.965275
0.067329 0.216325 -0.302576 0.050846 -0.806230 -0.589413
-0.199313 -0.082618 -0.043813 -0.000073 -0.857296 -0.513002
1.287312 -0.068069 0.109667 0.000000 0.807274 0.590177
1.417228 -0.120977 -0.182037 0.000000 0.807274 -0.590177
-0.233645 -0.131688 -0.183850 -0.022887 0.797242 -0.603226
1.390213 0.009586 0.093024 0.000075 0.150835 0.987730
-0.136394 -0.244460 -0.336584 -0.022887 0.797242 -0.603226
0.017864 -0.083026 0.124510 0.050846 0.806230 0.589413
1.534943 0.009703 0.080505 0.162049 0.035240 0.984886
-1.518236 0.086932 -0.000000 -0.208667 0.975555 0.040944
0.128246 -0.061581 0.085655 0.050846 0.806230 0.589413
1.397213 -0.151850 0.191150 0.000000 -0.807274 -0.590177
0.399732 0.000000 -0.093516 -0.001179 -0.022084 -0.999207
-0.174380 0.228462 0.313998 -0.022887 -0.797242 0.603226
-0.253755 -0.133131 0.175182 -0.050812 -0.827251 -0.559529
0.144715 -0.108631 -0.148591 0.112489 -0.802150 0.586431
0.850604 0.035996 0.086311 -0.000069 0.379804 0.924053
0.144715 -0.168008 -0.229811 0.112489 -0.802150 0.586431
1.205820 -0.017156 -0.091929 0.001171 -0.232100 -0.971868
1.325409 -0.078121 -0.123416 -0.000000 0.807274 -0.590177
-1.091661 -0.068669 -0.063482 -0.000348 -0.769964 -0.636618
-0.662876 0.084886 -0.039239 -0.000007 0.880006 -0.472947
-0.232116 -0.213455 0.291975 -0.022887 0.797242 0.603226
0.019105 -0.419678 -0.574057 -0.022887 0.797242 -0.603226
1.399061 0.093516 -0.000000 0.000574 0.998638 0.030840
1.182206 0.102683 -0.123897 -0.000000 0.807274 0.590177
1.602138 -0.157260 0.215108 0.316240 -0.704446 -0.635412
-0.240530 0.169412 0.227622 -0.050812 0.827251 -0.559529
-1.467723 -0.086894 0.034287 -0.041582 -0.945175 0.320400
0.545935 -0.030943 0.088249 0.000302 -0.378701 0.924526
1.222623 -0.121468 -0.149592 -0.000000 -0.807274 0.590177
1.077486 0.014913 -0.092320 0.000343 0.208021 -0.977227
-0.677703 0.086652 0.035167 0.000427 0.904074 0.425200
1.081321 -0.081743 0.045425 0.001180 -0.845726 0.531894
-0.771803 0.085320 0.038287 0.000049 0.888368 0.457096
-0.257299 -0.030187 0.088510 -0.000274 -0.378935 0.924351
1.339937 -0.091608 0.018798 0.000422 -0.978209 0.203545
0.030335 0.360123 -0.495774 -0.022887 -0.797242 -0.603226
0.006365 -0.351040 -0.473735 -0.050812 -0.827251 0.559529
0.883883 0.023437 -0.090532 -0.001417 0.280708 -0.958812
0.787355 0.091701 -0.018338 -0.001437 0.967341 -0.249531
-0.190876 -0.173824 0.241162 -0.022887 0.797242 0.603226
1.392086 0.101371 -0.155219 0.000000 -0.807274 -0.590177
-0.719287 -0.093311 -0.006200 0.000599 -0.992717 -0.113716
1.513880 0.126362 0.156286 0.000000 0.807274 -0.590177
1.203403 -0.084320 0.040441 -0.000055 -0.902402 0.428693
-0.032224 0.154321 -0.221405 -0.022887 -0.797242 -0.603226
-1.528348 -0.000000 -0.084385 -0.281858 -0.039229 -0.956908
0.288052 0.045410 -0.081751 -0.000016 0.500193 -0.864910
-0.021735 0.228584 -0.319952 -0.022887 -0.797242 -0.603226
0.195753 -0.052797 0.077187 -0.000198 -0.611256 0.790341
0.410912 -0.037331 0.085742 0.000073 -0.453960 0.889948
0.843161 -0.050659 -0.078606 -0.000362 -0.542384 -0.839076
0.887881 -0.084662 -0.039719 -0.000030 -0.904337 -0.424597
-0.131818 0.123639 -0.150075 -0.050812 0.827251 0.559529
-0.627102 0.056504 0.074516 0.000025 0.604808 0.795260
0.728196 0.077699 0.052041 0.000108 0.827477 0.559962
-0.060767 0.123972 -0.144116 -0.050812 0.827251 0.559529
-1.290311 -0.049968 0.079047 -0.000172 -0.526736 0.848986
-0.012528 0.329497 0.453670 -0.022887 -0.797242 0.603226
1.381003 0.128863 0.192823 -0.000000 -0.807274 0.590177
-0.389738 0.000000 -0.093516 0.001505 -0.069510 -0.996394
0.226529 0.011044 0.092862 0.000529 0.187973 0.980709
1.327298 0.072748 0.082950 0.000000 0.807274 -0.590177
0.031314 -0.137600 -0.166464 0.112489 -0.802150 0.586431
-1.122417 0.079815 0.048733 0.000266 0.877952 0.477136
0.422346 0.070878 -0.061005 -0.000540 0.764088 -0.643681
-0.145355 -0.093350 0.136532 -0.022887 0.797242 0.603226
1.112954 -0.092140 -0.109475 0.000000 -0.807274 0.590177
1.270656 0.150979 -0.206517 -0.136230 0.939747 0.313554
1.467588 -0.050134 -0.077276 0.108102 -0.538893 -0.833432
0.057552 0.181954 0.256405 0.050846 -0.806230 0.589413
0.047550 -0.124469 0.178637 0.050846 0.806230 0.589413
1.534943 -0.010185 -0.055846 1.000000 0.000000 0.000000
-0.318533 0.066652 0.094676 -0.022887 -0.797242 0.603226
-0.100363 -0.153414 -0.191240 -0.050812 -0.827251 0.559529
0.060258 -0.428725 0.587575 -0.022887 0.797242 0.603226
-0.313908 -0.146313 0.200134 -0.022887 0.797242 0.603226
0.133924 -0.183827 0.249379 0.112489 -0.802150 -0.586431
-0.047132 -0.229759 0.299281 -0.050812 -0.827251 -0.559529
-1.398693 -0.058887 -0.072647 0.000164 -0.586999 -0.808422
-0.180938 0.190206 0.252954 -0.050812 0.827251 -0.559529
1.304207 0.140389 0.204502 -0.136230 -0.583879 0.800329
0.144715 0.084880 -0.116103 0.050846 -0.806230 -0.589413
-0.894639 0.090235 -0.024554 -0.001484 0.960310 -0.276124
-0.179535 -0.256618 0.351015 -0.022887 0.797242 0.603226
-0.922176 -0.079076 0.049923 0.000107 -0.844215 0.534417
1.625510 -0.202135 0.276491 0.316240 -0.704446 -0.635412
-0.080646 -0.160343 0.199694 -0.050812 -0.827251 -0.559529
-0.170519 0.160492 -0.208076 -0.050812 0.827251 0.559529
-0.139415 0.279480 -0.382752 -0.022887 -0.797242 -0.603226
1.319882 0.074412 -0.056641 0.000166 0.762321 -0.645632
0.301558 -0.066662 -0.065586 0.000147 -0.674291 -0.737339
-0.582520 0.079248 -0.049650 -0.000098 0.830901 -0.554730
0.000596 0.395607 0.540149 -0.050812 0.827251 -0.559529
1.515921 -0.111848 0.136433 -0.000000 -0.807274 -0.590177
-0.122279 0.135131 0.166199 -0.050812 0.827251 -0.559529
0.020687 -0.023613 -0.090486 0.000841 -0.310557 -0.949657
0.133946 -0.249713 -0.339505 0.112489 -0.802150 0.586431
-1.349466 -0.090175 -0.024776 -0.000109 -0.950244 -0.308834
-0.383254 0.082547 0.043947 0.001242 0.886894 0.460144
0.304037 0.009538 0.093029 -0.000128 0.117475 0.992248
-0.240407 0.116412 0.163405 -0.022887 -0.797242 0.603226
-0.074959 0.078906 -0.050192 0.000064 0.871973 -0.487646
1.352331 0.172759 -0.236309 -0.136230 0.939747 0.313554
1.392148 -0.113794 0.139095 -0.000000 -0.807274 -0.590177
0.007157 -0.171353 0.208000 0.003694 -0.820797 -0.569842
0.144715 0.239261 -0.327274 0.050846 -0.806230 -0.589413
-0.193189 0.050908 0.078625 -0.022887 -0.797242 0.603226
-0.298536 -0.126676 -0.174765 -0.022887 0.797242 -0.603226
0.401186 -0.092928 -0.010473 0.000745 -0.983598 -0.171915
-1.374682 -0.085316 0.038294 0.000047 -0.888397 0.457099
-0.285968 0.132828 -0.177660 -0.050812 0.827251 0.559529
-1.246233 -0.087102 0.034037 -0.000255 -0.932602 0.358262
1.625510 0.202135 -0.276491 0.316240 0.704446 0.635412
-0.166968 -0.070904 0.075300 -0.050812 -0.827251 -0.559529
1.179907 0.126779 0.173414 -0.136230 0.939747 -0.313554
0.082664 -0.179701 -0.251157 0.050846 0.806230 -0.589413
0.144715 0.239261 0.327274 0.112489 0.802150 -0.586431
1.504789 0.148054 0.219075 -0.000000 -0.807274 0.590177
1.279551 -0.077814 -0.051868 -0.000520 -0.832633 -0.552207
1.084448 -0.032079 0.087842 -0.000105 -0.291503 0.955532
1.325995 -0.162348 -0.216549 -0.136230 -0.939747 0.313554
-1.011264 0.091658 -0.018553 0.000852 0.978261 -0.203149
0.113111 -0.324652 0.438013 0.112489 -0.802150 -0.586431
0.122466 0.063743 0.082923 0.112489 0.802150 -0.586431
0.379169 0.073169 0.058237 -0.000367 0.749914 0.660190
0.081101 -0.360267 0.480590 0.003694 -0.820797 -0.569842
0.203577 0.064352 -0.067853 -0.000421 0.701774 -0.711184
1.458933 0.087422 0.136138 0.000000 -0.807274 0.590177
1.329000 0.089284 -0.138685 -0.000000 -0.807274 -0.590177
0.235908 -0.084450 0.040168 -0.000055 -0.915967 0.398922
0.337211 -0.092647 -0.012725 -0.000514 -0.988200 -0.146330
0.116737 0.092813 0.011453 0.000070 0.990938 0.127727
1.002032 0.077653 -0.052110 -0.000001 0.797629 -0.601713
0.113865 -0.256537 0.344986 0.112489 -0.802150 -0.586431
0.071824 0.291395 -0.384603 0.112489 0.802150 0.586431
-0.255949 0.093146 0.008320 -0.002068 0.987971 0.148119
-0.087728 -0.313584 -0.426901 -0.050812 -0.827251 0.559529
0.120762 0.370451 0.508789 0.050846 -0.806230 0.589413
-0.885875 -0.008443 -0.093135 -0.000050 -0.114094 -0.992600
0.129314 0.163594 -0.220818 0.112489 0.802150 0.586431
-0.475280 -0.082316 -0.044377 0.000166 -0.881510 -0.470175
-0.944193 0.064697 0.067525 0.000054 0.652283 0.756736
0.144715 0.292701 0.400372 0.112489 0.802150 -0.586431
-0.839437 -0.000000 0.093516 0.000294 0.051434 0.997862
-1.583360 -0.062272 0.000000 -0.491095 -0.865735 -0.056794
0.945267 0.015017 -0.092303 0.001689 0.144209 -0.988712
-0.243800 0.203863 -0.278855 -0.022887 -0.797242 -0.603226
-0.635299 -0.008642 -0.093116 -0.000217 -0.155584 -0.986693
0.437332 -0.081478 0.045898 0.000851 -0.864102 0.501966
-0.003717 0.123906 0.182290 0.003454 -0.800830 0.598574
-0.775496 -0.021694 -0.090965 -0.000227 -0.227155 -0.972871
-0.838044 -0.089718 0.026381 -0.000031 -0.961274 0.272128
1.433041 0.066150 -0.066102 0.000002 0.706871 -0.706052
-0.832153 0.072896 0.058579 -0.000078 0.779289 0.625176
1.283608 -0.104545 -0.159561 0.000000 0.807274 -0.590177
-0.468408 0.079110 0.049869 -0.001363 0.815834 0.576739
-0.372331 -0.098354 0.134534 -0.022887 0.797242 0.603226
1.441701 0.080976 0.046778 -0.000028 0.865085 0.499799
-0.673753 -0.080451 -0.047676 0.000357 -0.885301 -0.463100
-0.141133 0.219838 -0.303863 -0.022887 -0.797242 -0.603226
-1.237333 0.034660 0.086856 -0.000440 0.369692 0.927957
0.574972 0.084196 0.040698 0.000086 0.875674 0.480948
-0.891623 0.086226 0.036201 0.000110 0.920812 0.387608
0.338202 -0.040171 0.084449 -0.000232 -0.375306 0.925908
-0.603578 -0.092122 -0.016091 -0.000088 -0.984831 -0.166692
-0.371754 0.089138 -0.028280 -0.000547 0.957571 -0.285183
0.080584 -0.058170 -0.085100 0.050846 0.806230 -0.589413
-0.043492 -0.075587 0.116921 -0.022887 0.797242 0.603226
1.089158 -0.102578 0.140312 -0.136230 0.583879 0.800329
0.099551 0.432096 0.585111 0.012791 0.819291 -0.571266
0.300779 -0.080780 0.047116 0.000025 -0.892828 0.448304
-0.832420 0.069181 -0.062924 0.000244 0.697276 -0.715501
-0.889635 -0.069018 -0.063102 -0.001054 -0.769464 -0.637638
1.097968 0.065633 0.106335 0.000000 -0.807274 0.590177
0.144715 0.387705 -0.530323 0.050846 -0.806230 -0.589413
0.144715 -0.393643 0.538445 0.050846 0.806230 0.589413
1.253223 -0.116966 0.143433 -0.000000 -0.807274 -0.590177
0.619438 0.057040 0.074106 -0.000100 0.610612 0.790738
-0.268645 0.031325 0.088114 0.000515 0.372742 0.927149
1.048663 -0.044229 -0.082396 -0.000042 -0.516781 -0.855035
-0.530742 0.058335 -0.073092 -0.000189 0.651127 -0.757718
0.913150 0.050979 0.078399 0.000253 0.578020 0.814968
-0.103584 -0.318964 0.436296 -0.022887 0.797242 0.603226
-0.080215 0.338148 0.462536 -0.050812 0.827251 -0.559529
-1.354294 0.004761 0.093395 -0.001454 0.095146 0.994861
-0.331787 0.082619 -0.115276 -0.022887 -0.797242 -0.603226
0.617245 -0.022340 -0.090809 -0.000115 -0.293607 -0.954885
-0.098243 0.270678 0.372682 -0.022887 -0.797242 0.603226
-0.939911 0.024316 -0.090300 0.000089 0.314058 -0.948530
0.535555 0.065351 -0.066892 0.000101 0.665124 -0.745467
-0.711777 -0.078404 0.050972 -0.000015 -0.804834 0.591925
0.522468 -0.007386 -0.093224 -0.001297 -0.125198 -0.991281
-1.330755 0.067307 0.064924 -0.000328 0.751157 0.658927
-0.266488 0.025757 -0.089900 0.000221 0.272150 -0.961475
-0.739504 -0.000000 0.093516 0.000689 0.025897 0.998927
1.163123 -0.080464 -0.047653 0.000184 -0.883975 -0.465475
0.091930 0.060507 -0.087319 0.050846 -0.806230 -0.589413
-0.036560 0.320301 -0.432185 -0.050812 0.827251 0.559529
0.729510 -0.000000 0.093516 0.000585 0.027318 0.998664
0.240942 0.091386 0.019846 -0.000612 0.974112 0.221634
-0.075483 -0.237284 -0.312981 -0.050812 -0.827251 0.559529
-0.229155 0.161935 -0.215535 -0.050812 0.827251 0.559529
-0.072290 -0.069684 -0.064898 0.000000 0.590177 0.807274
-1.064849 0.066523 0.065726 0.000052 0.747255 0.663176
0.958367 0.011593 0.092795 0.001816 0.138411 0.989324
1.515624 0.114909 -0.140620 0.000000 0.807274 0.590177
0.038125 0.042780 0.083157 0.000066 0.408386 0.911775
-1.296683 -0.008060 -0.093168 0.000106 -0.122190 -0.991679
0.090933 0.257147 -0.341423 0.112489 0.802150 0.586431
-1.617075 0.014737 -0.037618 -0.596246 0.248496 -0.759893
-0.459822 -0.018316 -0.091705 -0.000119 -0.178815 -0.982546
-1.078250 -0.028236 0.089152 -0.000467 -0.303605 0.951761
-0.075769 0.029056 -0.088888 0.000439 0.299973 -0.952961
-0.037511 0.029924 0.088600 -0.000539 0.367232 0.929153
1.016464 -0.076446 0.053865 0.000093 -0.786398 0.616327
-1.059145 -0.076118 0.054326 0.000096 -0.843794 0.534901
0.086459 0.336232 0.464941 0.050846 -0.806230 0.589413
1.307024 -0.038855 -0.085063 -0.000373 -0.461432 -0.886205
-1.525145 -0.059529 -0.061008 -0.242682 -0.723246 -0.644432
1.449074 -0.153740 0.226852 -0.000000 0.807274 0.590177
-0.526473 0.023679 0.090469 0.000536 0.298393 0.953549
-1.532318 -0.064373 0.052813 -0.300386 -0.728435 0.614142
1.386981 0.094981 0.146478 -0.000000 -0.807274 0.590177
1.059289 0.093516 -0.000000 -0.000039 0.999246 0.021911
-1.441701 0.081010 -0.046720 0.000001 0.865398 -0.499251
-0.454430 -0.024595 0.090224 -0.000726 -0.235744 0.970840
-0.001979 0.160750 0.231049 -0.022887 -0.797242 0.603226
-0.414531 -0.087889 -0.031952 0.000399 -0.956054 -0.289639
-0.286605 -0.078727 0.097731 -0.050812 -0.827251 -0.559529
-0.782429 0.085669 -0.037499 -0.000246 0.892754 -0.448948
0.668115 -0.083849 0.041409 -0.000187 -0.919572 0.390657
-0.117806 0.238502 0.329414 -0.022887 -0.797242 0.603226
1.560085 -0.092569 -0.132146 0.316240 0.819181 -0.478471
0.091778 0.124864 0.175362 0.050846 -0.806230 0.589413
-0.829708 0.018148 -0.091739 -0.000299 0.252075 -0.966741
1.416102 -0.055434 0.092384 0.000000 0.807274 0.590177
0.492758 -0.087208 0.033765 0.000341 -0.912594 0.406544
-0.466728 0.083546 -0.042016 -0.000094 0.878512 -0.475897
0.008497 -0.186943 0.266065 -0.022887 0.797242 0.603226
0.317082 0.082308 -0.044393 -0.001498 0.867246 -0.496531
0.088806 -0.109443 -0.138977 0.112489 -0.802150 0.586431
-0.279291 -0.038671 -0.085146 0.000110 -0.364485 -0.930199
1.170113 -0.051585 0.078002 0.000001 -0.551854 0.832805
0.430273 -0.073513 -0.057802 -0.001153 -0.773833 -0.631699
-0.051449 -0.026549 0.089669 -0.000352 -0.322716 0.945521
-1.125229 -0.093148 -0.008293 0.000275 -0.987679 -0.149344
-0.130224 0.053145 0.076948 0.000074 0.612875 0.789114
-0.939687 -0.083638 -0.041834 0.000559 -0.895336 -0.443314
-0.187613 0.114958 0.142307 -0.050812 0.827251 -0.559529
-1.305647 0.085602 -0.037652 -0.001439 0.933214 -0.356489
0.384282 0.090179 -0.024760 -0.000190 0.971035 -0.235162
0.144715 -0.423332 -0.579055 0.112489 -0.802150 0.586431
0.891818 0.090929 -0.021847 0.000080 0.957447 -0.285445
-0.174680 -0.116533 -0.166059 -0.022887 0.797242 -0.603226
0.499665 -0.000000 0.093516 0.000417 0.071080 0.996388
0.515613 -0.084961 -0.039075 -0.000012 -0.886864 -0.459981
1.014533 0.071721 0.060012 -0.000672 0.800808 0.597471
-0.080806 -0.282781 0.380731 -0.050812 -0.827251 -0.559529
0.144715 -0.108631 0.148591 0.050846 0.806230 0.589413
0.758560 -0.087978 -0.031706 0.000221 -0.940764 -0.336441
0.190071 0.091131 -0.020986 0.000862 0.976780 -0.210754
1.282324 0.083412 0.042281 -0.000453 0.868608 0.493682
0.020251 0.086940 -0.129658 0.050846 -0.806230 -0.589413
1.075917 0.073106 -0.116556 -0.088177 -0.670338 -0.731801
-0.639571 -0.000000 0.093516 -0.001027 0.059554 0.996960
-1.245445 0.031802 -0.087943 -0.000069 0.285864 -0.957226
-0.986627 -0.009825 -0.092999 -0.000605 -0.167746 -0.984579
-1.538202 0.000000 0.081478 -0.282700 -0.039221 0.956659
-1.481890 0.080579 0.045660 -0.091421 0.833495 0.542743
1.534943 -0.052140 -0.019730 1.000000 0.000000 0.000000
0.012750 -0.286762 0.398150 -0.022887 0.797242 0.603226
-0.837016 -0.084489 -0.040087 0.000083 -0.899545 -0.434998
-1.467719 -0.086873 -0.034340 -0.041564 -0.944995 -0.320934
-0.322810 -0.081576 -0.114238 -0.022887 0.797242 -0.603226
-1.037628 0.027480 -0.089388 0.000158 0.284776 -0.957566
0.792058 0.060922 -0.070950 0.001572 0.619323 -0.783865
1.296208 -0.151307 0.211106 -0.136230 0.583879 0.800329
1.552472 0.061900 0.084670 0.316240 0.704446 -0.635412
-0.108534 -0.219816 0.290156 -0.050812 -0.827251 -0.559529
-1.189202 0.000000 -0.093516 -0.000322 -0.083322 -0.995257
-1.390256 0.088952 0.028858 -0.000251 0.932768 0.357941
-0.574326 -0.030182 -0.088512 0.000144 -0.374250 -0.926312
-0.948572 0.081212 -0.046367 0.000482 0.891352 -0.451128
0.205561 -0.044048 -0.082493 -0.000358 -0.467002 -0.883242
-0.401375 -0.085098 0.038776 0.000338 -0.888127 0.457305
0.060167 0.123934 -0.176816 0.050846 -0.806230 -0.589413
-0.305482 -0.093080 0.009020 -0.000790 -0.985955 0.160634
0.014201 0.292328 -0.386219 -0.050812 0.827251 0.559529
-0.769004 -0.071158 -0.060678 0.000012 -0.766538 -0.640817
0.328305 0.058520 0.072944 -0.000141 0.626262 0.778422
0.090774 0.361472 -0.484093 0.112489 0.802150 0.586431
-0.719517 0.000000 -0.093516 0.000389 -0.054025 -0.997664
-0.017797 -0.063645 -0.069313 -0.000000 0.590177 0.807274
0.975038 -0.093306 -0.006270 0.000197 -0.993565 -0.107223
1.526545 -0.136620 -0.170318 -0.000000 -0.807274 0.590177
0.907212 -0.066426 0.065824 -0.000107 -0.743049 0.667928
1.491607 -0.070962 0.052350 0.161285 -0.762557 0.625210
1.427496 -0.167608 -0.212705 -0.000000 -0.807274 0.590177
0.195727 0.053064 0.077003 -0.000477 0.564377 0.824350
0.089569 -0.198875 0.276788 0.050846 0.806230 0.589413
0.031268 -0.294660 -0.409290 -0.022887 0.797242 -0.603226
-0.730325 0.062091 -0.069928 0.000161 0.688040 -0.724377
-0.167985 -0.182928 -0.254063 -0.022887 0.797242 -0.603226
1.373035 0.081078 0.046602 0.000133 0.838210 0.543639
1.427987 0.077113 -0.122037 0.000000 -0.807274 -0.590177
-0.232769 -0.073655 -0.085343 -0.050812 -0.827251 0.559529
1.602138 -0.157260 -0.215108 0.316240 -0.704446 0.635412
0.082938 0.186421 -0.260325 0.050846 -0.806230 -0.589413
1.599216 0.151651 -0.207436 0.316240 0.704446 0.635412
0.031581 -0.245229 0.343973 -0.022887 0.797242 0.603226
1.567242 0.178271 0.260407 0.000000 -0.807274 0.590177
-0.973712 -0.067747 0.064465 -0.000013 -0.723910 0.688537
-0.206796 -0.143072 0.199915 -0.022887 0.797242 0.603226
1.552973 -0.131795 0.196835 0.000000 0.807274 0.590177
1.450361 0.042414 0.083345 0.053999 0.451564 0.888756
0.749497 0.000000 -0.093516 -0.000855 -0.033111 -0.998683
0.085988 0.396199 0.545563 -0.022887 -0.797242 0.603226
-1.040640 0.009855 0.092996 0.000090 0.157994 0.986560
0.065339 -0.403893 -0.546521 -0.050812 -0.827251 0.559529
-0.562035 -0.073809 -0.057425 0.000034 -0.789690 -0.611991
1.385179 -0.072604 -0.082754 0.000000 -0.807274 0.590177
1.261649 0.066907 -0.074960 -0.000000 -0.590177 0.807274
-1.526643 0.062518 -0.057361 -0.270381 0.675459 -0.684560
1.199770 0.086573 -0.035362 -0.000090 0.904270 -0.424766
0.043818 0.125221 0.151930 0.112489 0.802150 -0.586431
1.626163 0.219424 0.305659 0.316240 -0.819181 0.478471
0.625213 0.036333 -0.086170 -0.000145 0.442747 -0.895548
1.322844 -0.063084 0.069034 -0.000374 -0.710044 0.702784
-1.250245 -0.016692 0.092015 0.000497 -0.233485 0.971414
-0.134610 -0.030750 0.088316 -0.000041 -0.385962 0.921496
-0.134624 0.178237 -0.249128 -0.022887 -0.797242 -0.603226
-0.103812 -0.093184 -0.102505 -0.050812 -0.827251 0.559529
-0.212810 0.039383 -0.084819 -0.000062 0.427774 -0.902903
-1.199195 0.093516 -0.000000 -0.000939 0.996510 0.064596
-0.763144 -0.086368 0.035860 0.001879 -0.933268 0.356757
-1.141714 0.038383 -0.085276 0.000010 0.362332 -0.931052
-0.505156 -0.088281 0.030851 0.000256 -0.930781 0.363237
1.181712 0.041488 0.083810 0.000230 0.425972 0.903773
-0.022947 0.029350 -0.088791 -0.000598 0.368780 -0.928547
-0.370130 -0.025531 0.089964 0.000613 -0.326597 0.944349
0.855263 -0.034657 0.086858 -0.000005 -0.419035 0.906917
-0.620250 0.054059 -0.076308 0.000048 0.626291 -0.778375
0.151825 -0.089457 -0.027253 0.000027 -0.954150 -0.295991
-1.086077 0.005716 -0.093342 0.000456 0.104964 -0.993885
0.943031 0.092969 -0.010108 -0.001057 0.983529 -0.173336
1.416715 0.164245 0.208105 -0.000000 0.807274 -0.590177
-0.048909 0.210818 0.295441 -0.022887 -0.797242 0.603226
-0.813825 -0.044397 0.082306 0.000061 -0.514446 0.856416
1.167954 -0.083868 0.131278 -0.000000 0.807274 0.590177
0.016366 0.165388 -0.201606 0.112489 0.802150 0.586431
-0.219262 -0.067859 0.075548 -0.050812 -0.827251 -0.559529
0.752574 -0.056645 0.074409 -0.000041 -0.645335 0.762665
0.023897 -0.235688 -0.331072 -0.022887 0.797242 -0.603226
-0.987738 0.008520 0.093128 -0.000509 0.138931 0.989392
-0.167743 -0.030128 -0.088530 -0.000013 -0.373118 -0.926766
1.264094 -0.025672 0.089924 -0.000757 -0.243921 0.968808
-0.272772 0.073566 0.057735 0.000005 0.819499 0.571432
1.348734 0.032896 -0.087539 0.000255 0.301480 -0.952553
-0.069977 -0.083171 0.042754 0.000074 -0.898432 0.436950
0.778016 0.085534 0.037807 0.000509 0.889999 0.453999
-1.042171 0.074317 -0.056765 -0.000020 0.792986 -0.607728
-0.520728 0.011237 -0.092839 0.001720 0.155498 -0.986921
-0.015730 -0.150171 -0.216547 -0.022887 0.797242 -0.603226
1.245486 0.018620 -0.091644 -0.000139 0.198738 -0.979159
0.584750 -0.089836 -0.025978 0.000215 -0.957836 -0.283966
-0.012417 -0.100529 -0.151063 0.001697 0.800620 -0.598906
-1.346006 0.015459 -0.092230 0.000067 0.214978 -0.975646
-1.405959 0.008777 0.093104 -0.000370 0.135584 0.989770
0.702061 -0.075896 -0.054636 -0.000533 -0.780269 -0.624099
0.232404 0.027164 -0.089484 -0.001387 0.312529 -0.949031
-1.459021 0.000000 -0.093516 -0.004724 -0.031312 -0.998559
1.498566 -0.188772 -0.241654 -0.000000 -0.807274 0.590177
1.106993 0.091115 0.021055 0.000416 0.966984 0.251084
0.011129 0.361638 0.488970 -0.050812 0.827251 -0.559529
-1.348682 -0.051748 0.077894 0.000349 -0.552512 0.832468
-0.189386 0.087324 -0.033465 0.000182 0.910954 -0.410344
0.110354 -0.089381 0.027501 -0.000142 -0.961345 0.271664
1.373773 -0.102316 -0.123395 -0.000000 -0.807274 0.590177
-0.141105 0.091876 0.017439 0.001350 0.987651 0.150826
-0.082326 0.059749 0.094515 -0.022887 -0.797242 0.603226
-1.221949 -0.067723 -0.064490 0.000170 -0.725792 -0.686559
1.273727 0.039234 0.084888 -0.000182 0.417283 0.907637
-1.273736 -0.062355 -0.069693 0.000327 -0.668318 -0.742707
0.252078 -0.075323 -0.055424 -0.000093 -0.801686 -0.596220
-0.056800 0.092839 0.011233 -0.001633 0.981327 0.185036
1.231418 0.111097 0.135406 0.000000 0.807274 -0.590177
0.792177 -0.067169 -0.065067 0.000031 -0.714986 -0.697804
0.093198 0.304891 0.407164 0.112489 0.802150 -0.586431
-1.022012 0.085827 0.037134 0.000034 0.892580 0.448499
0.036293 -0.381777 0.524617 -0.022887 0.797242 0.603226
1.036462 0.043496 -0.082786 -0.000092 0.469436 -0.882080
1.534943 -0.053672 0.032042 1.000000 0.000000 -0.000000
-0.123217 -0.166909 -0.234590 -0.022887 0.797242 -0.603226
0.024288 0.091136 0.020967 -0.000611 0.960961 0.273098
0.557439 -0.074462 0.056575 0.000489 -0.789313 0.612450
-0.552215 -0.031950 0.087889 0.000076 -0.345303 0.937634
1.562003 -0.211359 -0.272549 -0.000000 -0.807274 0.590177
1.375961 -0.138382 -0.205844 -0.000000 0.807274 -0.590177
-0.185076 -0.115040 0.163691 -0.022887 0.797242 0.603226
-0.559335 0.091849 0.017580 -0.000052 0.970134 0.238652
-0.018732 -0.334550 0.451633 -0.050812 -0.827251 -0.559529
1.276411 0.113839 -0.172273 0.000000 -0.807274 -0.590177
0.022380 -0.194040 -0.275970 0.001697 0.800620 -0.598906
0.432372 0.007769 0.093193 -0.000256 0.125014 0.991264
0.049966 -0.093516 -0.000000 -0.000254 -0.999296 -0.015841
0.078694 -0.064716 0.094216 0.050846 0.806230 0.589413
1.033498 -0.080053 -0.048341 -0.000006 -0.854085 -0.518361
-1.415863 0.050767 -0.078537 0.000134 0.542780 -0.838776
0.018393 0.077506 -0.052327 0.000372 0.859937 -0.508617
-0.065949 -0.099831 -0.148110 -0.022887 0.797242 -0.603226
0.144715 -0.138320 -0.189201 0.112489 -0.802150 0.586431
-1.133842 -0.014312 0.092415 -0.000134 -0.206577 0.977502
-0.636449 -0.067798 0.064411 0.000020 -0.733598 0.678230
0.022003 -0.057952 0.073475 -0.000000 0.590177 -0.807274
0.144715 0.310514 -0.424738 0.050846 -0.806230 -0.589413
-1.622018 -0.033584 0.014347 -0.643668 -0.695852 0.306106
-0.424673 0.063575 0.068582 0.000002 0.716079 0.696742
-0.348962 0.117538 0.160774 -0.050812 0.827251 -0.559529
-0.389858 -0.083966 -0.114854 -0.022887 0.797242 -0.603226
-0.214589 0.227843 -0.311655 -0.022887 -0.797242 -0.603226
1.526076 0.180034 -0.262819 -0.000000 -0.807274 -0.590177
-0.027634 -0.381311 0.521576 -0.022887 0.797242 0.603226
1.283608 0.104545 0.159561 0.000000 -0.807274 0.590177
-0.415989 0.079386 -0.049428 -0.000513 0.826069 -0.561995
0.530758 0.091084 -0.021191 -0.000182 0.969787 -0.240274
0.095563 -0.134353 0.188014 0.050846 0.806230 0.589413
-0.121616 0.054343 -0.076106 -0.000023 0.625562 -0.779038
1.161757 0.121939 -0.166794 -0.136230 0.939747 0.313554
0.971184 0.071118 -0.097279 -0.136230 0.939747 0.313554
-0.464583 -0.071832 0.059879 -0.000517 -0.805382 0.591166
1.007491 -0.036323 0.086174 -0.000129 -0.386040 0.921598
1.637195 -0.224573 -0.307183 0.316240 -0.704446 0.635412
0.048107 -0.078600 -0.050669 0.000021 -0.840713 -0.539733
0.719841 -0.083636 0.041837 0.000233 -0.914704 0.401695
-1.433171 0.072881 0.058597 -0.000044 0.777375 0.627581
1.078232 0.022893 0.090671 -0.000005 0.226430 0.973149
-1.450361 -0.058874 0.072658 -0.005403 -0.628694 0.776462
-0.576192 0.055941 0.074940 -0.000248 0.601600 0.797701
1.346890 -0.149627 0.188109 0.000000 -0.807274 -0.590177
0.672943 -0.009600 0.093022 -0.000922 -0.161390 0.985662
0.094471 0.420383 -0.568256 -0.050812 0.827251 0.559529
0.939572 -0.084112 -0.040871 0.000068 -0.896779 -0.440415
0.293708 0.087262 0.033626 -0.000027 0.931392 0.361457
-0.223943 0.093196 -0.113433 -0.050812 0.827251 0.559529
-1.149989 0.051199 0.078256 -0.000046 0.547085 0.835852
-0.720970 0.074816 0.056106 -0.000092 0.799486 0.599083
-0.088739 0.273139 -0.376294 -0.022887 -0.797242 -0.603226
-0.099327 -0.028854 -0.088954 -0.000172 -0.308254 -0.950341
1.381434 -0.093169 -0.008056 -0.000097 -0.991288 -0.125180
0.017083 0.297728 0.393941 -0.050812 0.827251 -0.559529
1.329055 -0.099669 0.119774 0.000000 -0.807274 -0.590177
1.442234 0.173688 -0.221021 -0.000000 0.807274 0.590177
1.220371 -0.061274 -0.070646 -0.000060 -0.654161 -0.755166
-0.219852 -0.093516 -0.000000 0.000324 -0.999118 -0.017082
1.450072 -0.092521 0.013611 0.056644 -0.985393 0.148469
0.463755 0.080219 0.048065 0.000036 0.828631 0.558143
0.859423 -0.093516 -0.000000 0.001051 -0.999134 -0.016413
-0.241249 -0.161090 -0.222421 -0.022887 0.797242 -0.603226
1.448289 -0.117529 -0.144204 -0.000000 -0.807274 0.590177
1.146362 0.091834 0.109057 0.000000 0.807274 -0.590177
0.960725 0.082834 0.043404 0.000262 0.855728 0.515658
1.476115 -0.190682 0.244266 -0.000000 -0.807274 -0.590177
-1.095308 0.087223 -0.033726 0.000081 0.930129 -0.364654
-1.049064 -0.082901 -0.043275 -0.000055 -0.885204 -0.463284
1.484334 0.063080 -0.063311 0.161791 0.699098 -0.695289
0.061863 0.255381 0.333430 0.112489 0.802150 -0.586431
1.519959 0.063783 -0.103804 0.000000 -0.807274 -0.590177
1.232124 0.101738 -0.155721 0.000000 -0.807274 -0.590177
0.115966 -0.313701 -0.423582 0.112489 -0.802150 0.586431
0.516049 0.062220 0.069814 0.000003 0.704098 0.708771
1.199442 0.092170 0.015814 -0.001349 0.987940 0.148815
0.123991 -0.363604 -0.493381 0.112489 -0.802150 0.586431
-0.044165 0.108253 0.160068 -0.022887 -0.797242 0.603226
0.687292 -0.034855 -0.086778 -0.000149 -0.421723 -0.905599
-0.162699 -0.217900 -0.300483 -0.022887 0.797242 -0.603226
-0.130749 -0.089175 -0.028164 -0.000006 -0.935165 -0.351754
1.203734 -0.116712 0.143087 -0.000000 -0.807274 -0.590177
0.001770 -0.222703 0.313071 -0.022887 0.797242 0.603226
-0.046792 0.193654 -0.245870 -0.050812 0.827251 0.559529
-1.554434 0.067404 0.034525 -0.368576 0.856229 0.358652
1.524754 0.218740 0.299203 -0.136230 0.939747 -0.313554
1.123927 0.082708 -0.043643 -0.000135 0.860631 -0.507556
0.998409 -0.078378 -0.107209 -0.136230 0.583879 -0.800329
1.470305 0.204220 0.279342 -0.136230 0.939747 -0.313554
1.364441 0.087476 -0.033065 0.000124 0.914356 -0.402569
1.477874 -0.088533 -0.104542 0.000000 -0.807274 0.590177
0.819450 -0.000000 0.093516 -0.000898 0.020581 0.999112
-0.020620 -0.202033 -0.255882 -0.050812 -0.827251 0.559529
1.501191 -0.072554 -0.047304 0.162286 -0.793434 -0.584871
0.037532 0.175275 -0.248997 0.050846 -0.806230 -0.589413
1.504876 -0.033379 0.079269 0.162153 -0.349970 0.921404
0.838415 0.093264 -0.006860 -0.000104 0.993657 -0.105367
1.518568 0.079995 0.125979 -0.000000 -0.807274 0.590177
1.550019 -0.174243 0.221780 0.000000 -0.807274 -0.590177
-0.074228 -0.200911 -0.281386 -0.022887 0.797242 -0.603226
0.447263 -0.020253 -0.091297 -0.000363 -0.212950 -0.976240
1.390792 -0.165722 0.237721 -0.136230 0.583879 0.800329
1.502253 -0.120624 0.181554 -0.000000 0.807274 0.590177
1.519950 0.047365 0.052370 -0.830719 -0.328547 -0.449403
1.223606 0.061222 0.100300 0.000000 -0.807274 0.590177
0.962666 -0.029392 -0.088777 0.000089 -0.310366 -0.949659
1.458554 0.156603 0.230768 0.000000 -0.807274 0.590177
-0.265662 -0.098717 0.139060 -0.022887 0.797242 0.603226
1.168345 0.012207 -0.092716 0.000017 0.183023 -0.982097
1.089269 -0.093516 -0.000000 -0.000922 -0.998719 -0.026219
1.238712 -0.061002 0.070881 -0.000032 -0.690972 0.721601
1.501703 0.147903 -0.185751 -0.000000 0.807274 0.590177
0.678965 0.075082 0.055750 -0.000085 0.800781 0.597727
0.134269 0.039596 -0.084720 -0.000736 0.435182 -0.898880
1.262792 -0.093311 -0.006191 -0.000391 -0.993511 -0.107224
-1.170998 -0.042674 -0.083212 -0.000020 -0.453675 -0.890109
0.036105 0.403188 -0.548133 -0.050812 0.827251 0.559529
-0.167850 -0.266210 -0.364135 -0.022887 0.797242 -0.603226
-0.004318 0.345064 -0.465868 -0.050812 0.827251 0.559529
-0.337527 0.042393 -0.083355 0.000037 0.410860 -0.910681
0.024483 0.235620 -0.301443 -0.050812 0.827251 0.559529
-0.027854 -0.140319 0.203065 -0.022887 0.797242 0.603226
-0.024515 -0.252610 -0.331012 -0.050812 -0.827251 0.559529
-0.668410 -0.040596 -0.084245 -0.000178 -0.482924 -0.874590
1.431246 -0.081886 0.128567 0.000000 0.807274 0.590177
-0.018729 0.265797 -0.349983 -0.050812 0.827251 0.559529
1.256194 -0.026951 -0.089549 -0.000249 -0.293315 -0.954982
-0.036756 -0.093203 0.007648 0.002194 -0.993174 0.110073
-1.562685 0.026698 -0.067224 -0.376888 0.371427 -0.846588
0.027586 -0.384105 -0.527364 -0.022887 0.797242 -0.603226
-0.289901 0.074180 -0.091307 -0.050812 0.827251 0.559529
-0.063554 0.225171 -0.293989 -0.050812 0.827251 0.559529
0.663845 0.092340 -0.014785 0.000072 0.980880 -0.191098
-0.485005 0.093122 0.008578 -0.001226 0.990693 0.128157
-0.610165 -0.035495 0.086518 0.000018 -0.366672 0.929362
0.588738 0.066372 -0.065879 -0.000651 0.674315 -0.737253
-0.010027 0.250142 0.326047 -0.050812 0.827251 -0.559529
-0.139089 0.249820 -0.343565 -0.022887 -0.797242 -0.603226
1.080889 -0.082010 0.095619 -0.000000 -0.807274 -0.590177
0.124964 0.089028 0.123480 0.050846 -0.806230 0.589413
-0.090097 0.178054 0.250576 -0.022887 -0.797242 0.603226
1.426017 0.120874 0.148780 -0.000000 0.807274 -0.590177
0.100810 -0.293415 0.405136 0.050846 0.806230 0.589413
1.584609 0.123604 0.169071 0.316240 0.704446 -0.635412
0.141324 -0.021012 -0.091125 0.000286 -0.271441 -0.961468
-1.212974 -0.093092 -0.008901 -0.000570 -0.989343 -0.139640
-0.058801 0.132065 -0.190983 -0.022887 -0.797242 -0.603226
-0.099182 0.093271 -0.006775 -0.000837 0.990949 -0.127709
0.106234 -0.227783 -0.304191 0.112489 -0.802150 0.586431
0.088057 -0.227741 0.316403 0.050846 0.806230 0.589413
1.462317 0.195351 -0.256233 -0.136230 0.939747 0.313554
1.134447 -0.078696 0.050521 -0.000000 -0.841735 0.538130
1.355216 -0.020083 0.091334 0.000138 -0.269326 0.962024
1.303769 -0.144217 -0.180709 -0.000000 -0.807274 0.590177
-0.786016 -0.009497 0.093033 0.001877 -0.120072 0.991836
0.035975 0.087779 0.099210 0.112489 0.802150 -0.586431
0.839274 0.040602 -0.084243 0.000308 0.381495 -0.923473
1.045587 0.054994 0.091782 -0.000000 -0.807274 0.590177
-0.884407 -0.008623 0.093118 -0.001444 -0.033540 0.998515
1.424580 -0.028603 -0.089035 -0.000306 -0.357460 -0.932918
1.091254 -0.028806 -0.088969 0.000068 -0.359138 -0.932263
-0.129064 -0.078498 0.050827 -0.000033 -0.870101 0.490957
-0.031151 0.262621 0.364579 -0.022887 -0.797242 0.603226
0.101626 0.185215 0.245081 0.112489 0.802150 -0.586431
1.415818 0.024055 -0.090370 0.000095 0.308034 -0.950413
-1.165295 -0.053003 0.077046 0.000015 -0.606286 0.794037
1.365707 -0.073388 0.057961 0.000242 -0.782092 0.621760
-0.192869 0.078724 0.115399 -0.022887 -0.797242 0.603226
1.619815 0.236830 -0.312121 -0.136230 0.939747 0.313554
-0.105942 0.098526 0.144868 -0.022887 -0.797242 0.603226
1.510258 0.025219 -0.081308 0.162145 0.321757 -0.931696
1.345841 0.081195 0.127621 -0.000000 -0.807274 0.590177
0.062857 0.333481 -0.461796 -0.022887 -0.797242 -0.603226
0.206795 -0.093289 0.006512 -0.000163 -0.993590 0.105812
1.301589 0.083847 -0.098132 0.000000 0.807274 0.590177
0.421989 0.057136 0.074032 0.000016 0.609742 0.791477
1.541173 -0.220514 0.297386 -0.136230 -0.939747 -0.313554
-0.378174 0.093558 -0.127974 -0.022887 -0.797242 -0.603226
0.122963 -0.015292 0.092258 -0.000272 -0.202039 0.978440
-1.231077 0.072499 -0.059070 -0.000124 0.809087 -0.586045
1.166772 0.070395 -0.061562 0.000051 0.756274 -0.652856
0.873466 0.068002 0.064196 0.000257 0.764405 0.642693
1.605059 0.162870 0.222781 0.316240 0.704446 -0.635412
-1.189272 0.082388 -0.044244 0.000040 0.852356 -0.521160
1.516659 -0.175772 0.256988 -0.000000 0.807274 0.590177
1.490713 0.084693 0.025081 0.162432 0.961096 0.218806
0.008497 0.186943 0.266065 -0.022887 -0.797242 0.603226
-0.556511 -0.087708 0.032444 -0.001810 -0.919958 0.389355
0.567493 -0.027439 -0.089400 0.000441 -0.297752 -0.953667
-0.265356 0.145312 0.194246 -0.050812 0.827251 -0.559529
-1.159960 0.090149 0.024869 0.000598 0.975304 0.216733
-0.033148 -0.288865 -0.385398 -0.050812 -0.827251 0.559529
0.693532 0.049487 -0.079350 0.000213 0.476237 -0.878242
-1.136639 0.073471 -0.057856 -0.000044 0.815748 -0.576794
0.100439 -0.343326 -0.461126 0.112489 -0.802150 0.586431
-1.627547 0.030693 0.008840 -0.663136 0.698179 0.254300
-0.025686 0.092897 -0.140474 -0.022887 -0.797242 -0.603226
1.564158 -0.084338 0.115361 0.316240 -0.704446 -0.635412
-0.426136 0.034229 -0.087027 -0.000275 0.386659 -0.921236
-1.306857 -0.081269 -0.046268 0.000610 -0.870265 -0.490637
-0.034986 0.069508 0.109209 -0.022887 -0.797242 0.603226
-0.018861 0.370169 -0.504307 -0.050812 0.827251 0.559529
-0.170180 0.101097 -0.145829 -0.022887 -0.797242 -0.603226
-0.107171 -0.269817 -0.371205 -0.022887 0.797242 -0.603226
0.975385 -0.085167 0.038625 -0.000454 -0.906512 0.420069
0.076449 -0.300211 -0.397549 0.112489 -0.802150 0.586431
0.775311 -0.006233 0.093308 -0.000182 -0.108284 0.993406
-1.023566 -0.088837 0.029211 0.000115 -0.949935 0.309413
0.649871 -0.053093 0.076983 0.000194 -0.609846 0.791372
1.524613 -0.163368 -0.206904 0.000000 -0.807274 0.590177
-1.109925 -0.086874 0.034614 -0.000123 -0.930473 0.363808
-1.441701 -0.019452 0.091471 -0.000309 -0.202152 0.978210
1.186473 -0.095517 -0.147212 -0.000000 0.807274 -0.590177
-0.229123 0.011417 0.092817 -0.000478 0.171715 0.984249
0.817224 -0.092044 0.016527 0.000916 -0.984220 0.169956
1.507704 -0.068302 0.109986 0.000000 0.807274 0.590177
0.105024 -0.421387 0.568781 0.003694 -0.820797 -0.569842
-0.175405 0.015508 -0.092222 0.000799 0.221228 -0.974287
0.781872 -0.030735 -0.088321 0.000413 -0.373946 -0.926462
0.063156 0.287565 0.377702 0.112489 0.802150 -0.586431
-0.295451 0.091363 -0.019951 0.000404 0.972796 -0.227478
1.356752 0.037796 0.085538 0.000056 0.404740 0.913434
0.020126 -0.327244 -0.437303 -0.050812 -0.827251 0.559529
-0.362806 0.065936 0.092050 -0.022887 -0.797242 0.603226
-1.485446 0.087327 -0.029866 -0.080032 0.952491 -0.288287
0.810331 0.060608 0.071218 0.000163 0.644114 0.763730
-0.221693 -0.105778 -0.150061 -0.022887 0.797242 -0.603226
0.593841 -0.089895 0.025771 0.000289 -0.945894 0.321819
0.056011 -0.159156 -0.200687 0.112489 -0.802150 0.586431
0.886021 0.064684 -0.067538 -0.000582 0.652847 -0.756344
-0.161472 0.075484 0.055204 -0.000486 0.774589 0.631086
1.536811 0.163661 -0.207306 0.000000 0.807274 0.590177
-0.136711 -0.262155 0.359958 -0.022887 0.797242 0.603226
-0.036969 -0.086075 -0.036557 -0.000049 -0.915516 -0.400061
1.234516 0.075361 -0.119641 0.000000 -0.807274 -0.590177
-1.417199 -0.078279 0.051164 -0.000031 -0.836558 0.546254
-0.880374 -0.085577 0.037709 -0.000393 -0.890978 0.452113
0.111468 -0.409494 -0.553750 0.112489 -0.802150 0.586431
-0.938526 -0.093373 0.005169 0.000142 -0.993883 0.104252
1.490713 0.025081 0.084693 0.161924 0.218784 0.961206
1.468433 -0.148271 0.186255 0.000000 -0.807274 -0.590177
0.471948 0.093275 0.006711 -0.000570 0.992609 0.114765
0.048560 -0.112575 0.135542 0.112489 -0.802150 -0.586431
1.496091 -0.016809 -0.085817 0.161914 -0.161402 -0.972445
-0.016766 -0.110234 0.119809 0.003694 -0.820797 -0.569842
-0.162964 0.065957 -0.067623 -0.000000 -0.590177 0.807274
-0.496676 -0.008260 0.093151 0.000081 -0.111306 0.992832
1.313852 -0.092085 -0.016299 -0.001171 -0.974157 -0.221818
1.583148 0.191476 -0.278470 0.000000 -0.807274 -0.590177
-0.053987 0.071971 0.059712 0.000244 0.805064 0.591241
0.081270 0.048464 0.079979 -0.000308 0.513521 0.856782
1.534943 0.044727 -0.007819 1.000000 0.000000 0.000000
0.039717 0.344444 0.460953 -0.050812 0.827251 -0.559529
-0.295752 -0.079508 0.049231 0.000202 -0.862346 0.504504
-1.340394 0.069613 -0.062445 -0.000095 0.778824 -0.625760
-0.158575 -0.191002 0.265090 -0.022887 0.797242 0.603226
-0.229374 0.074280 0.056814 -0.000134 0.795347 0.604602
-0.024693 0.074420 -0.056631 0.000739 0.792768 -0.608494
1.350226 -0.042653 -0.083223 -0.000568 -0.505661 -0.861717
-0.146166 -0.082629 -0.122332 -0.022887 0.797242 -0.603226
-0.518467 -0.080749 -0.047168 -0.000128 -0.864441 -0.500943
-0.054350 -0.164256 -0.203091 -0.050812 -0.827251 0.559529
-0.196982 -0.085951 0.036849 0.000002 -0.927297 0.371789
0.104463 0.134016 -0.186787 0.050846 -0.806230 -0.589413
-0.056752 -0.141060 0.169016 -0.050812 -0.827251 -0.559529
-0.310368 0.105128 -0.145838 -0.022887 -0.797242 -0.603226
0.662508 -0.089352 -0.027595 -0.000440 -0.933171 -0.355940
-0.747023 0.049515 0.079332 -0.000064 0.531229 0.846116
-1.282078 0.093326 0.005971 -0.000324 0.997555 0.056809
1.315491 0.160026 -0.214154 -0.136230 0.939747 0.313554
1.120411 0.011429 -0.092815 0.000418 0.175624 -0.983536
0.050245 -0.197196 0.251613 0.112489 -0.802150 -0.586431
-0.928249 0.030565 0.088381 -0.000029 0.377224 0.925100
0.853297 -0.006722 -0.093275 -0.000131 -0.112347 -0.992909
1.629108 -0.224792 0.312903 0.316240 0.819181 0.478471
1.510258 0.081308 -0.025219 0.161267 0.931705 -0.322237
0.606716 -0.072745 -0.058766 -0.000128 -0.807354 -0.588454
-0.139349 0.135421 -0.192362 -0.022887 -0.797242 -0.603226
-1.373144 -0.028494 -0.089070 0.000387 -0.305773 -0.951121
-0.031342 -0.334086 -0.459021 -0.022887 0.797242 -0.603226
0.117793 0.107470 -0.141839 0.112489 0.802150 0.586431
1.078240 -0.065780 -0.106536 -0.000000 0.807274 -0.590177
-0.319887 -0.084511 -0.040040 -0.000012 -0.925065 -0.377349
0.495030 0.054485 -0.076005 0.000017 0.544065 -0.837967
-1.130006 -0.054223 -0.076192 0.000069 -0.581555 -0.812412
0.424217 0.034597 -0.086881 0.000002 0.424257 -0.904526
1.283909 -0.118840 0.179113 -0.000000 0.807274 0.590177
-0.002298 -0.073064 -0.112622 0.050846 0.806230 -0.589413
-0.601216 0.079496 0.049251 0.000367 0.820125 0.570541
-0.153093 -0.160942 0.225570 -0.022887 0.797242 0.603226
-0.913980 -0.048475 0.079972 -0.000179 -0.515192 0.856016
-0.719270 -0.042359 0.083373 0.000094 -0.462627 0.885520
0.386274 0.091411 0.019734 -0.000192 0.966179 0.254572
-0.308567 -0.040283 0.084396 -0.000450 -0.482360 0.874843
1.341474 0.147007 0.184525 0.000000 0.807274 -0.590177
-0.067543 0.311908 0.428338 -0.022887 -0.797242 0.603226
-0.141278 0.097633 -0.112485 -0.050812 0.827251 0.559529
-0.250098 0.114479 -0.160482 -0.022887 -0.797242 -0.603226
0.022373 -0.085590 0.037678 -0.000067 -0.922880 0.382823
-1.424509 -0.028989 -0.088910 -0.000015 -0.307806 -0.950489
-0.332373 -0.085585 0.112026 -0.050812 -0.827251 -0.559529
-0.109573 -0.127885 0.183532 -0.022887 0.797242 0.603226
1.132575 -0.107346 0.135737 -0.136230 -0.939747 -0.313554
-0.978408 0.083089 0.042913 0.000162 0.861939 0.505144
-1.373476 0.046992 -0.080852 -0.000000 0.546876 -0.836062
1.291226 -0.084229 -0.098654 0.000000 -0.807274 0.590177
1.541964 0.177415 0.226119 -0.000000 0.807274 -0.590177
1.005648 -0.041279 -0.083913 0.000014 -0.487608 -0.872013
0.588673 -0.033615 0.087266 -0.000209 -0.358048 0.932710
1.581687 0.117994 -0.161399 0.316240 0.704446 0.635412
1.189202 -0.093516 -0.000000 -0.000441 -0.998643 -0.028897
-0.357312 -0.027154 -0.089487 -0.000061 -0.341540 -0.938881
0.049589 0.085734 -0.099024 0.112489 0.802150 0.586431
0.700928 0.090795 0.022398 -0.000841 0.953953 0.297057
-1.617941 0.000000 0.039735 -0.633047 -0.059699 0.766896
1.586812 0.213425 0.275375 -0.000000 0.807274 -0.590177
0.072974 -0.237090 -0.330493 0.050846 0.806230 -0.589413
-0.027512 0.157728 0.191003 -0.050812 0.827251 -0.559529
-1.407180 0.091511 -0.019262 0.000054 0.965373 -0.257506
-0.196964 -0.234019 0.319186 -0.050812 -0.827251 -0.559529
0.731930 0.046919 0.080894 0.000173 0.495815 0.867436
-0.051240 0.062049 -0.098734 -0.022887 -0.797242 -0.603226
-1.014723 -0.091958 -0.017003 -0.000100 -0.971153 -0.234550
0.045089 -0.026576 0.089661 -0.000534 -0.249519 0.967483
1.147444 -0.086084 -0.134308 -0.000000 0.807274 -0.590177
-0.077979 0.166962 -0.236376 -0.022887 -0.797242 -0.603226
-0.343120 -0.122333 0.167334 -0.022887 0.797242 0.603226
0.108546 0.222913 -0.308032 0.050846 -0.806230 -0.589413
-0.419718 -0.000000 0.093516 0.000510 0.023064 0.999097
-0.146154 0.009434 0.093039 -0.000790 0.158871 0.986226
0.042388 0.404669 0.555103 -0.022887 -0.797242 0.603226
-0.615115 -0.087190 0.033813 -0.000429 -0.910982 0.410353
-0.689537 -0.000000 0.093516 -0.000395 0.025557 0.998957
-0.094245 0.119118 -0.172526 -0.022887 -0.797242 -0.603226
1.450361 -0.066150 0.066102 0.054067 -0.705161 0.704658
-0.138574 -0.137332 -0.170934 -0.050812 -0.827251 0.559529
-0.266405 -0.093315 -0.006133 0.001257 -0.997456 -0.055319
-0.460114 -0.056973 -0.074158 0.000383 -0.646189 -0.762023
-0.019998 -0.054177 0.088315 0.050846 0.806230 0.589413
1.480261 -0.090154 0.139875 -0.000000 0.807274 0.590177
1.179393 -0.047555 -0.080522 -0.000165 -0.461833 -0.885933
-1.321743 -0.021453 0.091023 0.000536 -0.229094 0.972461
1.180095 -0.009056 0.093077 0.001425 -0.107531 0.993513
-0.499923 -0.092935 -0.010412 0.000221 -0.985206 -0.165861
0.577046 0.006454 0.093293 0.000245 0.116214 0.992491
0.751480 0.078526 -0.050784 -0.000432 0.849440 -0.526199
-0.055695 -0.247430 0.343571 -0.022887 0.797242 0.603226
-0.169983 0.167772 0.218791 -0.050812 0.827251 -0.559529
1.291753 -0.094688 0.146078 0.000000 0.807274 0.590177
1.356039 0.121315 -0.149383 0.000000 0.807274 0.590177
0.624666 0.087942 -0.031806 -0.000090 0.947294 -0.317739
0.996281 0.040652 0.084218 0.001186 0.380930 0.923553
-0.134898 -0.240229 0.322732 -0.050812 -0.827251 -0.559529
1.518839 -0.097074 -0.116225 -0.000000 -0.807274 0.590177
0.110815 -0.375099 0.506576 0.112489 -0.802150 -0.586431
1.417228 0.120977 -0.182037 0.000000 -0.807274 -0.590177
0.028579 0.231131 0.325226 -0.022887 -0.797242 0.603226
0.328505 0.026939 -0.089552 -0.000063 0.303636 -0.951805
1.430031 0.116211 -0.142400 0.000000 0.807274 0.590177
0.279795 0.093374 -0.005160 0.002858 0.992254 -0.117864
-1.271822 0.064889 -0.067341 0.001031 0.672998 -0.737820
-1.619542 -0.027880 -0.026534 -0.597817 -0.604062 -0.521084
1.299159 0.092463 -0.013995 -0.003410 0.992056 -0.121521
-1.366076 0.092328 -0.014862 -0.000573 0.977093 -0.208711
-0.649564 0.093516 -0.000000 -0.000207 0.997406 0.058328
-1.555975 -0.066684 -0.034592 -0.349201 -0.826242 -0.438097
0.408327 -0.045316 -0.081804 0.000316 -0.440948 -0.896651
0.289806 0.000000 -0.093516 -0.000046 -0.029665 -0.998725
0.077386 0.159517 0.224003 0.050846 -0.806230 0.589413
-1.109479 0.092753 0.011923 -0.000670 0.983025 0.178256
0.228665 -0.029788 0.088645 0.000366 -0.343644 0.938134
0.103891 -0.078999 -0.111580 0.050846 0.806230 -0.589413
1.142548 0.096684 -0.115691 -0.000000 0.807274 0.590177
0.003088 0.060480 -0.094945 0.050846 -0.806230 -0.589413
0.996720 -0.075579 0.099554 -0.136230 -0.939747 -0.313554
1.093709 0.050252 -0.078868 0.000220 0.497391 -0.866617
