2.199764 0.635911 0.440051 -0.000000 -0.405386 -0.000010
1.520771 0.572854 0.537690 0.000000 -0.999677 0.000000
1.645463 0.756904 0.611773 0.000000 -0.785316 -0.000391
1.842326 0.210899 0.901458 -0.077752 -0.010863 -0.012586
2.917629 0.708054 0.434572 -0.000001 0.260883 -0.000016
1.529868 0.679840 0.430704 -0.000005 0.002955 -0.000189
3.247092 0.495880 0.668091 -0.000001 0.619095 0.000441
2.045936 0.576877 0.508400 0.000001 -0.962856 -0.000002
3.378920 0.793007 0.612681 0.000001 -0.619096 0.000772
3.128245 0.463371 0.366985 0.172787 -0.002353 0.005357
3.160776 0.572942 0.541154 0.000000 -0.999678 0.000000
1.764745 0.572852 0.537268 0.000000 -0.999677 -0.000000
3.252209 0.803054 0.620601 0.000000 -0.619097 0.000882
1.575788 0.540102 0.427475 -0.077751 -0.005223 0.006097
3.013738 0.582580 0.628081 0.000000 -0.619097 -0.001176
3.379076 1.033487 0.816431 0.172788 0.002384 -0.005427
0.405104 0.616411 0.451402 0.000000 -0.602254 -0.000006
0.418337 0.677897 0.644155 0.000000 -0.012693 0.000176
0.405104 0.750255 0.457453 0.000000 0.660898 -0.000020
1.655577 0.678996 0.644161 0.000000 -0.025398 0.000006
3.157974 0.853782 0.660593 -0.000001 -0.619096 0.000588
3.218540 0.879147 0.394285 0.000000 -0.619096 -0.000882
1.195747 0.786283 0.539126 -0.000000 0.999677 0.000000
0.133243 0.584204 0.542274 -0.278155 -0.000144 0.000005
1.823918 0.516206 0.389096 0.077813 0.007232 -0.009135
2.815077 0.711541 0.435593 0.000000 0.311358 -0.000053
1.937938 0.085197 0.060646 0.077814 0.008871 -0.011181
1.937938 1.273977 0.060646 0.077815 -0.008871 -0.011181
1.822572 0.868348 0.368954 0.077814 -0.001519 -0.001926
2.778687 0.677053 0.644112 0.000000 -0.025389 0.000022
3.267805 0.575143 0.605605 0.000000 0.619097 0.000441
1.840832 0.612134 0.620161 0.000000 -0.641696 0.000083
1.974748 0.347765 0.271298 0.077813 0.004918 -0.006226
1.974748 1.011409 0.271298 0.077814 -0.004918 -0.006226
0.191525 0.744655 0.453376 -0.051488 0.000277 -0.000348
1.734293 0.930223 0.329321 -0.098796 -0.002930 -0.004128
3.455096 0.835227 0.400570 -0.000001 0.619096 0.000772
1.159358 0.677560 0.430749 -0.000000 -0.025212 -0.000022
2.340360 0.572886 0.535916 -0.000000 -0.999677 -0.000000
2.609972 0.615365 0.622683 0.000000 -0.602254 0.000006
1.533176 0.638040 0.635752 -0.000000 -0.382667 0.000042
2.712525 0.778953 0.576401 -0.000001 0.933118 0.000013
3.276561 0.785283 0.552261 0.000000 0.990299 0.000002
0.764036 0.657729 0.641910 -0.000000 -0.212607 0.000020
1.688705 0.843699 0.418009 -0.077752 0.004736 0.005530
1.892108 0.748207 0.455689 -0.000001 0.641400 -0.000021
3.122733 0.722066 0.439520 0.000000 0.405937 -0.000039
1.071692 0.775093 0.489789 -0.000000 0.892152 -0.000035
3.343104 0.434101 0.329741 0.000000 -0.619096 0.000897
0.785539 0.572925 0.534396 0.000000 -0.999678 -0.000000
3.502362 0.582091 0.559690 0.311558 -0.000176 0.000034
1.892108 0.578599 0.502874 -0.000001 -0.776545 -0.000001
1.020416 0.623704 0.628371 0.000000 -0.515158 0.000007
3.225285 0.735542 0.628327 0.000001 0.512685 0.000014
1.575788 0.540102 0.647399 -0.077751 -0.005223 -0.006097
1.122968 0.602223 0.463897 0.000000 -0.733443 -0.000032
1.533176 0.755063 0.612913 0.000000 0.698145 0.000018
0.174642 0.628828 0.628887 -0.117038 -0.000194 0.000329
3.311372 0.817811 0.660574 0.000000 0.619096 -0.000257
0.491115 0.680601 0.644163 0.000000 0.012693 0.000088
3.041683 0.786236 0.540985 0.000000 0.999678 0.000000
2.404868 0.669841 0.643722 0.000000 -0.088398 0.000098
0.302552 0.618820 0.625187 0.000000 -0.560734 0.000013
2.353592 0.735325 0.446416 0.000000 0.517427 -0.000007
2.045936 0.740424 0.625139 0.000000 0.560708 0.000013
3.327837 0.690596 0.431270 -0.000000 0.113725 -0.000038
1.122968 0.741732 0.624209 0.000001 0.581369 0.000049
1.675490 0.906565 0.362914 -0.077753 0.004387 0.005124
1.945120 1.294114 1.029389 0.077814 -0.008485 0.010700
3.502362 0.732792 0.622112 0.315966 0.000355 0.000643
1.943384 0.696250 0.642862 0.000000 0.163936 0.000104
0.697873 0.683135 0.430788 0.000000 0.025380 -0.000022
1.379348 0.591363 0.597504 0.000001 -0.825865 0.000012
0.764036 0.754125 0.613827 0.000000 0.698100 0.000036
2.968625 0.550988 0.436057 0.172785 -0.002353 0.005357
1.698330 0.753650 0.458974 0.000000 -0.785316 0.000587
1.575788 0.819072 0.427475 -0.098796 -0.003662 -0.005159
2.917629 0.644188 0.638127 -0.000001 -0.335411 0.000097
1.730753 1.000298 0.288460 -0.077752 0.003830 0.004475
3.020181 0.747623 0.455201 -0.000000 0.641720 -0.000083
1.276796 0.726594 0.441606 0.000000 0.451793 -0.000034
3.390753 0.413956 0.761014 0.000000 -0.619095 -0.000673
1.769708 0.786322 0.537606 0.000000 0.999678 0.000000
1.994660 0.741767 0.450690 -0.000000 0.581645 -0.000048
2.045936 0.617373 0.450714 -0.000000 -0.581612 -0.000012
3.505600 0.955566 0.319871 -0.294764 -0.002228 -0.002467
1.930756 0.105335 0.999066 0.077813 0.010028 0.012617
3.278119 0.809395 0.449273 0.000000 -0.619096 -0.000257
1.883173 0.798308 0.620311 0.061165 0.010304 -0.012889
1.818234 1.040471 0.263096 -0.077753 0.006685 0.007792
2.514037 0.680770 0.644146 0.000000 0.025389 0.000011
3.470672 0.847900 0.655955 0.000000 -0.619097 0.000772
0.931097 0.572919 0.534649 0.000000 -0.999677 -0.000000
1.737907 0.501714 0.663580 -0.077752 -0.004666 -0.005449
1.924374 0.002044 1.071572 0.000000 -0.785314 0.000250
2.917629 0.745320 0.621528 0.000000 0.622111 0.000022
0.398488 0.572874 0.535409 0.000000 -0.999919 -0.000000
1.590202 0.798892 0.634836 -0.098798 -0.003662 0.005158
0.157907 0.694999 0.638040 -0.182091 0.000042 0.000233
0.256238 0.572880 0.539972 0.000000 -0.999919 0.000000
2.938815 0.765008 0.484266 -0.000000 0.785316 -0.000504
2.251040 0.624571 0.628896 0.000000 -0.518141 0.000057
1.777484 0.415329 0.341512 -0.077753 -0.004109 0.004800
1.417392 0.786292 0.538788 -0.000000 0.999686 0.000000
0.133243 0.774602 0.547099 -0.278110 0.000145 0.000011
3.146752 0.879147 0.394285 -0.000000 -0.619096 -0.001176
3.120513 0.518074 0.424279 0.000000 0.619096 -0.000588
1.695990 0.354565 0.281208 -0.077752 -0.007660 0.008918
1.789556 0.657399 0.433036 0.000000 -0.213697 -0.000158
3.379113 0.586554 0.485123 0.000000 -0.868112 -0.000010
2.651324 0.677222 0.644116 0.000000 -0.025398 0.000022
3.287865 0.375754 0.297913 0.172786 -0.002384 0.005427
3.219456 0.413304 0.747359 0.172787 -0.002353 -0.005357
2.267581 0.786296 0.538620 -0.000000 0.999677 0.000000
2.609972 0.618026 0.450247 -0.000000 -0.581532 -0.000012
2.583508 0.786279 0.535578 0.000000 0.999678 -0.000000
3.071457 0.701404 0.641919 -0.000001 0.197245 0.000011
3.418176 0.956021 0.333682 -0.000001 -0.619097 -0.000673
3.423920 0.461854 0.723254 0.000002 -0.619090 -0.000449
3.366192 0.927486 0.718697 -0.000001 -0.619094 0.000449
0.651560 0.786236 0.540985 0.000000 0.999678 0.000000
0.815312 0.700244 0.432723 0.000001 0.188772 -0.000090
3.476432 0.532151 0.639497 -0.000001 0.619095 0.001030
1.430624 0.732268 0.630261 -0.000000 0.496168 0.000015
1.752374 0.325236 0.821337 -0.098795 0.004981 0.007011
1.752374 1.033938 0.821337 -0.098796 -0.002490 0.003509
3.564455 0.647981 0.464167 0.304141 -0.000060 -0.000146
1.235445 0.572878 0.536254 0.000000 -0.999678 -0.000000
0.992297 0.682121 0.644112 0.000000 0.025398 0.000022
0.866588 0.748563 0.618887 -0.000001 0.640313 0.000021
2.712525 0.616720 0.451181 -0.000001 -0.581299 -0.000024
1.840832 0.774807 0.489223 -0.000001 0.804813 -0.000001
1.972054 1.214781 0.119305 0.061167 0.003680 0.004660
1.972054 0.144393 0.119305 0.061166 -0.007360 0.009270
3.239168 0.916097 0.738057 -0.000000 0.619096 -0.000882
0.456380 0.577136 0.567367 0.000000 -0.957904 0.000003
1.985521 1.108248 0.202238 0.061167 0.004662 0.005896
1.985521 0.250926 0.202238 0.061166 -0.004662 0.005896
2.555388 0.679587 0.430698 0.000000 0.012702 -0.000176
0.917864 0.709436 0.434962 0.000000 0.287089 -0.000014
1.020416 0.709598 0.435010 -0.000000 0.287214 -0.000029
3.502362 0.690784 0.438062 0.329449 0.000002 -0.000170
0.047538 0.679587 0.587489 -0.619818 0.000000 0.000014
1.938387 0.545997 0.636341 0.061167 -0.009200 -0.011541
1.695888 0.863218 0.672813 -0.077753 0.004666 -0.005449
0.610208 0.635949 0.634839 0.000000 -0.405916 0.000020
3.379076 0.325687 0.258443 0.172788 -0.002384 0.005427
0.661484 0.629721 0.443068 -0.000000 -0.474237 -0.000016
3.216479 0.540268 0.441775 -0.000001 0.619097 -0.000735
3.485072 0.563465 0.460063 0.000000 0.619097 -0.001030
1.481900 0.778923 0.498394 -0.000000 0.933187 -0.000007
2.171645 0.572872 0.538366 -0.000000 -0.924604 0.000000
0.251276 0.769828 0.480442 0.000000 0.841823 -0.000022
0.302552 0.729528 0.631766 0.000000 0.474160 0.000032
2.826655 0.786253 0.534565 0.000000 0.999677 -0.000000
2.148489 0.696834 0.642765 -0.000001 0.161945 0.000053
1.964872 0.185116 0.922905 0.061167 -0.004171 -0.005279
1.964872 1.174058 0.922905 0.061165 0.008342 -0.010484
3.564455 0.618459 0.588729 0.309615 -0.000120 0.000098
2.133602 0.786305 0.538282 0.000000 0.999677 0.000000
3.097409 0.828418 0.640597 -0.000000 -0.619096 0.000882
1.738280 0.589596 0.594823 0.000000 -0.841898 0.000006
1.789556 0.648321 0.639487 0.000000 -0.287230 0.000116
2.404868 0.754549 0.613414 -0.000001 0.694721 0.000009
1.738280 0.589642 0.479980 0.000001 -0.839431 -0.000006
1.842323 0.949701 0.338401 0.061167 0.006624 0.008354
3.225285 0.574494 0.556101 0.000000 -0.986461 0.000001
2.687714 0.676799 0.430768 0.000017 -0.000160 -0.000861
1.822572 0.885424 0.684259 0.061166 0.003864 -0.004892
2.507421 0.586994 0.484352 -0.000000 -0.868112 -0.000010
1.840832 0.737186 0.627291 0.000001 0.539650 0.000108
2.558697 0.588259 0.592669 0.000001 -0.852773 0.000005
1.734293 0.939361 0.733961 -0.077752 0.004109 -0.004800
0.998086 0.572914 0.534818 0.000000 -0.999678 -0.000000
0.764036 0.779809 0.500724 0.000002 0.878149 -0.000002
1.328072 0.735470 0.628371 -0.000000 0.517966 0.000014
1.174244 0.579436 0.574349 0.000000 -0.941116 0.000003
2.712525 0.705972 0.640859 0.000001 0.237717 0.000071
2.461107 0.679080 0.430711 0.000000 -0.025398 -0.000044
2.996246 0.751230 0.608085 0.000000 0.619096 -0.001176
0.661484 0.578585 0.502913 0.000000 -0.950284 -0.000011
2.328781 0.678067 0.430736 0.000000 -0.013274 -0.000021
2.904396 0.786245 0.534227 0.000000 0.999686 -0.000000
1.965321 0.530578 0.414479 0.077813 0.007232 -0.009135
1.481900 0.738675 0.448550 0.000000 0.560723 -0.000026
1.710325 0.541389 0.442379 -0.077752 -0.007260 0.008456
1.892108 0.587288 0.591035 0.000001 -0.867797 0.000020
1.879133 0.484377 0.394579 0.061166 -0.007728 0.009726
1.849505 0.384653 0.318275 0.061166 -0.003067 0.003886
1.780131 0.224688 0.178822 -0.077752 -0.010863 0.012586
1.780131 1.134486 0.178822 -0.098796 -0.003906 -0.005502
3.368504 0.859809 0.381191 -0.000001 0.619096 0.000905
1.994660 0.585879 0.588531 0.000000 -0.880432 0.000009
2.968904 0.631901 0.441950 -0.000001 -0.451671 -0.000068
3.174009 0.624138 0.628633 -0.000000 -0.518147 0.000057
1.850852 0.493700 0.700843 0.077813 0.003038 0.003850
3.031231 0.815736 0.444275 0.000000 -0.619096 -0.001176
0.251276 0.612069 0.454767 -0.000000 -0.641544 -0.000010
3.069803 0.683135 0.430788 0.000000 0.025389 -0.000044
3.481665 0.652833 0.640769 0.312699 -0.000047 0.000173
0.436531 0.675026 0.430813 -0.000000 -0.025398 -0.000022
0.562240 0.675701 0.430796 0.000000 -0.025389 -0.000044
0.183069 0.633087 0.442641 -0.084307 -0.000248 -0.000476
1.772744 0.810809 0.409362 0.077814 -0.005400 -0.006834
3.438344 0.799024 0.457449 -0.000000 -0.619096 -0.000515
2.045936 0.608919 0.617421 -0.000000 -0.657575 0.000005
2.712525 0.574849 0.516905 0.000000 -0.981958 -0.000003
1.724763 0.772352 0.592177 0.000001 -0.785313 -0.000293
2.456145 0.754216 0.461135 0.000000 0.698008 -0.000018
1.328072 0.616548 0.623570 0.000000 -0.581505 0.000012
1.819429 0.548552 0.449830 0.061164 -0.003435 0.004351
3.564455 0.725356 0.602802 0.307565 0.000088 0.000129
1.225520 0.693072 0.643321 -0.000000 0.138779 0.000124
1.986419 0.044687 0.033529 0.077814 0.007328 -0.009255
1.986419 1.314487 0.033529 0.077813 -0.007329 -0.009255
2.877413 0.601056 0.475527 0.000000 -0.785316 -0.000269
1.584452 0.624933 0.445759 -0.000000 -0.518224 -0.000007
1.765562 0.812665 0.622452 -0.077752 0.009470 -0.010998
3.523257 0.467602 0.370320 -0.294761 -0.001879 0.002742
3.379113 0.733148 0.629757 0.000000 0.496310 0.000030
3.308464 0.930097 0.749093 0.000001 0.619095 -0.000449
2.404868 0.620569 0.448502 -0.000000 -0.560992 -0.000013
2.923418 0.572936 0.540900 0.000005 -0.240881 0.000000
1.625804 0.572857 0.537099 0.000000 -0.999678 -0.000000
2.404868 0.574873 0.558093 0.000001 -0.969357 0.000001
3.122733 0.734024 0.629246 -0.000001 0.518010 0.000057
2.097212 0.728404 0.442522 0.000000 0.451793 -0.000034
1.844619 0.261113 0.858300 -0.077753 -0.002995 -0.003501
3.327837 0.613656 0.621370 -0.000000 -0.622027 0.000044
1.840832 0.691729 0.431399 0.000000 0.113778 -0.000605
1.071692 0.768664 0.596245 0.000001 0.818803 0.000003
1.888111 0.428173 0.349571 0.061166 -0.003312 0.004196
3.020181 0.667361 0.643465 0.000000 -0.113725 0.000303
3.523257 0.891572 0.370320 -0.294762 -0.002228 -0.002467
2.619897 0.572904 0.535241 -0.000000 -0.999678 -0.000000
3.192960 0.454663 0.374290 -0.000001 0.619096 -0.001471
3.368504 0.499365 0.693683 -0.000001 -0.619095 -0.000905
1.967565 0.927658 0.336608 0.077813 -0.001422 -0.001804
1.880479 0.849301 0.660300 0.061167 0.009200 -0.011541
0.353828 0.771550 0.483252 0.000001 0.733661 -0.000002
3.434288 0.614575 0.472016 0.089981 -0.003025 -0.002384
1.533176 0.786120 0.530934 0.000000 0.997975 -0.000001
3.097409 0.828418 0.434277 0.000001 -0.619096 -0.000882
3.276561 0.705028 0.641091 0.000000 0.238426 0.000071
2.148489 0.611875 0.619944 0.000000 -0.641640 0.000021
2.302316 0.735217 0.628524 -0.000000 0.518144 0.000057
1.430624 0.619450 0.625613 0.000000 -0.559845 0.000013
3.168539 0.765008 0.484266 -0.000000 0.785316 -0.000504
3.276561 0.573774 0.523450 -0.000001 -0.988122 -0.000001
3.183884 0.499051 0.665592 0.000000 0.619096 0.000735
3.174009 0.618960 0.449592 0.000000 -0.560485 -0.000013
0.064604 0.735831 0.509848 -0.546350 0.000038 -0.000017
3.354689 0.365888 0.770569 -0.000000 0.619096 0.001346
3.447105 0.315160 0.810560 0.000001 0.619096 0.000897
0.917864 0.619030 0.449545 0.000001 -0.554780 -0.000006
0.712760 0.627640 0.630680 0.000003 -0.317284 0.000006
1.966667 0.803217 0.640253 0.077816 -0.002893 0.003667
1.943325 0.286079 0.233243 0.061166 -0.010304 0.012889
1.943325 1.073095 0.233243 0.061165 0.005152 0.006513
2.353592 0.629349 0.631605 0.000000 -0.471306 0.000008
2.507421 0.747882 0.619456 -0.000000 0.641668 0.000041
1.584452 0.733112 0.445096 0.000000 0.496385 -0.000061
1.276796 0.770368 0.593573 -0.000001 0.852773 0.000005
2.353592 0.784957 0.520440 -0.000000 0.986290 -0.000001
1.328072 0.752197 0.459212 0.000000 0.679579 -0.000019
1.174244 0.770280 0.593717 0.000000 0.853502 0.000003
1.994660 0.786288 0.535916 0.000000 0.999678 -0.000000
1.020416 0.618610 0.449829 0.000000 -0.581905 -0.000006
0.109317 0.721727 0.613359 -0.371429 0.000047 0.000080
3.441281 0.968703 0.751190 0.000002 -0.619091 0.000897
1.655089 0.822904 0.642538 -0.077755 0.003917 -0.004577
1.356191 0.786305 0.536592 0.000000 0.999677 -0.000000
0.864934 0.676715 0.644103 0.000000 -0.025398 0.000044
2.251040 0.577258 0.567772 0.000000 -0.957710 0.000001
3.481665 0.776578 0.582001 0.311068 0.000164 0.000073
1.912354 1.338577 1.056945 -0.098797 -0.007422 0.010432
0.251276 0.596944 0.604987 -0.000001 -0.764395 0.000007
1.806860 0.526926 0.679023 0.077813 0.005400 0.006834
2.456145 0.640781 0.636864 -0.000001 -0.358665 0.000023
1.481900 0.582030 0.494147 0.000001 -0.912801 -0.000008
1.994660 0.588609 0.481626 0.000000 -0.855215 -0.000021
2.815077 0.722607 0.635114 -0.000001 0.405935 0.000078
3.320976 0.988188 0.773635 0.172787 -0.004721 0.003584
3.470096 0.470806 0.687858 0.000000 0.619094 0.000224
1.122968 0.573209 0.546131 -0.000001 -0.987328 0.000000
3.540214 0.768331 0.474562 -0.294762 -0.001090 -0.001207
3.473552 0.535491 0.409670 0.000002 -0.619086 0.000515
3.447105 1.044014 0.264314 -0.000001 -0.619096 -0.000897
1.533176 0.598598 0.467910 0.000000 -0.767020 -0.000007
3.276561 0.598933 0.467530 -0.000000 -0.749527 -0.000008
3.379113 0.646268 0.436040 -0.000000 -0.311421 -0.000106
1.994050 0.450027 0.721041 0.077814 0.005689 0.007198
3.169046 0.683811 0.430805 0.000000 0.025398 -0.000088
0.815312 0.771572 0.591585 0.000000 0.855150 0.000005
0.507656 0.769578 0.480051 -0.000000 0.841745 -0.000011
0.815312 0.766703 0.475773 -0.000000 0.813408 -0.000012
1.225520 0.699580 0.432595 0.000000 0.188895 -0.000180
1.994660 0.771068 0.592416 0.000000 0.855121 0.000011
2.404868 0.785778 0.548236 0.000000 0.993511 0.000002
1.379348 0.729453 0.443068 0.000000 0.474237 -0.000016
1.430624 0.645064 0.436435 0.000000 -0.335420 -0.000024
2.968904 0.619590 0.625708 0.000000 -0.560800 0.000051
3.369100 0.543974 0.444697 -0.000000 0.619096 -0.001810
1.584452 0.780970 0.504078 0.000000 0.950201 -0.000003
2.199764 0.733515 0.629547 -0.000000 0.496747 0.000008
2.097212 0.771614 0.591512 0.000001 0.862247 0.000005
3.236613 0.550875 0.653075 -0.000000 -0.619095 -0.000882
0.661484 0.768734 0.596139 -0.000000 0.836685 0.000003
1.379348 0.707279 0.640513 0.000001 0.262679 0.000064
0.507656 0.628010 0.443990 0.000000 -0.474100 -0.000004
1.667156 0.679418 0.430702 0.000000 -0.025221 -0.000044
1.952303 0.044922 1.044551 0.077814 0.007328 0.009255
0.558932 0.768711 0.596175 0.000000 0.827958 0.000012
0.456380 0.728140 0.442389 -0.000001 0.451250 -0.000034
1.821825 0.308944 0.255122 -0.077751 -0.003273 0.003826
2.199764 0.775132 0.585010 0.000001 0.890716 0.000009
0.815312 0.632580 0.633268 0.000000 -0.452002 0.000009
3.276561 0.716499 0.437285 0.000000 0.335335 -0.000024
3.139824 0.594167 0.590608 0.000000 -0.785317 0.000252
3.276561 0.647473 0.435646 -0.000000 -0.310154 -0.000007
2.456145 0.587777 0.591874 0.000000 -0.855307 0.000010
1.880479 0.849301 0.414574 0.061166 0.009200 0.011541
0.712760 0.733075 0.629799 -0.000000 0.496348 0.000061
1.687004 0.631901 0.632924 -0.000001 -0.451622 0.000068
3.122733 0.659345 0.642230 -0.000001 -0.188804 0.000180
2.712525 0.595129 0.602705 0.000001 -0.780610 0.000003
1.709131 0.401035 0.762296 -0.098796 0.005762 0.008108
2.353592 0.594112 0.473518 -0.000000 -0.798405 -0.000013
1.967565 0.431516 0.336608 0.077814 0.001422 -0.001804
1.808656 0.929774 0.718136 -0.077751 0.004109 -0.004800
2.996246 0.594167 0.484266 0.000000 -0.785317 -0.000252
0.353828 0.597812 0.468850 -0.000000 -0.766897 -0.000015
0.133243 0.604064 0.595896 -0.278117 -0.000114 0.000084
0.610208 0.590098 0.479268 -0.000000 -0.841813 -0.000006
1.935694 0.885374 0.381827 0.061166 0.001932 0.002450
2.045936 0.782430 0.508889 0.000000 0.964754 -0.000009
2.866353 0.589916 0.595321 0.000000 -0.841762 0.000011
1.892108 0.786063 0.530049 -0.000000 0.997981 -0.000002
2.712525 0.774036 0.487719 0.000000 0.880437 -0.000009
0.338941 0.572968 0.532706 -0.000000 -0.999677 -0.000000
2.456145 0.601649 0.464517 0.000001 -0.731772 -0.000008
2.763801 0.754397 0.461312 -0.000000 0.698011 -0.000018
3.314240 0.947045 0.340758 0.000001 -0.619095 -0.000897
3.412368 0.904757 0.374096 0.000000 -0.619094 -0.000224
2.558697 0.772914 0.485636 0.000000 0.880437 -0.000019
0.507656 0.586596 0.589824 0.000000 -0.868070 0.000005
3.350056 0.787423 0.438256 0.000001 0.619095 0.000905
3.330416 0.845588 0.420741 0.000000 -0.619096 -0.000905
1.687004 0.725258 0.633902 0.000000 0.428827 0.000037
0.815312 0.582459 0.581693 0.000000 -0.913752 0.000004
3.379113 0.636413 0.635045 0.000001 -0.405935 0.000078
3.331568 0.416395 0.759091 0.000000 -0.619095 -0.000449
2.148489 0.759012 0.466134 0.000000 0.750437 -0.000015
1.430624 0.757410 0.464393 -0.000000 0.733407 -0.000016
1.943384 0.720743 0.438960 0.000000 0.382109 -0.000021
0.405104 0.774731 0.585801 -0.000000 0.892117 0.000009
2.763801 0.581979 0.494263 0.000001 -0.912172 -0.000004
2.097212 0.719572 0.636399 0.000001 0.382428 0.000042
1.174244 0.620290 0.448692 -0.000000 -0.560768 -0.000026
3.406592 0.457588 0.376595 -0.000000 0.619096 -0.000897
3.247092 0.509658 0.389305 0.000004 -0.619060 0.000441
0.037816 0.649264 0.508613 -0.651563 -0.000016 -0.000014
1.838609 1.088784 0.850986 -0.077753 0.002995 -0.003501
3.045835 0.830271 0.663312 0.172786 0.001192 -0.002714
3.406657 0.375178 0.283290 0.000001 -0.619096 0.000897
0.969140 0.762312 0.604890 0.000000 0.766926 0.000029
1.948263 0.977842 0.766924 0.061166 0.003067 -0.003886
2.097212 0.637650 0.439284 0.000000 -0.382611 -0.000010
2.269235 0.678742 0.644155 0.000000 -0.025389 0.000022
2.558697 0.600615 0.465633 0.000000 -0.733443 -0.000016
0.962524 0.786262 0.539971 0.000000 0.924593 0.000000
1.328072 0.624861 0.445802 -0.000000 -0.518095 -0.000014
1.862074 1.013979 0.286188 0.061165 0.005643 0.007128
1.020416 0.762732 0.470513 0.000000 0.782929 -0.000002
1.071692 0.586512 0.589678 0.000000 -0.868135 0.000005
1.071692 0.588390 0.481988 0.000001 -0.854624 -0.000011
0.866588 0.783009 0.563822 0.000000 0.971047 0.000002
0.405104 0.597622 0.605797 0.000000 -0.766897 0.000015
1.872399 0.959869 0.746835 0.061165 0.006624 -0.008354
3.053677 0.594167 0.590608 -0.000001 -0.785315 0.000504
3.082392 0.594167 0.484266 0.000000 -0.785317 -0.000252
2.968904 0.729007 0.442828 0.000000 0.474231 -0.000032
1.939734 0.780711 0.449686 0.077814 -0.005786 -0.007319
2.251040 0.757640 0.464641 -0.000000 0.733484 -0.000032
3.228593 0.675026 0.644060 0.000000 -0.025398 0.000022
2.968625 0.550988 0.638816 0.172786 -0.002353 -0.005357
3.128245 0.895803 0.707889 0.172787 0.002353 -0.005356
3.424682 1.058521 0.836166 0.172785 0.002384 -0.005427
3.424682 0.300653 0.238708 0.172786 -0.002384 0.005427
2.945822 0.795669 0.628949 0.172786 0.002353 -0.005357
3.014230 0.525955 0.416322 0.172786 -0.002353 0.005357
1.866115 0.273254 0.229158 0.061167 -0.004662 0.005896
1.866115 1.085920 0.229158 -0.077752 0.002995 0.003501
3.540214 0.590843 0.474562 -0.294762 0.001090 -0.001207
3.540913 0.827578 0.654104 -0.294764 -0.002228 0.002467
3.517371 0.912903 0.721370 -0.294764 -0.002228 0.002467
1.883173 0.348823 0.287401 0.061166 -0.005643 0.007128
0.661484 0.724953 0.440827 -0.000001 0.428805 -0.000073
1.427316 0.678742 0.644155 0.000000 -0.025380 0.000011
2.558697 0.633267 0.633594 0.000000 -0.428606 0.000018
1.943325 1.087639 0.866795 0.077815 -0.008292 0.010460
1.943325 0.271535 0.866795 0.077815 0.004146 0.005252
2.763801 0.622414 0.627564 -0.000000 -0.539534 0.000027
0.917864 0.731090 0.630924 0.000000 0.474163 0.000032
1.122968 0.782541 0.509296 -0.000000 0.964786 -0.000009
3.435521 0.369595 0.767647 0.000001 0.619095 0.000897
3.383553 0.971314 0.293287 -0.000000 0.619096 0.000897
3.128601 0.776594 0.446793 0.000000 0.619096 0.000588
2.815077 0.771112 0.482530 0.000000 0.855252 -0.000005
1.430624 0.581498 0.579530 0.000000 -0.923868 0.000014
3.327837 0.578335 0.503676 0.000000 -0.950274 -0.000023
3.379113 0.711379 0.435544 -0.000000 0.286822 -0.000014
1.174244 0.774903 0.489412 -0.000000 0.892014 -0.000009
1.174244 0.614521 0.622047 0.000000 -0.602030 0.000011
1.276796 0.774788 0.489186 -0.000000 0.891760 -0.000004
3.225285 0.608189 0.616778 0.000000 -0.660501 0.000002
3.434288 0.751488 0.594119 0.089981 0.006051 0.004759
2.609972 0.756538 0.611400 0.000000 0.715220 0.000008
1.894844 1.163992 0.165368 -0.077751 0.009749 0.011317
1.894844 0.195182 0.165368 0.061166 -0.008342 0.010484
1.789556 0.601735 0.464424 0.000001 -0.733204 -0.000032
3.470096 0.874591 0.705336 0.000003 0.619032 -0.000224
1.892108 0.631939 0.632943 -0.000001 -0.451699 0.000068
0.712760 0.755240 0.462142 -0.000000 0.715674 -0.000008
0.610208 0.777264 0.494417 -0.000000 0.913654 -0.000004
0.610208 0.589186 0.594183 -0.000000 -0.836685 0.000003
1.789556 0.703055 0.641558 0.000000 0.213712 0.000158
1.779926 0.507472 0.420527 0.061166 -0.006870 0.008660
1.276796 0.659885 0.432540 -0.000000 -0.188841 -0.000180
3.310776 0.482976 0.706603 -0.000001 -0.619096 -0.000905
3.071457 0.629870 0.442988 0.000000 -0.474160 -0.000032
0.286011 0.674519 0.644048 0.000000 -0.025398 0.000022
3.276561 0.778711 0.497842 0.000000 0.933309 -0.000002
1.430624 0.593959 0.473721 0.000000 -0.798487 -0.000026
0.917864 0.625512 0.629464 0.000000 -0.496443 0.000008
1.584452 0.655830 0.641494 0.000001 -0.213078 0.000079
2.815077 0.765240 0.601119 0.000000 0.794098 0.000003
2.199764 0.689712 0.431186 0.000000 0.088532 -0.000097
0.507656 0.630018 0.631966 0.000000 -0.474100 0.000008
1.753495 0.390260 0.299533 -0.098796 0.005469 -0.007697
1.943384 0.783906 0.559997 0.000000 0.975618 0.000002
0.661484 0.576044 0.563330 0.000001 -0.970569 0.000009
1.923573 1.233701 0.983905 0.077813 -0.005207 0.006591
0.764036 0.585980 0.486157 0.000000 -0.880210 -0.000009
3.094274 0.569898 0.436795 0.000000 -0.619095 0.001765
0.507656 0.588741 0.481409 0.000000 -0.855077 -0.000011
1.071692 0.726632 0.633249 0.000001 0.432408 0.000009
0.712760 0.784476 0.517693 0.000000 0.980705 -0.000001
0.764036 0.784881 0.554892 -0.000000 0.986432 0.000006
2.558697 0.728479 0.632313 0.000000 0.451217 0.000009
1.897088 0.398474 0.749417 0.061166 -0.006747 -0.008507
2.045936 0.755063 0.461961 0.000000 0.715868 -0.000008
1.225520 0.597405 0.469336 0.000000 -0.755959 -0.000002
3.197255 0.765008 0.590608 0.000000 0.785317 0.000252
3.249733 0.827322 0.406802 -0.000000 0.619096 0.001765
1.994660 0.632203 0.441797 0.000000 -0.451722 -0.000017
1.994660 0.629832 0.631866 0.000001 -0.473599 0.000032
1.379348 0.661715 0.432213 0.000000 -0.163939 -0.000209
2.020535 1.357130 1.071572 0.077811 -0.005786 0.007319
1.966667 0.004647 0.000000 0.000000 -0.785316 -0.000250
1.966667 1.354527 0.000000 -0.000001 0.785308 -0.000250
2.020535 0.320108 0.820829 0.077813 0.009064 0.011421
2.020535 1.039066 0.820829 0.077815 -0.009064 0.011420
2.020535 0.510946 0.404490 0.077815 0.002893 -0.003667
1.071692 0.725335 0.441008 -0.000000 0.428995 -0.000073
2.020535 0.848228 0.404490 0.077815 -0.002893 -0.003667
3.379113 0.580039 0.575928 0.000000 -0.933262 0.000013
1.789556 0.599994 0.608549 -0.000001 -0.750250 0.000031
1.533176 0.586020 0.588791 0.000001 -0.879746 0.000009
0.249622 0.786193 0.542674 -0.000000 0.999686 0.000000
1.923573 0.117109 0.101579 0.061166 -0.012756 0.015841
1.923573 1.242065 0.101579 -0.077752 0.007521 0.008758
0.302552 0.578585 0.571960 0.000000 -0.950154 0.000001
2.097212 0.582356 0.493413 -0.000001 -0.908409 -0.000004
2.815077 0.577634 0.569026 -0.000001 -0.955933 0.000003
0.633365 0.683473 0.644078 -0.000000 0.013273 0.000021
0.405104 0.728856 0.632123 0.000001 0.450915 0.000017
1.971156 0.385381 0.765518 0.061166 -0.006134 -0.007742
0.610208 0.738605 0.448502 0.000000 0.560708 -0.000003
2.199764 0.582356 0.493413 0.000000 -0.913832 -0.000015
0.251276 0.728441 0.442541 0.000001 0.451566 -0.000068
1.738280 0.628902 0.443509 0.000000 -0.473549 -0.000008
2.968904 0.584138 0.585198 -0.000001 -0.868213 0.000001
3.426232 0.515753 0.394110 -0.000000 -0.619096 0.001810
1.430624 0.773074 0.588940 0.000000 0.880396 0.000019
1.892108 0.629051 0.443429 -0.000000 -0.473747 -0.000004
2.661248 0.630770 0.442522 0.000001 -0.448482 -0.000009
1.806860 0.850680 0.419231 0.061168 0.003435 0.004350
0.302552 0.774769 0.585726 0.000000 0.892176 0.000018
2.661248 0.747040 0.454712 0.000000 0.641917 -0.000005
3.349460 0.859588 0.665169 -0.000000 -0.619096 0.001810
1.637059 0.564101 0.454276 -0.077752 -0.002612 0.003053
0.507656 0.729974 0.631525 0.000001 0.473599 0.000032
1.174244 0.727537 0.442083 -0.000000 0.451405 -0.000017
1.994660 0.727989 0.632562 0.000000 0.451217 0.000009
1.808656 0.447676 0.741320 0.077814 0.001422 0.001804
0.866588 0.587690 0.483144 0.000000 -0.855307 -0.000005
1.481900 0.744282 0.622327 -0.000000 0.598379 0.000006
1.071692 0.786010 0.545626 -0.000001 0.962274 0.000000
2.507421 0.783523 0.561729 -0.000000 0.970654 0.000002
2.456145 0.785236 0.522278 0.000001 0.874470 -0.000000
1.779926 0.830947 0.680674 0.077814 -0.005400 0.006834
1.328072 0.776955 0.581152 -0.000000 0.913840 0.000008
3.494888 0.801702 0.426999 0.000000 0.619096 0.000515
2.815077 0.635293 0.440326 0.000000 -0.406025 -0.000039
0.456380 0.784165 0.558799 0.000000 0.981966 0.000001
2.251040 0.623415 0.446678 0.000000 -0.518030 -0.000029
2.302316 0.723263 0.440051 0.000000 0.405941 -0.000078
1.290029 0.572893 0.535663 -0.000000 -0.925958 -0.000000
1.628656 0.537547 0.644158 -0.077750 -0.002612 -0.003054
2.558697 0.736048 0.446853 0.000000 0.539656 -0.000054
1.892108 0.725373 0.633848 0.000000 0.428510 0.000005
1.852253 0.113366 0.983812 -0.077752 -0.007521 -0.008758
1.623869 0.465887 0.705905 -0.077752 -0.009331 -0.010839
1.611849 0.484441 0.383595 -0.077752 -0.004666 0.005449
2.661248 0.626613 0.630093 -0.000000 -0.496291 0.000061
1.671950 0.967502 0.764412 -0.098795 -0.005762 0.008108
1.852253 1.245808 0.983812 -0.098795 -0.005469 0.007697
1.756091 1.097378 0.208075 -0.098799 -0.002149 -0.003028
1.756091 0.261796 0.208075 -0.077752 -0.002995 0.003501
1.623869 0.893287 0.705905 -0.098795 -0.006543 0.009203
1.888313 1.301469 0.047182 -0.098796 -0.004492 -0.006326
1.888313 0.057705 0.047182 -0.077753 -0.006407 0.007470
1.727110 0.449089 0.344483 -0.098797 0.002930 -0.004128
2.353592 0.584558 0.586027 -0.000001 -0.867782 0.000002
1.174244 0.730458 0.631265 -0.000000 0.474182 0.000016
1.780131 0.224688 0.896052 -0.077752 -0.010863 -0.012586
3.225285 0.630280 0.442770 0.000000 -0.451718 -0.000004
1.812247 0.791104 0.609097 0.061166 0.006870 -0.008660
2.866353 0.734314 0.629071 0.000000 0.518122 0.000029
2.763801 0.782999 0.563863 0.000000 0.971171 0.000004
1.627458 0.786324 0.537352 0.000000 0.999677 -0.000000
0.200000 0.726594 0.633268 -0.051491 0.000201 0.000397
0.353828 0.731276 0.444050 0.000001 0.473168 -0.000016
2.507421 0.582099 0.580882 -0.000000 -0.913752 0.000004
3.321192 0.563557 0.431796 0.000000 -0.619097 0.000257
1.225520 0.591411 0.597574 0.000001 -0.825864 0.000012
3.521984 0.600330 0.614088 0.000000 -0.619096 -0.001030
2.353592 0.724610 0.634210 -0.000000 0.428889 0.000037
2.302316 0.772117 0.590631 -0.000001 0.867425 0.000010
2.302316 0.580835 0.496944 -0.000001 -0.923198 -0.000007
1.476938 0.678573 0.430724 0.000000 -0.025398 -0.000022
1.635728 0.621845 0.627200 -0.000000 -0.538616 0.000014
0.969140 0.635679 0.634719 -0.000001 -0.389291 0.000010
0.815312 0.637494 0.439348 0.000000 -0.406122 -0.000019
0.353828 0.628270 0.631024 0.000001 -0.469754 0.000016
1.635728 0.635640 0.440172 -0.000000 -0.405979 -0.000078
1.840832 0.582596 0.492872 0.000000 -0.914015 -0.000002
1.122968 0.643073 0.637730 0.000001 -0.327429 0.000012
3.481665 0.576255 0.510682 0.309653 -0.000176 -0.000043
3.481665 0.781431 0.505483 0.309925 0.000172 -0.000056
1.635728 0.724152 0.440446 0.000000 0.428783 -0.000009
0.200000 0.780589 0.571960 -0.051490 0.000423 0.000139
1.840832 0.740564 0.449829 0.000000 0.581625 -0.000097
3.417008 0.821006 0.634754 0.000000 -0.619096 0.000386
1.533176 0.700742 0.642055 0.000000 0.188854 0.000090
2.917629 0.623523 0.446613 0.000000 -0.518089 -0.000029
0.866588 0.778274 0.496788 -0.000001 0.923664 -0.000014
0.712760 0.589505 0.594681 -0.000000 -0.841107 0.000003
1.020416 0.582322 0.581384 -0.000001 -0.820840 0.000001
3.329820 0.903975 0.374712 -0.000001 -0.619095 -0.000905
1.276796 0.727838 0.632638 -0.000001 0.450905 0.000017
1.276796 0.623885 0.628480 0.000000 -0.518144 0.000057
3.359280 0.521780 0.647673 -0.000002 0.619095 0.000905
3.291136 0.424811 0.350756 -0.000001 0.619094 -0.000224
3.417008 0.538168 0.634754 -0.000000 0.619096 0.001545
2.148489 0.628307 0.443829 0.000000 -0.474215 -0.000032
1.020416 0.584367 0.489223 -0.000001 -0.892004 -0.000018
2.404868 0.742145 0.450960 0.000001 0.513443 -0.000003
0.917864 0.583466 0.583834 0.000000 -0.903274 0.000008
2.866353 0.700244 0.432723 0.000000 0.188829 -0.000090
1.328072 0.583756 0.490430 0.000000 -0.903307 -0.000008
0.661484 0.726251 0.633431 -0.000000 0.428510 0.000005
2.917629 0.695917 0.642917 0.000000 0.163959 0.000052
2.045936 0.575430 0.560740 0.000001 -0.976701 0.000008
0.917864 0.754518 0.461430 0.000000 0.697924 -0.000009
2.302316 0.635718 0.634737 0.000001 -0.403123 0.000020
0.456380 0.622059 0.447537 -0.000000 -0.539645 -0.000108
2.866353 0.627786 0.630764 0.000000 -0.496595 0.000015
3.071457 0.733148 0.445117 0.000000 0.496288 -0.000030
2.199764 0.629721 0.631806 0.000000 -0.474373 0.000016
0.610208 0.635023 0.440446 0.000000 -0.428783 -0.000009
2.661248 0.775418 0.584444 0.000000 0.892445 0.000001
2.353592 0.634030 0.440917 -0.000000 -0.429064 -0.000018
1.738280 0.627346 0.630512 -0.000000 -0.496249 0.000030
2.763801 0.707157 0.434327 0.000000 0.262859 -0.000064
1.379348 0.578585 0.502913 0.000000 -0.950276 -0.000006
0.251276 0.722877 0.634994 0.000001 0.405928 0.000156
3.329820 0.455199 0.374712 0.000000 0.619096 -0.000905
1.734316 0.527349 0.399130 -0.098796 0.006641 -0.009339
3.020181 0.634679 0.440609 0.000001 -0.428882 -0.000037
3.197913 0.828418 0.640597 0.000000 -0.619096 0.001471
1.780131 1.134486 0.896052 -0.098796 -0.003906 0.005502
1.481900 0.635602 0.634685 0.000001 -0.405716 0.000039
0.764036 0.709072 0.640021 0.000001 0.286213 0.000029
1.071692 0.622023 0.627314 -0.000002 -0.539020 0.000054
1.830203 0.971911 0.786804 0.077813 -0.009642 0.012139
1.830203 0.387263 0.786804 0.077813 0.009642 0.012139
3.114243 0.790372 0.610604 0.000000 -0.619097 0.000588
2.064131 0.680094 0.644163 0.000000 0.023456 0.000024
0.866588 0.699455 0.432572 0.000000 0.188894 -0.000180
1.808656 0.911498 0.333554 0.077813 -0.001422 -0.001804
3.174009 0.732708 0.444865 -0.000000 0.496348 -0.000061
3.256002 0.891829 0.690586 -0.000001 -0.619095 0.000882
0.507656 0.732195 0.444571 -0.000000 0.496311 -0.000061
3.330416 0.513586 0.420741 -0.000001 0.619095 -0.000905
0.149618 0.589845 0.493416 -0.214349 -0.000178 -0.000082
0.183069 0.574136 0.532089 -0.084316 -0.000538 -0.000017
3.430389 0.580997 0.578320 0.000001 -0.923823 0.000029
2.020535 0.362516 0.287477 0.077814 0.009835 -0.012378
2.020535 0.362516 0.787397 0.077813 0.009835 0.012378
2.020535 0.996658 0.287477 0.077813 -0.009835 -0.012378
2.020535 0.996658 0.787397 0.077814 -0.009835 0.012378
1.971156 0.385381 0.309356 0.061166 -0.006134 0.007742
1.971156 0.973793 0.309356 0.061166 0.006134 0.007742
1.599829 0.502995 0.676652 -0.077753 -0.005223 -0.006096
1.804172 1.171593 0.149568 -0.098796 -0.007031 -0.009886
1.804172 0.187581 0.149568 -0.077753 -0.009749 0.011316
1.804172 0.187581 0.925305 -0.077753 -0.009749 -0.011316
1.635728 0.584291 0.585500 0.000001 -0.885800 0.000004
3.020181 0.777902 0.495890 -0.000001 0.922141 -0.000004
1.738280 0.727047 0.441835 0.000000 0.451722 -0.000034
0.558932 0.731645 0.630617 -0.000001 0.492607 0.000015
1.246196 0.786277 0.535494 0.000000 0.999677 -0.000000
0.917864 0.585258 0.487496 -0.000000 -0.880432 -0.000009
2.070747 0.679756 0.430702 0.000000 0.025221 -0.000022
2.917629 0.776578 0.582001 0.000000 0.903206 0.000004
3.020181 0.717762 0.637107 -0.000000 0.359142 0.000180
0.353828 0.638353 0.438992 0.000000 -0.382680 -0.000167
2.609972 0.583448 0.583795 -0.000000 -0.903308 0.000033
0.302552 0.695165 0.431847 0.000000 0.138865 -0.000124
3.481664 0.454196 0.345582 -0.000000 -0.619096 0.000673
3.564455 0.756031 0.560323 0.308063 0.000149 0.000047
1.106428 0.681868 0.430756 0.000004 0.003438 -0.000163
1.943384 0.583502 0.583910 0.000000 -0.903290 0.000016
2.712525 0.750255 0.617421 0.000000 0.660898 0.000010
1.584452 0.753581 0.614358 -0.000000 0.697471 0.000009
3.498944 0.856128 0.412432 -0.000000 -0.619096 -0.001030
1.328072 0.584176 0.585274 -0.000001 -0.891755 0.000009
2.609972 0.585138 0.487719 0.000000 -0.880437 -0.000009
3.517371 0.446271 0.721370 -0.294762 -0.001879 -0.002742
3.174009 0.733515 0.629547 -0.000000 0.495346 0.000008
3.122733 0.576711 0.509011 -0.000001 -0.964613 -0.000009
1.819429 0.565899 0.647049 0.077813 0.002700 0.003423
1.985521 1.115830 0.884825 0.077814 -0.003761 0.004765
1.985521 0.243344 0.884825 0.077814 0.007521 0.009497
1.707908 0.487780 0.700603 -0.098795 0.006250 0.008792
1.969849 0.679418 0.430702 0.000000 -0.025389 -0.000176
3.146093 0.557216 0.648076 0.000000 -0.619095 -0.001176
1.584452 0.576278 0.564273 0.000000 -0.964780 0.000001
2.020535 0.171678 0.937843 0.077814 0.005207 0.006591
3.430389 0.633877 0.633884 0.000000 -0.428976 0.000146
2.020535 1.187496 0.937843 0.077816 -0.005207 0.006590
2.815077 0.574404 0.519315 -0.000000 -0.986442 -0.000003
0.558932 0.779302 0.499380 -0.000001 0.931143 -0.000003
1.994660 0.774196 0.488017 0.000000 0.892141 -0.000009
3.379113 0.779136 0.498946 0.000000 0.933253 -0.000013
2.148489 0.582082 0.580843 -0.000000 -0.913851 0.000008
0.558932 0.579237 0.501082 0.000000 -0.941290 -0.000003
0.712760 0.637185 0.439485 0.000000 -0.405983 -0.000039
3.464385 0.391567 0.296209 0.000000 -0.619096 0.000897
1.738280 0.727122 0.633000 0.000000 0.451687 0.000068
2.020535 0.150474 0.120315 0.077813 0.005207 -0.006591
2.020535 1.208701 0.120315 0.077813 -0.005207 -0.006591
1.764292 0.915050 0.364773 -0.077753 0.004178 0.004881
2.763801 0.611421 0.455309 -0.000001 -0.641160 -0.000021
3.197584 0.796713 0.459271 0.000000 -0.619096 -0.000735
0.405104 0.584825 0.488319 0.000001 -0.890566 -0.000004
0.969140 0.723843 0.634565 0.000001 0.405821 0.000039
0.969140 0.776560 0.492834 -0.000000 0.897491 -0.000001
0.157907 0.773116 0.497301 -0.182090 0.000219 -0.000088
1.635728 0.775563 0.490735 -0.000000 0.903281 -0.000004
3.241809 0.893903 0.354313 0.000000 0.619097 0.000882
3.254686 0.765008 0.590608 0.000000 0.785317 0.000252
0.661484 0.642755 0.637617 0.000000 -0.335622 0.000012
3.169198 0.530756 0.434277 0.000000 0.619096 -0.000735
1.687004 0.579614 0.500050 0.000001 -0.932618 -0.000007
1.693518 0.793176 0.431516 -0.098796 -0.010180 -0.014274
1.992255 0.856403 0.679639 0.077813 -0.001519 0.001926
2.084807 0.786311 0.538028 -0.000000 0.999678 0.000000
1.911453 0.332933 0.802207 0.061166 -0.005643 -0.007128
1.671899 0.891617 0.710567 -0.098796 -0.003125 0.004403
3.493830 0.998229 0.788635 -0.294762 -0.002228 0.002467
0.353828 0.722800 0.635028 -0.000001 0.405599 0.000039
0.251276 0.582545 0.492988 0.000000 -0.913654 -0.000004
2.955672 0.678742 0.430709 -0.000000 -0.012695 -0.000088
0.251276 0.635023 0.634428 0.000000 -0.429057 0.000005
1.794291 0.487952 0.363877 0.077814 0.001519 -0.001926
1.911453 0.566180 0.456545 0.061165 -0.009200 0.011541
1.225520 0.778258 0.578125 0.000000 0.923894 0.000014
0.031565 0.700209 0.507809 -0.676174 0.000011 -0.000016
0.031565 0.711149 0.554955 -0.676172 0.000015 0.000008
1.533176 0.726442 0.441534 0.000000 0.428783 -0.000018
1.892108 0.778436 0.577695 0.000001 0.923671 0.000014
3.494888 0.815480 0.630397 0.000001 -0.619095 0.000515
2.097212 0.600845 0.609489 0.000000 -0.733484 0.000016
1.939285 0.458740 0.705199 0.061169 -0.001779 -0.002255
1.710325 0.541389 0.632495 -0.077751 -0.007260 -0.008456
1.967565 0.895852 0.713192 0.077814 -0.001422 0.001804
1.328072 0.779044 0.498710 0.000001 0.926763 -0.000003
0.101547 0.662794 0.455722 -0.401779 -0.000018 -0.000080
1.707908 0.487780 0.374271 -0.098795 0.003125 -0.004403
3.128245 0.463371 0.707889 0.172787 -0.002353 -0.005357
1.979237 0.086029 1.009467 0.077813 0.008871 0.011181
0.507656 0.785577 0.524875 0.000000 0.993487 -0.000004
2.815077 0.646750 0.638991 0.000001 -0.310249 0.000027
1.883173 0.572715 0.635341 0.077813 0.007232 0.009135
1.740354 0.343789 0.268163 -0.098795 0.002539 -0.003578
3.241809 0.451493 0.371790 -0.000001 0.619096 -0.000882
0.866588 0.581961 0.580573 0.000000 -0.913853 0.000015
2.251040 0.721680 0.635526 -0.000001 0.405935 0.000078
3.122733 0.780773 0.503476 -0.000000 0.949939 -0.000006
1.650277 0.853718 0.681047 -0.098795 -0.003321 0.004678
0.302552 0.773595 0.486901 0.000000 0.880436 -0.000019
1.978339 1.053284 0.836231 0.077813 -0.004532 0.005739
1.978339 0.305890 0.836231 0.077814 0.004532 0.005739
1.858932 0.306712 0.847451 0.077813 0.008100 0.010220
1.928960 1.012855 0.793019 0.061165 0.002822 -0.003575
1.928960 1.012855 0.281854 0.061166 0.011285 0.014078
3.406592 0.887808 0.715756 0.000002 0.619090 -0.000449
1.020416 0.662090 0.432150 0.000000 -0.163952 -0.000209
0.405104 0.777740 0.495500 0.000000 0.924034 -0.000001
0.917864 0.662590 0.432067 0.000000 -0.163969 -0.000104
2.866353 0.781916 0.507102 -0.000001 0.852058 -0.000001
1.880479 0.234218 0.877611 0.061165 -0.008342 -0.010485
1.880479 1.124956 0.877611 -0.077754 0.010862 -0.012586
1.872399 0.957693 0.303471 0.077813 -0.005304 -0.006712
3.564455 0.755333 0.512337 0.308063 0.000149 -0.000047
3.252209 0.569898 0.436795 0.000000 -0.619095 0.000882
1.928960 0.375423 0.786323 0.077813 0.009835 0.012378
0.101547 0.712485 0.460775 -0.401779 0.000036 -0.000077
3.174009 0.580755 0.497139 0.000000 -0.923761 -0.000007
2.667865 0.572912 0.534903 0.000000 -0.999686 -0.000000
1.772698 1.007606 0.269745 -0.098795 -0.002539 -0.003578
1.020416 0.775112 0.585047 -0.000001 0.892014 0.000018
1.342959 0.678404 0.644146 0.000000 -0.025398 0.000044
0.031565 0.648953 0.556531 -0.676173 -0.000017 0.000010
3.430389 0.724074 0.440412 -0.000000 0.398875 -0.000005
1.771474 0.424606 0.726049 -0.077752 -0.004109 -0.004800
1.856239 0.574016 0.437882 0.077812 0.002025 -0.002568
3.265062 0.970904 0.307780 0.172785 0.001177 0.002679
3.379113 0.573151 0.529416 -0.000001 -0.892256 -0.000000
1.861528 1.180925 0.938909 -0.098797 -0.006250 0.008792
1.928960 0.354219 0.271834 0.077814 0.009835 -0.012378
0.610208 0.778064 0.578593 -0.000000 0.923466 0.000004
1.947814 0.130751 0.964432 0.061166 -0.003680 -0.004660
1.743917 0.866737 0.670893 -0.077752 0.004666 -0.005449
2.006239 0.572852 0.537268 0.000000 -0.999677 -0.000000
2.199764 0.772012 0.484059 0.000000 0.867502 -0.000002
1.861528 1.180925 0.135965 -0.098797 -0.006250 -0.008792
1.861528 0.178249 0.938909 -0.098796 0.006250 0.008792
1.861528 0.178249 0.135965 -0.098796 0.006250 -0.008792
3.219456 0.945870 0.327515 0.172788 0.002353 0.005357
3.285376 0.403935 0.740575 0.000000 0.619096 0.000897
0.405104 0.634870 0.634355 0.000000 -0.429057 0.000005
3.430389 0.726594 0.633268 0.000000 0.451740 0.000274
2.404868 0.715583 0.637914 0.000000 0.335622 0.000012
1.879133 0.885399 0.688653 0.061164 0.003864 -0.004892
1.707908 0.881771 0.387435 -0.077752 0.004666 0.005449
1.681500 0.448211 0.349412 -0.098797 0.003076 -0.004334
1.734316 0.847701 0.419268 -0.077752 0.009470 0.010998
1.687004 0.587843 0.591983 0.000000 -0.855168 0.000021
2.609972 0.718511 0.636818 -0.000000 0.358808 0.000023
0.558932 0.638431 0.635914 -0.000002 -0.381152 0.000042
2.609972 0.780419 0.572438 -0.000000 0.942069 0.000003
1.635728 0.719650 0.636366 -0.000000 0.382657 0.000084
1.481900 0.575593 0.561482 0.000001 -0.957092 0.000001
1.533176 0.635331 0.440309 0.000000 -0.405983 -0.000039
2.661248 0.775998 0.491651 0.000000 0.903245 -0.000016
1.122968 0.639992 0.438313 0.000000 -0.382718 -0.000084
2.507421 0.760576 0.467910 0.000000 0.766970 -0.000029
2.148489 0.721989 0.439485 0.000000 0.405983 -0.000039
2.353592 0.768237 0.478000 0.000001 0.818899 -0.000003
2.509074 0.679503 0.430699 0.000000 -0.012693 -0.000011
2.285776 0.572878 0.538620 0.000000 -0.999677 0.000000
3.444161 0.414687 0.760438 0.000000 -0.619096 -0.000449
3.390753 0.400178 0.331337 0.000000 0.619097 -0.000673
2.712525 0.786157 0.531525 0.000000 0.997983 -0.000001
3.356273 0.338203 0.806564 0.172785 -0.001177 -0.002679
1.979237 1.276707 1.004949 0.061168 0.010794 -0.013484
3.523060 0.758559 0.587058 0.309017 0.000571 0.000405
3.403136 0.612365 0.604600 0.089981 -0.006051 0.004759
1.883173 0.798308 0.454563 0.061165 0.010304 0.012889
3.272837 0.853782 0.660593 0.000000 -0.619096 0.000257
3.020181 0.777521 0.579878 -0.000000 0.913752 0.000004
1.892108 0.573362 0.547857 -0.000000 -0.995923 0.000002
1.276796 0.618060 0.450223 -0.000000 -0.581647 -0.000024
3.122733 0.608823 0.457537 0.000000 -0.660898 -0.000010
3.169856 0.891829 0.690586 0.000000 -0.619096 0.000735
0.558932 0.578072 0.570394 -0.000000 -0.950075 0.000003
3.377793 1.005968 0.780567 -0.000001 -0.619097 0.000897
1.578182 0.780338 0.454665 -0.098796 -0.003662 -0.005159
1.614242 0.835999 0.410785 -0.098796 -0.003662 -0.005159
1.614242 0.523175 0.410785 -0.098797 0.001831 -0.002581
0.149618 0.728097 0.450039 -0.214345 0.000099 -0.000169
2.020535 0.911841 0.354342 0.077814 -0.005689 -0.007198
1.789556 0.778694 0.497803 -0.000001 0.827868 -0.000001
2.045936 0.717131 0.437524 -0.000000 0.359154 -0.000090
0.117196 0.755953 0.585036 -0.340678 0.000092 0.000054
0.183069 0.700841 0.434012 -0.084304 0.000121 -0.000523
2.712525 0.575732 0.562057 0.000000 -0.971171 0.000002
3.105442 0.883286 0.376853 0.172787 0.002353 0.005357
3.327837 0.778984 0.498552 0.000000 0.933233 -0.000013
1.687004 0.639758 0.438410 0.000000 -0.382610 -0.000021
3.401879 0.313170 0.826299 0.172785 -0.001177 -0.002679
3.481665 0.698418 0.642502 0.314810 0.000029 0.000175
3.065558 0.803054 0.620601 0.000000 -0.619096 0.001765
2.217132 0.572850 0.537352 -0.000000 -0.999677 -0.000000
1.688705 0.526472 0.670815 -0.098795 0.006641 0.009339
2.763801 0.590372 0.596032 0.000000 -0.841900 0.000006
1.943384 0.581304 0.495812 0.000000 -0.923765 -0.000007
0.764036 0.615398 0.452165 -0.000001 -0.601669 -0.000023
2.148489 0.651936 0.640524 0.000001 -0.261501 0.000032
2.020535 0.108065 0.987991 0.077813 0.008871 0.011181
3.327837 0.778953 0.576401 0.000000 0.933271 0.000027
2.020535 1.251109 0.987991 0.077815 -0.008871 0.011181
3.122733 0.617992 0.624602 -0.000001 -0.576624 0.000012
1.715090 0.901289 0.703387 -0.077753 0.004387 -0.005124
3.082639 0.488405 0.688154 0.172788 -0.002353 -0.005356
1.777484 0.930137 0.750750 -0.098797 -0.002735 0.003853
1.533176 0.779378 0.575297 0.000002 0.881958 0.000002
1.986419 1.314487 1.041345 0.077813 -0.007329 0.009255
2.020535 1.293518 0.053450 0.077813 -0.007328 -0.009255
2.020535 0.065656 0.053450 0.077813 0.007328 -0.009255
2.312241 0.786313 0.537944 -0.000000 0.999686 0.000000
1.725048 0.786324 0.537352 0.000000 0.999677 -0.000000
1.781075 0.953604 0.333538 -0.077753 0.003900 0.004557
1.122968 0.578897 0.502038 -0.000001 -0.933164 -0.000003
1.687004 0.777487 0.494919 -0.000000 0.913870 -0.000015
3.077439 0.531852 0.668072 0.000000 -0.619095 -0.001765
1.844568 0.346988 0.257746 0.077814 0.008871 -0.011181
3.183226 0.576239 0.441794 0.000000 -0.619096 0.001471
1.994050 0.925051 0.733578 0.077814 -0.002845 0.003606
3.523060 0.729208 0.458465 0.309018 0.000376 -0.000530
3.482059 0.318282 0.252606 -0.294763 -0.001879 0.002742
3.482059 1.040892 0.822268 -0.294763 -0.002228 0.002467
0.093893 0.602375 0.517445 -0.431682 -0.000073 -0.000017
0.093893 0.759243 0.533397 -0.431684 0.000075 -0.000006
3.379113 0.781220 0.570033 0.000000 0.950276 0.000006
1.784718 0.333014 0.255118 -0.098795 0.002344 -0.003303
1.671899 0.462368 0.703986 -0.077753 -0.004666 -0.005449
3.054335 0.530756 0.434277 0.000001 0.619096 -0.001176
1.635728 0.581773 0.494726 -0.000001 -0.913773 -0.000015
2.558697 0.636335 0.439863 -0.000000 -0.405925 -0.000078
3.237851 0.789276 0.436795 0.000000 0.619096 0.000882
1.650277 0.859216 0.400802 -0.077752 0.004736 0.005530
1.966667 0.577162 0.623537 0.077810 0.002893 0.003667
3.065558 0.789276 0.436795 0.000000 0.619096 0.001765
3.123647 0.852687 0.688068 0.000000 0.619097 -0.000588
3.487944 1.019560 0.269422 -0.294762 -0.002228 -0.002467
1.851801 0.250965 0.188740 -0.098796 0.003906 -0.005502
1.851801 1.108209 0.188740 -0.098797 -0.003906 -0.005502
3.323833 0.571973 0.608104 0.000000 0.619097 0.000257
1.943384 0.644904 0.436492 0.000000 -0.335335 -0.000024
1.812247 0.773137 0.442987 0.077813 -0.005400 -0.006834
3.327837 0.721056 0.635784 0.000000 0.382611 0.000021
3.008127 0.556120 0.454272 -0.000001 0.619094 -0.000588
1.884519 0.453835 0.704792 0.061167 -0.003558 -0.004505
1.772744 0.526990 0.638399 0.061164 -0.006870 -0.008660
0.456380 0.654146 0.641091 0.000000 -0.238385 0.000035
3.020181 0.625842 0.629652 0.000002 -0.457872 0.000008
2.609972 0.723109 0.439983 -0.000000 0.405777 -0.000039
0.071711 0.641150 0.482213 -0.518493 -0.000028 -0.000038
1.789556 0.578982 0.501799 0.000000 -0.942029 -0.000006
2.251040 0.721680 0.439348 0.000000 0.406122 -0.000019
3.202451 0.836834 0.399303 0.000001 0.619097 0.000735
