0.789808 0.737469 0.477226 0.000000 0.453149 -0.000008
1.035562 0.592608 0.646319 0.000000 -0.801860 0.000006
2.608384 0.656683 0.689516 -0.000000 -0.251017 0.000131
2.807117 0.806922 0.668486 0.000000 -0.645566 0.000845
3.247343 0.755372 0.668642 0.000001 0.616625 0.000043
2.018576 0.579809 0.623963 0.000001 -0.919548 0.000004
1.562176 0.238337 0.958462 -0.030728 0.013013 0.014810
2.944623 0.517244 0.423618 0.000000 -0.645568 0.000528
0.740658 0.591725 0.645093 0.000001 -0.815063 0.000012
0.838959 0.776625 0.646803 0.000000 0.801775 0.000006
1.921080 0.685142 0.464373 0.000000 0.024164 -0.000023
1.662468 1.204728 0.145053 -0.046691 0.007430 0.008127
1.558240 0.332494 0.275283 -0.030728 0.016341 -0.017833
1.723672 0.749711 0.484580 -0.000001 0.543306 -0.000003
1.853669 0.577646 0.488124 0.046715 0.009670 -0.011203
1.706349 0.253546 0.929520 0.070945 -0.009127 -0.010710
0.347452 0.589473 0.641822 0.000000 -0.829396 0.000006
1.969425 0.634748 0.681490 0.000000 -0.432310 0.000071
3.013375 0.894953 0.414499 0.000000 -0.645567 -0.001267
2.715446 0.615056 0.651099 0.000000 -0.763704 0.000484
1.619214 0.545058 0.446219 0.046715 0.004836 -0.005690
2.510083 0.660929 0.690507 0.000001 -0.201714 0.000021
2.559234 0.613203 0.489556 -0.000000 -0.635569 -0.000041
1.818635 1.100976 0.927237 0.070946 0.004564 -0.005388
2.952439 0.797878 0.561838 -0.000001 0.987179 -0.000003
1.853669 1.148951 0.186345 0.046714 -0.011282 -0.012975
3.050740 0.748815 0.673421 -0.000000 0.557907 0.000025
1.680644 0.269296 0.219303 -0.030729 0.006356 -0.007692
3.093869 0.523547 0.701559 0.000000 0.645568 0.000844
0.691507 0.717985 0.688106 0.000000 0.297528 0.000014
3.001590 0.797763 0.596285 -0.000001 0.985916 0.000001
2.166028 0.602980 0.658563 0.000000 -0.724154 0.000008
3.402976 0.321619 0.899144 0.000000 -0.645566 -0.000711
3.402976 1.047975 0.899144 -0.000000 0.645567 -0.000711
3.402976 0.308360 0.273940 0.000001 0.645567 -0.000711
1.694671 0.925982 0.792312 0.046716 -0.004755 0.005596
1.871124 0.765577 0.497798 -0.000000 0.706964 -0.000008
0.937260 0.731718 0.474446 0.000000 0.410393 -0.000009
1.723672 0.631663 0.477461 0.000000 -0.475293 -0.000016
3.393701 0.392442 0.345015 -0.000000 0.645567 -0.000711
3.060411 0.567563 0.493047 0.000000 0.645567 -0.000739
3.247343 0.577004 0.616810 0.000001 -0.930896 0.000002
1.920274 0.789735 0.533317 -0.000001 0.909112 -0.000004
1.623302 1.101487 0.235795 -0.046689 0.009765 0.010587
2.264329 0.631360 0.679773 0.000000 -0.475427 0.000031
2.946898 0.904464 0.393013 0.096519 0.003453 0.005926
3.389064 0.935111 0.380553 -0.000000 -0.645568 -0.000533
1.685239 0.864141 0.714614 0.070945 0.008278 -0.009728
0.396603 0.756256 0.489449 0.000000 0.616582 -0.000011
3.452780 1.043226 0.275715 -0.197152 -0.002255 -0.002761
2.952439 0.639454 0.473745 -0.000000 -0.388206 -0.000040
3.288387 0.357266 0.315281 -0.000000 0.645567 -0.000711
2.313480 0.710183 0.690173 -0.000001 0.226616 0.000036
3.028229 0.517244 0.733781 -0.000001 -0.645563 -0.000633
1.133863 0.788590 0.530755 -0.000001 0.909980 -0.000004
1.509700 0.307972 0.900039 -0.030729 0.003859 0.004732
1.853669 1.010117 0.853695 0.046716 -0.007575 0.008846
1.853669 0.180976 0.152814 0.046715 0.009993 -0.011561
1.853669 0.891116 0.753103 0.046715 -0.002378 0.002809
1.853669 0.811782 0.686041 0.046715 -0.009670 0.011203
1.853669 0.990283 0.320469 0.046715 -0.016436 -0.018345
1.853669 0.339644 0.286938 0.046716 0.015148 -0.017048
1.853669 0.418978 0.354000 0.046715 0.008865 -0.010304
1.853669 0.260310 0.219876 0.046716 0.012571 -0.014361
1.853669 1.367120 0.001925 0.046714 -0.009671 -0.011203
1.853669 0.438812 0.786633 0.046715 0.008865 0.010304
2.215179 0.787793 0.529078 0.000000 0.900552 -0.000004
3.082128 0.445297 0.767704 0.000000 0.645568 0.000211
3.377471 0.816749 0.453712 -0.000000 0.645568 0.000796
1.772822 0.580543 0.625620 -0.000001 -0.911863 0.000031
1.536642 0.200810 0.987819 -0.046690 -0.008279 -0.009029
3.356360 0.886099 0.735415 0.000001 -0.645557 0.000222
2.313480 0.787607 0.528689 0.000001 0.890519 -0.000004
2.608384 0.765241 0.659937 -0.000001 0.706206 0.000017
2.270775 0.799031 0.574556 0.000000 0.999708 -0.000000
2.166028 0.723394 0.471084 -0.000001 0.302963 -0.000007
0.332143 0.679791 0.464486 -0.000000 -0.024164 -0.000023
3.326306 0.796154 0.471122 -0.000000 0.645566 0.000449
1.428767 0.793037 0.541896 0.000000 0.947021 -0.000006
0.691507 0.791879 0.618756 0.000000 0.939329 0.000002
1.084713 0.645146 0.471469 0.000000 -0.343277 -0.000023
2.116877 0.777192 0.511357 0.000002 0.786139 -0.000006
1.821973 0.628895 0.678431 0.000000 -0.496441 0.000030
1.281315 0.732348 0.682670 -0.000000 0.410393 0.000019
2.116877 0.655053 0.468305 -0.000000 -0.250376 -0.000016
0.298301 0.615378 0.669547 0.000000 -0.616718 0.000087
0.111086 0.600366 0.617932 -0.386032 -0.000083 0.000041
1.634485 0.448581 0.399436 0.070946 -0.006686 0.007875
1.330466 0.643932 0.685477 -0.000001 -0.365702 0.000043
1.379617 0.731088 0.683237 -0.000001 0.394456 0.000005
0.396603 0.612403 0.490214 -0.000000 -0.635440 -0.000021
2.851720 0.570584 0.573693 0.000000 -0.999716 -0.000000
2.755836 0.577893 0.538156 0.000000 -0.939248 -0.000002
1.204519 0.805170 0.680452 -0.030729 -0.022687 0.022565
2.991665 0.446024 0.376862 0.096521 -0.003453 0.005926
2.902132 0.885358 0.748235 0.096519 0.003453 -0.005926
3.103580 0.971335 0.820913 0.096521 0.003453 -0.005926
2.902132 0.484237 0.409164 0.096520 -0.003453 0.005926
3.081197 0.961782 0.344561 0.096520 0.003453 0.005926
3.327411 1.066866 0.901666 0.096521 0.003453 -0.005926
3.416943 1.105078 0.933968 0.096519 0.003453 -0.005926
3.237878 0.340941 0.869365 0.096520 -0.003536 -0.006067
3.416943 0.264516 0.223431 0.096520 -0.003453 0.005926
2.790217 0.532002 0.449540 0.096521 -0.003536 0.006067
3.327411 0.302728 0.901666 0.096520 -0.003453 -0.005926
3.416943 0.264516 0.933968 0.096519 -0.003453 -0.005926
3.099891 0.726265 0.472158 -0.000000 0.365784 -0.000043
1.477918 0.731639 0.682989 0.000001 0.410197 0.000038
0.593206 0.641682 0.684593 0.000000 -0.388142 0.000040
1.736503 0.037269 1.122883 -0.046688 -0.016130 -0.016889
1.183014 0.607573 0.494396 -0.000001 -0.576932 -0.000003
2.067727 0.691269 0.464556 -0.000000 0.060363 -0.000140
2.657535 0.580827 0.531149 0.000000 -0.911909 -0.000008
0.888110 0.792116 0.618107 0.000000 0.939007 0.000006
1.625089 0.222759 0.183843 -0.030728 0.012711 -0.014517
0.691507 0.591201 0.513046 -0.000001 -0.739400 -0.000002
1.035562 0.642285 0.684830 -0.000002 -0.340440 0.000012
0.347452 0.731718 0.474446 0.000000 0.410458 -0.000038
1.713535 0.847218 0.432822 0.046715 -0.012571 -0.014361
1.232165 0.765729 0.659448 0.000000 0.707054 0.000008
3.345645 0.639136 0.473879 0.206314 -0.000104 -0.000232
1.204519 0.805170 0.476947 -0.030728 -0.022688 -0.022565
3.099891 0.644984 0.685870 -0.000000 -0.343245 0.000093
1.625370 0.623196 0.675010 -0.000000 -0.537884 0.000027
1.232165 0.638664 0.474091 -0.000000 -0.410393 -0.000019
1.477918 0.742908 0.480236 0.000000 0.517297 -0.000028
0.544055 0.788519 0.626801 0.000001 0.882550 0.000002
2.657535 0.744312 0.481085 0.000000 0.517217 -0.000028
0.691507 0.647012 0.686608 0.000000 -0.320572 0.000025
1.084713 0.570643 0.584999 0.000000 -0.998135 0.000002
1.281315 0.571537 0.594278 0.000000 -0.991180 0.000001
2.264329 0.746653 0.674847 0.000000 0.537884 0.000027
2.799052 0.767797 0.521985 0.000000 0.763707 -0.000242
2.411782 0.790372 0.622570 0.000000 0.921523 0.000014
3.198193 0.647748 0.686857 -0.000000 -0.320494 0.000201
2.362631 0.739754 0.478447 0.000000 0.475438 -0.000008
0.740658 0.641483 0.472890 0.000001 -0.385463 -0.000010
1.779559 0.958977 0.803565 0.070945 0.002919 -0.003450
1.687640 1.174201 0.998173 -0.030728 -0.011501 0.013312
2.018576 0.652477 0.469032 0.000000 -0.274302 -0.000060
3.149042 0.581260 0.627191 -0.000000 -0.901563 0.000004
3.282205 0.500081 0.748289 0.000001 -0.645567 -0.000858
1.821973 0.791702 0.538156 0.000000 0.930653 -0.000027
1.723672 0.741861 0.677766 -0.000000 0.496566 0.000030
0.740658 0.729583 0.683889 -0.000001 0.375199 0.000010
1.617902 0.236930 0.950092 -0.046690 -0.009128 -0.009923
0.593206 0.727912 0.684593 -0.000000 0.387995 0.000010
2.952439 0.638506 0.683237 0.000000 -0.410259 0.000019
1.330466 0.572663 0.556395 0.000001 -0.975534 -0.000004
0.298301 0.764411 0.496644 0.000000 0.689991 -0.000009
2.065309 0.799113 0.577923 0.000000 0.999708 -0.000000
1.665027 0.514442 0.452265 0.070945 -0.004776 0.005637
1.805161 1.250346 0.105153 0.070946 0.011461 0.013386
0.838959 0.730021 0.683704 0.000002 0.354305 0.000011
1.723672 0.624470 0.675823 0.000000 -0.537545 0.000007
1.330466 0.598059 0.653178 0.000000 -0.756401 0.000015
1.521546 0.217338 0.183551 -0.046691 -0.009128 0.009923
2.967822 0.590603 0.671769 0.000000 -0.645567 -0.001056
0.035169 0.723861 0.562795 -0.683618 0.000017 -0.000006
1.528390 1.091389 0.238935 -0.046687 0.002495 0.002759
2.215179 0.583723 0.632137 -0.000000 -0.879422 0.000009
3.053622 0.857241 0.419484 0.000000 0.645567 0.000739
2.691376 0.685661 0.464376 0.000000 0.012085 -0.000012
0.544055 0.589473 0.515577 -0.000001 -0.823835 -0.000003
3.352503 0.999631 0.831385 0.000001 -0.645567 0.000711
1.576220 0.759831 0.664957 -0.000001 0.639030 0.000005
0.838959 0.788204 0.529935 -0.000001 0.873223 -0.000002
0.888110 0.630600 0.478036 0.000000 -0.475340 -0.000031
2.116877 0.777115 0.646146 0.000000 0.801560 0.000003
2.067727 0.729106 0.684090 -0.000001 0.388110 0.000040
1.428767 0.631360 0.477626 -0.000001 -0.474357 -0.000031
1.588414 1.168740 0.172880 -0.046688 0.008279 0.009030
1.566835 0.167754 1.015761 -0.046690 -0.014857 -0.015683
1.771475 0.555336 0.464231 0.046715 0.012571 -0.014362
0.544055 0.778094 0.512623 0.000000 0.815943 -0.000006
3.077741 0.767797 0.635413 0.000000 0.763707 0.000242
1.515141 0.534152 0.688222 -0.046691 -0.010587 -0.011436
3.099891 0.573839 0.551128 -0.000000 -0.967415 -0.000002
2.755836 0.735313 0.681266 0.000001 0.430434 0.000018
2.510083 0.739488 0.478303 -0.000000 0.475464 -0.000031
0.937260 0.599449 0.502626 0.000001 -0.739681 -0.000015
3.421526 0.644813 0.488893 0.206664 -0.000099 -0.000215
1.625370 0.629233 0.478775 0.000000 -0.496492 -0.000030
0.544055 0.580827 0.626250 -0.000000 -0.911796 0.000015
3.060411 0.788772 0.477361 0.000000 0.645567 0.000739
0.642356 0.590877 0.643895 -0.000000 -0.810612 0.000003
1.821973 0.741711 0.479547 -0.000000 0.496500 -0.000030
1.035562 0.755406 0.488784 0.000000 0.616708 -0.000011
1.319570 0.474156 0.758046 -0.030726 0.007095 0.008543
1.281315 0.722746 0.470847 0.000000 0.343357 -0.000046
1.822228 1.160311 0.977729 0.070945 0.003715 -0.004389
1.527069 0.579289 0.622729 -0.000001 -0.919847 0.000004
0.298301 0.600261 0.501731 0.000000 -0.740451 -0.000031
0.445754 0.588742 0.516698 0.000001 -0.842007 -0.000011
0.445754 0.778843 0.513680 -0.000001 0.794773 -0.000003
0.494904 0.732033 0.474587 -0.000000 0.410529 -0.000038
1.453822 0.434749 0.781827 -0.046687 -0.007006 -0.007674
0.347452 0.633010 0.476775 0.000000 -0.453950 -0.000033
0.642356 0.777012 0.646284 -0.000001 0.764643 0.000003
2.990458 0.484422 0.734632 0.000000 0.645567 0.000633
0.494904 0.616693 0.486872 0.000000 -0.597325 -0.000023
1.302406 0.769572 0.501881 -0.000000 -0.763700 0.000086
2.362631 0.741411 0.678024 0.000001 0.496474 0.000059
0.986411 0.782635 0.519554 0.000000 0.855661 -0.000003
2.804987 0.643972 0.471906 0.000000 -0.365909 -0.000011
3.339114 0.552633 0.453532 0.000000 -0.645567 0.000449
1.674521 0.773941 0.650294 -0.000000 0.787192 0.000007
1.607103 1.192627 1.009899 -0.030727 -0.011501 0.013312
1.920274 0.623123 0.482435 -0.000001 -0.531318 -0.000007
1.404558 0.978360 0.333183 -0.046691 0.006687 0.007332
2.460932 0.782992 0.520145 0.000000 0.855782 -0.000003
1.821973 0.623378 0.482273 -0.000001 -0.513862 -0.000003
1.576220 0.578588 0.536388 -0.000000 -0.930647 -0.000013
1.716230 0.571879 0.474832 0.046716 0.012570 -0.014361
1.379617 0.795376 0.607733 -0.000000 0.967969 0.000009
3.149042 0.789819 0.533516 0.000000 0.921526 -0.000004
0.740658 0.634281 0.681266 0.000000 -0.432798 0.000009
1.477918 0.583324 0.631372 0.000001 -0.890264 0.000009
3.296494 0.579742 0.623803 -0.000001 -0.920958 0.000014
2.411782 0.636422 0.682293 0.000000 -0.432237 0.000009
0.593206 0.642004 0.472680 -0.000000 -0.365842 -0.000043
1.428767 0.699563 0.692068 0.000000 0.132569 0.000063
1.527069 0.708750 0.466909 -0.000000 0.203991 -0.000163
1.576220 0.748027 0.483448 0.000000 0.558121 -0.000013
1.527069 0.637286 0.682687 -0.000000 -0.410447 0.000075
1.379617 0.577300 0.617621 0.000000 -0.938478 0.000003
1.811449 1.031889 0.868168 0.070946 0.004988 -0.005887
3.372177 1.085972 0.239582 0.096519 0.003453 0.005926
2.903288 0.578367 0.620448 0.000000 -0.930661 0.000013
1.647943 1.021858 0.284070 -0.030724 -0.007568 -0.009082
1.969425 0.580827 0.531149 0.000000 -0.911909 -0.000004
2.804987 0.794488 0.610936 -0.000000 0.960015 0.000002
1.625370 0.793882 0.612918 -0.000001 0.953759 0.000005
1.576220 0.652104 0.469139 0.000000 -0.297528 -0.000027
3.198193 0.579055 0.535226 -0.000000 -0.921329 -0.000007
2.264329 0.743277 0.480459 0.000000 0.517230 -0.000028
1.769229 0.322360 0.267157 0.046715 0.015148 -0.017049
0.986411 0.737315 0.680251 0.000001 0.453836 0.000067
1.232165 0.571095 0.566763 0.000000 -0.993738 -0.000002
1.723672 0.798485 0.590764 -0.000000 0.994109 0.000002
1.674521 0.794547 0.546670 0.000000 0.961615 -0.000005
2.706686 0.788484 0.530519 0.000000 0.911909 -0.000004
1.677603 0.331560 0.296501 0.070947 -0.005413 0.006385
3.050740 0.581222 0.627114 0.000000 -0.901760 0.000004
1.418601 0.875922 0.426551 -0.046690 0.002985 0.003300
1.540135 0.584548 0.479958 -0.030728 0.006810 -0.008217
2.755836 0.578777 0.621493 0.000000 -0.930651 0.000007
2.313480 0.788856 0.626053 -0.000000 0.911907 0.000008
1.232165 0.652976 0.688508 -0.000000 -0.274318 0.000119
2.018576 0.575455 0.545305 0.000001 -0.954616 -0.000011
3.050740 0.640091 0.473476 -0.000000 -0.388276 -0.000040
0.937260 0.640409 0.684056 0.000000 -0.388582 0.000010
1.674521 0.610090 0.492159 0.000000 -0.653024 -0.000010
1.772822 0.583559 0.525566 -0.000001 -0.890941 -0.000035
1.871124 0.728389 0.684392 0.000000 0.388089 0.000040
0.347452 0.789786 0.623963 0.000000 0.920818 0.000004
2.608384 0.574392 0.548997 0.000001 -0.965657 -0.000004
3.345645 0.790691 0.535585 0.207374 0.000233 -0.000098
1.527069 0.787980 0.529468 -0.000000 0.901663 -0.000008
1.183014 0.710982 0.689986 -0.000000 0.227428 0.000073
3.298437 0.560181 0.670592 0.000000 0.645567 0.000898
3.149042 0.734379 0.681714 0.000000 0.432364 0.000035
3.421526 0.707112 0.622495 1.000000 0.000000 0.000000
3.421526 0.655906 0.618465 1.000000 -0.000000 0.000000
3.421526 0.731926 0.564739 1.000000 0.000000 -0.000000
2.804987 0.640926 0.684274 0.000000 -0.388283 0.000020
3.421526 0.638050 0.563510 1.000000 0.000000 -0.000000
3.421526 0.688654 0.529698 1.000000 0.000000 0.000000
1.805052 0.682898 0.692988 0.000000 -0.024164 0.000351
3.149042 0.730931 0.474091 -0.000000 0.410502 -0.000019
1.515763 0.869212 0.438727 -0.046690 0.010587 0.011437
1.612926 0.862503 0.450904 -0.046690 0.014008 0.014863
1.672214 0.583124 0.675756 0.046714 0.004836 0.005690
1.776415 1.092998 0.240838 0.070946 0.009127 0.010710
0.725348 0.688422 0.464453 0.000000 0.024164 -0.000023
3.221191 0.851560 0.451179 0.000000 -0.645568 -0.000858
0.249151 0.644375 0.685648 0.000001 -0.341811 0.000023
2.871837 0.566150 0.692440 0.000000 -0.645566 -0.000633
3.099739 0.562672 0.668486 -0.000000 0.645566 0.000211
3.087999 0.484422 0.422767 0.000000 0.645567 -0.000211
1.626022 0.382941 0.817757 -0.046691 -0.002919 -0.003227
1.666375 0.440129 0.768077 0.070945 -0.001672 -0.001977
1.648858 0.944433 0.346685 0.046714 -0.009510 -0.011024
2.903288 0.639653 0.683738 0.000000 -0.388119 0.000040
0.593206 0.727591 0.472680 0.000000 0.365909 -0.000043
0.740658 0.789819 0.533516 -0.000001 0.921101 -0.000007
2.067727 0.644578 0.685722 0.000000 -0.343281 0.000046
1.234712 0.838226 0.708395 -0.030728 -0.017021 0.018404
2.903288 0.722746 0.686552 -0.000000 0.343281 0.000046
1.825372 0.509083 0.728965 0.046718 0.005077 0.005971
1.432773 1.012160 0.852955 -0.046692 0.012523 -0.013398
1.478082 0.963809 0.819639 -0.030727 -0.004692 0.005732
1.735543 0.990749 0.331077 0.070946 0.005837 0.006883
3.296494 0.791591 0.619524 -0.000000 0.930431 0.000007
1.620113 0.882006 0.723651 -0.046690 0.014008 -0.014863
0.494904 0.732978 0.682386 -0.000000 0.432237 0.000018
0.249151 0.730379 0.683554 -0.000002 0.310498 0.000006
0.838959 0.640409 0.684056 0.000000 -0.388581 0.000010
2.608384 0.722132 0.470639 0.000000 0.320367 -0.000013
1.731843 0.110450 0.088742 -0.030729 0.007869 -0.009421
3.082128 0.924297 0.767704 0.000000 -0.645568 0.000211
1.853669 1.228285 1.038116 0.046715 -0.008704 0.010123
3.183664 0.549033 0.450490 0.000000 -0.645568 0.000238
3.296494 0.724692 0.685841 -0.000000 0.343255 0.000093
1.756653 0.117021 1.049611 0.070946 -0.011461 -0.013386
2.067727 0.601491 0.500398 0.000000 -0.723949 -0.000016
1.969425 0.729663 0.683855 0.000000 0.388342 0.000020
1.435624 0.456267 0.380287 -0.030729 0.015092 -0.016744
2.755836 0.640250 0.683989 -0.000000 -0.388287 0.000040
1.716230 1.006510 0.837847 0.070946 0.005837 -0.006882
1.431185 0.570490 0.577577 0.000000 -0.927190 -0.000000
1.565751 0.585057 0.678042 -0.030727 0.013619 0.015388
1.648858 0.409574 0.365125 0.070946 -0.006262 0.007379
2.166028 0.642647 0.684972 0.000000 -0.365909 0.000022
3.269973 0.944376 0.784677 0.000001 -0.645567 0.000711
3.354822 0.362202 0.292560 -0.000000 -0.645567 0.001422
2.657535 0.739982 0.678829 0.000001 0.473689 0.000016
1.450781 0.517147 0.728447 -0.030727 0.015093 0.016744
0.494904 0.640409 0.684056 0.000000 -0.388288 0.000040
1.402822 0.470040 0.753177 -0.046693 -0.002985 -0.003300
1.683891 0.885990 0.398233 0.046715 -0.002539 -0.002999
1.491010 1.038830 0.873366 -0.046691 0.005838 -0.006416
1.677744 0.684625 0.693029 0.000000 -0.024164 0.000046
1.910605 0.799129 0.578786 0.000000 0.999708 0.000000
2.706686 0.578971 0.621973 0.000000 -0.921538 0.000004
3.344388 0.926059 0.769194 -0.000002 -0.645565 0.000711
2.608384 0.791180 0.620569 -0.000001 0.930173 0.000013
3.366726 0.439009 0.773020 0.000002 0.645563 0.000711
1.648438 1.246092 1.050574 -0.046693 0.013159 -0.014030
1.577272 1.147785 0.972433 -0.030726 -0.012712 0.014517
3.423758 0.589482 0.498128 -0.197153 -0.002260 0.002583
1.684751 0.128835 0.113926 -0.046690 -0.013160 0.014031
1.614652 1.203284 0.143345 -0.046691 0.014857 0.015683
1.614652 0.166310 1.014054 -0.046690 -0.014857 -0.015683
1.629748 0.149782 0.129374 -0.046690 -0.007430 0.008127
1.232165 0.794216 0.545553 0.000000 0.950532 -0.000001
1.540767 0.685142 0.693025 0.000000 0.024164 0.000092
3.050740 0.636774 0.682457 0.000000 -0.410393 0.000019
3.099891 0.639932 0.473543 0.000000 -0.388283 -0.000081
0.740658 0.576377 0.542428 -0.000000 -0.946888 -0.000006
3.345645 0.787289 0.629371 0.213716 0.000219 0.000111
2.411782 0.790624 0.535425 -0.000001 0.913771 -0.000004
1.084713 0.605621 0.496227 0.000001 -0.687312 -0.000009
1.695120 0.347239 0.849275 0.070947 -0.005413 -0.006385
0.029261 0.661408 0.606422 -0.706909 -0.000010 0.000011
1.506097 0.268431 0.928692 -0.046690 -0.004989 -0.005494
0.691507 0.578367 0.620448 0.000000 -0.930660 0.000013
1.617902 1.126785 0.957047 -0.030725 -0.006357 0.007693
1.669312 1.143860 0.200437 -0.046690 0.008279 0.009029
1.640185 0.206231 0.987527 -0.030728 0.022990 0.022758
1.460989 0.323635 0.881693 -0.046690 -0.005838 -0.006416
0.200000 0.644254 0.471795 -0.072332 -0.000116 -0.000296
2.471407 0.688077 0.692954 -0.000000 0.024164 0.000351
3.247343 0.789086 0.625541 -0.000000 0.911908 0.000015
1.371023 0.567729 0.684362 -0.030726 0.005676 0.006898
0.593206 0.798023 0.594535 0.000000 0.991180 0.000001
3.021084 0.585713 0.675903 0.000000 -0.645566 -0.001267
3.271516 0.679619 0.692908 0.000000 -0.024164 0.000023
0.937260 0.776702 0.646699 0.000000 0.801855 0.000013
3.043082 0.823007 0.708976 0.000000 0.645568 -0.000739
1.625370 0.729822 0.683788 -0.000000 0.388142 0.000040
1.713535 0.234042 0.210722 0.070945 -0.004139 0.004889
0.774499 0.688163 0.692952 0.000000 0.024164 0.000046
2.992296 0.826485 0.472376 -0.000000 -0.645567 -0.001267
2.852952 0.556369 0.456691 0.000000 -0.645567 0.001267
3.132927 0.570576 0.583360 0.000000 -0.999708 0.000000
2.559234 0.591101 0.644212 -0.000000 -0.810612 0.000003
0.347452 0.794357 0.546006 0.000000 0.961638 -0.000010
2.813850 0.688422 0.464453 0.000000 0.024164 -0.000092
1.853669 0.359478 0.853695 0.046715 0.015148 0.017048
2.657535 0.795787 0.606145 0.000000 0.968078 0.000001
1.777763 0.944185 0.366506 0.070944 0.001566 0.001852
0.274129 0.679619 0.464490 -0.000000 -0.024164 -0.000023
2.825131 0.682208 0.692971 -0.000068 -0.002803 0.001884
3.109642 0.582235 0.505449 0.000000 0.645566 -0.000211
1.829225 0.799035 0.582670 -0.000000 0.999708 0.000000
3.370516 0.602648 0.634694 0.011399 -0.066955 0.009536
1.626022 0.396101 0.324073 -0.030728 0.004389 -0.005370
1.587932 0.489580 0.401221 -0.030728 0.019968 -0.020698
1.552159 0.899241 0.743490 -0.046691 0.007005 -0.007673
1.534312 1.134963 0.199968 -0.046689 0.009128 0.009923
3.020165 0.543110 0.472376 0.000000 0.645567 -0.001267
2.918592 0.793663 0.473227 -0.000000 0.645567 0.000845
3.114948 0.914516 0.397963 0.000001 -0.645553 -0.000211
3.005311 0.842569 0.431886 0.000000 0.645567 0.000633
1.627299 0.901510 0.416592 -0.046690 0.003344 0.003694
1.330466 0.627284 0.479890 0.000000 -0.496641 -0.000015
1.769229 1.047234 0.267157 0.046714 -0.007576 -0.008847
1.482339 0.554429 0.485418 -0.046690 -0.010587 0.011437
1.482339 0.815165 0.671981 -0.046691 0.010587 -0.011436
1.595962 0.192590 0.165894 -0.046690 -0.016554 0.017284
1.772822 0.657435 0.467687 -0.000000 -0.251032 -0.000262
0.111086 0.775193 0.600980 -0.386029 0.000088 0.000019
0.660888 0.688595 0.464457 0.000000 0.024164 -0.000023
3.284909 0.402056 0.326249 0.000000 -0.645567 0.001067
2.944623 0.503985 0.718095 0.000000 0.645567 0.000528
2.881533 0.681517 0.692954 0.000000 -0.024164 0.000023
3.181272 0.689458 0.692921 0.000000 0.024164 0.000023
2.971777 0.680654 0.692933 0.000000 -0.024164 0.000023
0.902613 0.799060 0.575765 0.000000 0.999708 -0.000000
1.735094 0.184556 1.008819 0.046715 0.011282 0.012974
2.215179 0.657435 0.689711 0.000000 -0.250932 0.000065
1.308589 0.505029 0.429877 -0.046690 -0.007960 0.008692
1.467182 0.507376 0.420396 -0.030729 0.015092 -0.016744
3.324369 0.929294 0.358577 -0.000001 0.645559 0.000356
1.084713 0.643048 0.685130 0.000001 -0.365667 0.000086
0.347452 0.574165 0.549875 0.000000 -0.967820 -0.000004
0.888110 0.573589 0.552178 -0.000000 -0.973437 -0.000004
0.593206 0.571342 0.592823 0.000000 -0.991180 0.000001
1.517248 0.299708 0.250374 -0.030727 0.007718 -0.009251
1.558240 0.332494 0.882116 -0.030727 0.004087 0.005006
0.986411 0.645551 0.471321 0.000001 -0.343239 -0.000093
3.127608 0.806922 0.668486 0.000000 -0.645566 0.000422
3.143099 0.818116 0.452557 -0.000000 0.645567 0.000422
1.747670 0.935650 0.780876 0.070947 0.001566 -0.001852
3.093869 0.523547 0.455840 0.000000 0.645566 -0.000211
3.082128 0.458557 0.374009 0.000000 -0.645567 0.000211
1.768780 0.863761 0.422221 0.046714 -0.005078 -0.005972
3.198193 0.635994 0.475311 -0.000000 -0.432324 -0.000142
2.460932 0.644984 0.471528 -0.000000 -0.343226 -0.000093
2.952439 0.771507 0.653211 0.000000 0.756344 0.000007
1.387665 0.412638 0.805956 -0.046690 -0.003503 -0.003869
1.133863 0.748027 0.673951 0.000000 0.558121 0.000025
0.150539 0.595557 0.520234 -0.232216 -0.000153 -0.000095
3.393701 0.977152 0.812383 0.000001 -0.645567 0.000711
3.393701 0.392442 0.812383 -0.000000 0.645567 0.000711
3.304349 0.410547 0.797080 0.000000 0.645567 0.000267
0.760801 0.570548 0.582238 0.000000 -0.999724 0.000000
2.952439 0.573392 0.553019 0.000000 -0.972887 -0.000002
1.668171 0.449370 0.368331 0.046715 0.002378 -0.002809
2.608384 0.573148 0.603329 -0.000000 -0.978371 0.000002
3.189216 0.615056 0.651099 0.000000 -0.763704 0.000242
1.580124 0.824639 0.711059 -0.030727 -0.003406 0.004183
3.136310 0.483010 0.762719 0.000000 -0.645566 -0.000238
2.979918 0.837679 0.721378 -0.000002 0.645560 -0.000528
1.552159 0.885773 0.397976 -0.030729 -0.009988 -0.011739
2.608384 0.789069 0.531818 0.000000 0.911893 -0.000015
1.350667 0.801547 0.667977 -0.046690 0.007960 -0.008692
1.757357 0.047890 0.045418 -0.046689 -0.009340 0.010145
3.247343 0.793715 0.543945 0.000000 0.954450 -0.000005
3.416943 1.105078 0.223431 0.096519 0.003453 0.005926
3.189394 0.533329 0.693291 -0.000001 0.645563 0.000475
1.593322 0.459467 0.750726 -0.046692 -0.003343 -0.003694
0.200000 0.772185 0.504972 -0.072334 0.000246 -0.000202
1.183014 0.581484 0.529740 0.000000 -0.901760 -0.000004
1.772822 0.605934 0.661470 0.000000 -0.690344 0.000004
0.937260 0.767538 0.499805 0.000000 0.723944 -0.000032
1.790788 0.202708 0.990065 0.046717 0.005641 0.006626
1.617902 1.126785 0.200351 -0.030727 -0.025407 -0.024210
1.588814 0.407142 0.822921 -0.030728 0.008778 0.010431
1.594728 0.540197 0.715487 -0.030728 0.003405 0.004183
1.531543 0.830651 0.714004 -0.030727 -0.030161 0.026621
1.674521 0.577626 0.538886 0.000000 -0.939227 -0.000012
1.255751 0.804154 0.475743 -0.030729 -0.011349 -0.013158
1.387665 0.956956 0.805956 -0.046691 0.007005 -0.007673
1.762043 1.007350 0.300431 0.046716 -0.008220 -0.009577
1.421451 0.369831 0.842476 -0.046690 -0.006262 -0.006875
1.799771 0.575171 0.491051 0.070947 -0.003184 0.003763
1.674521 0.577715 0.618756 0.000000 -0.939223 0.000006
2.755836 0.639614 0.473678 0.000001 -0.385463 -0.000010
1.337176 0.528275 0.704735 -0.046693 -0.003980 -0.004393
3.020165 0.543110 0.685022 0.000000 0.645566 0.000633
2.990458 0.497681 0.407082 0.000000 -0.645567 0.000633
3.022003 0.601797 0.521985 0.000000 -0.763704 -0.000242
1.419904 0.683589 0.464394 -0.000000 -0.024164 -0.000023
2.460932 0.606434 0.661946 0.000000 -0.689815 0.000036
2.967822 0.577344 0.501315 0.000000 0.645567 -0.001056
2.166028 0.726948 0.684972 -0.000001 0.363191 0.000022
2.313480 0.618333 0.485677 -0.000000 -0.577975 -0.000048
1.183014 0.576502 0.615339 0.000000 -0.947293 0.000001
1.035562 0.573130 0.554155 0.000000 -0.978371 -0.000002
1.640890 0.131767 1.043589 -0.046689 -0.013160 -0.014031
1.640890 1.237828 0.113810 -0.046689 0.013160 0.014031
1.583471 0.799035 0.574729 0.000000 0.999708 -0.000000
3.180870 0.798554 0.688306 0.000000 0.645568 -0.000475
1.617912 0.282735 0.908737 -0.046689 -0.004989 -0.005495
1.772822 0.790154 0.623087 -0.000002 0.737172 0.000001
1.293492 0.848037 0.713551 -0.046690 0.007960 -0.008692
0.249151 0.579423 0.623048 0.000001 -0.921440 0.000029
3.423758 0.780113 0.498128 -0.197153 -0.002171 -0.002658
1.713535 1.124887 0.959293 0.046716 -0.006286 0.007370
3.147450 0.864577 0.413283 -0.000000 0.645567 0.000238
1.552159 0.470353 0.743490 -0.046689 -0.003503 -0.003869
3.050740 0.793613 0.543615 -0.000000 0.953352 -0.000003
3.457244 1.083706 0.241498 -0.197153 -0.002171 -0.002658
1.853669 0.831615 0.454593 0.046715 -0.004836 -0.005690
3.383585 0.788793 0.556594 0.206412 0.001010 -0.000160
3.034626 0.683157 0.464385 -0.000000 -0.011873 -0.000047
1.371143 0.873380 0.742236 -0.030728 -0.007094 0.008542
1.819534 1.309186 0.054076 0.070944 0.009764 0.011443
1.819534 0.060408 0.054076 0.070945 -0.009764 0.011443
1.819534 0.040574 1.120089 0.070946 -0.008066 -0.009481
3.050740 0.793508 0.614112 0.000000 0.947293 0.000001
1.853669 1.327453 1.121943 0.046719 -0.009670 0.011202
3.247343 0.601193 0.656688 0.000000 -0.724146 0.000004
3.396020 0.984914 0.311561 0.000001 0.645567 0.001422
0.888110 0.671531 0.465143 -0.000001 -0.107308 -0.000039
3.298437 0.573440 0.471122 0.000000 -0.645567 0.000898
1.450159 0.828659 0.471209 -0.046689 0.002985 0.003300
1.969425 0.791386 0.620046 0.000000 0.930651 0.000003
3.296494 0.645632 0.686108 -0.000000 -0.343259 0.000186
2.952439 0.719469 0.469756 -0.000000 0.297511 -0.000054
0.969490 0.799063 0.575851 0.000000 0.999708 -0.000000
1.396639 0.801357 0.472435 -0.030729 -0.007094 -0.008542
1.751599 1.348853 0.020545 -0.046689 0.016130 0.016889
1.450159 0.540936 0.686189 -0.046686 -0.002986 -0.003300
3.383585 0.579060 0.589813 0.206409 -0.000944 0.000049
2.771951 0.570473 0.579563 0.000000 -0.999931 0.000000
0.249151 0.717449 0.469127 0.000000 0.274283 -0.000015
3.117565 0.868055 0.720162 -0.000001 -0.645557 0.000211
0.396603 0.578841 0.621653 0.000000 -0.930651 0.000001
1.575123 0.262994 0.218377 -0.030732 0.003481 -0.004274
1.680747 0.973431 0.350818 0.070947 0.003131 0.003700
3.189216 0.761168 0.514143 -0.000001 0.763704 -0.000484
3.343229 0.467305 0.381404 -0.000000 -0.645567 0.000356
1.721171 0.926950 0.386345 0.070945 0.003131 0.003701
3.022003 0.761168 0.514143 -0.000001 0.763704 -0.000484
0.838959 0.578446 0.620649 0.000000 -0.930651 0.000003
1.769229 0.322360 0.890242 0.046715 0.007576 0.008847
1.853669 1.029950 0.286938 0.046715 -0.015148 -0.017048
1.811449 0.317872 0.884933 0.070945 -0.004988 -0.005887
1.730603 0.304243 0.268474 0.070946 -0.004988 0.005887
2.510083 0.577478 0.618107 -0.000001 -0.938705 0.000006
1.289373 0.681000 0.464457 0.000000 -0.024164 -0.000351
1.379617 0.644254 0.685604 0.000000 -0.365909 0.000011
1.734196 1.066010 0.908259 0.046717 -0.007575 0.008846
2.018576 0.773474 0.650860 -0.000000 0.771987 0.000028
1.301041 0.856301 0.436863 -0.046689 0.015918 0.016690
1.776415 0.276597 0.916561 0.070946 -0.009127 -0.010710
2.884756 0.681000 0.464457 0.000000 -0.024164 -0.000023
1.577301 0.365686 0.301388 -0.030729 0.004086 -0.005006
0.088650 0.616248 0.533789 -0.473727 -0.000052 -0.000032
1.639875 0.844994 0.727207 0.046720 -0.004835 0.005690
1.084713 0.580898 0.626408 0.000001 -0.911788 0.000015
1.379617 0.582618 0.527412 0.000001 -0.890908 -0.000017
1.662468 1.204728 1.012346 -0.046691 0.014856 -0.015683
1.687640 1.174201 0.159225 -0.030727 -0.011501 -0.013312
1.662468 0.164867 1.012346 -0.046689 -0.007430 -0.008128
2.264329 0.649466 0.469961 0.000000 -0.320392 -0.000050
3.311305 0.360744 0.866072 -0.000002 -0.645563 -0.000711
3.311305 1.008850 0.291327 -0.000002 0.645560 0.000711
1.440854 0.799060 0.581634 0.000000 0.999708 0.000000
3.223045 0.951150 0.340102 -0.000001 0.645565 0.000711
1.428767 0.613136 0.667788 -0.000000 -0.635006 0.000005
2.116877 0.746689 0.482575 0.000000 0.537337 -0.000013
1.415880 0.378838 0.322704 -0.046690 -0.003344 0.003694
1.618316 0.584752 0.479718 0.046715 0.004836 -0.005690
1.531543 0.830651 0.443395 -0.030727 -0.015093 -0.016744
1.570487 0.936760 0.381189 -0.046688 0.003291 0.003636
2.804987 0.796055 0.552388 -0.000000 0.973769 -0.000004
2.755836 0.722255 0.470681 0.000001 0.309234 -0.000006
0.888110 0.602563 0.658126 -0.000000 -0.723932 0.000016
3.099891 0.794293 0.545800 0.000000 0.954455 -0.000001
1.547944 0.513875 0.704463 -0.046689 -0.010587 -0.011437
3.167751 0.920819 0.365741 -0.000000 0.645567 0.000475
1.430967 1.053089 0.267378 -0.030730 -0.016642 -0.018088
1.607876 0.929260 0.796816 -0.030727 -0.009383 0.011091
2.968554 0.681000 0.464457 -0.000000 -0.024164 -0.000046
2.903288 0.581040 0.530676 0.000000 -0.911909 -0.000008
1.778212 1.311084 1.101079 -0.046691 0.009340 -0.010144
2.854790 0.615056 0.651099 0.000000 -0.763704 0.000242
3.305357 0.799002 0.573348 0.000000 0.999708 -0.000000
3.099891 0.794165 0.612011 0.000000 0.954647 0.000011
1.464963 0.416733 0.360008 -0.046689 -0.006687 0.007332
1.853669 0.577646 0.669275 0.046715 0.009670 0.011203
1.281315 0.797553 0.597607 0.000000 0.987700 0.000003
1.133863 0.589762 0.515147 0.000000 -0.829920 -0.000003
1.713535 0.511711 0.711960 0.070946 -0.008278 -0.009727
1.812347 0.079911 1.086167 0.070947 -0.009764 -0.011443
1.812347 1.269849 1.069402 0.070946 0.011461 -0.013386
0.740658 0.726144 0.472111 -0.000000 0.365877 -0.000086
1.751599 1.346256 1.139928 -0.030726 -0.021783 0.021969
1.609672 0.948390 0.373157 -0.046693 0.003131 0.003460
3.247343 0.611536 0.490928 0.000000 -0.635547 -0.000021
0.029261 0.673589 0.544204 -0.706912 -0.000005 -0.000014
1.379617 0.781920 0.518372 0.000000 0.843235 -0.000003
1.281315 0.595654 0.507105 0.000000 -0.787210 -0.000013
2.952439 0.784550 0.522835 -0.000000 0.868039 -0.000010
2.313480 0.763067 0.495363 -0.000001 0.687070 -0.000009
2.362631 0.648648 0.470238 0.000000 -0.320413 -0.000025
0.740658 0.794618 0.610479 0.000000 0.961558 0.000010
0.249151 0.791165 0.620609 -0.000001 0.930546 0.000027
1.580523 1.073679 0.244803 -0.030728 -0.003784 -0.004641
2.678302 0.579768 0.489917 0.096519 -0.001727 0.002964
1.342552 0.799060 0.575765 0.000000 0.999708 -0.000000
1.155619 0.684279 0.464378 -0.000000 -0.024164 -0.000046
0.838959 0.606121 0.495750 0.000000 -0.689815 -0.000036
3.251046 0.448320 0.765149 -0.000001 0.645566 0.000858
3.251046 0.461579 0.376564 -0.000001 -0.645566 0.000858
2.597909 0.682726 0.464415 -0.000000 -0.024164 -0.000046
3.354621 0.512520 0.737774 0.000002 -0.645536 -0.000222
3.305442 0.463402 0.779294 0.000000 -0.645566 -0.000711
1.564182 0.996037 0.830123 -0.046692 0.003078 -0.003402
1.580124 0.824639 0.446339 -0.030729 -0.006810 -0.008217
1.591367 0.803992 0.655027 -0.046689 0.009552 -0.010366
2.203898 0.687904 0.464440 0.000000 0.024164 -0.000351
0.997692 0.570538 0.581807 0.000000 -0.999708 0.000000
2.990458 0.885172 0.734632 0.000000 -0.645567 0.000633
1.687640 0.188215 0.167717 -0.046691 -0.007430 0.008127
1.758786 0.001237 0.003389 -0.000000 -0.763706 -0.000220
1.758786 0.001237 1.154010 0.000001 -0.763703 0.000220
3.383585 0.788793 0.600804 0.206408 0.000988 0.000265
1.417336 0.799541 0.661969 -0.046693 0.002488 -0.002752
1.609672 0.435322 0.800943 -0.030729 0.009383 0.011090
1.523572 0.458012 0.378222 -0.030731 0.004994 -0.006092
2.886691 0.774100 0.489764 0.000000 0.645567 0.000422
3.421526 0.687370 0.480428 0.196247 0.000010 -0.000249
1.815042 1.081307 0.247122 0.070945 0.009127 0.010710
1.484205 0.907315 0.383232 -0.030729 -0.019967 -0.020697
0.813175 0.570544 0.582065 0.000000 -0.999708 0.000000
2.898787 0.832788 0.440154 0.000000 0.645566 0.000422
2.839936 0.783882 0.481495 0.000000 0.645567 0.001267
2.839936 0.783882 0.675903 0.000000 0.645567 -0.001267
1.515763 0.869212 0.718671 -0.046689 0.021166 -0.021358
1.629797 0.990785 0.336149 -0.046693 0.002919 0.003227
1.514519 0.785555 0.676839 -0.030727 -0.006811 0.008217
0.081425 0.675425 0.501511 -0.502011 -0.000008 -0.000054
1.554456 1.080927 0.917431 -0.030729 -0.007567 0.009080
2.688154 0.570538 0.575592 -0.000000 -0.999708 -0.000000
0.817204 0.799077 0.580943 0.000000 0.999708 0.000000
1.417336 0.570053 0.661969 -0.046693 -0.002488 -0.002752
2.993215 0.797141 0.660218 0.000000 -0.645567 0.000633
2.886691 0.787360 0.651950 0.000000 -0.645566 0.000422
2.938396 0.601797 0.635413 0.000000 -0.763704 0.000484
2.830034 0.566150 0.692440 -0.000001 -0.645567 -0.000844
1.052483 0.799077 0.580943 -0.000000 0.999708 0.000000
2.608384 0.619778 0.672745 0.000001 -0.562796 0.000006
2.501220 0.799073 0.576283 0.000000 0.999708 -0.000000
0.347452 0.726385 0.685193 0.000001 0.364932 0.000043
1.515763 0.513389 0.423341 -0.030727 0.015093 -0.016744
1.499984 0.476750 0.741000 -0.046690 -0.010587 -0.011437
2.362631 0.795159 0.548830 0.000000 0.967910 -0.000001
0.134498 0.711599 0.677137 -0.294698 0.000038 0.000128
3.189216 0.761168 0.643256 -0.000001 0.763704 0.000484
1.895296 0.685142 0.693025 0.000000 0.012803 0.000022
1.731843 1.264682 1.062106 -0.046690 0.005732 -0.006301
1.548566 0.480105 0.422486 -0.046690 -0.007005 0.007674
2.411782 0.573599 0.552136 -0.000001 -0.972296 -0.000004
1.727908 1.174559 0.980988 -0.046689 0.007430 -0.008128
3.164141 0.579789 0.503382 0.000000 0.645566 -0.000238
1.713984 0.477738 0.762283 0.046714 0.005078 0.005972
1.249809 0.514840 0.722366 -0.046690 -0.011940 -0.012813
0.691507 0.794452 0.546338 0.000000 0.961615 -0.000010
2.444817 0.684279 0.464378 0.000000 -0.024164 -0.000046
2.116877 0.579624 0.533874 -0.000000 -0.921526 -0.000004
0.333754 0.799010 0.583705 -0.000000 0.999708 0.000000
3.023345 0.680654 0.692933 0.000000 -0.024164 0.000023
2.730983 0.582854 0.485802 0.096520 -0.003536 0.006067
2.730983 0.793370 0.493645 0.096520 -0.005398 -0.004490
1.482961 0.520659 0.454968 -0.046690 -0.021166 0.021358
1.467182 0.862218 0.737002 -0.030727 -0.015093 0.016744
2.854138 0.579407 0.534391 0.000000 -0.921463 -0.000014
1.513674 0.972011 0.345786 -0.046691 0.012523 0.013398
1.713535 1.135552 0.210722 -0.046690 0.008279 0.009029
1.183014 0.752832 0.486820 0.000000 0.597376 -0.000023
1.663231 0.370567 0.826586 0.070946 -0.011673 -0.013627
1.657414 0.068586 0.057810 -0.046691 -0.004883 0.005379
1.682224 0.080695 1.087094 -0.046690 -0.005732 -0.006301
0.691507 0.574240 0.549582 0.000000 -0.967910 -0.000001
1.667127 1.272371 0.084275 -0.046690 0.011462 0.012331
1.702374 1.209147 0.143576 -0.046690 0.014432 0.015275
1.682224 1.288899 1.087094 -0.046687 0.005732 -0.006302
3.279113 0.928246 0.386356 -0.000001 -0.645560 -0.000178
1.304694 0.786354 0.669188 -0.030727 -0.017022 0.018404
1.716230 0.808176 0.670192 0.070945 0.009552 -0.011199
3.261992 0.398578 0.807196 -0.000001 0.645566 0.000533
1.646163 0.825350 0.447181 0.046715 -0.004836 -0.005690
1.658739 0.800898 0.498712 0.070946 0.003184 0.003763
1.449676 0.987758 0.327539 -0.046690 0.003131 0.003461
1.716230 0.797716 0.474832 0.046716 -0.012570 -0.014361
1.716230 0.571879 0.682567 0.046716 0.012571 0.014361
2.264329 0.599797 0.655156 0.000000 -0.737729 0.000004
0.249151 0.648239 0.470376 -0.000001 -0.320478 -0.000201
1.804263 0.426626 0.365066 0.070946 -0.003131 0.003700
1.920274 0.765210 0.659967 0.000000 0.707032 0.000034
1.587932 0.895499 0.419539 -0.046690 0.014008 0.014863
1.477882 1.067363 0.899953 -0.046690 0.002707 -0.002993
3.124673 0.556369 0.700708 -0.000000 -0.645568 -0.000211
3.190031 0.876804 0.402948 0.000001 0.645561 0.000238
3.261992 0.957757 0.822882 0.000001 0.645565 -0.000533
2.689373 0.756195 0.508261 -0.000001 0.763700 -0.000226
2.037108 0.570500 0.580253 0.000000 -0.999708 0.000000
1.207186 0.685315 0.464378 0.000000 0.024156 -0.000046
1.617912 0.282735 0.248662 -0.046691 -0.004989 0.005494
1.652451 0.548574 0.675111 0.070944 -0.003184 -0.003763
1.570487 0.936760 0.776210 -0.046689 0.006581 -0.007218
2.854138 0.792146 0.539372 0.000000 0.939232 -0.000012
3.022003 0.608427 0.643256 0.000000 -0.763704 0.000484
1.367489 0.942686 0.363056 -0.046690 0.002985 0.003300
3.321669 0.760742 0.514502 0.011398 0.033579 -0.009132
1.340388 0.415673 0.806193 -0.046689 -0.011940 -0.012814
1.430606 0.838545 0.716399 -0.030727 -0.008513 0.010139
2.018576 0.654761 0.689018 0.000000 -0.274402 0.000059
1.920274 0.579340 0.622849 0.000001 -0.920781 0.000007
1.195906 0.799065 0.575937 0.000000 0.999708 -0.000000
0.860714 0.681690 0.692958 0.000000 -0.024156 0.000046
1.423438 0.948908 0.351979 -0.030727 -0.004995 -0.006093
0.396603 0.721437 0.470404 0.000000 0.320470 -0.000050
0.937260 0.574110 0.607315 0.000001 -0.965687 0.000002
1.133863 0.666913 0.691618 0.000000 -0.156388 0.000054
1.115331 0.799081 0.580771 0.000000 0.999708 0.000000
1.764765 0.681000 0.692942 0.000000 -0.024164 0.000351
0.986411 0.794357 0.611393 -0.000000 0.961706 0.000001
3.149042 0.790691 0.621814 -0.000001 0.928484 0.000003
1.574080 0.423082 0.372611 -0.046691 -0.006581 0.007218
1.755755 1.145995 0.182848 0.046714 -0.012571 -0.014362
1.744975 0.263592 0.941405 0.046714 0.013860 0.015720
1.496772 0.379232 0.315534 -0.030731 0.004464 -0.005460
2.525392 0.687387 0.464428 0.000000 0.024164 -0.000012
0.327308 0.570584 0.583705 0.000000 -0.999716 0.000000
1.461160 1.086145 0.239436 -0.030728 -0.015433 -0.017046
1.629063 0.310524 0.274453 -0.046691 -0.005307 0.005841
1.678951 0.401039 0.802291 0.070947 -0.001566 -0.001852
1.484205 0.462279 0.383232 -0.030726 0.004995 -0.006093
1.807856 0.998817 0.310450 0.046714 -0.008220 -0.009578
1.591367 0.565602 0.502371 0.070945 -0.006368 0.007503
3.327267 0.968829 0.352051 0.000000 -0.645567 -0.000533
1.523572 0.911582 0.779177 -0.030729 -0.004994 0.006092
1.538487 0.435591 0.797909 -0.030727 0.004692 0.005732
0.118792 0.673186 0.483075 -0.355950 -0.000015 -0.000101
1.815042 1.058534 0.896989 0.046714 -0.006931 0.008111
0.158665 0.646278 0.680267 -0.200588 -0.000072 0.000205
1.811449 0.331002 0.277047 0.046715 0.015148 -0.017049
3.050740 0.578556 0.536468 -0.000000 -0.930647 -0.000013
2.957000 0.528438 0.459974 0.000000 0.645566 -0.000528
3.150244 0.483010 0.394679 0.000000 -0.645567 0.000238
3.304349 0.410547 0.360319 0.000000 0.645567 -0.001067
0.494904 0.797437 0.559111 0.000001 0.974031 -0.000001
1.727009 0.323635 0.891750 0.046715 0.007576 0.008847
1.261977 0.683244 0.692996 0.000000 -0.024164 0.000012
2.843967 0.841591 0.704516 0.096520 -0.005398 0.004490
1.807856 0.380694 0.318833 0.046715 0.008220 -0.009578
1.553222 0.397193 0.809475 -0.046685 -0.003132 -0.003461
1.491392 0.442229 0.790676 -0.030730 0.004994 0.006092
1.456101 0.596664 0.505854 0.000001 0.763699 0.000215
1.133863 0.598793 0.654027 -0.000000 -0.756221 0.000007
1.629748 1.219812 1.028025 -0.046688 0.007430 -0.008128
1.942835 0.685488 0.693017 0.000000 0.024164 0.000351
1.783602 1.132335 0.950482 0.070946 0.004139 -0.004889
1.755755 0.223599 0.182848 0.046715 0.006286 -0.007370
1.797076 0.893714 0.750029 0.070945 0.001672 -0.001977
3.296494 0.715415 0.468547 -0.000000 0.274300 -0.000119
0.158665 0.723317 0.477132 -0.200588 0.000072 -0.000205
1.345868 0.516747 0.432777 -0.030728 0.007094 -0.008543
1.618316 0.584752 0.677681 0.046715 0.004836 0.005690
0.298301 0.770716 0.654125 0.000000 0.756334 0.000015
1.818635 0.241534 0.955539 0.046715 0.006286 0.007370
0.200000 0.573785 0.606061 -0.072339 -0.000310 0.000072
3.172524 0.842569 0.725513 0.000000 0.645567 -0.000238
3.383585 0.717652 0.477583 0.206410 0.000367 -0.000955
1.607142 0.357796 0.841648 -0.046692 -0.002866 -0.003168
1.035562 0.764161 0.660993 -0.000000 0.689983 0.000004
1.797076 0.475880 0.750029 0.070944 -0.003343 -0.003951
0.081425 0.715850 0.649985 -0.502008 0.000024 0.000052
1.645265 0.801517 0.657955 0.070946 0.006368 -0.007503
1.084713 0.716743 0.688473 0.000001 0.224469 0.000009
0.298301 0.650043 0.687617 -0.000000 -0.297446 0.000054
3.384427 0.489784 0.756993 0.000001 -0.645564 -0.000356
1.527069 0.574621 0.548165 0.000000 -0.961615 -0.000002
0.191668 0.798527 0.578699 -0.080396 0.000285 0.000007
0.175084 0.612760 0.664084 -0.136740 -0.000217 0.000245
0.175084 0.760876 0.660503 -0.136741 0.000228 0.000234
3.156292 0.440407 0.385560 0.000001 0.645566 -0.000950
3.383585 0.662692 0.682696 0.206411 -0.000154 0.000972
1.770127 0.845368 0.706651 0.070945 0.008278 -0.009728
0.789808 0.590902 0.513468 0.000001 -0.815072 -0.000012
3.053622 0.870500 0.722229 0.000000 -0.645567 0.000739
1.770127 0.530585 0.714173 0.046716 0.012570 0.014361
1.747670 0.461845 0.773654 0.046714 0.009510 0.011024
3.167114 0.489313 0.730497 0.000002 0.645542 0.000238
1.776415 0.276597 0.240838 0.070945 -0.004564 0.005388
2.285279 0.684452 0.464373 0.000000 -0.024164 -0.000023
1.612028 0.804486 0.694671 0.046715 -0.004836 0.005690
2.362631 0.654761 0.689018 0.000000 -0.274402 0.000059
2.362631 0.586691 0.519998 -0.000000 -0.855719 -0.000010
1.344042 0.886539 0.405587 -0.030728 -0.007094 -0.008543
1.712188 0.486858 0.424555 0.070945 -0.006686 0.007875
0.494904 0.571663 0.562179 0.000000 -0.991174 -0.000001
0.673781 0.681000 0.692942 0.000000 -0.024164 0.000006
1.624226 0.981778 0.813468 -0.046691 0.003078 -0.003402
2.739721 0.687904 0.692958 -0.000000 0.024164 0.000023
1.853669 0.299977 0.253407 0.046715 0.013859 -0.015720
0.103488 0.649003 0.660869 -0.415710 -0.000031 0.000076
0.270906 0.570588 0.583878 0.000000 -0.999708 0.000000
0.412718 0.799023 0.583188 0.000000 0.999708 0.000000
2.460932 0.583481 0.525719 -0.000001 -0.883387 -0.000002
3.149042 0.651115 0.687951 0.000000 -0.297528 0.000054
1.348619 0.447568 0.380520 -0.046691 -0.002985 0.003300
1.477918 0.577330 0.539697 0.000001 -0.936344 -0.000003
2.657535 0.652187 0.469115 0.000000 -0.274083 -0.000015
3.345645 0.740362 0.678624 0.208431 0.000120 0.000221
0.041265 0.636964 0.576386 -0.665693 -0.000011 -0.000000
1.301382 0.533373 0.455013 -0.046689 -0.005971 0.006560
0.838959 0.794049 0.612382 0.000000 0.954713 0.000001
1.476285 0.404337 0.807869 -0.046690 -0.003344 -0.003694
0.678615 0.799044 0.582324 0.000000 0.999708 0.000000
0.986411 0.599217 0.654517 -0.000000 -0.756418 0.000029
1.772822 0.695832 0.464899 0.000000 0.108385 -0.000039
0.691507 0.618298 0.485702 -0.000000 -0.562796 -0.000003
0.396603 0.645876 0.471202 0.000000 -0.343136 -0.000046
1.825372 0.872581 0.734800 0.070945 0.001672 -0.001977
2.968459 0.832788 0.440154 -0.000001 0.645567 0.001056
3.241529 0.507630 0.442385 -0.000000 0.645567 -0.001715
3.167751 0.448775 0.791658 0.000003 -0.645553 -0.000475
3.252350 0.556536 0.673673 0.000000 0.645567 0.000858
3.246940 0.545342 0.447370 -0.000001 -0.645566 0.000858
3.282205 0.486822 0.424796 0.000000 0.645567 -0.000858
3.293027 0.535728 0.466137 -0.000001 0.645567 -0.000858
3.247343 0.721519 0.686967 0.000000 0.320437 0.000100
1.434380 0.526918 0.437507 -0.030727 0.015093 -0.016744
1.653333 0.332699 0.885711 -0.030731 0.007566 0.009080
3.036237 0.799131 0.578699 0.000000 0.999927 0.000000
1.475914 0.351053 0.293556 -0.030728 0.008778 -0.010431
0.023547 0.709210 0.596436 -0.729452 0.000009 0.000006
1.529124 0.790313 0.476132 -0.030729 -0.003405 -0.004183
1.798424 0.530484 0.453402 0.070947 -0.008278 0.009727
3.247343 0.743277 0.480459 -0.000000 0.517230 -0.000028
1.762043 0.375104 0.831953 0.070947 -0.005837 -0.006882
1.871124 0.586073 0.521036 0.000000 -0.868031 -0.000005
0.096007 0.598988 0.582850 -0.452187 -0.000034 0.000001
1.476256 0.266921 0.225465 -0.046691 -0.002494 0.002759
1.620113 0.864231 0.412720 0.046715 -0.009671 -0.011203
1.543877 0.420553 0.347108 -0.030729 0.004692 -0.005731
1.133863 0.653142 0.468843 0.000000 -0.272818 -0.000015
3.225297 0.922065 0.792711 -0.000000 0.645567 -0.001715
1.825822 1.189897 0.154327 0.070943 0.003290 0.003888
1.825822 0.159864 0.137561 0.070946 -0.003290 0.003888
1.625502 0.547336 0.483752 0.070948 -0.003184 0.003763
1.871124 0.649221 0.687355 -0.000001 -0.319038 0.000025
1.675358 0.958803 0.793713 0.070945 0.006262 -0.007379
1.762043 0.382077 0.317196 0.046716 0.004110 -0.004844
3.198193 0.578240 0.620127 -0.000000 -0.930662 0.000027
2.918592 0.806922 0.668486 0.000000 -0.645568 0.000845
2.969378 0.552891 0.676754 0.000000 0.645567 0.000528
3.296975 1.028305 0.875794 0.096520 0.003536 -0.006067
3.409674 0.880561 0.750904 -0.197152 0.002260 -0.002583
1.451403 0.473395 0.410310 -0.046690 -0.021165 0.021358
1.451403 0.896199 0.747089 -0.046689 0.021166 -0.021358
0.445754 0.605777 0.661321 0.000000 -0.689113 0.000009
3.018511 0.570567 0.583015 0.000000 -0.999708 0.000000
3.360484 0.409863 0.332848 -0.000000 -0.645566 0.000533
1.783602 1.132335 0.206916 0.070946 0.008278 0.009727
2.934569 0.880260 0.420196 0.096520 -0.005398 -0.004490
1.232165 0.787700 0.628515 -0.000001 0.899761 0.000004
1.377547 0.490893 0.421457 -0.046690 -0.004975 0.005480
3.206263 0.552891 0.480644 -0.000002 0.645561 -0.000475
0.191668 0.698506 0.465799 -0.076291 0.000087 -0.000594
0.789808 0.652602 0.468997 0.000000 -0.274004 -0.000030
1.730153 0.398432 0.348135 0.070945 -0.002919 0.003450
1.084713 0.778443 0.644283 0.000000 0.814722 0.000006
0.593206 0.609502 0.664732 0.000000 -0.653800 0.000005
0.937260 0.695144 0.464841 0.000000 0.084188 -0.000025
1.449676 0.983725 0.834631 -0.030729 -0.009383 0.011090
1.798424 0.839110 0.453402 0.070945 0.008278 0.009727
3.421008 0.983320 0.837767 -0.197152 0.002347 -0.002683
3.421008 0.386274 0.319631 -0.197153 -0.002347 0.002683
3.398339 0.591794 0.664040 -0.197154 -0.002347 -0.002683
3.398339 0.784430 0.656197 -0.197153 -0.002255 0.002761
2.116877 0.575024 0.610645 0.000001 -0.959354 0.000002
3.379790 0.531825 0.435943 0.000000 -0.645567 0.000449
3.356360 0.886099 0.421984 0.000002 -0.645515 -0.000222
3.225297 0.447530 0.792711 -0.000002 -0.645565 -0.000858
3.328292 0.503726 0.412191 -0.000001 -0.645566 0.000858
3.236118 0.873158 0.751370 -0.000000 0.645567 -0.001715
3.210369 0.482387 0.763246 -0.000001 -0.645566 -0.000858
