2.797200 0.702296 0.647636 -0.000000 -0.997588 -0.000000
2.025771 1.095178 0.411631 0.109497 0.002568 0.003131
3.187412 0.830922 0.725954 0.000000 0.456375 0.000057
1.729736 0.724495 0.706352 -0.032441 0.006054 0.007468
1.522297 0.831880 0.725454 0.000000 0.480168 0.000013
3.157652 0.895318 0.544865 -0.000000 0.634124 0.000729
1.761798 0.470335 0.910240 -0.059672 -0.007598 -0.008723
1.761798 1.110395 0.910240 -0.032441 -0.003633 0.004530
1.751770 0.488330 0.400088 -0.059672 -0.008059 0.009242
1.751770 1.092400 0.400088 -0.032440 -0.014124 -0.016251
3.332565 0.720214 0.713740 -0.112714 -0.003895 -0.004958
2.207932 0.735452 0.578934 0.000000 -0.615489 -0.000002
1.130505 0.730839 0.582886 -0.000002 -0.612726 -0.000004
1.130505 0.849671 0.582684 0.000001 0.676560 -0.000016
2.670815 0.878364 0.645103 -0.000001 0.412718 -0.000000
3.089464 0.737876 0.577074 -0.000001 -0.591121 -0.000010
3.334334 0.831618 0.725597 0.235786 0.000075 0.000146
2.109985 0.875833 0.626530 0.000000 0.973634 -0.000003
3.071494 0.661780 0.529697 0.062935 -0.003536 0.005265
2.942542 0.758045 0.729708 0.000000 -0.357425 0.000038
0.102411 0.794224 0.576612 -0.348037 0.000001 -0.000043
3.059710 0.925360 0.549712 0.062934 -0.008957 -0.008909
1.911582 0.471901 0.380362 -0.032440 0.006660 -0.008186
2.036551 1.315067 1.084760 0.059691 -0.012382 0.014785
2.036551 0.265663 1.084760 0.059691 0.012382 0.014785
2.017931 1.034438 0.856058 0.059691 -0.004980 0.006052
2.017931 0.546292 0.856058 0.059690 0.009960 0.011980
0.248974 0.703448 0.661996 0.000000 -0.989135 0.000000
1.944761 0.569659 0.456894 -0.032441 0.008072 -0.009829
1.944761 1.011071 0.456894 -0.032441 -0.004036 -0.005026
0.054337 0.743405 0.647785 -0.535211 -0.000017 0.000000
2.648698 0.854405 0.708242 0.000001 0.730261 0.000007
1.929513 0.639623 0.782284 -0.032437 0.004239 0.005274
1.929513 0.941107 0.782284 -0.032442 -0.008476 0.010290
3.035750 0.878335 0.644060 0.000000 0.999630 -0.000000
0.134127 0.871308 0.652174 -0.224762 0.000079 0.000002
1.899665 1.215249 0.296043 -0.032438 -0.011705 -0.013816
1.972863 0.450411 0.934879 -0.032441 0.003431 0.004281
1.972863 1.130319 0.934879 -0.032440 -0.006862 0.008424
2.599724 0.858273 0.591717 -0.000001 0.770665 -0.000024
0.297948 0.735187 0.716429 0.000000 -0.637008 0.000071
0.733974 0.878352 0.650914 0.000000 0.876546 0.000000
1.834956 0.910696 0.754123 -0.032440 -0.011166 0.013249
2.354854 0.724809 0.588972 0.000000 -0.753468 -0.000006
2.005718 0.702306 0.647338 -0.000000 -0.999641 -0.000000
1.993079 0.790886 0.559728 0.000000 0.027190 -0.000035
1.369056 0.878424 0.647338 0.000000 0.999630 -0.000000
1.852047 1.272350 0.252511 -0.032439 -0.021785 -0.022700
1.852047 0.308380 0.252511 -0.059672 -0.012432 0.014086
2.795620 0.867980 0.606172 0.000000 0.875099 -0.000002
1.375375 0.747543 0.570832 0.000000 -0.480239 -0.000053
3.265316 0.551002 0.831450 -0.112712 0.006154 0.007176
3.213479 0.785969 0.559833 0.000000 -0.027190 -0.000009
1.834956 0.659366 0.741114 -0.059672 -0.006370 -0.007331
1.897158 0.365385 0.305335 -0.059671 -0.006677 0.007680
3.203196 0.629425 0.762923 0.000000 0.634124 0.000850
1.735739 0.612241 0.505895 -0.059672 -0.006370 0.007331
1.735739 0.965320 0.502032 -0.032439 -0.011167 -0.013249
1.909813 0.581579 0.827725 -0.032439 0.008073 0.009830
1.909813 0.999151 0.827725 -0.032440 -0.008073 0.009830
0.493844 0.850274 0.583239 0.000000 0.677732 -0.000016
2.697672 0.781473 0.735400 0.000001 -0.093502 0.000078
2.242688 0.791706 0.559750 0.000000 0.027190 -0.000009
3.236386 0.723240 0.590769 0.000000 -0.770857 -0.000048
0.741873 0.702362 0.650318 0.000000 -0.999630 0.000000
2.055016 1.579498 0.003134 -0.059671 0.009210 0.010534
2.055016 0.001232 0.003134 0.000001 -0.773221 -0.000160
3.107994 1.021960 0.457855 0.062932 0.003536 0.005265
1.711660 1.020420 0.836452 -0.032439 -0.015738 0.017770
1.711660 0.560310 0.836452 -0.059672 -0.008980 -0.010276
0.050867 0.797594 0.691878 -0.541993 0.000005 0.000034
0.493844 0.740268 0.720211 -0.000000 -0.572188 0.000042
2.002558 0.878418 0.647114 0.000000 0.999630 -0.000000
0.493844 0.759298 0.565382 -0.000000 -0.357482 -0.000038
3.285360 0.873418 0.618504 -0.000001 0.943169 -0.000021
1.946785 0.204970 0.170638 -0.059671 -0.009670 0.011047
1.946785 1.375759 0.170638 -0.059672 0.004836 0.005578
0.591792 0.740696 0.720510 -0.000000 -0.572332 0.000021
1.228453 0.736831 0.577856 -0.000002 -0.611608 -0.000019
0.395896 0.848279 0.581445 0.000000 0.657712 -0.000017
0.395896 0.739351 0.719571 -0.000000 -0.572306 0.000010
2.122796 1.118392 0.378771 0.059691 -0.008345 -0.010078
2.122796 0.462337 0.378771 0.059691 0.008345 -0.010078
3.008374 0.637499 0.518208 0.062933 -0.003257 0.004850
2.354854 0.806228 0.734409 0.000001 0.175009 0.000082
2.109985 0.834773 0.571738 0.000000 0.503644 -0.000025
2.697672 0.772126 0.561630 0.000001 -0.198451 -0.000018
1.816141 0.850274 0.583239 0.000000 0.677840 -0.000016
2.109985 0.745764 0.571851 -0.000000 -0.503843 -0.000013
3.023112 0.702315 0.649350 0.000000 -0.999908 0.000000
1.865115 0.715922 0.600733 -0.000000 -0.849817 -0.000009
1.424349 0.739749 0.719849 0.000000 -0.572334 0.000042
1.228453 0.845366 0.579003 0.000000 0.615489 -0.000005
1.424349 0.841745 0.719316 -0.000000 0.594371 0.000040
2.893568 0.877403 0.634384 -0.000000 0.987824 -0.000001
2.055172 0.294949 0.236267 0.059690 0.006192 -0.007510
2.055172 1.293069 0.245153 0.109497 0.003669 0.004471
2.898902 0.693068 0.563780 0.062933 -0.006513 0.009662
2.017931 0.534990 0.453293 0.109496 -0.005430 0.006613
2.017931 1.045740 0.453293 0.109495 0.002715 0.003310
2.009110 0.406665 0.324322 0.059692 0.003904 -0.004750
2.009110 1.174065 0.324322 0.059693 -0.003904 -0.004750
0.763991 0.788130 0.735796 0.000000 -0.027190 0.000017
2.893568 0.721537 0.702728 -0.000001 -0.786785 0.000011
2.090454 0.493555 0.893698 0.059691 0.004442 0.005402
2.090454 1.087174 0.893698 0.059693 -0.008883 0.010714
2.053212 0.895815 0.739645 0.059691 -0.011036 0.013234
2.893568 0.818415 0.564301 -0.000002 0.283166 -0.000012
2.256907 0.877276 0.633537 0.000000 0.984547 -0.000003
2.713470 0.702346 0.649722 0.000000 -0.999641 0.000000
0.395896 0.703689 0.632216 -0.000000 -0.983981 -0.000003
1.985277 1.390919 1.134991 -0.059672 0.004375 -0.005049
1.985277 0.189811 1.134991 -0.059671 -0.008749 -0.010019
2.468600 0.702350 0.645699 0.000000 -0.999630 -0.000000
3.149496 0.702403 0.643762 -0.000000 -0.999630 -0.000000
1.620245 0.733068 0.714665 0.000001 -0.652356 0.000008
0.395896 0.754610 0.567307 0.000000 -0.407358 -0.000033
1.668547 0.685248 0.563674 -0.059675 -0.006907 0.007941
1.668547 0.895481 0.563674 -0.059672 0.006908 0.007941
0.493844 0.704202 0.629582 0.000000 -0.979145 -0.000003
2.585506 0.702346 0.649722 0.000000 -0.999641 0.000000
0.869837 0.878376 0.645550 0.000000 0.999630 -0.000000
1.970903 0.448706 0.383160 -0.059671 -0.003915 0.004520
1.624984 0.702304 0.647412 0.000000 -0.999630 -0.000000
0.297948 0.755086 0.567094 -0.000000 -0.407585 -0.000033
0.640766 0.877802 0.637301 0.000000 0.992582 -0.000002
1.851749 0.410504 0.333913 -0.032440 0.006257 -0.007709
1.851749 1.170226 0.333913 -0.032437 -0.006257 -0.007709
2.452802 0.749112 0.725597 0.000000 -0.480329 0.000053
3.354369 0.895156 0.729512 -0.112713 -0.002181 0.002546
3.138438 0.724221 0.705924 -0.000000 -0.752899 0.000013
1.970903 1.120247 0.368799 -0.032442 -0.006861 -0.008423
0.872997 0.702354 0.645550 0.000000 -0.999630 -0.000000
1.624984 0.878428 0.647487 0.000000 0.999641 -0.000000
3.019228 0.952871 0.776844 0.062933 -0.004125 0.004136
1.783899 0.725610 0.587858 -0.032440 0.012108 -0.014234
2.991516 0.739351 0.575998 -0.000001 -0.567197 -0.000011
2.795620 0.773622 0.734248 0.000001 -0.199899 0.000036
0.297948 0.852213 0.585093 0.000000 0.697344 -0.000015
2.109985 0.850246 0.712356 -0.000000 0.677833 0.000032
3.236386 0.724859 0.706653 0.000000 -0.734926 0.000003
2.065953 0.418378 0.944752 0.109494 -0.002275 -0.002773
2.065953 1.162352 0.944752 0.109497 0.004550 -0.005543
1.669219 0.839912 0.720595 -0.000000 0.570170 0.000005
2.942542 0.845772 0.716239 0.000000 0.636716 0.000002
2.452802 0.833710 0.571118 0.000000 0.503871 -0.000003
1.326401 0.849562 0.582582 -0.000002 0.660079 -0.000008
3.308755 0.966927 0.784159 -0.112713 -0.004361 0.005089
0.915652 0.790588 0.559717 -0.000000 0.013082 -0.000036
0.511222 0.878335 0.644060 0.000000 0.999630 -0.000000
1.705656 0.911335 0.749265 -0.032441 -0.006054 0.007468
2.550750 0.846921 0.715289 0.000000 0.636716 0.000004
2.991516 0.823273 0.566097 0.000001 0.371464 -0.000009
3.040490 0.844309 0.717393 0.000000 0.615951 0.000037
2.354854 0.832272 0.570331 -0.000001 0.479523 -0.000027
1.865957 0.942111 0.538976 -0.059672 0.006370 0.007331
1.865957 0.638619 0.538976 -0.059672 -0.012739 0.014419
3.211905 0.903450 0.571893 0.000000 -0.634124 -0.001186
3.198331 0.995726 0.803564 0.062935 -0.004479 0.004488
1.791881 1.164380 0.341057 -0.032439 -0.012511 -0.014648
1.791881 0.416350 0.341057 -0.059672 -0.007138 0.008202
0.047434 0.790365 0.605438 -0.582069 0.000001 -0.000014
3.138438 0.847266 0.580565 0.000000 0.635643 -0.000009
0.297948 0.704916 0.626458 0.000000 -0.966961 -0.000001
2.455962 0.878434 0.647636 0.000000 0.999908 -0.000000
2.697672 0.860248 0.594193 0.000000 0.787842 -0.000003
1.032557 0.742932 0.721992 0.000000 -0.549800 0.000011
2.324838 0.878402 0.649051 0.000000 0.999630 0.000000
3.108338 0.680853 0.574823 0.000000 0.634124 -0.000971
2.403828 0.716875 0.696307 0.000001 -0.829524 0.000005
2.009110 0.706582 0.725287 0.059691 0.004038 0.004913
3.282013 0.619827 0.520564 -0.112715 0.002181 -0.002546
2.795620 0.855744 0.706790 0.000001 0.730056 0.000007
1.032557 0.840523 0.720169 0.000000 0.572429 0.000021
3.210115 0.579022 0.487100 0.062935 0.008957 -0.008909
2.305881 0.837607 0.722110 -0.000000 0.527263 0.000006
2.203193 0.702322 0.648828 0.000000 -0.999641 0.000000
1.914088 0.467403 0.918898 -0.032442 0.006861 0.008423
1.914088 1.113327 0.918898 -0.032439 -0.003431 0.004281
2.098294 1.250068 0.274275 0.109498 0.003669 0.004471
2.098294 0.330662 0.274275 0.109497 -0.003669 0.004471
1.865115 0.870039 0.610267 0.000000 0.901818 -0.000014
0.591792 0.837544 0.722149 -0.000001 0.526672 0.000024
3.186546 0.977352 0.481801 0.062935 0.003536 0.005265
1.975775 0.140262 1.178558 -0.059671 -0.007829 -0.008983
1.975775 1.440467 1.178558 -0.059670 0.003915 -0.004520
2.844594 0.847151 0.580470 0.000000 0.636716 -0.000004
3.303817 0.987282 0.494718 -0.112714 -0.004361 -0.005089
2.067913 1.482127 1.207277 -0.059674 0.006447 -0.007418
2.067913 0.098603 1.207277 0.109497 -0.004403 -0.005364
2.012037 0.855138 0.707447 -0.000001 0.731865 0.000007
2.550750 0.875833 0.626530 -0.000000 0.973560 -0.000007
1.473323 0.736714 0.577947 -0.000000 -0.614874 -0.000009
3.236640 0.906038 0.759496 -0.000000 0.634124 -0.001186
3.179627 0.641389 0.542458 0.000000 0.634124 -0.001186
3.094132 0.637897 0.760188 0.062932 0.004479 0.004488
1.800848 0.955300 0.773134 -0.059672 0.012739 -0.014419
2.207932 0.776927 0.734818 -0.000001 -0.118535 0.000015
1.807718 1.081799 0.413668 -0.059670 0.004030 0.004653
1.807718 0.498930 0.413668 -0.059671 -0.004030 0.004653
1.767167 0.870782 0.611894 -0.000000 0.913183 -0.000026
3.185761 0.543324 0.846170 0.062938 0.004125 0.004135
1.473323 0.844368 0.578223 0.000000 0.615577 -0.000019
1.037297 0.791259 0.559738 0.000000 0.027190 -0.000009
1.965988 0.952491 0.502699 0.059692 -0.011036 -0.013234
1.965988 0.628239 0.502699 0.059692 0.011036 -0.013234
1.115497 0.878386 0.645922 0.000000 0.999652 -0.000000
3.134084 0.883355 0.740893 0.000000 0.634125 -0.000971
3.362238 0.601753 0.802465 -0.112714 -0.002070 -0.002637
1.800848 0.625430 0.773134 -0.059671 -0.012739 -0.014419
1.701632 0.578305 0.473876 -0.059671 -0.002245 0.002596
2.305881 0.719299 0.699795 -0.000001 -0.802347 0.000011
2.403828 0.840248 0.720361 0.000001 0.565234 0.000011
1.701632 1.002425 0.473876 -0.032440 -0.004238 -0.005273
1.179479 0.739596 0.719742 0.000000 -0.572332 0.000021
2.207932 0.842854 0.718496 0.000000 0.594274 0.000010
0.346922 0.873554 0.676680 0.000000 0.943234 0.000021
2.122796 1.518282 0.050823 0.059689 -0.005923 -0.007187
2.122796 0.062448 0.050823 0.059690 0.005923 -0.007187
2.946314 0.683081 0.742086 0.062936 -0.004885 -0.007263
2.527053 0.702338 0.649424 0.000000 -0.999630 0.000000
1.277427 0.705390 0.670914 -0.000000 -0.967077 0.000004
2.972018 0.684114 0.552225 0.062935 -0.004885 0.007263
0.983583 0.716158 0.600353 0.000000 -0.849924 -0.000002
1.914089 0.725314 0.707146 0.000000 -0.735309 0.000007
1.277427 0.875226 0.671347 -0.000000 0.967082 0.000004
1.179479 0.840523 0.720169 0.000000 0.572282 0.000003
3.338008 0.589065 0.485859 -0.112713 0.002051 -0.002395
2.403828 0.776964 0.734823 0.000000 -0.148322 0.000049
3.153126 0.592181 0.476831 0.062933 -0.003536 0.005265
3.084769 0.709339 0.731082 -0.000000 -0.634124 -0.000486
1.326401 0.724809 0.588972 0.000000 -0.753369 -0.000013
0.542818 0.734211 0.579948 0.000000 -0.636872 -0.000035
2.043412 0.356820 0.992024 0.109497 -0.001981 -0.002416
2.043412 1.223910 0.992024 0.109493 0.001981 -0.002416
3.299002 0.878478 0.562888 -0.112714 0.004141 0.005270
0.150392 0.767785 0.729112 -0.153641 -0.000072 0.000233
0.983583 0.865201 0.601366 0.000000 0.849702 -0.000002
0.346922 0.837607 0.722110 0.000001 0.459280 0.000003
2.893568 0.749112 0.569973 0.000000 -0.480168 -0.000013
0.395896 0.810168 0.733593 -0.000000 0.228194 0.000062
1.978232 1.241905 1.006782 -0.059672 0.006217 -0.007156
1.114707 0.702338 0.646146 -0.000000 -0.999630 -0.000000
3.250333 0.605498 0.782546 0.000000 0.634124 0.000850
3.040490 0.847209 0.580518 0.000001 0.566213 -0.000002
2.403828 0.874466 0.673920 -0.000000 0.951833 0.000002
3.089464 0.823342 0.566126 -0.000000 0.381535 -0.000009
2.942542 0.703871 0.664382 -0.000001 -0.983925 0.000003
3.324408 0.506006 0.412477 -0.112713 -0.003895 0.004958
1.713177 0.655899 0.760334 -0.032439 0.009082 0.010974
2.550750 0.837797 0.573578 0.000000 0.526905 -0.000006
3.285360 0.853499 0.709179 -0.000000 0.716613 0.000057
2.101235 1.519788 1.242910 0.109491 0.003816 -0.004650
2.101235 0.060942 1.242910 0.109493 -0.003816 -0.004650
0.640766 0.828622 0.568466 0.000000 0.431869 -0.000030
0.836662 0.865790 0.602316 0.000001 0.836856 -0.000002
1.424349 0.703238 0.660596 0.000000 -0.988862 0.000004
1.473323 0.703932 0.630896 0.000000 -0.979442 -0.000003
2.158958 0.865358 0.601619 0.000001 0.801156 -0.000001
0.297948 0.878410 0.645847 0.000000 0.999908 -0.000000
1.783899 0.864626 0.696120 0.000001 -0.773230 -0.000333
1.783899 0.716104 0.696120 -0.059671 -0.002591 -0.002995
2.061011 0.703493 0.633316 -0.000001 -0.823151 -0.000000
0.787688 0.863090 0.697454 0.000000 0.819542 0.000010
1.473323 0.876858 0.631188 0.000000 0.979394 -0.000002
1.424349 0.877387 0.661296 -0.000001 0.952249 0.000001
2.795620 0.748360 0.570385 -0.000001 -0.479657 -0.000027
0.395896 0.878414 0.649425 0.000000 0.999908 0.000000
3.211905 0.677280 0.723677 -0.000001 0.634123 0.001186
0.836662 0.714581 0.602927 -0.000001 -0.860747 -0.000004
1.571271 0.705049 0.625953 -0.000000 -0.967062 -0.000008
2.697672 0.719344 0.699855 0.000001 -0.754473 0.000003
1.277427 0.843663 0.717898 -0.000000 0.615904 0.000019
2.067913 0.658448 0.748150 0.109497 -0.006017 -0.007326
3.220112 1.022551 0.846624 0.062933 0.004885 -0.007263
1.522297 0.702715 0.656305 0.000000 -0.995415 0.000000
2.158958 0.866280 0.692418 -0.000000 0.863757 0.000017
1.571271 0.875530 0.625377 0.000000 0.967077 -0.000002
1.081531 0.865672 0.602126 0.000000 0.849813 -0.000009
0.640766 0.703865 0.631225 0.000001 -0.966637 -0.000001
1.846735 0.416227 0.950285 -0.059670 -0.003569 -0.004123
1.846735 1.164503 0.950285 -0.059670 0.003569 -0.004123
0.248974 0.840706 0.720041 -0.000001 0.572333 0.000084
1.522297 0.878022 0.656231 -0.000001 0.990583 0.000001
0.444870 0.872794 0.678783 0.000001 0.933724 0.000011
3.366866 0.771179 0.569945 0.235626 -0.000120 -0.000657
3.203196 0.951304 0.762923 -0.000001 -0.634123 0.000850
1.950307 0.890508 0.705338 -0.059671 0.007675 -0.008810
2.158958 0.718493 0.596894 -0.000000 -0.819978 -0.000010
0.134127 0.709778 0.656549 -0.168794 -0.000105 0.000009
2.256907 0.707802 0.678434 0.000000 -0.933916 0.000006
3.301471 0.700037 0.586344 -0.112711 0.002181 -0.002546
1.865115 0.704489 0.667298 0.000000 -0.973634 0.000007
1.865115 0.876360 0.666790 0.000000 0.973522 0.000001
1.865115 0.830822 0.569565 0.000001 0.455121 -0.000014
0.689740 0.750836 0.569088 -0.000001 -0.451451 -0.000007
0.934609 0.840920 0.719891 0.000000 0.571260 0.000010
1.002541 0.702334 0.649275 0.000000 -0.999641 0.000000
2.844594 0.837984 0.721869 -0.000000 0.548886 0.000011
0.542818 0.865515 0.601873 0.000000 0.849924 -0.000002
3.187412 0.740451 0.575231 -0.000001 -0.572264 -0.000084
0.787688 0.717223 0.696836 -0.000001 -0.827365 0.000002
1.732482 0.950750 0.774604 -0.059674 0.002590 -0.002995
0.836662 0.741687 0.721173 0.000000 -0.549895 0.000006
0.689740 0.703819 0.664088 0.000000 -0.984542 0.000005
1.081531 0.716403 0.599979 -0.000000 -0.834237 -0.000005
0.934609 0.741221 0.720865 -0.000000 -0.549758 0.000022
2.697672 0.867479 0.690313 -0.000000 0.877078 0.000016
2.452802 0.857727 0.704514 -0.000000 0.770580 0.000012
3.322983 0.672451 0.736062 -0.112713 0.004361 0.005089
2.648698 0.745925 0.723813 0.000000 -0.503871 0.000025
0.191697 0.875280 0.624208 0.002822 0.013625 -0.000687
0.689740 0.872181 0.680384 -0.000000 0.933916 0.000006
1.230033 0.878400 0.646444 0.000000 0.999641 -0.000000
3.187412 0.861959 0.596496 -0.000000 0.819693 -0.000005
1.950208 1.044144 0.838106 -0.059672 0.004375 -0.005049
1.950208 0.536586 0.838106 -0.059671 -0.004375 -0.005049
0.444870 0.839727 0.720722 -0.000000 0.547225 0.000006
3.337210 0.849630 0.607606 0.379107 0.000826 -0.000678
3.052721 0.969873 0.504784 0.062935 -0.004125 -0.004136
3.074429 0.603968 0.804860 0.062936 -0.003535 -0.005264
1.230033 0.702330 0.646444 0.000000 -0.999630 -0.000000
2.050272 1.003492 0.812237 0.109496 0.005724 -0.006970
2.050272 0.577238 0.812237 0.109497 -0.002862 -0.003488
1.669219 0.750703 0.726413 0.000000 -0.456467 0.000028
3.399398 0.763318 0.671746 1.000000 0.000000 0.000000
1.571271 0.741438 0.574561 0.000000 -0.549949 -0.000044
0.836662 0.842884 0.718474 -0.000002 0.578586 0.000010
2.403828 0.744959 0.572320 0.000000 -0.527228 -0.000024
2.086534 0.569774 0.472045 0.109497 -0.002715 0.003310
2.086534 1.010956 0.472045 0.109495 0.005430 0.006613
3.399398 0.729677 0.608547 0.232074 -0.000130 -0.000081
0.710277 0.792600 0.735796 0.000065 0.002753 0.001623
1.571271 0.839665 0.574807 0.000000 0.549502 -0.000011
1.669219 0.839727 0.574848 0.000000 0.550263 -0.000006
1.669219 0.740940 0.574889 0.000000 -0.572657 -0.000005
2.256907 0.740696 0.720510 0.000000 -0.572335 0.000021
0.493844 0.817493 0.731566 -0.000000 0.306348 0.000091
3.284566 0.998179 0.828742 -0.112713 0.003895 -0.004958
1.004121 0.878408 0.648828 -0.000000 0.999630 0.000000
3.285360 0.742715 0.721849 0.000002 -0.545448 0.000022
2.081634 1.341207 1.093664 0.109497 0.006164 -0.007504
2.081634 0.239523 1.093664 0.109496 -0.006164 -0.007504
2.065953 0.404509 0.326951 0.059690 0.007807 -0.009440
2.065953 1.176220 0.326951 0.059689 -0.003904 -0.004750
2.501776 0.830524 0.726158 -0.000002 0.455472 0.000057
2.795620 0.877770 0.658528 0.000000 0.992585 0.000004
1.993046 1.292705 1.065133 -0.032438 -0.019367 0.020871
1.993046 0.288025 1.065133 -0.032440 0.009687 0.011647
0.158596 0.852568 0.706707 -0.121764 0.000237 0.000212
3.114741 0.878327 0.643762 0.000000 0.999630 -0.000000
1.277427 0.741376 0.720968 -0.000000 -0.549828 0.000022
1.845798 0.566967 0.475468 -0.059672 -0.008980 0.010276
1.845798 1.013763 0.475468 -0.059674 0.002245 0.002596
2.016794 0.199529 0.158923 -0.032441 0.008072 -0.009829
0.591792 0.754746 0.567246 -0.000000 -0.407142 -0.000016
1.961812 0.322774 1.036143 -0.032438 0.010494 0.012529
2.016794 1.387221 0.166264 -0.059672 0.004375 0.005049
1.767167 0.834740 0.571719 -0.000000 0.503902 -0.000100
1.873693 0.491536 0.412490 -0.059671 -0.002072 0.002397
0.191697 0.726385 0.587180 0.006707 -0.002171 -0.001904
3.151121 0.947731 0.535577 -0.000002 -0.634120 -0.000729
2.081634 1.336771 0.196497 0.059691 -0.011305 -0.013546
2.081634 0.243959 0.196497 0.059691 0.011306 -0.013546
0.591792 0.702423 0.652553 0.000000 -0.999641 0.000000
3.138438 0.723926 0.589983 0.000001 -0.752436 -0.000013
2.077713 1.281497 1.044138 0.109495 0.003669 -0.004472
2.077713 0.299232 1.044138 0.109495 -0.003669 -0.004472
2.305881 0.714281 0.603442 -0.000001 -0.818784 -0.000001
1.620245 0.863261 0.697209 -0.000000 0.835236 0.000010
1.917796 1.311051 0.224263 -0.059671 0.005757 0.006631
1.917796 0.269679 0.224263 -0.059673 -0.005756 0.006631
1.873693 1.089194 0.412490 -0.059671 0.002072 0.002397
1.081531 0.729318 0.711256 0.000001 -0.695783 0.000015
3.216536 1.077057 0.412670 0.062935 0.009768 0.014396
0.689740 0.746247 0.724001 0.000000 -0.503899 0.000050
1.929887 0.789918 0.735844 0.000000 -0.027190 0.000017
1.960364 1.175068 0.970024 -0.032440 -0.012107 0.014234
1.960364 0.405661 0.970024 -0.032442 0.006054 0.007468
2.991516 0.868602 0.607361 -0.000000 0.888517 -0.000004
3.383132 0.825785 0.580297 0.228161 0.000339 -0.000562
2.012037 0.744389 0.572674 0.000001 -0.526671 -0.000024
3.390108 0.716636 0.708250 -0.112710 -0.003895 -0.004958
1.914089 0.861452 0.595805 0.000000 0.804060 -0.000005
3.236386 0.877442 0.634642 0.000001 0.988521 -0.000004
2.122796 0.422348 0.345976 0.059692 0.007807 -0.009439
2.122796 0.102437 0.083618 0.059689 0.007000 -0.008477
2.122796 0.402354 0.965991 0.059691 0.007268 0.008798
2.122796 1.158381 0.345976 0.059692 -0.007807 -0.009439
2.122796 1.478293 0.083618 0.059687 -0.007000 -0.008478
2.122796 1.178376 0.965991 0.059696 -0.003634 0.004423
2.122796 1.258354 1.031581 0.059689 -0.006192 0.007510
2.122796 0.938442 0.526347 0.059691 -0.010498 -0.012608
2.122796 0.322376 1.031581 0.059689 0.006192 0.007510
2.122796 0.642287 0.526347 0.059691 0.005250 -0.006377
2.012037 0.837101 0.573145 -0.000001 0.523933 -0.000012
0.934609 0.708677 0.680693 0.000000 -0.923435 0.000006
2.893568 0.823273 0.729473 0.000000 0.382483 0.000035
3.342464 0.944231 0.525812 -0.112712 -0.002181 -0.002546
0.079594 0.844531 0.676502 -0.429567 0.000052 0.000026
2.158958 0.737546 0.718252 -0.000000 -0.594338 0.000040
1.326401 0.820244 0.730627 0.000001 0.330394 0.000021
1.375375 0.716322 0.695466 -0.000000 -0.834796 0.000010
2.550750 0.741438 0.721009 -0.000000 -0.549868 0.000044
2.847494 0.889727 0.729271 0.062935 0.006513 -0.009661
2.023200 0.096384 0.082843 -0.059671 -0.006908 0.007941
2.023200 1.484346 0.082843 -0.059668 0.003454 0.003991
0.934609 0.872634 0.679200 0.000000 0.933942 0.000001
0.542818 0.850110 0.712482 0.000000 0.677784 0.000032
1.424349 0.830856 0.569582 -0.000000 0.455277 -0.000007
2.599724 0.745249 0.572151 0.000002 -0.500831 -0.000025
1.963063 0.712553 0.689038 0.000000 -0.889822 0.000004
3.334334 0.780843 0.735340 0.235579 -0.000020 0.000163
0.738714 0.720344 0.594369 -0.000001 -0.783721 -0.000006
2.305881 0.760416 0.730602 0.000000 -0.332255 0.000021
0.640766 0.727881 0.585723 -0.000000 -0.716636 -0.000014
2.305881 0.818131 0.564210 0.000000 0.306139 -0.000011
1.375375 0.859927 0.593782 -0.000001 0.766749 -0.000003
2.061011 0.838171 0.721746 0.000000 0.549802 0.000022
0.606010 0.787534 0.735780 0.000000 -0.026790 0.000018
3.313777 0.582573 0.824512 -0.112711 -0.001948 -0.002480
2.354854 0.781585 0.560159 0.000001 -0.093933 -0.000077
0.738714 0.836404 0.572713 0.000000 0.527109 -0.000047
3.187412 0.715333 0.693887 -0.000000 -0.849763 0.000036
3.152656 0.794388 0.735747 0.000000 0.026790 0.000035
3.222167 0.794686 0.735739 0.000000 0.027201 0.000017
1.899665 0.365481 0.999527 -0.032439 0.011704 0.013816
3.033278 0.692817 0.710936 0.000001 0.634124 0.000971
3.056847 0.899876 0.720747 0.000000 -0.634124 0.000971
1.081531 0.851840 0.710841 0.000000 0.697444 0.000008
1.914089 0.742372 0.573946 -0.000000 -0.549976 -0.000044
1.852009 0.904395 0.570465 -0.059671 0.012739 0.014419
1.852009 0.676334 0.570465 -0.059671 -0.006371 0.007331
1.914012 0.649415 0.521734 -0.032441 0.022321 -0.023082
1.914012 0.931314 0.521734 -0.032439 -0.011166 -0.013249
1.996239 0.791035 0.735838 0.000000 0.027190 0.000009
0.689740 0.815071 0.563258 0.000000 0.280737 -0.000012
2.109985 0.801848 0.735100 -0.000000 0.121549 0.000119
2.599724 0.835223 0.723569 0.000000 0.503871 0.000006
3.281661 0.470614 0.385559 0.062935 -0.006513 0.009661
1.917796 1.311051 1.071307 -0.059671 0.005757 -0.006631
1.917796 0.269679 1.071307 -0.059672 -0.005756 -0.006631
1.522297 0.827547 0.567950 -0.000001 0.429627 -0.000015
2.764814 0.787459 0.559792 0.000000 -0.027190 -0.000017
1.713177 0.652730 0.539100 -0.059671 -0.005181 0.005973
1.522297 0.753385 0.567854 0.000000 -0.432120 -0.000015
1.375375 0.852213 0.710477 -0.000001 0.697325 0.000030
1.179479 0.872394 0.679827 0.000000 0.933903 0.000011
2.010914 0.229744 1.112323 -0.032438 0.008073 0.009830
2.010914 1.350986 1.112323 -0.032439 -0.008073 0.009830
2.109985 0.711174 0.609259 -0.000001 -0.890834 -0.000002
1.713177 0.924831 0.535236 -0.032440 -0.009081 -0.010974
2.993727 0.664833 0.742309 0.062933 0.008957 0.008909
1.771826 0.452340 0.370572 -0.059672 -0.007598 0.008723
1.771826 1.128390 0.370572 -0.032439 -0.013318 -0.015460
1.865115 0.754270 0.567459 0.000000 -0.407770 -0.000016
1.151043 0.792004 0.735812 0.000000 0.027190 0.000017
1.245831 0.788875 0.559754 0.000000 -0.026790 -0.000018
1.741890 0.702296 0.647859 0.000000 -0.999630 0.000000
2.122796 0.702271 0.720030 0.059692 0.008076 0.009759
0.248974 0.766875 0.562905 0.000003 -0.133799 -0.000013
3.285360 0.829993 0.569139 0.000001 0.456233 -0.000057
0.934609 0.728890 0.584729 -0.000001 -0.678342 -0.000004
2.256907 0.838109 0.573783 0.000000 0.550263 -0.000006
2.354854 0.868034 0.606270 0.000000 0.876955 -0.000008
1.550734 0.790216 0.735852 0.000000 -0.027190 0.000035
2.079674 0.039441 0.038099 0.109496 -0.006457 0.007860
2.079674 1.541288 0.038099 -0.059670 0.010131 0.011559
0.297948 0.817209 0.731657 0.000000 0.306488 0.000091
3.242714 0.560786 0.448978 0.062936 -0.004885 0.007263
0.200000 0.829496 0.568884 0.006711 0.001347 -0.002574
1.179479 0.708442 0.680105 0.000000 -0.933883 0.000011
2.844594 0.874787 0.622721 0.000001 0.947726 -0.000001
1.891206 1.055607 0.852673 -0.059671 0.002188 -0.002530
1.277427 0.835513 0.572170 0.000000 0.503871 -0.000006
3.352948 1.017271 0.461700 -0.112713 -0.006154 -0.007176
3.362238 0.978977 0.802465 -0.112712 -0.002181 0.002546
0.297948 0.806888 0.561278 -0.000001 0.171969 -0.000021
0.934609 0.851145 0.584053 0.000001 0.696370 -0.000015
2.256907 0.744959 0.572320 0.000000 -0.527228 -0.000024
3.164184 0.875949 0.701124 0.000000 0.773232 0.000550
2.946314 0.903844 0.734531 0.062935 -0.006188 0.006187
1.179479 0.745861 0.571795 -0.000001 -0.503684 -0.000050
0.542818 0.731692 0.713464 -0.000000 -0.657388 0.000008
1.669219 0.714036 0.691710 0.000000 -0.863737 0.000009
1.571271 0.841012 0.719827 0.000000 0.570341 0.000005
3.040490 0.797513 0.735566 -0.000000 0.095149 0.000038
1.277427 0.745668 0.571907 -0.000000 -0.501760 -0.000006
0.248974 0.875511 0.670265 0.000000 0.967080 0.000015
0.689740 0.836404 0.722857 -0.000000 0.527069 0.000047
2.697672 0.725087 0.588671 0.000000 -0.735294 -0.000003
3.103984 0.907282 0.535054 0.000000 0.634124 0.000971
2.501776 0.712315 0.606996 -0.000001 -0.889562 -0.000015
1.571271 0.741065 0.720763 -0.000000 -0.549644 0.000011
1.179479 0.837417 0.573342 0.000000 0.514830 -0.000003
1.661521 0.930445 0.762664 -0.032440 -0.012108 0.014234
2.648698 0.865672 0.602126 0.000000 0.849813 -0.000009
1.809756 0.569802 0.820500 -0.059672 -0.004490 -0.005182
1.424349 0.755700 0.566824 0.000000 -0.382599 -0.000018
2.403828 0.843484 0.577539 0.000000 0.594099 -0.000005
3.089464 0.707909 0.616857 0.000000 -0.933942 -0.000001
2.452802 0.772089 0.561637 0.000001 -0.201574 -0.000142
1.606027 0.790141 0.559720 -0.000000 -0.027190 -0.000035
2.893568 0.869926 0.685538 -0.000000 0.900351 0.000004
1.718193 0.748033 0.570564 0.000001 -0.459690 -0.000007
0.542818 0.706424 0.621154 -0.000000 -0.951819 -0.000009
0.248974 0.741438 0.721009 -0.000001 -0.549726 0.000044
0.346922 0.842225 0.576609 -0.000000 0.594314 -0.000079
1.832205 1.067070 0.867240 -0.059672 0.004375 -0.005049
1.914089 0.835674 0.723306 -0.000000 0.505063 0.000003
0.493844 0.708016 0.678991 0.000000 -0.933942 0.000006
2.452802 0.713698 0.691130 0.000000 -0.877088 0.000016
1.473323 0.744579 0.723014 0.000000 -0.526963 0.000024
2.061011 0.739779 0.575700 -0.000001 -0.567684 -0.000011
3.040490 0.743756 0.573067 0.000000 -0.527085 -0.000024
2.991516 0.753317 0.727684 0.000001 -0.413504 0.000008
2.795620 0.829362 0.568820 -0.000001 0.431158 -0.000015
2.697672 0.832566 0.725078 -0.000000 0.480165 0.000013
2.061011 0.841073 0.575785 -0.000000 0.572306 -0.000010
1.963495 1.102875 0.887807 -0.059670 0.002072 -0.002397
1.963495 0.477855 0.887807 -0.059673 -0.004145 -0.004785
0.395896 0.803434 0.560697 0.000000 0.148526 -0.000097
2.061011 0.876738 0.630604 0.000000 0.979490 -0.000002
1.807718 0.498930 0.881902 -0.059672 -0.004030 -0.004653
1.049935 0.788279 0.735800 0.000000 -0.027190 0.000017
2.501776 0.756630 0.729131 -0.000001 -0.382501 0.000071
1.146303 0.788726 0.559758 0.000000 -0.027190 -0.000009
1.718193 0.832141 0.570259 0.000002 0.479639 -0.000053
0.037366 0.824920 0.653450 -0.594956 0.000024 0.000003
1.954227 0.688668 0.744222 0.059693 0.004038 0.004913
0.297948 0.707003 0.676187 0.000000 -0.943189 0.000003
0.346922 0.734038 0.715479 0.000000 -0.636931 0.000035
2.844594 0.747150 0.571047 0.000000 -0.480168 -0.000013
3.265147 0.914169 0.563102 0.000000 -0.634123 -0.001552
0.395896 0.708777 0.680934 0.000000 -0.923856 0.000003
1.320082 0.878400 0.646444 0.000000 0.999630 -0.000000
2.697672 0.820910 0.565183 -0.000000 0.356852 -0.000019
1.473323 0.836974 0.722503 0.000000 0.526456 0.000012
2.122796 0.222404 1.113567 0.059693 0.010229 0.012294
2.122796 1.358326 1.113567 0.059691 -0.010229 0.012295
3.138438 0.838918 0.721254 -0.000000 0.549828 0.000022
1.852047 1.272350 1.043059 -0.032438 -0.021785 0.022701
1.852047 0.308380 1.043059 -0.059673 -0.012432 -0.014086
1.835770 0.987529 0.815390 -0.032440 -0.016947 0.018851
1.326401 0.768569 0.733111 0.000001 -0.251681 0.000014
0.640766 0.743218 0.722169 -0.000000 -0.527066 0.000047
1.752793 0.633963 0.779460 -0.032440 0.022322 0.023082
1.863666 0.509531 0.868322 -0.059672 -0.008059 -0.009242
3.224272 0.684247 0.543910 -0.000001 -0.634123 0.000593
0.444870 0.702941 0.637190 -0.000000 -0.992585 -0.000007
1.767167 0.830557 0.726141 0.000000 0.454519 0.000007
1.767167 0.750173 0.726141 0.000001 -0.456356 0.000114
2.061011 0.745474 0.723550 0.000000 -0.503871 0.000013
0.094700 0.779331 0.715087 -0.370567 -0.000011 0.000080
0.444870 0.742683 0.721828 -0.000001 -0.549397 0.000044
3.285360 0.876385 0.666681 0.000000 0.979457 0.000000
2.550750 0.874009 0.675339 -0.000000 0.949847 0.000002
0.110218 0.841327 0.593984 -0.310040 0.000072 -0.000072
2.991516 0.709247 0.613499 0.000000 -0.923816 -0.000012
0.493844 0.807546 0.561412 0.000000 0.201705 -0.000142
1.883011 0.925143 0.740584 -0.059672 0.006370 -0.007331
1.032557 0.710981 0.685908 -0.000001 -0.901765 0.000028
0.200000 0.769110 0.733253 0.006712 -0.000751 0.002836
2.063993 1.456069 0.097297 0.059692 -0.008076 -0.009759
2.063993 0.124661 0.097297 0.059692 0.008076 -0.009759
3.089464 0.835416 0.723456 0.000000 0.503871 0.000006
0.779789 0.792302 0.559766 0.000000 0.026790 -0.000009
2.746646 0.864162 0.695840 -0.000000 0.834949 0.000010
0.444870 0.850164 0.583138 0.000000 0.677732 -0.000016
2.942542 0.823239 0.566083 -0.000000 0.381624 -0.000009
2.746646 0.781585 0.735411 -0.000000 -0.094739 0.000153
3.187412 0.825064 0.566839 0.000000 0.383481 -0.000004
0.444870 0.760627 0.564893 -0.000001 -0.331858 -0.000083
3.236386 0.837734 0.722032 0.000001 0.513555 0.000006
2.746646 0.867103 0.604570 -0.000000 0.876893 -0.000008
1.965988 0.611339 0.772263 0.109496 -0.006017 -0.007326
1.965988 0.969390 0.772263 -0.059671 0.009670 -0.011047
1.375375 0.751503 0.726814 -0.000000 -0.431869 0.000030
0.836662 0.871810 0.681279 0.000001 0.918485 0.000003
1.661521 0.650285 0.762664 -0.059673 -0.006907 -0.007941
1.941771 0.213968 1.117553 -0.059671 -0.009670 -0.011047
1.941771 1.366762 1.117553 -0.059670 0.004836 -0.005578
2.599724 0.712785 0.606107 -0.000000 -0.876964 -0.000004
3.153126 0.583920 0.808665 0.062934 0.004479 0.004488
3.084281 0.961863 0.780005 0.062936 -0.004478 0.004488
3.322983 0.680712 0.549435 -0.112713 -0.004141 0.005270
3.127552 0.919246 0.770327 -0.000002 0.634123 -0.001457
3.285360 0.711464 0.686916 0.000000 -0.901972 0.000001
1.375375 0.713999 0.603925 -0.000001 -0.863622 -0.000017
1.718193 0.870023 0.610233 0.000000 0.901779 -0.000014
0.787688 0.827614 0.727588 -0.000001 0.431808 0.000030
2.024791 1.265200 0.272337 -0.059672 0.005756 0.006631
2.024791 0.315530 0.272337 0.109496 -0.003669 0.004471
2.991516 0.851973 0.710711 -0.000000 0.697440 0.000008
3.220112 1.022551 0.448946 0.062934 0.004885 0.007263
2.109985 0.874756 0.672956 -0.000000 0.953758 0.000001
1.922667 1.059736 0.441814 -0.059672 0.004375 0.005049
1.922667 0.520994 0.441814 -0.059672 -0.004375 0.005049
2.893568 0.713323 0.605126 -0.000000 -0.877078 -0.000016
2.084574 0.961107 0.513206 0.109496 0.002862 0.003489
2.084574 0.619623 0.513206 0.109496 -0.002862 0.003489
2.746646 0.708948 0.681348 0.000000 -0.923778 0.000006
2.116304 0.789992 0.559724 0.000000 -0.027190 -0.000035
0.836662 0.711207 0.686378 0.000000 -0.901897 0.000003
2.062033 1.122637 0.911623 0.109498 0.004843 -0.005900
2.062033 0.458093 0.911623 0.109496 -0.002422 -0.002952
0.150392 0.812945 0.566458 -0.153650 0.000072 -0.000233
1.228453 0.827005 0.727868 -0.000000 0.407103 0.000008
2.893568 0.759054 0.730094 0.000000 -0.357511 0.000153
1.985589 1.067994 0.855920 -0.059673 0.008289 -0.009501
1.985589 0.512736 0.855920 0.109498 -0.005137 -0.006257
2.501776 0.878110 0.640266 0.000000 0.995408 -0.000001
2.008130 0.974083 0.807319 0.059692 -0.010498 0.012608
2.008130 0.606647 0.807319 0.059692 0.010498 0.012608
2.354854 0.710884 0.685706 -0.000001 -0.901615 0.000014
1.228453 0.753589 0.727807 0.000000 -0.407770 0.000008
2.550750 0.753385 0.567854 0.000000 -0.432120 -0.000015
1.776873 0.899589 0.568682 -0.059670 0.003454 0.003991
1.776873 0.681141 0.568682 -0.059671 -0.006908 0.007941
2.501776 0.826698 0.567565 0.000000 0.407627 -0.000033
0.738714 0.868052 0.606303 -0.000000 0.876964 -0.000004
2.942542 0.803729 0.734829 0.000000 0.148681 0.000049
1.891562 1.140082 0.356285 -0.032443 -0.003128 -0.003907
1.718193 0.711190 0.609225 0.000000 -0.901761 -0.000014
0.874577 0.788130 0.735796 0.000000 -0.027190 0.000009
2.452802 0.866468 0.603474 -0.000001 0.863553 -0.000017
1.081531 0.832534 0.570474 -0.000001 0.480131 -0.000053
1.316922 0.702322 0.646742 0.000000 -0.999641 -0.000000
1.647102 0.790067 0.735848 0.000000 -0.027190 0.000009
3.017295 0.919599 0.533377 0.062933 0.007071 0.010480
1.914089 0.869079 0.687281 -0.000001 0.889625 0.000015
1.872103 0.272390 0.222996 -0.059671 -0.011512 0.013082
1.872103 0.272390 1.072574 -0.059673 -0.011511 -0.013081
1.872103 1.308340 0.222996 -0.032441 -0.020172 -0.021501
1.872103 1.308340 1.072574 -0.032441 -0.020172 0.021501
0.836662 0.747346 0.570939 0.000000 -0.480197 -0.000007
1.891562 0.434099 0.364270 -0.059671 -0.001785 0.002064
2.023200 1.481177 1.216591 -0.032441 -0.011300 0.013391
2.023200 0.099553 1.216591 -0.032442 0.011300 0.013391
2.122796 1.358326 0.182002 0.059693 -0.010229 -0.012294
2.122796 0.222404 0.182002 0.059691 0.010229 -0.012294
2.122796 0.182415 0.149208 0.059692 0.009153 -0.011032
2.122796 1.398315 0.149208 0.059690 -0.009153 -0.011032
3.216536 0.503672 0.412670 0.062936 -0.009768 0.014396
3.084281 0.618867 0.515564 0.062935 0.004479 -0.004488
3.151411 0.536731 0.439781 0.062935 -0.003536 0.005265
1.914089 0.711923 0.607758 0.000001 -0.880725 -0.000002
2.082614 0.941249 0.765800 0.109496 0.003009 -0.003667
3.399398 0.825907 0.654298 1.000000 0.000000 0.000000
1.669219 0.869555 0.686311 -0.000000 0.901779 0.000014
1.669219 0.711174 0.609259 -0.000000 -0.901750 -0.000014
0.134127 0.756328 0.574215 -0.216909 -0.000073 -0.000147
2.550750 0.711464 0.686916 -0.000000 -0.901773 0.000014
1.939513 1.258052 1.023793 -0.059671 0.012432 -0.014086
1.130505 0.752544 0.727314 0.000000 -0.431881 0.000015
1.669219 0.869394 0.608923 0.000000 0.901741 -0.000003
2.305881 0.868245 0.688906 -0.000001 0.880033 0.000004
2.109985 0.707287 0.676996 -0.000000 -0.942872 0.000005
1.890184 1.191681 0.980351 -0.032430 -0.003028 0.003783
2.036551 0.256368 0.222143 0.109497 -0.006751 0.008216
1.992435 1.524280 1.249666 -0.032439 -0.020979 0.022111
1.992435 0.056450 1.249666 -0.059671 -0.011972 -0.013585
3.251780 0.528023 0.869248 0.062933 -0.006513 -0.009662
3.259953 0.481634 0.900974 0.062936 -0.006513 -0.009661
2.037148 1.522061 0.051354 -0.059670 0.011972 0.013585
2.037148 0.058669 0.051354 -0.059671 -0.011972 0.013585
3.334334 0.705504 0.671347 0.236156 -0.000159 0.000042
2.036551 1.315067 0.210809 0.059690 -0.012382 -0.014785
0.983583 0.751772 0.726943 0.000000 -0.431795 0.000008
1.767167 0.878033 0.656120 -0.000000 0.995415 0.000000
0.836662 0.833645 0.571083 -0.000001 0.461175 -0.000007
0.787688 0.751234 0.726686 -0.000000 -0.456383 0.000057
2.795620 0.818309 0.731303 -0.000000 0.307096 0.000006
0.072215 0.753140 0.603960 -0.458412 -0.000036 -0.000040
3.187412 0.707909 0.616857 0.000000 -0.933891 -0.000003
2.946314 0.903844 0.561039 0.062934 -0.006188 -0.006187
1.032557 0.869652 0.686109 0.000000 0.901857 0.000007
3.107994 1.021960 0.837715 0.062934 0.003536 -0.005265
2.158958 0.832926 0.570689 -0.000002 0.356859 -0.000004
1.885752 0.336376 0.273424 -0.032441 0.011300 -0.013391
3.334368 0.486870 0.896680 -0.112713 -0.003895 -0.004958
3.334334 0.708549 0.615186 0.235599 -0.000154 -0.000059
1.620245 0.829761 0.726550 -0.000003 0.365448 0.000009
1.081531 0.749244 0.569905 0.000000 -0.456309 -0.000014
1.800780 1.128020 0.922390 -0.059671 0.007598 -0.008723
1.800780 0.452710 0.922390 -0.059672 -0.003799 -0.004388
0.640766 0.827614 0.727588 -0.000001 0.431782 0.000030
1.783742 1.021969 0.840679 -0.032442 -0.004036 0.005026
0.983583 0.832664 0.570546 0.000000 0.479860 -0.000007
2.912619 0.922785 0.756382 0.062933 0.009769 -0.014397
3.089464 0.779326 0.560416 -0.000000 -0.121549 -0.000119
1.994409 0.887427 0.586475 0.109495 0.002201 0.002684
1.994409 0.693303 0.586475 0.109497 -0.002201 0.002684
2.648698 0.772089 0.561637 0.000001 -0.200249 -0.000036
0.542818 0.833547 0.571029 0.000001 0.478573 -0.000013
0.591792 0.811620 0.562317 0.000000 0.254513 -0.000055
3.309132 1.023500 0.462910 -0.112713 -0.006154 -0.007176
3.295197 1.080941 0.879767 -0.112715 -0.004103 0.004788
3.295197 1.080941 0.415802 -0.112713 -0.004103 -0.004788
2.012037 0.750736 0.726430 0.000000 -0.456234 0.000014
2.648698 0.707498 0.617976 0.000000 -0.943252 -0.000005
1.506499 0.790812 0.735844 0.000000 0.026790 0.000009
2.881189 0.870786 0.588150 0.000000 0.773223 -0.000069
0.983583 0.831618 0.725597 -0.000000 0.479860 0.000007
3.008374 0.637499 0.777362 0.062934 -0.006513 -0.009662
1.340619 0.789247 0.559744 -0.000000 -0.027190 -0.000035
1.816141 0.749675 0.569684 0.000001 -0.456234 -0.000057
0.591792 0.867891 0.689561 -0.000000 0.877039 0.000008
1.973828 1.008832 0.489844 -0.059672 0.009210 0.010534
1.973828 0.571898 0.489844 0.109496 -0.005724 0.006970
1.931066 0.928922 0.740053 -0.059672 0.012739 -0.014419
2.087514 1.580730 1.290933 0.000000 0.773227 0.000174
2.087514 -0.000000 1.290933 -0.000000 -0.773232 0.000174
1.869063 0.887427 0.709095 -0.059672 0.012739 -0.014419
0.064962 0.755757 0.688528 -0.486788 -0.000029 0.000032
2.795620 0.713287 0.605191 0.000001 -0.876043 -0.000008
1.718686 0.985457 0.805684 -0.059671 0.012739 -0.014419
1.718686 0.595273 0.805684 -0.059671 -0.006371 -0.007331
0.158596 0.719449 0.695867 -0.121760 -0.000268 0.000171
3.319092 1.040571 0.848766 -0.112714 -0.006154 0.007176
2.582346 0.788130 0.735796 0.000000 -0.027190 0.000017
2.054192 1.055808 0.870779 0.059691 -0.009422 0.011349
2.054192 0.524922 0.870779 0.059691 0.004711 0.005727
0.983583 0.748066 0.570546 -0.000000 -0.480324 -0.000053
0.493844 0.723534 0.590432 0.000000 -0.753468 -0.000002
2.006170 0.966584 0.519884 0.109497 0.003009 0.003667
2.006170 0.614146 0.519884 0.109496 -0.006017 0.007326
1.418030 0.789322 0.735828 0.000000 -0.027190 0.000017
0.640766 0.861981 0.596527 0.000000 0.819542 -0.000010
2.369073 0.878392 0.646146 0.000000 0.999630 -0.000000
1.967409 0.252105 0.202874 -0.032442 0.008879 -0.010746
2.991516 0.779992 0.560334 -0.000001 -0.121565 -0.000238
1.803954 0.689620 0.737227 -0.032439 0.011167 0.013249
3.286804 0.651969 0.773918 -0.112714 -0.002070 -0.002637
1.032557 0.871825 0.614326 -0.000000 0.923435 -0.000006
1.967409 1.333483 0.208799 -0.059669 0.005296 0.006105
2.942542 0.722860 0.704341 0.000000 -0.769315 0.000006
1.889246 0.534983 0.844308 -0.059672 -0.004260 -0.004917
3.245395 0.601666 0.476186 -0.000000 -0.634123 0.000850
3.064578 0.999921 0.475929 0.062936 0.003535 0.005264
1.803954 0.900616 0.725635 -0.059671 0.006371 -0.007331
1.522297 0.717346 0.697023 0.000000 -0.835601 0.000002
1.820217 0.541515 0.451453 -0.059672 -0.002130 0.002463
1.820217 1.039215 0.451453 -0.059676 0.002130 0.002463
1.950307 0.690222 0.590232 0.109495 -0.004403 0.005364
2.122796 0.562310 0.834812 0.059692 0.009422 0.011348
2.122796 1.018420 0.834812 0.059690 -0.004711 0.005727
2.122796 1.058409 0.867607 0.059693 -0.004442 0.005401
2.122796 0.522321 0.867607 0.059691 0.008883 0.010715
3.342464 0.636498 0.769758 -0.112714 0.002181 0.002546
3.376173 0.659194 0.540213 -0.112712 -0.003895 0.004958
2.122796 1.078404 0.411566 0.059693 -0.008883 -0.010714
2.122796 0.542315 0.444360 0.059690 0.009422 -0.011349
2.122796 0.502326 0.411566 0.059690 0.008884 -0.010715
2.122796 1.038415 0.444360 0.059692 -0.009422 -0.011349
1.929485 0.340673 0.286534 -0.059671 -0.006217 0.007156
0.297948 0.774355 0.734383 0.000000 -0.175119 0.000082
1.130505 0.828656 0.727088 0.000000 0.432437 0.000008
3.376173 0.921535 0.540213 -0.112713 -0.004103 -0.004788
2.501776 0.740879 0.574932 0.000001 -0.570727 -0.000021
2.256907 0.831880 0.725454 0.000000 0.480168 0.000027
1.522297 0.863609 0.696680 -0.000002 0.758024 0.000003
3.255343 0.794835 0.559835 0.000000 0.027190 -0.000017
1.950307 0.890508 0.590232 -0.059671 0.007675 0.008810
0.871417 0.788130 0.559774 -0.000000 -0.027190 -0.000017
2.146320 0.878406 0.648902 -0.000000 0.999630 0.000000
1.961812 1.257956 0.259427 -0.032439 -0.010494 -0.012529
1.979837 0.431342 0.345204 -0.032438 0.003028 -0.003782
1.501760 0.790067 0.559722 -0.000000 -0.027190 -0.000017
1.699235 0.790216 0.559718 0.000000 -0.027190 -0.000035
1.835099 0.790216 0.735852 0.000000 -0.027190 0.000035
1.998571 0.351844 1.014501 -0.032438 0.010494 0.012529
1.883792 1.234282 1.014038 -0.032437 -0.011302 0.013393
2.044392 0.216927 0.188681 0.109495 -0.006164 0.007504
2.044392 1.363803 0.188681 -0.059671 0.009210 0.010534
1.980788 1.449465 0.109633 -0.059675 0.003914 0.004520
1.980788 0.131265 0.109633 -0.059671 -0.007829 0.008983
2.158958 0.710691 0.685303 -0.000000 -0.901712 0.000014
1.811937 1.200370 0.984028 -0.032441 -0.012510 0.014648
1.811937 0.380360 0.984028 -0.059673 -0.007138 -0.008202
3.097068 0.592477 0.481286 0.062933 -0.003257 0.004850
1.032557 0.709932 0.611928 0.000000 -0.913152 -0.000013
2.844594 0.709613 0.612642 0.000001 -0.907338 -0.000003
3.056847 0.883355 0.554677 0.000000 0.634124 0.000971
0.395896 0.721170 0.593312 -0.000001 -0.786636 -0.000011
0.150392 0.715793 0.608250 -0.153649 -0.000222 -0.000110
2.089474 0.160093 0.135649 0.109497 -0.004990 0.006078
2.089474 1.420637 0.135649 0.109496 0.004990 0.006078
2.089474 0.160093 1.159921 0.109497 -0.004990 -0.006078
2.089474 1.420637 1.159921 0.109496 0.004990 -0.006078
3.286804 0.941152 0.758809 -0.112712 -0.002181 0.002546
0.094700 0.722165 0.647785 -0.378038 -0.000038 0.000001
2.029691 1.114862 0.374466 0.059692 -0.008883 -0.010714
2.029691 0.465868 0.374466 0.059690 0.004442 -0.005402
1.860399 1.241351 0.279957 -0.059667 0.003339 0.003858
3.275276 0.533930 0.448014 -0.112714 0.006154 -0.007176
3.334334 0.742932 0.573578 0.236709 -0.000090 -0.000137
3.127552 0.661484 0.770327 -0.000001 -0.634123 -0.001457
3.089464 0.751068 0.726601 0.000001 -0.455780 0.000029
3.258503 0.702415 0.652255 0.000000 -0.999630 0.000000
1.936374 0.990775 0.793082 -0.059669 0.002245 -0.002596
1.936374 0.589955 0.793082 -0.059671 -0.002245 -0.002596
0.346922 0.703682 0.632252 0.000000 -0.983981 -0.000003
2.207932 0.869668 0.686076 -0.000001 0.894096 0.000004
1.936374 0.976358 0.484907 -0.032441 -0.008476 -0.010290
1.936374 0.604372 0.484907 -0.032440 0.004238 -0.005273
0.689740 0.877948 0.638560 -0.000001 0.995029 -0.000003
2.746646 0.750305 0.569360 -0.000000 -0.456381 -0.000028
2.052232 0.177486 0.155218 0.109496 -0.005577 0.006792
1.821008 0.708172 0.572421 -0.032440 0.022322 -0.023082
2.795620 0.712179 0.688309 0.000000 -0.889773 0.000015
2.027731 0.665887 0.757221 0.059692 0.011036 0.013234
3.127552 0.661484 0.525242 0.000001 -0.634123 0.001457
0.346922 0.754031 0.567565 0.000000 -0.407579 -0.000131
2.599724 0.824754 0.566710 0.000000 0.382599 -0.000018
3.255271 0.954878 0.529717 0.000000 -0.634124 -0.000850
1.767167 0.757766 0.565969 -0.000000 -0.382693 -0.000141
3.040490 0.870296 0.684765 -0.000000 0.913085 0.000002
2.052232 1.395639 0.145945 0.059691 -0.010229 -0.012295
2.031651 0.445799 0.937411 0.059692 0.004173 0.005076
2.031651 1.134931 0.937411 0.059692 -0.004173 0.005076
3.270085 0.893815 0.715776 -0.000000 -0.634123 0.000233
2.073793 1.236501 1.017449 0.059692 -0.006730 0.008155
2.073793 0.344229 1.017449 0.059692 0.006730 0.008155
2.090454 1.100657 0.397923 0.109496 0.002422 0.002952
2.090454 0.480073 0.397923 0.109496 -0.002422 0.002952
0.885635 0.869096 0.608322 0.000000 0.889676 -0.000004
2.158958 0.749907 0.569565 0.000001 -0.454655 -0.000014
1.981669 0.547667 0.437835 0.059691 0.009960 -0.011980
1.981669 1.033063 0.437835 0.059690 -0.009960 -0.011980
2.046352 0.983771 0.500064 0.109496 0.005724 0.006970
2.046352 0.596959 0.500064 0.109496 -0.002862 0.003489
1.865115 0.828488 0.727169 0.000000 0.432217 0.000015
0.200000 0.705504 0.671347 0.006712 -0.002854 0.000691
0.200000 0.847381 0.714910 0.006712 0.001940 0.002135
2.974881 0.926230 0.532151 0.062935 0.003257 0.004850
2.084574 0.629620 0.774166 0.109496 -0.005724 -0.006970
1.914089 0.829927 0.569105 -0.000001 0.455117 -0.000029
3.289273 0.662147 0.529998 -0.112713 -0.002070 0.002637
2.023768 0.180460 1.152134 -0.032440 0.014528 0.016639
2.023768 1.400270 1.152134 -0.032437 -0.007266 0.008897
0.118112 0.856070 0.687318 -0.279269 0.000103 0.000058
3.037071 0.679253 0.544027 0.062937 -0.003535 0.005264
3.152124 0.959879 0.496131 0.062935 0.003536 0.005265
1.865384 0.963662 0.497972 -0.032441 -0.004238 -0.005273
1.865384 0.617068 0.497972 -0.032440 0.004238 -0.005273
2.942542 0.737786 0.577140 0.000000 -0.592768 -0.000010
1.865115 0.752040 0.727072 -0.000002 -0.421965 0.000016
1.862175 1.131586 0.931295 -0.032440 -0.003431 0.004281
0.030855 0.769828 0.669465 -0.620519 -0.000012 0.000012
3.399398 0.809771 0.717398 0.232077 0.000043 0.000147
1.953461 0.284962 1.055282 -0.059672 -0.005756 -0.006631
1.953461 1.295767 1.055282 -0.059670 0.011512 -0.013082
0.542818 0.872887 0.678539 0.000001 0.931125 0.000003
1.980192 0.337309 0.270248 -0.032440 0.010494 -0.012529
3.274606 0.601687 0.815154 -0.112712 -0.002070 -0.002637
1.871812 0.592426 0.817504 -0.032439 0.007871 0.009598
0.885635 0.711838 0.607924 0.000000 -0.889773 -0.000007
2.844594 0.706675 0.675197 -0.000000 -0.951869 0.000009
2.158958 0.775236 0.734539 0.000000 -0.174757 0.000041
1.816141 0.825643 0.728476 -0.000001 0.407413 0.000065
3.080415 0.668890 0.730558 0.000001 0.634122 0.000971
2.844594 0.749708 0.725903 0.000000 -0.456418 0.000057
1.816141 0.754984 0.728430 0.000000 -0.407550 0.000065
1.862175 0.444021 0.925048 -0.059672 -0.003914 -0.004520
