1.361225 0.617062 0.499089 -0.000000 -0.422634 -0.000029
1.826431 0.069728 1.117305 -0.076424 0.007779 0.009577
0.192032 0.574903 0.536980 -0.024827 -0.000675 -0.000401
0.869937 0.729879 0.655300 -0.000001 0.723272 0.000013
1.137912 0.561979 0.605865 -0.000000 -0.982328 0.000003
1.763187 0.751463 0.556789 0.000000 0.951793 -0.000002
1.807850 0.601181 0.667702 0.000000 -0.573449 0.000020
1.419715 0.552374 0.678222 -0.067733 -0.005105 -0.005239
1.584537 0.594229 0.513874 0.000000 -0.652299 -0.000016
1.227237 0.754506 0.568036 -0.000001 0.972379 -0.000003
2.701100 0.623468 0.496380 -0.000001 -0.351972 -0.000018
0.557300 0.578440 0.531264 0.000000 -0.819122 -0.000005
0.601962 0.600627 0.508782 -0.000001 -0.593756 -0.000074
0.735950 0.714979 0.507848 0.000000 0.572903 -0.000010
0.467975 0.725135 0.516063 0.000000 0.670730 -0.000004
2.522450 0.565499 0.556645 -0.000000 -0.942208 -0.000002
2.477787 0.579949 0.529195 0.000001 -0.795116 -0.000005
1.649757 0.500322 0.751925 -0.076424 0.002701 0.003341
1.316562 0.591833 0.516011 0.000000 -0.670944 -0.000008
3.025813 1.006750 0.275362 0.066345 0.006126 0.008171
2.969075 0.703080 0.675417 0.000000 0.445030 0.000007
2.611775 0.750907 0.555202 -0.000000 0.943795 -0.000010
2.105112 0.656774 0.489964 0.000000 -0.024953 -0.000018
0.196015 0.756504 0.588038 -0.017094 0.000570 0.000007
3.093794 0.960777 0.857577 -0.107327 -0.004420 0.004764
3.144429 0.566424 0.505986 -0.107330 -0.002765 0.003224
3.140209 0.548900 0.685714 -0.107330 -0.002461 -0.002870
3.098014 0.373658 0.841953 -0.107329 -0.006347 -0.007390
3.127551 0.820584 0.732586 -0.107329 -0.004420 0.004764
3.144429 0.750487 0.670090 -0.107332 -0.002888 0.003114
3.110672 0.890680 0.795081 -0.107329 -0.004420 0.004764
3.127551 0.820584 0.443490 -0.107329 -0.004420 -0.004764
1.048587 0.569797 0.546021 -0.000000 -0.906298 -0.000006
1.897175 0.601431 0.667878 0.000000 -0.573449 0.000020
0.959262 0.700438 0.499364 0.000000 0.422589 -0.000117
1.690053 1.091379 0.977958 -0.076425 -0.003386 0.004185
1.629200 0.581745 0.649213 0.000000 -0.773818 0.000001
2.947267 0.954396 0.320964 0.066343 0.003063 0.004099
2.701100 0.698529 0.498482 -0.000000 0.398904 -0.000008
1.708413 0.336080 0.285644 -0.076424 0.003962 -0.004896
1.626578 0.313084 0.900951 -0.076424 0.004106 0.005073
2.075825 0.692943 0.679886 0.000000 0.353146 0.000018
1.852512 0.718302 0.665781 0.000000 0.613633 0.000035
2.924412 0.741933 0.639588 0.000001 0.846046 0.000009
2.898345 0.552584 0.665235 0.000000 0.665479 0.000449
2.879750 0.561084 0.575990 0.000000 -0.993673 -0.000000
1.539875 0.573797 0.538454 0.000000 -0.859746 -0.000016
1.495212 0.755969 0.598833 -0.000001 0.945728 0.000000
1.405887 0.750781 0.554841 -0.000000 0.943795 -0.000010
1.798632 0.578672 0.530089 0.060065 -0.004456 0.004985
1.673862 0.700195 0.499251 0.000000 0.422565 -0.000029
1.361225 0.560461 0.583147 0.000000 -0.999689 -0.000000
1.271900 0.566905 0.552764 0.000000 -0.901468 -0.000001
0.869937 0.598428 0.510436 -0.000001 -0.611464 -0.000018
1.539875 0.690931 0.495460 -0.000000 0.330149 -0.000020
0.646625 0.620063 0.678328 -0.000000 -0.399873 0.000063
1.941837 0.570481 0.631465 0.000000 -0.895301 0.000007
1.093250 0.561101 0.575838 0.000000 -0.993721 -0.000002
2.745762 0.696249 0.678580 0.000000 0.377297 0.000008
1.527408 0.754663 0.517644 -0.067734 0.009369 0.009551
2.343800 0.730790 0.521756 -0.000000 0.735407 -0.000003
2.790425 0.747211 0.629847 -0.000000 0.906296 0.000013
2.522450 0.701027 0.499638 0.000000 0.445029 -0.000014
1.405887 0.693980 0.496583 0.000000 0.353655 -0.000036
2.522450 0.605482 0.670621 0.000001 -0.531505 0.000022
2.477787 0.619993 0.497779 0.000000 -0.399837 -0.000004
0.378650 0.698669 0.498543 0.000000 0.399837 -0.000008
2.232510 0.656469 0.686105 0.000000 -0.024564 0.000009
0.735950 0.709876 0.671597 0.000001 0.531505 0.000022
2.209812 0.564493 0.559814 -0.000000 -0.958692 -0.000004
1.093250 0.734972 0.526627 0.000000 0.773975 -0.000011
1.629782 0.461346 0.429285 -0.067734 -0.001644 0.001692
2.031162 0.608510 0.672482 -0.000002 -0.497506 0.000012
0.576337 0.560419 0.584829 0.000000 -0.999689 -0.000000
2.120487 0.706680 0.502600 -0.000001 0.479819 -0.000012
2.165150 0.599582 0.509554 0.000001 -0.502859 -0.000003
2.914641 0.928317 0.832936 0.066346 0.003306 -0.004423
2.790425 0.620344 0.497626 0.000000 -0.399837 -0.000008
1.683182 0.904598 0.789383 -0.067737 0.003018 -0.003103
1.804403 1.114985 0.982346 -0.067734 0.003694 -0.003796
1.825843 1.298960 1.159089 -0.076423 -0.006051 0.007464
0.378650 0.600443 0.508919 -0.000000 -0.593756 -0.000019
2.120487 0.754776 0.606691 -0.000000 0.982328 0.000003
2.165150 0.747631 0.547130 0.000000 0.906263 -0.000002
2.790425 0.741120 0.535194 -0.000000 0.846588 -0.000009
0.333987 0.747889 0.628392 -0.000000 0.916667 0.000003
0.825275 0.743153 0.538520 -0.000001 0.852218 -0.000004
0.467975 0.620344 0.678450 0.000001 -0.399656 0.000063
0.099349 0.652729 0.664455 -0.385429 -0.000007 0.000073
1.704361 0.442660 0.803903 0.067795 0.007830 0.008725
0.333987 0.571252 0.633003 0.000001 -0.880783 0.000004
0.423312 0.747324 0.546472 -0.000000 0.906295 -0.000025
2.477787 0.747404 0.546645 -0.000000 0.906139 -0.000006
0.032334 0.649227 0.555239 -0.647845 -0.000005 -0.000015
1.182575 0.695788 0.497309 0.000000 0.376825 -0.000034
2.567112 0.581675 0.649122 0.000001 -0.785047 0.000005
2.916989 0.835229 0.447627 0.000000 -0.665477 -0.000336
2.835087 0.563275 0.611840 -0.000001 -0.954941 0.000001
2.879750 0.608214 0.503770 -0.000001 -0.510180 -0.000023
1.436359 0.477899 0.427060 -0.067734 -0.005105 0.005239
2.075825 0.600935 0.508555 0.000000 -0.593837 -0.000019
1.003925 0.719268 0.665030 -0.000001 0.608250 0.000009
0.646625 0.623253 0.496461 -0.000000 -0.352047 -0.000009
2.120487 0.577219 0.533022 -0.000000 -0.833068 -0.000005
2.649552 0.529662 0.476435 0.066342 0.005589 -0.005250
0.869937 0.602934 0.668930 -0.000001 -0.572681 0.000020
0.512637 0.700438 0.499364 0.000000 0.422633 -0.000029
2.996267 0.771417 0.671557 0.000002 -0.665472 0.000393
1.852512 0.565226 0.618596 -0.000001 -0.950787 0.000004
1.048587 0.741974 0.639523 0.000000 0.846588 0.000009
1.635100 0.744788 0.638643 -0.000000 -0.746417 -0.000902
2.567112 0.576902 0.533500 -0.000000 -0.833098 -0.000009
2.805857 0.480481 0.755311 0.066347 -0.003306 -0.004423
2.962489 0.331574 0.296602 0.066345 -0.009189 0.012192
2.742074 0.457694 0.767030 0.066347 -0.003306 -0.004423
2.962489 0.985337 0.879474 0.066344 0.009189 -0.012192
2.705338 0.478714 0.427787 0.066344 -0.003306 0.004424
3.035961 1.027377 0.916956 0.066345 0.006126 -0.008171
2.889017 0.373614 0.334083 0.066344 -0.003306 0.004424
3.071202 0.513398 0.725963 -0.107329 -0.002397 -0.002795
1.805846 0.417246 0.790490 0.060065 -0.004159 -0.004654
2.656437 0.699260 0.677262 0.000000 0.422589 0.000029
0.601962 0.717970 0.666039 0.000001 0.613500 0.000035
3.092551 0.746862 0.674359 -0.107329 0.006322 -0.007361
0.735950 0.616716 0.499251 0.000000 -0.422715 -0.000004
0.557300 0.741364 0.640494 -0.000000 0.845958 0.000004
1.897175 0.564374 0.560218 0.000000 -0.958692 -0.000004
2.388462 0.676094 0.684550 0.000002 0.185551 0.000145
2.433125 0.728369 0.519205 0.000001 0.681129 -0.000004
2.343800 0.641418 0.684664 0.000000 -0.161364 0.000021
2.433125 0.705042 0.674384 -0.000000 0.466933 0.000013
2.388462 0.747935 0.547789 0.000000 0.914285 -0.000003
1.962162 0.457776 0.409119 0.067796 0.007485 -0.008345
1.679335 0.420726 0.394505 -0.067734 -0.003018 0.003103
3.084047 0.436929 0.781245 -0.107328 0.002504 0.002700
0.244663 0.743464 0.637030 -0.000001 0.865797 0.000004
0.914600 0.578791 0.645313 0.000000 -0.804468 0.000001
3.058400 0.656009 0.686124 0.003886 -0.000142 0.011354
1.852512 0.596068 0.512320 0.000000 -0.632420 -0.000008
1.405887 0.717759 0.666203 -0.000001 0.596600 0.000005
2.031162 0.683516 0.493183 0.000000 0.258806 -0.000051
0.289325 0.702053 0.675927 0.000000 0.445065 0.000055
1.852512 0.749011 0.550280 0.000001 0.922458 -0.000003
1.405887 0.613356 0.675170 0.000000 -0.467107 0.000026
1.941837 0.616681 0.499267 0.000000 -0.422715 -0.000007
1.700925 0.810693 0.473368 0.060066 0.004456 0.004985
2.745762 0.606712 0.671394 -0.000001 -0.530288 0.000011
1.631101 0.247925 0.954053 -0.067734 -0.008828 -0.009009
1.227237 0.716222 0.667339 0.000000 0.593744 0.000009
1.271900 0.742646 0.638411 -0.000001 0.859522 0.000016
0.780612 0.577958 0.644123 0.000000 -0.819135 0.000010
0.467975 0.621335 0.497223 -0.000000 -0.376873 -0.000067
1.719956 1.007056 0.912762 -0.076422 -0.003962 0.004896
2.648871 0.767830 0.679105 0.066345 -0.011178 0.010389
2.631866 0.520754 0.710808 0.066345 -0.009189 -0.012192
2.648871 0.767830 0.496971 0.066344 -0.011178 -0.010389
1.596765 0.964423 0.866170 -0.076424 -0.002269 0.002807
1.630204 0.531147 0.497152 -0.067735 -0.002853 0.002933
1.752178 1.077497 0.950861 -0.067733 0.004234 -0.004349
1.752178 0.239414 0.950861 -0.067733 -0.008468 -0.008648
2.254475 0.567554 0.624946 0.000000 -0.926167 0.000011
1.673862 0.619188 0.498131 0.000000 -0.399815 -0.000016
1.897175 0.695788 0.497309 -0.000000 0.376577 -0.000017
1.808182 0.785782 0.486931 0.060065 0.007631 0.008491
2.656437 0.575283 0.536003 0.000001 -0.846642 -0.000034
2.567112 0.735424 0.527196 -0.000000 0.789322 -0.000011
1.361225 0.742177 0.639199 -0.000000 0.859721 0.000008
2.825683 0.847774 0.765425 0.066345 0.003306 -0.004423
1.594417 0.823649 0.423899 -0.076423 -0.002701 -0.003341
3.049836 0.570715 0.496215 -0.107329 -0.004011 0.004675
3.023256 0.756454 0.592776 0.000000 0.999689 0.000000
2.165150 0.607557 0.671916 0.000000 -0.510748 0.000023
0.869937 0.721987 0.513276 -0.000001 0.651804 -0.000032
1.227237 0.617097 0.499073 0.000001 -0.421279 -0.000015
1.687030 0.913012 0.378882 -0.067733 0.003018 0.003103
0.733021 0.560412 0.585134 0.000000 -0.999689 -0.000000
1.673853 0.563987 0.698510 0.067797 0.005264 0.005887
1.182575 0.618102 0.677472 0.000000 -0.399980 0.000016
1.718525 0.598790 0.665921 0.000000 -0.613707 0.000035
1.751015 0.907418 0.346849 0.067796 -0.007370 -0.008218
2.165150 0.700334 0.676761 -0.000000 0.422725 0.000029
0.917529 0.659984 0.686116 0.000000 0.024953 0.000018
1.852512 0.748730 0.626465 -0.000001 0.915163 0.000006
2.936815 0.487419 0.757722 -0.000001 -0.665475 -0.000336
2.969075 0.746243 0.544235 -0.000000 0.895358 -0.000014
0.244663 0.588650 0.656979 0.000000 -0.707107 0.000027
2.879750 0.698669 0.498543 -0.000000 0.398904 -0.000008
2.701100 0.567929 0.550210 -0.000001 -0.924818 -0.000006
1.712881 0.758809 0.518663 0.060065 0.005942 0.006632
2.969075 0.745766 0.632800 0.000000 0.895477 0.000027
1.962162 1.095816 0.977974 0.067798 -0.004261 0.004769
1.926571 0.201820 0.998398 0.067797 0.008521 0.009483
1.763187 0.720074 0.511691 0.000000 0.632914 -0.000008
0.691287 0.740707 0.641525 -0.000000 0.833068 0.000005
0.691287 0.742470 0.537370 0.000001 0.858773 -0.000008
1.271900 0.713726 0.506971 0.000000 0.573555 -0.000039
1.475307 0.431904 0.386053 -0.067733 -0.001644 0.001692
1.450550 0.743427 0.637096 -0.000000 0.872220 0.000004
0.289325 0.567583 0.625017 0.000000 -0.926229 0.000011
0.289325 0.593193 0.514780 -0.000000 -0.670504 -0.000015
1.450550 0.628371 0.681420 0.000000 -0.306699 0.000021
1.986500 0.567698 0.625300 0.000000 -0.925282 0.000003
0.423312 0.578309 0.531452 0.000000 -0.818941 -0.000005
1.495212 0.702670 0.675621 -0.000000 0.445185 0.000027
1.495212 0.615884 0.676438 0.000000 -0.422565 0.000015
1.316562 0.563522 0.612803 0.000000 -0.965846 0.000004
0.244663 0.561645 0.572132 -0.000000 -0.986894 -0.000009
2.209812 0.580690 0.647855 0.000000 -0.786510 0.000003
1.763187 0.615816 0.499673 0.000001 -0.420448 -0.000007
1.756787 0.374317 0.351267 0.060065 -0.003899 0.004364
1.271900 0.588866 0.657195 0.000000 -0.707107 0.000003
2.924412 0.697793 0.677915 0.000001 0.399386 0.000031
0.423312 0.569927 0.630332 0.000000 -0.906215 0.000013
1.498714 0.820583 0.450871 -0.067734 0.004685 0.004810
1.941837 0.568548 0.548770 -0.000001 -0.914018 -0.000006
1.863563 0.226624 0.194056 0.067795 0.002361 -0.002646
0.691287 0.570056 0.630609 0.000000 -0.895671 0.000003
0.735950 0.616993 0.676955 -0.000001 -0.422339 0.000029
1.405887 0.565941 0.555382 0.000000 -0.942077 -0.000002
1.852512 0.700334 0.499315 0.000001 0.416778 -0.000007
0.646625 0.701369 0.676268 -0.000000 0.444922 0.000027
1.182575 0.576500 0.534105 -0.000000 -0.832827 -0.000009
0.646625 0.704434 0.501370 0.000000 0.467107 -0.000026
2.907140 0.452169 0.391225 0.066344 -0.006613 0.008814
1.742839 0.355244 0.878338 0.067797 0.001641 0.001840
1.605136 0.278588 0.926714 -0.067734 -0.009549 -0.009731
3.088547 0.455618 0.411493 -0.107328 0.004420 -0.004764
0.691287 0.570975 0.543619 -0.000000 -0.895826 -0.000002
2.701100 0.745766 0.543276 0.000000 0.895516 -0.000002
1.003925 0.639690 0.491739 -0.000001 -0.173261 -0.000010
1.897175 0.702464 0.675723 0.000001 0.442552 0.000014
0.333987 0.748500 0.549086 0.000001 0.916330 -0.000012
2.790425 0.702259 0.500251 -0.000001 0.444942 -0.000055
2.835087 0.744548 0.540980 0.000000 0.872386 -0.000002
2.477787 0.565038 0.618013 -0.000001 -0.949023 0.000002
0.244663 0.745213 0.542229 -0.000000 0.884090 -0.000029
0.780612 0.748607 0.626745 -0.000001 0.911117 0.000003
2.611775 0.678644 0.492028 -0.000000 0.210361 -0.000127
2.924412 0.568090 0.626255 0.000000 -0.916300 0.000001
2.388462 0.607327 0.504297 -0.000002 -0.347918 -0.000004
2.656437 0.570855 0.632218 -0.000000 -0.895301 0.000007
1.927120 0.520095 0.467506 0.060065 -0.004735 0.005294
0.103014 0.658456 0.509842 -0.378350 0.000000 -0.000019
2.477787 0.632952 0.682774 -0.000000 -0.258744 0.000025
2.951861 0.877770 0.409699 0.066345 -0.004022 -0.003784
3.054616 0.731311 0.656590 -0.000002 0.746414 0.000569
1.850096 1.041485 0.236340 0.067794 -0.002764 -0.003097
1.759329 0.525851 0.724729 0.067796 0.006761 0.007546
3.025322 0.911642 0.374127 -0.107329 -0.002210 -0.002383
0.136961 0.568775 0.588038 -0.246309 -0.000070 0.000002
2.307191 0.756553 0.588802 0.000000 0.999689 0.000000
1.539875 0.652954 0.685994 0.000000 -0.062378 0.000219
2.120487 0.570787 0.632081 -0.000000 -0.895462 0.000014
1.575154 0.762771 0.474994 -0.076421 -0.007491 -0.009226
0.668590 0.661741 0.490004 0.000000 0.024953 -0.000004
2.885186 0.747245 0.491682 0.000000 0.665479 0.000449
1.962162 0.202888 0.181871 0.067797 0.008521 -0.009483
2.722437 0.545044 0.676256 0.066348 0.004022 0.003784
1.316562 0.696036 0.497410 0.000000 0.376866 -0.000034
1.789012 1.081331 0.224976 -0.067736 0.004054 0.004165
1.616239 0.329491 0.289403 -0.076422 0.004250 -0.005251
1.718525 0.698809 0.677472 -0.000000 0.422416 0.000007
2.572237 0.661512 0.686078 0.000000 0.024953 0.000072
1.911179 0.332574 0.874472 0.060064 -0.003444 -0.003857
1.514629 0.487369 0.732404 -0.067733 -0.004685 -0.004810
1.797670 0.367222 0.862667 0.067797 0.003282 0.003677
1.137912 0.749870 0.552407 -0.000000 0.935003 -0.000005
2.898345 0.747245 0.684394 0.000000 0.665479 -0.000449
1.848172 0.270078 0.250964 0.060066 -0.003119 0.003494
1.521019 0.792102 0.480658 -0.067734 0.009369 0.009551
1.807850 0.664872 0.490139 -0.000001 0.061224 -0.000056
1.751771 0.765819 0.666799 0.060065 0.004456 -0.004985
1.673987 1.009346 0.284038 -0.067733 0.005135 0.005270
1.526799 0.447706 0.393748 -0.076422 0.002701 -0.003341
3.144429 0.750487 0.505986 -0.107330 -0.002888 -0.003114
1.734044 0.805083 0.700376 0.060066 0.001114 -0.001249
1.495212 0.568380 0.549156 -0.000000 -0.915825 -0.000003
2.433125 0.755476 0.602662 0.000000 0.990594 0.000002
1.681549 0.770407 0.462679 0.067795 -0.005264 -0.005887
0.914600 0.564698 0.559118 0.000000 -0.959316 -0.000001
0.333987 0.624540 0.495974 -0.000000 -0.353588 -0.000018
2.254475 0.754482 0.608152 -0.000000 0.977610 0.000006
2.522450 0.748317 0.627411 0.000000 0.916594 0.000006
1.653309 0.339724 0.862747 -0.067734 -0.005496 -0.005637
0.160337 0.651381 0.493632 -0.147889 -0.000025 -0.000250
1.883283 1.105401 0.195916 0.060066 0.010397 0.011491
1.909599 0.783863 0.480467 0.060065 0.002367 0.002653
1.918875 0.279335 0.922559 0.060063 -0.001560 -0.001749
2.877176 0.405760 0.367043 0.066345 0.004022 -0.003784
1.883283 1.098675 0.987703 0.067796 -0.004721 0.005283
1.093250 0.633359 0.682883 0.000000 -0.258871 0.000051
1.897175 0.745970 0.543687 0.000000 0.894592 -0.000003
2.209812 0.747647 0.628912 -0.000000 0.906139 0.000003
1.048587 0.596630 0.511860 -0.000001 -0.630701 -0.000008
0.512637 0.627498 0.681139 0.000000 -0.305454 0.000005
1.584537 0.632472 0.493431 0.000000 -0.258810 -0.000102
2.891464 0.662582 0.686051 0.000000 0.024953 0.000018
1.766887 0.861549 0.786887 0.067796 -0.003915 0.004384
1.839995 1.082260 0.977009 0.067796 -0.005067 0.005667
2.892382 0.490255 0.420883 0.000000 -0.665479 0.000673
1.536934 0.801062 0.702618 -0.067734 0.004685 -0.004810
1.584537 0.622043 0.679141 0.000001 -0.376577 0.000067
1.605136 1.038323 0.249362 -0.076425 -0.003962 -0.004896
2.835087 0.698494 0.677609 0.000000 0.399003 0.000016
0.959262 0.583693 0.524507 0.000000 -0.757769 -0.000003
1.812099 1.131812 0.178107 -0.067735 0.007027 0.007193
2.976397 0.660672 0.686127 -0.000000 0.012480 0.000009
1.807770 0.426203 0.366915 0.067795 0.001843 -0.002066
2.793252 0.769934 0.704622 0.066342 0.003307 -0.004424
1.227237 0.568135 0.626360 0.000000 -0.915825 0.000003
1.455003 0.565523 0.513971 -0.067736 -0.002553 0.002625
2.767663 0.814576 0.440250 0.066347 0.003306 0.004423
2.852730 0.803967 0.441111 0.066345 0.006612 0.008814
1.962162 1.059404 0.945509 0.067797 -0.002361 0.002646
1.742839 0.961667 0.297738 0.067797 -0.001641 -0.001840
2.835087 0.618102 0.677472 0.000000 -0.399980 0.000016
1.405887 0.575751 0.640818 0.000001 -0.843799 0.000004
2.967560 0.535568 0.495670 0.000000 0.665479 -0.000393
2.954577 0.512879 0.700635 -0.000001 0.665479 0.001122
2.954577 0.804032 0.475441 0.000000 -0.665478 -0.001122
3.010634 0.495863 0.460270 -0.000000 0.665479 -0.000336
3.010634 0.821048 0.715806 -0.107330 -0.005007 0.005395
1.618239 0.830324 0.723356 -0.067735 0.003378 -0.003472
1.137912 0.578660 0.645125 0.000001 -0.818142 0.000010
2.951861 0.877770 0.766378 0.066345 -0.008044 0.007526
1.962162 1.259673 1.124062 0.067797 -0.004836 0.005411
1.681274 0.471160 0.443696 0.060064 -0.004456 0.004985
1.921761 1.280568 0.036642 0.060066 0.010397 0.011491
0.965852 0.659220 0.489941 0.000000 0.024953 -0.000009
1.932823 0.415194 0.807593 0.067797 0.003512 0.003934
1.909599 0.537530 0.700637 0.067795 0.002098 0.002352
1.863082 1.161364 0.147650 0.060064 0.004679 0.005232
1.932823 0.904219 0.804787 0.060065 0.003964 -0.004437
1.837109 0.439917 0.772798 0.060066 -0.002112 -0.002368
0.244663 0.615954 0.499606 0.000000 -0.422715 -0.000004
1.443850 0.758657 0.491258 -0.076423 -0.002041 -0.002525
1.962162 1.223260 0.084478 0.067796 -0.005758 -0.006435
1.773912 1.237634 1.104413 -0.076423 -0.008355 0.010278
1.805753 0.102543 1.088749 -0.076423 0.004466 0.005517
1.818736 1.229699 0.073658 -0.076423 -0.007779 -0.009577
1.809213 0.994120 0.274847 0.067796 -0.001526 -0.001711
1.718525 0.565751 0.620153 0.000000 -0.943901 0.000002
1.690378 0.961950 0.331644 -0.067734 0.005495 0.005637
0.064193 0.707901 0.557823 -0.522860 0.000033 -0.000019
1.003925 0.620627 0.678565 0.000000 -0.377031 0.000034
3.013737 0.749299 0.550988 -0.000001 0.926027 -0.000022
1.691100 0.805110 0.432609 0.067796 -0.003948 -0.004421
2.699035 0.804949 0.722945 0.066341 0.003063 -0.004099
1.776026 0.989213 0.308152 0.060065 0.007278 0.008105
1.737891 0.522537 0.446440 0.067795 0.001316 -0.001476
1.914065 0.089583 1.091347 0.060064 -0.003639 -0.004075
3.103524 0.757424 0.588038 -0.018853 0.006201 0.000309
1.003925 0.568044 0.549926 0.000000 -0.926262 -0.000011
1.458664 0.506379 0.456847 -0.067734 -0.002553 0.002625
1.819794 0.168271 0.162485 0.060066 -0.004679 0.005232
1.622900 0.529763 0.450590 -0.076422 0.007491 -0.009226
1.823161 0.939329 0.324967 0.067797 -0.001727 -0.001937
1.575154 0.535371 0.496046 -0.067734 -0.004685 0.004810
0.333987 0.565928 0.555418 -0.000001 -0.942516 -0.000005
3.082792 0.404600 0.358485 -0.107330 -0.002116 0.002467
2.920058 0.510043 0.472913 0.000000 0.665479 -0.001122
0.512637 0.754232 0.566766 -0.000000 0.977632 -0.000006
2.753600 0.747245 0.684394 0.066345 0.003306 -0.004423
0.070987 0.632909 0.531420 -0.496272 -0.000019 -0.000039
1.521019 0.537262 0.709386 -0.076423 0.003746 0.004630
2.522450 0.627207 0.495031 0.000000 -0.330350 -0.000010
1.756787 0.925082 0.844450 0.067798 -0.001756 0.001969
1.719752 0.387024 0.365582 0.060065 -0.008318 0.009242
0.512637 0.568212 0.549541 -0.000001 -0.911117 -0.000003
2.969075 0.566231 0.554553 0.000000 -0.943855 -0.000019
1.756701 1.131255 0.159326 -0.076423 -0.005618 -0.006934
2.754868 0.836896 0.751428 0.066348 0.003306 -0.004423
1.865968 0.067309 0.068747 0.060064 -0.003120 0.003494
1.708413 0.994857 0.874701 -0.067733 0.005135 -0.005270
1.694665 0.275407 0.254746 -0.067733 -0.009549 0.009731
1.716108 1.011684 0.285753 -0.067734 0.009909 0.010091
0.512637 0.628298 0.494679 -0.000000 -0.306662 -0.000085
0.580729 0.655093 0.490006 -0.000000 -0.024953 -0.000036
1.811893 0.482510 0.417491 0.067796 0.006761 -0.007546
2.120487 0.738449 0.644843 0.000001 0.790724 0.000002
0.780612 0.624683 0.495920 -0.000000 -0.353772 -0.000009
1.837109 0.895200 0.387046 0.060065 0.008318 0.009242
0.512637 0.567237 0.624167 0.000000 -0.926092 0.000001
0.959262 0.636437 0.683649 0.000000 -0.234300 0.000028
1.851539 0.199323 1.007455 0.067796 0.009212 0.010238
2.343800 0.754498 0.608077 0.000001 0.960379 0.000001
2.813078 0.798360 0.480498 0.066344 -0.008044 -0.007527
1.724149 0.481445 0.449409 0.060063 -0.002971 0.003328
1.763187 0.568548 0.548770 -0.000001 -0.906623 -0.000003
0.780612 0.697583 0.498070 -0.000000 0.399904 -0.000016
2.173936 0.560381 0.586357 0.000000 -0.999689 -0.000000
0.715449 0.756495 0.584981 0.000000 0.999689 -0.000000
1.763039 0.464103 0.396633 0.067796 0.003915 -0.004384
1.763039 0.447125 0.760400 0.060064 -0.002210 -0.002477
1.763039 0.869786 0.415676 0.060065 0.002210 0.002477
1.962162 1.150435 0.149406 0.067796 -0.007600 -0.008471
2.343800 0.584491 0.523580 0.000000 -0.758154 -0.000001
2.611775 0.596749 0.511763 0.000001 -0.632965 -0.000033
3.029528 0.851043 0.403438 -0.107329 0.002397 0.002795
0.580729 0.655093 0.686070 0.000000 -0.024953 0.000036
1.316562 0.754176 0.609572 0.000000 0.977430 0.000003
1.774060 0.198094 0.988942 -0.067735 -0.003694 -0.003796
1.941962 0.066719 0.058628 0.067797 0.004836 -0.005411
1.393750 0.729226 0.519979 0.000000 -0.746417 0.000150
1.397411 0.793017 0.708009 -0.076421 -0.002041 0.002525
1.460494 0.837780 0.750399 -0.076421 -0.003746 0.004630
1.058106 0.655552 0.686082 0.000000 -0.024953 0.000274
1.852501 0.955917 0.863228 0.067796 -0.006564 0.007328
1.622087 0.478173 0.731168 -0.067736 -0.001689 -0.001738
1.629200 0.699918 0.499122 0.000000 0.422715 -0.000004
0.273217 0.663041 0.686040 0.000000 0.024953 0.000018
2.701100 0.748011 0.628112 -0.000001 0.849893 0.000001
1.227237 0.737916 0.530487 0.000000 0.804468 -0.000001
1.727448 0.946714 0.349959 -0.067734 0.005495 0.005637
1.458664 0.805884 0.724443 -0.076418 -0.002041 0.002525
1.419715 0.557022 0.492641 -0.076423 0.002041 -0.002525
1.622900 0.787148 0.725486 -0.076423 -0.007491 0.009226
1.436359 0.477899 0.749016 -0.067733 -0.005105 -0.005239
0.467975 0.755896 0.599479 -0.000001 0.992800 0.000002
1.591069 0.526411 0.687230 -0.067733 -0.009369 -0.009551
1.890017 1.232314 0.069838 0.067798 -0.002879 -0.003226
1.734143 1.044590 0.920592 -0.067733 0.004595 -0.004718
1.774583 0.879033 0.374302 0.067797 -0.003742 -0.004191
1.929456 0.022305 0.017891 0.067796 0.007830 -0.008725
1.929456 0.019516 1.155057 0.060064 -0.010397 -0.011491
1.509764 0.569618 0.682130 -0.076423 0.004082 0.005044
1.698864 0.484716 0.721712 0.060069 -0.002228 -0.002497
2.753600 0.764327 0.510841 0.066345 -0.004022 -0.003784
1.718525 0.752944 0.614464 0.000000 0.965588 0.000002
3.024975 0.744409 0.681865 -0.107329 0.004011 -0.004675
0.321541 0.662888 0.490032 0.000000 0.024953 -0.000018
0.780612 0.751650 0.557371 0.000000 0.951756 -0.000002
0.512637 0.693229 0.679778 0.000001 0.353479 0.000072
1.875587 0.246544 0.227771 0.060065 -0.002860 0.003204
1.890978 0.194683 0.180294 0.060065 -0.010397 0.011491
2.299137 0.567122 0.552192 0.000000 -0.935429 -0.000003
1.962162 1.277879 0.035782 0.067794 -0.007830 -0.008725
3.049836 0.570715 0.679862 -0.107329 -0.004011 -0.004675
1.656392 1.043232 0.240343 -0.076423 -0.007635 -0.009402
2.987149 0.355521 0.324400 0.066346 0.011177 -0.010389
1.820756 1.041505 0.918152 0.060063 0.001560 -0.001749
1.361225 0.669060 0.685573 -0.000000 0.111828 0.000061
2.879750 0.755810 0.575838 0.000000 0.993683 -0.000000
1.730295 1.023464 0.249036 -0.076422 -0.007347 -0.009050
1.539875 0.569054 0.628461 0.000000 -0.906263 0.000002
2.871851 0.575273 0.531070 0.000000 -0.746416 -0.000602
1.621469 0.428113 0.779871 -0.067734 -0.001599 -0.001645
1.835186 1.171467 0.119095 0.067796 -0.003800 -0.004256
2.477787 0.727991 0.657249 0.000000 0.707107 0.000014
1.697077 0.537234 0.455828 0.067793 0.001974 -0.002213
1.539875 0.747631 0.628946 0.000000 0.906278 0.000013
2.753816 0.654787 0.686063 0.000000 -0.024944 0.000018
3.013737 0.568029 0.549962 -0.000001 -0.926221 -0.000044
1.774995 0.774633 0.467419 0.067796 -0.006761 -0.007546
2.522450 0.560707 0.596437 -0.000001 -0.994161 0.000001
0.289325 0.722450 0.513675 0.000000 0.652307 -0.000032
2.469733 0.756492 0.584829 0.000000 0.999689 -0.000000
2.987149 0.954985 0.317215 0.066344 0.009189 0.012192
1.815466 0.382557 0.353883 0.060065 -0.001950 0.002186
1.316562 0.626233 0.495372 -0.000000 -0.330315 -0.000039
2.924412 0.569022 0.547684 0.000000 -0.916461 -0.000001
1.712331 0.476570 0.403132 0.067796 0.006761 -0.007546
1.815466 0.921846 0.836222 0.067796 -0.003512 0.003934
3.029528 0.465868 0.772638 -0.107330 -0.002397 -0.002795
2.969075 0.563104 0.611134 0.000000 -0.971962 0.000007
2.753600 0.569666 0.491682 -0.000000 -0.665478 0.000897
1.127662 0.656698 0.686110 0.000000 -0.024953 0.000018
0.869937 0.697198 0.678175 0.000001 0.399725 0.000063
1.899636 0.871836 0.392103 0.067795 -0.003743 -0.004191
2.806234 0.552584 0.665235 0.000000 0.665479 0.000897
2.832904 0.809704 0.705692 0.066345 -0.008044 0.007526
1.670317 0.879732 0.409639 -0.067733 0.003198 0.003288
2.690593 0.568666 0.679913 0.066343 -0.006126 -0.008172
2.722437 0.545044 0.499820 0.066344 0.008044 -0.007527
1.655528 0.829702 0.412986 -0.076422 -0.002701 -0.003341
2.835797 0.558257 0.515898 -0.000002 0.665476 -0.000673
2.656437 0.753726 0.611469 -0.000001 0.971763 0.000007
3.058400 0.753538 0.612249 -0.017247 0.002489 0.000595
1.922723 1.097246 0.193238 0.067797 -0.004721 -0.005283
1.003925 0.565600 0.619720 0.000002 -0.844675 0.000001
1.837109 0.876994 0.772798 0.060064 0.002112 -0.002368
1.774583 0.412781 0.384126 0.060065 -0.002080 0.002331
2.031162 0.697163 0.678190 -0.000001 0.397621 0.000016
1.942443 0.247689 0.956058 0.067798 0.004721 0.005283
1.942443 1.069222 0.220018 0.067795 -0.004721 -0.005283
1.777379 1.164070 1.045306 -0.076420 -0.002521 0.003118
1.720576 0.755037 0.479936 0.067794 -0.003948 -0.004421
1.734143 0.284706 0.934484 -0.076423 0.003674 0.004541
1.696544 0.217866 0.984793 -0.076421 0.003242 0.004008
0.601962 0.748760 0.549681 0.000001 0.887531 -0.000002
1.538680 0.393272 0.348589 -0.076423 0.002485 -0.003074
1.611952 0.901550 0.359218 -0.076422 -0.004826 -0.005960
2.611775 0.601181 0.667702 0.000000 -0.573358 0.000010
2.086075 0.756532 0.586433 0.000000 0.999689 -0.000000
3.112549 0.600183 0.507833 -0.018852 -0.006252 -0.007328
1.621469 0.888798 0.396205 -0.067731 0.001599 0.001645
1.227237 0.627280 0.681069 0.000001 -0.287159 0.000011
1.802960 0.273274 0.230130 0.067795 0.001382 -0.001550
3.130599 0.577975 0.646511 -0.018853 -0.007747 0.005803
2.433125 0.643908 0.491007 0.000000 -0.136888 -0.000025
2.946023 0.761490 0.513370 -0.000003 -0.665446 -0.000393
2.872556 0.815312 0.745079 0.066347 0.003306 -0.004423
1.596341 0.828020 0.755899 -0.076423 -0.001351 0.001671
3.013737 0.692228 0.495920 0.000001 0.353529 -0.000036
1.590395 0.560431 0.591706 0.000000 -0.999689 0.000000
0.780612 0.687521 0.681748 -0.000001 0.304091 0.000021
2.835087 0.632879 0.493322 -0.000000 -0.258744 -0.000025
1.796708 0.218753 0.209353 0.060064 -0.005719 0.006386
1.934747 0.951604 0.851895 0.067797 -0.001641 0.001840
1.658258 0.380091 0.849923 -0.076423 0.004538 0.005606
1.689519 0.759744 0.656364 0.060065 0.005942 -0.006632
1.782278 0.920957 0.368503 0.060065 0.004159 0.004654
1.316562 0.707514 0.673009 -0.000000 0.510793 0.000046
1.727997 0.823914 0.419203 0.067795 -0.006761 -0.007546
1.845080 0.832421 0.422277 0.067795 -0.006761 -0.007546
1.774583 0.437878 0.801774 0.067796 0.003743 0.004191
3.038808 0.491598 0.723907 -0.107330 0.002504 0.002700
1.727448 0.946714 0.826117 -0.067734 0.005496 -0.005637
1.743718 0.200988 0.172995 -0.076422 0.006195 -0.007641
2.065574 0.655704 0.489991 0.000000 -0.024953 -0.000274
1.720576 0.561874 0.479936 0.067794 0.003948 -0.004421
1.728272 0.524448 0.688659 0.060065 -0.002228 -0.002498
1.568773 0.427461 0.785493 -0.067735 -0.001644 -0.001691
1.927120 0.805919 0.716687 0.060071 0.002367 -0.002653
3.058400 0.560461 0.592929 -0.014405 -0.003059 0.000187
1.271900 0.670656 0.685393 -0.000000 0.137271 0.000012
0.780612 0.567842 0.550422 0.000000 -0.926248 -0.000011
2.790425 0.564288 0.560511 0.000000 -0.959091 -0.000004
0.914600 0.618662 0.498360 0.000000 -0.399895 -0.000063
2.031162 0.750344 0.622418 -0.000000 0.935317 0.000005
2.165150 0.731508 0.653527 -0.000000 0.741428 0.000012
1.182575 0.728099 0.518935 0.000000 0.707107 -0.000014
0.869937 0.572998 0.539847 0.000000 -0.872207 -0.000008
1.787569 1.004119 0.912114 0.067793 -0.002994 0.003355
1.899636 0.430640 0.786110 0.060064 -0.004159 -0.004654
1.661415 0.660748 0.686097 0.000000 0.024953 0.000274
0.099349 0.696771 0.521674 -0.385429 0.000040 -0.000065
0.152495 0.712889 0.663750 -0.178375 0.000123 0.000163
3.095157 0.487338 0.744899 -0.107329 -0.002397 -0.002795
1.918875 1.046679 0.245401 0.060065 0.005849 0.006529
2.749295 0.804066 0.726456 0.066345 0.003306 -0.004423
1.860196 0.316610 0.884595 0.060064 -0.006759 -0.007533
1.891459 0.308897 0.269948 0.067796 0.001411 -0.001582
1.578291 0.451532 0.414875 -0.067733 -0.001644 0.001692
1.689519 0.736497 0.493638 0.067796 -0.005264 -0.005887
1.783721 0.321534 0.271406 0.067797 0.001526 -0.001711
1.697215 0.540340 0.504089 0.060065 -0.005942 0.006632
3.094499 0.561817 0.567497 -0.018851 -0.009780 -0.001375
1.930899 0.859048 0.764359 0.060064 0.004224 -0.004726
1.648044 0.798931 0.486047 -0.067736 0.002853 0.002933
2.558394 0.754117 0.673327 0.066344 0.006126 -0.008172
1.962162 0.148270 0.133174 0.067795 0.003340 -0.003741
1.539875 0.750411 0.553837 -0.000000 0.935312 -0.000005
1.563324 0.954840 0.320946 -0.076421 -0.004682 -0.005783
2.923825 0.383339 0.837621 0.066345 -0.006126 -0.008171
0.289325 0.628371 0.681420 0.000000 -0.306709 0.000085
1.681259 0.416519 0.785477 -0.067734 -0.001509 -0.001553
1.859234 1.144174 1.030458 0.067797 -0.004146 0.004641
1.622509 0.768937 0.512775 -0.067735 0.002853 0.002933
1.703743 0.370619 0.827951 -0.067734 -0.002838 -0.002918
1.938595 0.306498 0.903976 0.067798 0.002821 0.003162
1.618118 0.263256 0.235693 -0.067734 -0.009549 0.009731
1.789546 0.756545 0.586968 0.000000 0.999689 -0.000000
1.611748 0.494253 0.459554 -0.067733 -0.001734 0.001784
1.137912 0.624898 0.495839 0.000000 -0.353707 -0.000072
1.986500 0.745338 0.542465 -0.000000 0.883239 -0.000004
1.844324 0.288539 0.928571 0.067795 0.002821 0.003162
0.601962 0.693980 0.496583 -0.000000 0.353691 -0.000072
2.825683 0.847774 0.410651 0.066344 0.006613 0.008814
1.626357 0.753100 0.698313 -0.076421 -0.002281 0.002822
0.106703 0.608761 0.650353 -0.356727 -0.000053 0.000064
2.965889 0.405742 0.375623 0.066344 0.004022 -0.003784
2.862114 0.758654 0.660178 0.000000 -0.665480 0.000673
3.045698 0.533023 0.463312 -0.107328 -0.002397 0.002795
1.770254 0.344870 0.323927 0.060064 -0.001950 0.002186
1.825085 0.352420 0.326239 0.060066 -0.003704 0.004147
1.557612 0.833220 0.444167 -0.067734 0.006937 0.007102
2.852378 0.541240 0.675349 0.000000 0.665479 0.000673
1.642796 0.582527 0.684808 0.067796 0.005264 0.005887
1.930899 0.457863 0.764359 0.060064 -0.004224 -0.004726
1.998215 0.560355 0.588649 0.000000 -0.999689 0.000000
3.054911 0.940348 0.832916 -0.107329 -0.006629 0.007138
1.599791 0.379222 0.829431 -0.067737 -0.001464 -0.001506
1.618239 0.830324 0.452720 -0.067734 0.003378 0.003472
1.665883 0.530077 0.729469 0.067794 0.003948 0.004421
1.837109 0.450580 0.391319 0.067798 0.001871 -0.002098
3.094499 0.600384 0.667967 -0.018853 -0.005392 0.007983
1.897175 0.750705 0.621451 0.000000 0.943901 0.000002
1.773002 0.112277 1.072433 -0.067735 -0.002973 -0.003057
3.013737 0.601119 0.667657 -0.000001 -0.582803 0.000009
1.775201 0.580823 0.674273 0.067799 0.003948 0.004421
1.841370 0.770673 0.476992 0.067796 -0.006761 -0.007546
2.761360 0.522772 0.479963 0.066343 0.008044 -0.007527
1.518128 0.734870 0.672915 -0.076423 -0.003061 0.003785
2.315977 0.560381 0.586357 0.000000 -0.999689 -0.000000
3.065059 0.362341 0.856342 -0.107329 -0.006347 -0.007390
3.065059 0.358071 0.324524 -0.107329 0.006629 -0.007138
3.077718 0.901998 0.809470 -0.107329 0.002116 -0.002467
0.378650 0.605223 0.670458 0.000000 -0.552990 0.000041
1.733700 0.863529 0.384403 0.067796 -0.003915 -0.004384
1.584537 0.701027 0.676438 -0.000000 0.445341 0.000007
1.673862 0.567027 0.623634 0.000000 -0.935312 0.000005
1.811893 0.847214 0.431862 0.060064 0.007631 0.008491
1.811893 0.469697 0.744214 0.060064 -0.007631 -0.008491
2.761360 0.522772 0.696113 0.066340 0.004022 0.003784
3.130599 0.559521 0.598437 -0.018854 -0.009988 0.000463
3.112549 0.708025 0.673895 -0.018853 0.004510 0.008609
2.872556 0.501599 0.745079 0.000000 -0.665479 -0.000449
1.575154 0.762771 0.701082 -0.076422 -0.003746 0.004630
1.361225 0.569571 0.546506 0.000000 -0.906284 -0.000006
1.875587 0.264750 0.932073 0.060068 -0.001560 -0.001749
2.996267 0.562576 0.485361 -0.000001 -0.665477 0.000393
0.467975 0.692800 0.496136 0.000000 0.353657 -0.000072
2.991487 0.791269 0.486820 -0.000000 -0.665478 -0.000393
1.473562 0.749142 0.680057 -0.076426 -0.003061 0.003785
1.712056 0.891734 0.357286 0.067796 -0.001871 -0.002098
1.704361 0.442660 0.372173 0.067796 0.007830 -0.008725
1.842881 0.127961 1.071868 0.067797 0.007370 0.008218
1.842881 0.127961 0.104208 0.067796 0.007370 -0.008218
1.797670 0.958792 0.305293 0.067795 -0.001641 -0.001840
2.254475 0.626630 0.680843 0.000000 -0.330316 0.000078
2.863877 0.869629 0.784910 0.066346 0.003306 -0.004423
2.800283 0.513312 0.730339 0.066343 -0.006613 -0.008814
2.120487 0.735166 0.526864 0.000000 0.789499 -0.000005
2.892382 0.826656 0.420883 0.066345 0.006613 0.008814
1.539782 0.890525 0.789282 -0.067734 0.003288 -0.003380
2.951861 0.456222 0.785536 -0.000000 -0.665477 -0.000673
2.961421 0.478846 0.730978 0.000000 0.665477 0.000673
1.526799 0.875193 0.400464 -0.067734 0.001644 0.001692
0.315683 0.560450 0.592470 0.000000 -0.999689 0.000000
1.759329 0.808355 0.470745 0.060058 0.001486 0.001666
1.361225 0.591720 0.659962 0.000000 -0.689344 0.000004
2.209812 0.688431 0.681455 -0.000001 0.306285 0.000042
2.254475 0.647547 0.490538 0.000000 -0.111976 -0.000242
3.005854 0.823820 0.752665 -0.107330 0.004794 -0.005586
2.996293 0.436305 0.407170 0.000000 0.665478 -0.000673
2.986028 0.504436 0.433525 0.000001 -0.665478 0.000336
2.956641 0.840836 0.767836 -0.000001 0.665479 -0.000673
2.998657 0.555421 0.662707 0.000000 0.665479 0.000785
1.761184 0.821934 0.752086 0.067796 -0.006761 0.007546
3.148649 0.638982 0.685940 -0.018463 -0.000496 0.002342
1.715344 1.073663 0.225454 -0.067738 0.004414 0.004533
2.946023 0.555421 0.662707 0.000002 0.665472 0.000393
3.043308 0.806625 0.468831 -0.107329 -0.005007 -0.005395
1.758230 0.302889 0.888609 0.060066 -0.006758 -0.007533
1.048587 0.672927 0.490997 0.000001 0.135562 -0.000050
0.160337 0.589057 0.652430 -0.147889 -0.000189 0.000166
1.927120 0.504876 0.728154 0.067792 0.002098 0.002352
1.962162 0.530601 0.474048 0.067797 0.005593 -0.006252
1.539875 0.604650 0.505998 -0.000001 -0.552835 -0.000041
1.903484 0.916991 0.823881 0.067796 -0.001756 0.001969
1.579917 0.529450 0.454573 -0.076424 0.003746 -0.004630
1.452172 0.514045 0.712395 -0.067732 -0.005105 -0.005239
2.164418 0.756454 0.583300 0.000000 0.999689 -0.000000
1.748330 0.247828 0.233026 -0.067734 -0.004234 0.004349
1.897175 0.575832 0.640947 0.000000 -0.846857 0.000004
0.914600 0.740537 0.534296 0.000001 0.822289 -0.000002
0.152495 0.726812 0.524613 -0.178377 0.000149 -0.000145
1.679714 0.241940 0.212396 -0.076423 0.003530 -0.004363
1.719866 1.130784 1.012740 -0.076428 -0.002953 0.003652
1.654309 0.437752 0.373139 -0.076423 0.001207 -0.001493
0.064193 0.709345 0.615751 -0.522863 0.000033 0.000017
2.388462 0.686826 0.494119 0.000000 0.282793 -0.000093
3.038808 0.504409 0.437800 -0.107329 -0.002397 0.002795
2.656437 0.694939 0.496964 -0.000000 0.376899 -0.000134
2.536361 0.661436 0.489996 0.000000 0.024953 -0.000036
2.902071 0.891483 0.371682 0.066344 0.006613 0.008814
1.903484 0.394917 0.818269 0.060064 -0.003899 -0.004364
2.863877 0.878169 0.400746 0.066344 -0.004022 -0.003784
2.991513 0.883378 0.370311 -0.107330 0.004231 0.004932
1.922723 0.246975 0.217586 0.067796 0.004721 -0.005283
1.316562 0.633359 0.682883 0.000000 -0.258793 0.000051
1.857036 0.754247 0.683013 0.067795 -0.002098 0.002352
1.736022 1.098440 0.187882 -0.076421 -0.006195 -0.007641
3.020248 0.414516 0.383445 -0.107330 0.002210 -0.002383
1.826431 1.247183 1.117305 -0.076425 -0.007779 0.009577
1.450550 0.673532 0.684984 0.000000 0.161300 0.000167
2.083147 0.657386 0.686128 0.000000 -0.024953 0.000009
1.844805 0.930234 0.355191 0.060065 0.007798 0.008674
1.093250 0.752299 0.559411 -0.000001 0.767388 -0.000001
1.915027 1.006937 0.903023 0.067792 -0.002821 0.003162
1.633070 0.300743 0.273534 -0.067734 -0.010269 0.010449
3.148649 0.708366 0.588038 1.000000 0.000000 0.000000
2.872027 0.569666 0.491682 0.000000 -0.665479 0.000449
2.779917 0.764327 0.665235 0.000000 -0.665479 0.000897
1.742839 0.355244 0.297738 0.067797 0.001641 -0.001840
3.086437 0.865785 0.398892 -0.107329 0.002397 0.002795
3.086437 0.870055 0.772395 -0.107329 -0.002504 0.002700
3.015414 0.515715 0.698106 0.000000 0.665477 0.000785
1.666731 0.253252 0.945503 -0.067734 -0.004414 -0.004533
2.969075 0.678345 0.491964 -0.000000 0.210253 -0.000063
2.756745 0.560423 0.584676 0.000000 -0.999689 -0.000000
0.646625 0.752796 0.614979 0.000000 0.959316 0.000001
1.870778 1.179502 1.060905 0.067796 -0.003685 0.004127
2.005536 0.657386 0.686128 0.000000 -0.024953 0.000018
2.241296 0.560340 0.587962 -0.000000 -0.999922 -0.000000
2.835087 0.751273 0.619828 -0.000001 0.943588 0.000010
0.984888 0.560355 0.588649 0.000000 -0.999689 0.000000
1.673222 1.071325 0.223739 -0.067734 0.008828 0.009009
1.594526 0.557479 0.519363 -0.067733 -0.002853 0.002933
1.879916 0.355419 0.324492 0.060065 -0.003639 0.004075
1.874625 1.195708 0.116100 0.060064 0.004159 0.004654
1.899636 0.463281 0.408335 0.067794 0.001871 -0.002098
1.112286 0.656774 0.489964 -0.000000 -0.024953 -0.000018
2.722437 0.771867 0.676256 0.066345 -0.008044 0.007527
1.732849 0.170796 0.149667 -0.076422 0.002809 -0.003474
1.578230 0.339867 0.869715 -0.067734 -0.005495 -0.005637
3.058400 0.738120 0.530763 -0.018472 0.001958 -0.001363
0.423312 0.744802 0.634625 0.000000 0.884040 0.000014
1.852512 0.628044 0.494761 -0.000000 -0.306131 -0.000021
1.182575 0.693229 0.679778 -0.000000 0.353812 0.000036
1.639561 1.019159 0.914620 -0.076425 -0.003962 0.004896
1.890978 1.134365 0.157254 0.067794 -0.004261 -0.004770
1.936671 0.356385 0.859675 0.067798 0.003052 0.003419
1.610528 0.463742 0.398456 -0.076424 0.002629 -0.003252
3.052401 0.309769 0.272863 -0.107330 -0.004231 0.004932
3.015665 0.330789 0.884473 0.066344 -0.006126 -0.008172
2.923825 0.383339 0.338455 0.066345 -0.003063 0.004099
2.997297 0.975612 0.875103 0.066344 0.009189 -0.012192
3.017593 0.300044 0.907585 0.066346 -0.006126 -0.008171
1.845355 0.590502 0.659257 0.067797 0.005593 0.006252
1.629200 0.565449 0.556789 -0.000000 -0.951816 -0.000018
1.747923 0.559506 0.517089 0.060062 -0.004457 0.004985
1.397411 0.793017 0.468067 -0.076423 -0.002041 -0.002525
1.930418 0.147563 1.046422 0.067797 0.003800 0.004256
1.697077 0.779677 0.720248 0.067792 -0.001974 0.002213
2.926966 0.428014 0.780596 0.066345 0.004022 0.003784
1.798587 0.157522 1.026045 -0.067733 -0.003333 -0.003426
1.660698 0.837905 0.770229 -0.076424 -0.001279 0.001582
1.579917 0.529450 0.721504 -0.076423 0.007491 0.009226
2.852730 0.512944 0.441111 -0.000001 -0.665478 0.000673
1.766510 0.122649 0.107442 -0.076421 0.002377 -0.002940
3.094499 0.688986 0.494076 -0.018852 0.002554 -0.009445
1.610528 0.853169 0.777620 -0.076423 -0.002629 0.003252
1.874557 0.776163 0.490156 0.060065 0.007631 0.008491
3.094499 0.748712 0.547853 -0.018854 0.008821 -0.004071
1.137912 0.694443 0.496762 -0.000001 0.376078 -0.000017
1.772178 0.336111 0.860113 0.060064 -0.003639 -0.004075
1.751015 0.391489 0.809034 0.060065 -0.004159 -0.004654
1.430868 0.743325 0.671149 -0.076425 -0.002041 0.002525
0.200000 0.738120 0.645313 -0.024825 0.000643 0.000450
2.567112 0.562679 0.566766 -0.000000 -0.977242 -0.000003
1.770254 0.976593 0.856207 0.060065 0.003639 -0.004075
1.060302 0.560400 0.590483 0.000000 -0.999689 0.000000
1.934266 1.205399 1.078213 0.067796 -0.003340 0.003741
0.160337 0.595813 0.517056 -0.147883 -0.000164 -0.000195
1.375868 0.660290 0.489968 0.000000 0.024953 -0.000274
1.843225 0.515364 0.726442 0.067796 0.006761 0.007546
1.093250 0.751885 0.617977 0.000000 0.951768 0.000009
2.774317 0.654558 0.490019 -0.000010 -0.000609 -0.000367
1.859234 0.163961 1.020615 0.060066 -0.009357 -0.010371
1.786126 0.402550 0.343856 0.067798 0.001756 -0.001969
1.150359 0.756537 0.586663 0.000000 0.999689 -0.000000
1.782278 0.411292 0.824777 0.067795 0.003685 0.004127
1.878267 0.837595 0.435087 0.060064 0.007631 0.008491
3.148649 0.718702 0.552746 1.000000 0.000000 -0.000000
3.130599 0.749335 0.628500 -0.022532 0.001822 0.000726
1.867156 0.560385 0.586204 0.000000 -0.999689 -0.000000
1.776850 0.495603 0.457784 0.060064 -0.007631 0.008491
3.112549 0.572599 0.538469 -0.018852 -0.008852 -0.004083
3.148649 0.598209 0.552746 1.000000 0.000000 -0.000000
1.285811 0.560389 0.586051 -0.000000 -0.999689 -0.000000
1.819794 1.148640 1.013592 -0.067732 0.003333 -0.003426
3.005854 0.476010 0.733506 -0.000001 0.665477 0.000673
2.773426 0.758590 0.481568 0.066345 0.006613 0.008814
2.932035 0.849345 0.400654 0.066344 0.006613 0.008814
2.976467 0.852181 0.398126 -0.000001 0.665479 0.000673
1.774060 1.108729 1.000257 -0.076422 -0.003098 0.003830
2.444839 0.560348 0.587350 0.000000 -0.999922 -0.000000
1.665883 0.812097 0.701134 -0.067734 0.006757 -0.006919
1.673578 0.828924 0.459319 -0.067734 0.006757 0.006919
0.350827 0.662582 0.686051 0.000000 0.024953 0.000018
0.646625 0.565167 0.618414 -0.000000 -0.951713 0.000009
2.872027 0.569666 0.684394 0.000000 -0.665479 -0.000449
1.930418 1.169348 1.046422 0.067798 -0.003800 0.004255
2.842641 0.775606 0.466397 -0.000002 0.665474 0.000673
2.845534 0.575273 0.645007 0.000000 -0.746416 0.000301
2.872204 0.787015 0.685464 0.000000 -0.665478 0.000449
2.826060 0.558321 0.481568 -0.000002 -0.665474 0.000673
2.852378 0.758590 0.694508 0.000000 0.665478 -0.000673
1.898674 0.159650 0.148439 0.060065 -0.009358 0.010371
1.607282 0.849336 0.401873 -0.076422 -0.002629 -0.003252
1.986500 0.689704 0.495031 0.000000 0.330229 -0.000020
2.713947 0.592354 0.511911 0.000000 -0.746416 -0.000602
1.907332 0.957717 0.325648 0.060065 0.003639 0.004075
1.986500 0.627789 0.681233 0.000001 -0.306534 0.000085
1.647817 0.871493 0.796103 -0.076424 -0.001279 0.001582
1.673222 1.067306 0.956846 -0.076427 -0.003529 0.004363
2.745762 0.753592 0.612026 0.000001 0.841923 0.000000
0.399883 0.662658 0.490027 0.000000 0.024953 -0.000004
1.839414 1.262514 0.045102 -0.076423 -0.006627 -0.008170
1.778705 0.464888 0.430249 0.060065 -0.007631 0.008491
0.646625 0.753340 0.563089 -0.000000 0.965891 -0.000004
2.872556 0.484518 0.450156 0.000000 0.665479 -0.000449
1.670050 1.114981 0.181016 -0.076423 -0.006483 -0.007994
1.562695 0.584693 0.652741 0.000000 0.746417 -0.000751
1.467070 0.564977 0.661493 -0.067730 -0.003829 -0.003934
2.969075 0.608280 0.503731 -0.000000 -0.510748 -0.000046
2.924412 0.748821 0.549821 0.000000 0.916872 -0.000001
2.829798 0.432870 0.391212 0.066345 0.004022 -0.003784
2.867263 0.411433 0.803976 0.066345 0.004022 0.003784
3.148649 0.633500 0.612993 1.000000 0.000000 0.000000
3.148649 0.633500 0.563083 1.000000 -0.000000 0.000000
3.148649 0.683411 0.612993 1.000000 0.000000 0.000000
3.148649 0.683411 0.563083 1.000000 0.000000 0.000000
1.765925 1.030850 0.271845 -0.067734 0.009189 0.009371
2.745762 0.565156 0.618377 -0.000000 -0.950771 0.000002
0.114148 0.597944 0.531891 -0.327697 -0.000071 -0.000063
1.619648 0.929696 0.819786 -0.067735 0.001464 -0.001506
1.962162 0.585220 0.522744 0.067797 0.005593 -0.006252
0.106703 0.580332 0.572245 -0.356727 -0.000084 -0.000019
0.658340 0.661665 0.686074 0.000000 0.024953 0.000018
1.874144 0.390797 0.356499 0.060065 -0.003899 0.004364
2.779917 0.552584 0.510841 0.000000 0.665479 -0.000897
1.823161 0.365730 0.837816 0.060064 -0.001950 -0.002186
1.930418 1.160245 0.137771 0.067796 -0.003800 -0.004256
1.497697 0.747910 0.494637 -0.076423 -0.003061 -0.003785
2.567112 0.644400 0.490939 -0.000000 -0.136511 -0.000050
1.918875 1.042989 0.934815 0.067796 -0.002591 0.002904
2.912209 0.855082 0.746149 0.066344 -0.008044 0.007527
2.941595 0.507272 0.436054 0.000001 -0.665478 0.000336
2.463876 0.661054 0.489987 0.000000 0.024953 -0.000036
0.227823 0.661284 0.686108 0.000070 0.008834 0.001925
1.868373 0.456930 0.776249 0.067796 0.003743 0.004191
1.934747 0.369859 0.328240 0.067795 0.003282 -0.003677
1.724562 0.558570 0.657938 0.060067 -0.002971 -0.003328
1.700925 0.506218 0.473368 0.060064 -0.004456 0.004985
1.693230 0.523045 0.687085 0.060064 -0.004456 -0.004985
1.786813 0.764416 0.668373 0.060062 0.004457 -0.004985
0.114148 0.738451 0.608407 -0.327693 0.000092 0.000021
3.001661 0.904005 0.822006 -0.107330 0.004231 -0.004932
0.601962 0.627680 0.681198 -0.000002 -0.293299 0.000022
0.794524 0.655704 0.686086 0.000000 -0.024953 0.000018
1.806327 0.741779 0.499563 0.067797 -0.006761 -0.007546
0.160337 0.567991 0.615943 -0.147887 -0.000245 0.000069
2.558394 0.562794 0.502750 0.066346 -0.006126 0.008171
1.689519 0.736497 0.682438 0.067797 -0.005264 0.005887
3.103876 0.793360 0.712613 -0.107329 0.002397 -0.002795
3.103876 0.523551 0.463463 -0.107328 -0.002397 0.002795
1.890017 1.232314 1.106238 0.067797 -0.002879 0.003226
2.790370 0.506173 0.465164 0.066342 0.004022 -0.003784
1.718525 0.630122 0.681968 0.000000 -0.282821 0.000093
1.584382 0.763093 0.661232 -0.067731 0.001427 -0.001468
0.064193 0.658456 0.645985 -0.529528 0.000000 0.000009
2.811430 0.443380 0.775493 0.066344 0.003726 0.003507
2.797178 0.890747 0.380935 0.066344 0.006126 0.008172
1.651897 0.756564 0.587732 0.000000 0.999689 -0.000000
2.667920 0.797759 0.467064 0.066346 -0.003726 -0.003506
0.646625 0.566960 0.552621 0.000002 -0.835551 -0.000001
1.465155 0.813550 0.444799 -0.076422 -0.004082 -0.005044
1.623393 0.893005 0.783777 -0.067733 0.003108 -0.003195
2.031162 0.751261 0.556212 0.000000 0.943943 -0.000002
2.075825 0.723604 0.514678 0.000000 0.670944 -0.000015
0.168220 0.632496 0.680305 -0.117256 -0.000095 0.000308
2.911503 0.764327 0.510841 0.000000 -0.665479 -0.000449
2.954577 0.786951 0.719794 0.000001 0.665479 -0.001122
2.967560 0.764262 0.476511 -0.000001 0.665478 0.000393
2.920058 0.806868 0.472913 0.000000 -0.665479 -0.001122
2.898521 0.546977 0.704622 0.000000 -0.665478 -0.000897
1.728272 0.792463 0.487417 0.060064 0.002228 0.002498
0.387436 0.560442 0.583912 -0.000000 -0.999698 -0.000000
1.860196 0.991606 0.281730 0.067796 -0.001526 -0.001711
3.013737 0.620309 0.497642 0.000000 -0.399891 -0.000250
1.562695 0.732218 0.652741 0.000000 -0.746417 -0.000751
1.642750 0.404702 0.828506 -0.076423 0.001207 0.001493
