2.692678 0.586159 0.762199 0.000000 -0.894694 0.000007
0.871106 0.731469 0.770168 -0.000000 0.838645 0.000009
1.808153 0.827224 0.900212 0.112857 0.003870 -0.003516
1.808153 0.494923 0.549753 0.112856 -0.003870 0.003516
1.722668 0.310887 0.361698 0.112856 -0.002810 0.002553
0.580239 0.577442 0.726522 0.000068 -0.062625 0.000003
0.966978 0.619079 0.652636 -0.000000 -0.495953 -0.000049
1.743247 1.270814 0.059291 -0.052721 0.005333 0.004529
1.743247 0.051333 1.390674 -0.052720 -0.005333 -0.004529
2.968014 0.786486 0.570585 0.000000 0.740025 0.000623
1.748167 0.037242 0.036566 -0.024552 0.021092 -0.014974
1.490280 0.361815 1.047500 -0.052719 -0.006933 -0.005867
3.373431 0.754718 0.828017 -0.143579 -0.004763 0.004670
3.419810 0.448840 0.491466 -0.143579 -0.005665 0.004763
3.446312 0.381074 1.033059 -0.143581 -0.005105 -0.004293
3.419810 0.448840 0.958499 -0.143579 -0.005665 -0.004763
3.446312 0.381074 0.416906 -0.143579 -0.005105 0.004293
3.399934 0.822483 0.547387 -0.143580 -0.004763 -0.004670
2.683414 0.745797 0.631762 0.071549 0.004509 0.005317
2.261253 0.720663 0.783690 0.000002 0.684532 0.000007
3.159346 0.749180 0.838333 0.000000 0.740025 -0.000546
2.932359 0.590697 0.770199 0.000000 -0.839119 0.000018
2.788551 0.612965 0.656547 0.000000 -0.566889 -0.000010
2.596806 0.624842 0.649579 0.000000 -0.421016 -0.000008
3.353555 0.585090 0.668531 -0.132877 -0.000263 -0.000190
1.708121 0.018547 1.431940 -0.052721 -0.008959 -0.007539
1.339215 0.439452 0.968828 -0.052720 -0.011332 -0.009457
1.708121 1.303599 0.018025 -0.024551 -0.018459 -0.013807
1.563193 1.138244 0.199962 -0.024554 -0.009670 -0.008419
1.246988 0.544678 0.853050 -0.052719 -0.009066 -0.007627
1.615894 0.123774 1.316162 -0.052719 -0.014077 -0.011611
1.615894 1.198373 0.133803 -0.024553 -0.015821 -0.012446
1.233813 0.559710 0.613455 -0.052718 -0.009066 0.007627
1.378740 0.394355 0.431518 -0.052719 -0.003680 0.003133
1.694946 0.033580 0.034565 -0.052719 -0.008959 0.007540
1.246988 0.777469 0.853050 -0.024551 -0.018678 0.013912
3.028231 0.621738 0.651159 0.000001 -0.471371 -0.000105
0.631425 0.744522 0.719195 0.000000 0.997553 -0.000000
1.556654 0.570968 0.613882 -0.024550 0.008243 -0.007312
2.872273 0.506485 0.895073 0.071549 -0.008560 -0.010044
2.872273 0.815662 0.554892 0.071548 0.008560 0.010044
2.848666 0.515218 0.564501 0.071550 -0.009017 0.010572
1.623777 0.999709 0.367190 -0.052719 0.003040 0.002591
1.398403 0.731828 0.680351 0.000000 0.839232 -0.000005
2.644742 0.710253 0.657317 -0.000000 0.590001 -0.000038
1.482675 0.886808 0.487984 -0.052719 0.007786 0.006575
3.256201 0.812693 0.908215 0.000000 0.740025 -0.000487
1.638084 0.583784 0.692968 0.000000 -0.929148 -0.000003
1.302531 0.708940 0.793584 0.000000 0.566489 0.000010
2.596806 0.720790 0.783559 -0.000000 0.717075 0.000014
2.232817 0.662393 0.641362 0.000000 0.028049 -0.000017
2.405062 0.601816 0.665933 0.000000 -0.716792 -0.000003
2.533433 0.659021 0.808582 0.000000 -0.028049 0.000017
3.028231 0.737971 0.757906 0.000001 0.915332 0.000003
2.115820 0.577428 0.725422 0.000000 -0.999607 0.000000
1.725743 0.869521 0.517131 0.112857 0.003658 0.003323
1.820453 0.994198 0.363958 0.112858 0.005620 0.005101
0.388495 0.664885 0.808533 0.000000 0.028038 0.000034
2.452998 0.605771 0.787746 0.000000 -0.655796 0.000004
1.158723 0.744002 0.714015 -0.000001 0.977089 -0.000000
0.125237 0.697596 0.791065 -0.236389 0.000074 0.000126
1.801388 1.281242 1.411397 0.052746 -0.009528 0.008522
2.069509 0.723080 0.781132 -0.000000 0.736043 0.000013
1.686020 0.634452 0.804282 0.000000 -0.316305 0.000021
1.468678 0.985961 1.079281 -0.052720 0.003253 -0.002772
3.302169 0.748578 0.715123 -0.127213 0.001311 -0.000223
3.302169 0.707923 0.799543 -0.127215 0.000750 0.001057
1.693881 1.191174 1.301386 -0.052719 0.007040 -0.005956
0.583489 0.740315 0.751778 0.000000 0.948305 0.000002
0.900355 0.662979 0.808586 0.000000 0.028049 0.000008
2.069509 0.718438 0.664093 0.000002 0.656425 -0.000008
0.247936 0.613599 0.793855 -0.000001 -0.567038 0.000082
0.439681 0.618506 0.797000 0.000000 -0.520463 0.000003
2.165381 0.722583 0.781672 -0.000000 0.736237 0.000013
1.805693 0.530087 0.588858 0.112857 -0.004082 0.003708
1.725152 1.234118 1.358292 -0.024549 -0.012309 0.010296
0.295872 0.628857 0.647780 0.000000 -0.395114 -0.000016
1.398403 0.676060 0.807278 -0.000001 0.180869 0.000076
2.261253 0.725619 0.671774 0.000001 0.772210 -0.000012
3.039916 0.761615 0.597950 -0.000000 0.740025 0.000779
2.900784 0.560531 0.852015 0.000000 -0.740024 -0.000623
2.939442 0.761369 0.631038 0.000000 -0.740024 -0.000935
1.578976 0.904876 0.975317 -0.052720 0.007359 -0.006222
0.535553 0.744287 0.716455 -0.000001 0.994567 -0.000003
2.405062 0.701411 0.651694 0.000000 0.471432 -0.000013
1.629070 1.213406 1.332701 -0.024553 -0.028990 0.017542
1.350467 0.641888 0.806404 -0.000001 -0.235349 0.000029
1.877764 0.703323 0.652782 -0.000001 0.494573 -0.000025
1.925700 0.728955 0.676099 0.000001 0.807248 -0.000021
1.710983 0.782527 0.869772 0.052745 -0.017465 0.015071
2.861379 0.569068 0.809805 0.000000 0.740024 0.000623
0.823170 0.584480 0.758613 0.000000 -0.918344 0.000003
2.884423 0.728782 0.774103 0.000000 0.806159 0.000005
3.124104 0.584060 0.757637 0.000001 -0.918277 0.000024
3.219976 0.728566 0.675566 0.000001 0.807314 -0.000041
0.775233 0.705206 0.796046 -0.000000 0.505216 0.000003
3.028231 0.618569 0.797038 0.000000 -0.520192 0.000023
1.853048 1.088726 0.254446 0.052745 -0.009302 -0.008326
0.200000 0.699471 0.650657 0.021463 0.000432 -0.000808
0.966978 0.604465 0.786567 0.000000 -0.677233 0.000004
2.261253 0.612190 0.792864 0.000000 -0.590103 0.000019
1.587740 0.611959 0.793391 -0.024551 0.021971 0.015324
1.973637 0.590124 0.680662 -0.000000 -0.854104 -0.000002
0.919042 0.733692 0.683465 -0.000001 0.868134 -0.000016
2.804800 0.744720 0.724176 0.000000 0.999905 -0.000000
0.823170 0.697797 0.649823 0.000001 0.445175 -0.000014
0.727297 0.727108 0.673634 -0.000000 0.790105 -0.000011
0.823170 0.620288 0.798020 0.000000 -0.495964 0.000003
0.535553 0.625773 0.649146 -0.000000 -0.421160 -0.000061
0.394182 0.744612 0.729233 0.000000 0.999607 0.000000
1.158723 0.616565 0.654148 0.000000 -0.543917 -0.000022
2.932359 0.589037 0.682447 -0.000001 -0.801246 -0.000001
0.996227 0.744673 0.727035 -0.000000 0.999607 0.000000
1.853048 0.841135 0.923100 0.052745 -0.015652 0.013639
1.853048 0.876505 0.962017 0.052744 -0.014745 0.012908
3.319298 0.671179 0.635292 -0.127213 0.000223 -0.001311
1.494275 0.617473 0.653595 -0.000000 -0.519732 -0.000012
1.853048 0.498697 0.903642 0.052744 0.015652 0.013639
1.781892 0.703578 0.652927 0.000000 0.520102 -0.000006
1.206659 0.630967 0.803031 0.000000 -0.369849 0.000018
1.733123 0.889503 0.464229 0.052745 -0.007373 -0.006637
1.567016 0.737515 0.821852 -0.024550 -0.005495 0.005018
3.196368 0.802772 0.897299 -0.000001 0.740025 -0.001675
1.686020 0.584031 0.757569 -0.000001 -0.918131 0.000012
1.302531 0.703578 0.652927 0.000000 0.520102 -0.000006
1.436574 0.943502 0.417815 -0.052724 0.003680 0.003133
0.117158 0.633040 0.792662 -0.267857 -0.000051 0.000113
3.353555 0.742627 0.676927 -0.131537 0.000285 -0.000163
1.652771 0.212852 1.208803 -0.052723 -0.002400 -0.002046
1.110786 0.740141 0.752300 -0.000000 0.948413 0.000005
1.940325 0.577474 0.722930 0.000000 -0.999607 -0.000000
2.069509 0.614934 0.655205 -0.000000 -0.543915 -0.000022
1.811228 1.322147 1.445284 0.000001 0.672588 0.000320
1.590148 0.696639 0.800695 -0.000002 0.409862 0.000016
1.779555 0.776572 0.610313 0.112857 0.008164 0.007401
1.698067 0.924902 0.989095 -0.052720 0.013651 -0.011281
1.667814 0.927254 0.421702 -0.024552 -0.007033 -0.006326
2.548870 0.578897 0.709347 0.000001 -0.982229 -0.000003
1.361157 0.577297 0.627673 -0.024547 0.004672 -0.004294
0.871106 0.594144 0.674796 0.000000 -0.807451 -0.000005
1.445835 0.429711 0.983071 -0.024552 0.016042 0.012567
0.727297 0.620768 0.798288 0.000000 -0.471094 0.000003
1.158723 0.697371 0.800355 -0.000000 0.446482 0.000028
0.966978 0.705081 0.796122 0.000000 0.520117 0.000046
2.500934 0.695775 0.801096 0.000000 0.421098 0.000015
1.753418 0.761084 0.818197 0.112856 0.008164 -0.007401
1.800773 0.571480 0.827665 0.052746 0.004821 0.004364
1.800773 0.571480 0.622300 0.052744 0.009642 -0.008621
1.062850 0.717250 0.786964 0.000000 0.676764 0.000031
2.309189 0.633443 0.803945 0.000000 -0.343586 0.000038
1.877764 0.743423 0.739681 -0.000001 0.979740 0.000001
2.884423 0.616319 0.654307 -0.000002 -0.388038 -0.000004
0.679361 0.601714 0.666038 0.000000 -0.716893 -0.000014
2.548870 0.739621 0.753749 0.000000 0.939111 0.000010
1.784783 1.138677 1.238950 0.112858 0.004347 -0.003948
2.788551 0.591395 0.771275 0.000000 -0.837483 0.000005
0.624113 0.657702 0.641420 -0.000000 -0.028049 -0.000034
1.805693 0.786229 0.866407 0.052744 -0.017466 0.015072
3.173559 0.846443 0.945348 0.000000 0.740024 -0.000243
3.173559 0.862776 0.519462 0.000001 -0.740017 -0.000243
1.829828 0.732251 0.681038 0.000000 0.854033 -0.000017
1.632641 0.391334 0.419163 -0.024552 0.014065 -0.011420
1.512503 0.330630 0.367739 -0.052721 -0.006506 0.005512
0.631425 0.601586 0.783795 -0.000001 -0.716036 0.000014
0.583489 0.713001 0.659397 0.000000 0.612927 -0.000005
1.727954 1.162199 0.168437 -0.024551 -0.031623 -0.018159
1.600336 0.248633 0.278817 -0.052718 -0.005227 0.004440
3.344421 0.331824 1.087248 0.071550 -0.009017 -0.010572
3.344421 0.331824 0.362717 0.071549 -0.009017 0.010572
0.391745 0.579652 0.744168 0.000000 -0.971723 0.000002
1.781892 0.742993 0.741913 0.000002 0.976134 0.000006
2.990310 0.859327 0.506849 0.071548 0.009017 0.010572
1.768178 0.837818 0.926115 0.052746 -0.007827 0.007037
1.576369 0.168870 0.183422 -0.052719 -0.008746 0.007365
3.302169 0.573569 0.715123 -0.127215 -0.001261 -0.000071
3.059991 0.511037 0.576309 0.000000 0.740025 -0.000468
3.059991 0.511037 0.873656 0.000000 0.740024 0.000468
3.076167 0.727827 0.674562 0.000001 0.784474 -0.000005
1.483693 0.947894 0.406261 -0.024553 -0.007143 -0.006418
1.733123 0.441487 0.473958 0.052745 0.007373 -0.006637
3.319226 0.916662 0.460172 0.000000 -0.740025 -0.000974
2.500934 0.581367 0.750387 0.000000 -0.948439 0.000001
1.688227 0.431788 0.949426 0.112857 -0.007316 -0.006636
1.853048 1.177151 0.157153 0.052745 -0.013157 -0.011604
1.853048 0.144996 1.292811 0.052745 0.013157 0.011604
1.812458 0.141584 0.160254 0.112858 -0.006998 0.006348
0.988102 0.577461 0.726595 0.000000 -0.999607 0.000000
0.727297 0.698355 0.799864 -0.000000 0.446285 0.000028
0.295872 0.744594 0.729746 0.000000 0.997500 0.000000
1.768178 0.456193 0.936075 0.112857 -0.007316 -0.006636
2.197068 0.744681 0.723223 0.000000 0.999606 -0.000000
1.206659 0.724438 0.779592 0.000001 0.722661 0.000003
1.590148 0.741645 0.747470 -0.000000 0.964642 0.000004
2.903922 0.744632 0.721464 0.000000 0.999607 -0.000000
2.452998 0.584640 0.690981 0.000001 -0.911750 -0.000003
1.542211 0.625308 0.649363 0.000000 -0.421261 -0.000061
1.110786 0.700053 0.650968 0.000000 0.471432 -0.000026
0.775233 0.598503 0.669459 0.000000 -0.754944 -0.000012
0.727297 0.633582 0.645973 0.000000 -0.316584 -0.000021
0.343808 0.598238 0.780201 0.000000 -0.754905 0.000049
1.657691 0.195580 0.221327 -0.052718 -0.004373 0.003720
3.124104 0.585750 0.688586 -0.000001 -0.891970 -0.000004
1.549119 0.932743 1.010393 -0.052721 0.003466 -0.002953
1.062850 0.737435 0.690813 0.000000 0.918492 -0.000003
3.219976 0.588964 0.767391 -0.000001 -0.850823 0.000004
0.200000 0.626904 0.648621 0.021456 -0.000386 -0.000831
1.583797 0.818387 0.576365 -0.052718 0.016356 0.013336
1.813073 0.456047 0.496257 0.052745 0.007373 -0.006637
1.542211 0.738073 0.692295 -0.000000 0.918364 -0.000003
0.295872 0.577548 0.729673 0.000000 -0.997557 0.000000
1.426693 0.932228 1.019745 -0.052723 0.007359 -0.006221
2.452998 0.730071 0.677690 -0.000000 0.823427 -0.000010
2.932359 0.702782 0.797492 0.000000 0.495964 0.000012
1.678387 0.855816 0.540208 -0.052719 0.015357 0.012587
1.813073 0.897550 0.471543 0.112857 0.003446 0.003131
1.402406 0.901604 0.464123 -0.052720 0.015570 0.012747
3.297206 0.972856 0.381935 0.071551 0.008559 0.010043
3.297206 0.972856 1.068030 0.071552 0.008559 -0.010043
2.548870 0.615550 0.795159 0.000001 -0.543774 0.000043
1.686020 0.582854 0.695321 0.000001 -0.935807 -0.000005
1.761342 1.303118 1.427047 -0.052725 0.008958 -0.007539
0.823170 0.733071 0.682384 0.000000 0.853884 -0.000001
3.061132 0.436621 0.971943 0.071548 -0.008560 -0.010044
3.061132 0.436621 0.478022 0.071548 -0.008560 0.010044
2.165381 0.600871 0.783059 -0.000000 -0.716931 0.000027
1.509494 0.777055 0.618746 -0.052719 0.016356 0.013336
3.028231 0.707274 0.794721 0.000002 0.523849 0.000011
1.391014 0.718592 0.785753 -0.000000 -0.672581 -0.000538
1.877764 0.627780 0.801721 0.000000 -0.395529 0.000033
1.763258 0.802255 0.562592 0.052744 -0.016559 -0.014361
1.526104 0.438979 0.954185 -0.052720 -0.003893 -0.003314
2.069509 0.622029 0.798962 0.000000 -0.471432 0.000007
2.836487 0.578067 0.714634 0.000000 -0.992032 -0.000007
0.035202 0.659279 0.756926 -0.577665 -0.000001 0.000010
1.639252 0.153843 1.284863 -0.024550 0.016263 0.012688
1.446339 0.734500 0.684904 0.000000 0.881819 -0.000008
1.592518 0.266185 1.163116 -0.024551 0.005715 0.005208
1.707907 0.959445 0.421201 -0.052718 0.012798 0.010617
1.747883 0.370169 1.053316 0.052746 0.006466 0.005833
2.788551 0.703132 0.652673 0.000000 0.495670 -0.000012
3.336426 0.739360 0.774173 -0.131536 0.000285 0.000163
1.638084 0.733347 0.682860 -0.000000 0.868341 -0.000008
2.309189 0.702049 0.652054 -0.000000 0.495892 -0.000049
1.521551 1.003352 1.104337 -0.024551 -0.013187 0.010870
1.350467 0.736315 0.688422 -0.000001 0.893699 -0.000007
3.330431 0.920807 0.994354 0.000002 -0.740020 0.000487
1.648700 0.803406 0.895210 -0.024552 -0.033677 0.018579
3.219976 0.735277 0.763606 -0.000000 0.881711 0.000008
1.398403 0.590124 0.769303 0.000002 -0.848925 0.000009
3.353555 0.690301 0.762210 1.000000 0.000000 0.000000
3.353555 0.631846 0.762210 1.000000 -0.000000 0.000000
3.353555 0.707051 0.713750 1.000000 0.000000 -0.000000
3.353555 0.671078 0.678722 1.000000 0.000000 0.000000
3.353555 0.614563 0.716213 1.000000 0.000000 -0.000000
1.708050 1.053600 0.310906 -0.052718 0.002613 0.002228
1.290021 0.764634 0.615452 -0.052726 0.004533 0.003855
0.183231 0.579428 0.743617 -0.011061 -0.003492 0.000662
2.117445 0.736446 0.688685 0.000000 0.907053 -0.000001
1.518895 0.510139 0.871403 -0.052719 -0.016356 -0.013336
1.669044 0.390424 1.033084 -0.024551 0.014066 0.011421
1.604451 0.370609 1.051939 -0.024550 0.013407 0.011011
3.108347 0.902992 0.991160 0.071550 0.008560 -0.010044
3.108347 0.902992 0.458805 0.071549 0.008560 0.010044
1.580206 0.909194 0.469689 -0.052720 0.007253 0.006133
1.661664 0.417240 0.445807 -0.024549 0.007034 -0.006327
1.853048 0.823450 0.546323 0.052746 -0.015651 -0.013639
1.925700 0.641175 0.643734 -0.000000 -0.234625 -0.000015
3.196368 0.802772 0.552666 0.000000 0.740025 0.001675
3.237689 0.802231 0.586078 0.000001 -0.740024 -0.001675
3.237689 0.802231 0.863887 0.000000 -0.740025 0.001675
3.204120 0.536202 0.845968 0.000000 0.740025 0.001675
3.204120 0.552535 0.589152 0.000001 -0.740025 0.001675
1.827833 0.222459 0.246643 0.112857 -0.004347 0.003948
1.877764 0.588418 0.766436 -0.000000 -0.866465 0.000004
1.083975 0.662832 0.641374 0.000000 0.028038 -0.000034
1.553063 0.860738 0.524250 -0.052720 0.007786 0.006575
3.112563 0.794529 0.594552 -0.000000 -0.740025 -0.000546
1.502846 0.294287 0.324376 -0.052719 -0.012158 0.010113
1.688227 0.870063 0.967873 0.052745 -0.015652 0.013639
1.653450 0.900955 0.485297 -0.052720 0.014504 0.011938
1.653450 0.438875 0.980740 -0.024551 0.014944 0.011945
1.350467 0.735791 0.762592 -0.000000 0.894768 0.000014
1.583174 0.581067 0.666884 -0.052720 -0.005333 0.004529
1.254595 0.635599 0.645299 0.000000 -0.316959 -0.000011
1.973637 0.669090 0.808247 0.000000 0.097571 0.000036
1.623932 0.531766 0.569565 -0.024552 0.033677 -0.018579
1.580390 0.980080 0.386658 -0.052717 0.003253 0.002772
1.786628 1.227610 1.353546 0.052746 -0.013157 0.011603
1.568430 0.823730 0.914047 -0.024552 -0.033677 0.018579
1.511882 0.394978 1.022567 -0.024552 0.007473 0.006689
1.766948 0.166046 1.276412 0.052747 0.016785 0.014539
3.196249 0.911380 0.992185 0.071548 -0.010885 0.007472
3.267912 0.618569 0.652927 -0.123548 -0.000161 -0.000282
0.200000 0.640178 0.805988 0.021457 -0.000241 0.000884
0.966978 0.587025 0.686068 0.000000 -0.881934 -0.000015
1.062850 0.588727 0.682988 0.000000 -0.868349 -0.000016
0.802045 0.663345 0.808576 0.000000 0.027632 0.000069
1.424402 0.744704 0.725935 -0.000009 0.053069 0.000000
1.648700 0.824767 0.574169 -0.052718 0.016356 0.013336
1.313516 0.783699 0.854938 -0.052719 0.006800 -0.005756
1.633333 0.476204 0.901854 -0.052718 -0.003893 -0.003314
2.836487 0.735529 0.686848 0.000000 0.894793 -0.000007
1.733956 0.689806 0.803542 0.000001 0.338995 0.000010
2.726802 0.577494 0.727768 0.000000 -0.999607 0.000000
2.016698 0.744624 0.721171 0.000000 0.999606 -0.000000
1.757108 0.201801 0.212121 0.052745 0.009302 -0.008326
1.418266 0.349258 1.068066 -0.052719 -0.013864 -0.011446
1.426693 0.389919 0.430220 -0.052720 -0.007359 0.006222
1.583896 0.399999 0.995152 -0.052720 -0.003627 -0.003088
0.487617 0.583784 0.692968 0.000000 -0.929148 -0.000003
1.973637 0.589495 0.768270 -0.000000 -0.850515 0.000002
2.644742 0.733310 0.767168 0.000000 0.868343 0.000001
2.117445 0.738363 0.756997 -0.000000 0.929371 0.000001
2.692678 0.617317 0.796275 -0.000002 -0.373066 0.000004
1.599164 0.524935 0.847542 -0.052719 -0.016356 -0.013336
3.062326 0.769906 0.861136 0.000000 0.740025 -0.000935
2.692678 0.614965 0.655185 0.000000 -0.543772 -0.000011
1.503528 0.833183 0.552504 -0.052720 0.016356 0.013336
2.740614 0.734690 0.764705 -0.000000 0.881711 0.000008
2.923194 0.769906 0.861136 0.000000 0.740025 -0.000935
2.707303 0.744677 0.723077 0.000000 0.999607 -0.000000
1.597580 0.767262 0.637382 -0.052721 0.005333 0.004529
0.097317 0.594573 0.724982 -0.352824 -0.000042 0.000001
2.021573 0.701411 0.798271 0.000000 0.471432 0.000013
1.350467 0.700764 0.651349 -0.000000 0.469802 -0.000007
0.085699 0.709297 0.763440 -0.390548 0.000058 0.000043
1.446339 0.592055 0.677720 0.000001 -0.822936 -0.000010
2.213317 0.639895 0.805911 0.000000 -0.263186 0.000052
1.807538 1.127921 0.219006 0.112856 0.004347 0.003948
1.644006 0.857167 0.497465 -0.024551 -0.007913 -0.007047
1.453992 0.527329 0.570933 -0.024553 0.033675 -0.018579
3.028231 0.588782 0.682892 0.000001 -0.868183 -0.000016
1.494275 0.688008 0.804178 -0.000000 0.314986 0.000011
1.376536 0.843837 0.521326 -0.024550 -0.011677 -0.009867
1.580390 0.980080 1.063307 -0.052719 0.013011 -0.010783
2.416436 0.658435 0.641399 0.000000 -0.028049 -0.000250
0.631425 0.697962 0.800061 -0.000000 0.446451 0.000113
1.853048 0.162681 0.176612 0.052745 0.014971 -0.013091
1.853048 1.141781 1.253894 0.052745 -0.014971 0.013091
1.399112 0.427065 0.465746 -0.024550 0.016043 -0.012568
1.541314 1.030217 0.324742 -0.052727 0.003039 0.002590
1.465385 0.982203 0.374819 -0.052720 0.003253 0.002772
0.679361 0.704329 0.653385 -0.000001 0.520004 -0.000046
1.014914 0.629638 0.802502 -0.000000 -0.369668 0.000141
1.206659 0.594612 0.775780 0.000000 -0.788972 0.000005
3.318362 0.606979 0.776297 0.290684 -0.000899 0.000989
1.541538 1.077834 1.180990 -0.052718 0.002613 -0.002228
1.494127 0.784655 0.869614 -0.024552 -0.033677 0.018579
0.919042 0.701249 0.651608 0.000000 0.471329 -0.000026
1.919201 0.744632 0.721464 0.000000 0.999607 -0.000000
1.738043 0.400605 0.992149 0.112857 -0.003446 -0.003131
3.000512 0.569068 0.809805 0.000000 0.740024 0.000623
3.039543 0.740890 0.829211 0.000000 0.740025 -0.000390
3.117606 0.749180 0.611632 0.000000 0.740024 0.000546
3.000512 0.569068 0.640159 0.000000 0.740024 -0.000623
2.357126 0.621221 0.651435 -0.000000 -0.471338 -0.000053
1.773098 0.431082 0.984316 0.052744 0.007373 0.006637
0.727297 0.744196 0.715543 -0.000001 0.922734 -0.000000
2.740614 0.628386 0.647983 -0.000000 -0.395520 -0.000065
0.295872 0.630081 0.802678 -0.000000 -0.369663 0.000071
0.247936 0.706505 0.795219 -0.000000 0.543853 0.000087
1.553063 0.461409 0.925715 -0.052719 -0.007786 -0.006575
1.389260 0.744339 0.822756 -0.024551 -0.009341 0.008169
1.484142 1.048050 0.299200 -0.024551 -0.006155 -0.005586
1.589544 1.168309 1.283082 -0.024551 -0.017580 0.013376
1.496259 0.303962 1.119281 -0.024548 0.012529 0.010442
0.149853 0.739704 0.707036 -0.140650 0.000262 -0.000052
1.766262 0.001758 0.003083 -0.000001 -0.672573 -0.000172
1.723283 0.486084 0.927710 0.052744 0.016559 0.014361
2.548870 0.719624 0.665240 0.000000 0.697009 -0.000014
3.353555 0.663593 0.819608 -0.140646 0.000012 0.000307
0.158155 0.613719 0.791722 -0.108383 -0.000198 0.000297
0.535553 0.699274 0.799406 -0.000000 0.446889 0.000007
1.494275 0.586887 0.686327 0.000001 -0.879316 -0.000008
1.314618 0.823664 0.548294 -0.052725 0.004533 0.003855
1.512929 0.857079 0.502270 -0.024552 -0.008022 -0.007135
3.155562 0.920458 1.010378 0.071550 0.008560 -0.010043
3.155562 0.920458 0.439587 0.071549 0.008560 0.010044
1.721556 1.288326 1.412954 -0.052721 0.008959 -0.007539
3.242267 0.928403 1.010915 0.071549 -0.010884 0.007472
3.242267 0.928403 0.439050 0.071550 -0.010884 -0.007472
3.265874 0.393177 1.027947 0.071549 -0.008560 -0.010044
3.265874 0.393177 0.422018 0.071548 -0.008560 0.010044
1.575682 0.434093 0.466909 -0.024551 0.015164 -0.012073
1.564175 0.876330 0.943078 -0.052720 0.003840 -0.003269
1.014914 0.616628 0.654110 -0.000002 -0.467228 -0.000006
1.810613 0.853544 0.520377 0.112857 0.007316 0.006636
3.192116 0.436425 0.955749 0.000000 0.740024 0.000487
3.192116 0.452759 0.479371 -0.000000 -0.740024 0.000487
3.124104 0.700150 0.651020 -0.000000 0.471406 -0.000053
1.778018 0.908943 0.446365 0.052745 -0.013838 -0.012166
2.500934 0.691453 0.647043 -0.000001 0.364684 -0.000009
1.014914 0.700538 0.651228 -0.000000 0.471154 -0.000013
3.078575 0.560778 0.818927 0.000000 0.740024 0.000935
2.500934 0.744205 0.715616 0.000000 0.995149 -0.000000
0.439681 0.587440 0.764673 -0.000001 -0.881781 0.000030
1.599164 0.777356 0.584376 -0.024552 -0.033677 -0.018579
3.312579 0.536838 0.571881 0.000000 -0.740024 0.000306
1.302531 0.589667 0.768551 0.000001 -0.851857 0.000004
1.413857 0.804979 0.561514 -0.024552 -0.033677 -0.018579
1.618673 0.896481 0.993607 -0.024551 -0.014944 0.011945
1.402406 0.901604 0.985842 -0.052720 0.007786 -0.006575
2.836487 0.733365 0.767073 0.000001 0.867670 0.000008
1.675786 1.158870 1.265012 -0.052719 0.007893 -0.006663
1.494275 0.588018 0.765736 0.000001 -0.866508 0.000008
1.602246 0.468937 0.503195 -0.024552 0.015822 -0.012446
1.448026 0.467931 0.942302 -0.024551 0.033678 0.018579
3.259700 0.846148 0.504940 0.000002 0.740022 0.000487
1.829828 0.699665 0.650761 -0.000001 0.468383 -0.000013
1.446339 0.702240 0.797801 0.000001 0.494066 0.000012
2.596806 0.579085 0.741590 0.000000 -0.977983 0.000003
1.672084 0.297276 1.132747 -0.024554 0.011428 0.009694
2.165381 0.622126 0.650951 -0.000000 -0.471023 -0.000013
2.692678 0.700117 0.651003 0.000000 0.471329 -0.000026
1.637856 0.834820 0.928396 -0.024553 -0.007912 0.007046
2.500934 0.607100 0.661065 0.000000 -0.655565 -0.000008
2.884423 0.586617 0.686848 -0.000001 -0.892699 -0.000007
1.925700 0.703828 0.796885 -0.000000 0.519732 0.000012
0.775233 0.735191 0.763768 -0.000001 0.836309 0.000001
1.645840 0.143525 0.159378 -0.052720 -0.015783 0.012908
0.966978 0.735122 0.763897 0.000000 0.881903 0.000015
3.121432 0.823545 0.562627 0.000000 -0.740024 -0.000546
3.035245 0.827690 0.891899 0.000001 -0.740025 0.000779
2.836487 0.702623 0.652382 -0.000000 0.495953 -0.000049
1.489263 0.894324 0.970250 -0.052718 0.007786 -0.006575
1.489263 0.427823 0.479714 -0.052719 -0.007786 0.006575
3.105411 0.877776 0.955212 0.071547 -0.010885 0.007472
3.105411 0.877776 0.494753 0.071548 -0.010885 -0.007472
1.853048 0.339531 1.078768 0.052745 0.012023 0.010655
2.692678 0.703196 0.797256 -0.000000 0.496028 0.000012
3.249991 0.955390 0.401152 0.071548 0.008560 0.010044
3.249991 0.955390 1.048813 0.071548 0.008560 -0.010044
1.488161 0.844054 0.932883 -0.024552 -0.033677 0.018579
3.272920 0.491208 0.928290 0.000002 -0.740014 -0.000243
3.272920 0.474875 0.536520 0.000002 0.740007 -0.000243
3.028231 0.587945 0.765608 0.000000 -0.868343 0.000001
1.686020 0.736168 0.688127 0.000000 0.894658 -0.000014
1.206659 0.585037 0.690115 -0.000000 -0.906170 -0.000003
3.107519 0.498602 0.887338 0.000000 0.740025 0.000546
0.919042 0.587163 0.764156 0.000000 -0.881903 0.000008
0.871106 0.699011 0.799537 -0.000000 0.446563 0.000007
0.871106 0.626172 0.801004 -0.000001 -0.420130 0.000030
1.598485 0.309763 0.350284 -0.052720 -0.012158 0.010113
3.271258 0.503630 0.881806 -0.000001 0.740025 0.001675
3.271258 0.519963 0.553314 -0.000000 -0.740025 0.001675
2.900784 0.560531 0.597950 0.000000 -0.740024 0.000623
1.158723 0.696174 0.649054 0.000001 0.421047 -0.000061
1.766948 1.156101 1.276412 0.052746 -0.016785 0.014539
1.727588 1.013082 1.122142 0.052746 -0.012023 0.010655
1.444591 0.770675 0.620943 -0.052723 0.002833 0.002415
0.247936 0.582740 0.695630 0.000001 -0.938929 -0.000010
1.616213 0.419231 0.969993 -0.052717 -0.003627 -0.003088
1.738043 0.400605 0.457816 0.112857 -0.006892 0.006252
2.788551 0.734638 0.685162 0.000000 0.881903 -0.000015
2.980295 0.735464 0.763248 -0.000001 0.831936 0.000002
3.315726 0.883207 0.952983 0.000000 -0.740024 0.000730
3.312579 0.785309 0.571881 0.000000 0.740024 0.000306
3.192116 0.885721 0.955749 0.000000 -0.740024 0.000487
1.684242 0.336513 1.061369 -0.052720 -0.003040 -0.002590
0.708610 0.660267 0.808629 0.000000 -0.013820 0.000034
1.829828 0.583269 0.694263 0.000000 -0.927143 -0.000003
2.033760 0.577486 0.727474 0.000000 -0.999607 0.000000
3.334302 0.954283 1.055798 0.071552 0.008559 -0.010043
3.334302 0.962450 0.401589 0.071549 -0.010884 -0.007472
2.261253 0.627106 0.648534 0.000000 -0.395782 -0.000008
2.165381 0.685952 0.804849 0.000000 0.290314 0.000046
1.312864 0.469516 0.514217 -0.052720 -0.009066 0.007627
1.326040 0.867663 0.952288 -0.024553 -0.023341 0.015834
0.343808 0.739162 0.694978 0.000001 0.905502 -0.000001
1.801391 0.662246 0.641358 0.000000 0.028038 -0.000251
3.285610 0.434253 0.990956 0.000000 -0.740025 -0.000487
1.544199 0.417126 1.000058 -0.024552 0.029868 0.017758
3.380057 0.550488 0.603307 -0.143579 -0.005665 0.004763
3.380057 0.550488 0.846657 -0.143578 -0.005665 -0.004764
1.815533 0.394053 0.428239 0.052744 0.006920 -0.006236
1.815533 0.928094 1.021725 0.052743 -0.006920 0.006236
1.532041 0.362780 1.057704 -0.024551 0.007034 0.006327
3.279010 0.769023 0.860165 0.000000 0.740025 -0.000306
3.297874 0.747709 0.613251 -0.000000 0.740025 0.000675
3.219976 0.695175 0.648592 -0.000003 0.187841 -0.000009
3.076167 0.627173 0.801460 0.000000 -0.395114 0.000016
2.309189 0.584538 0.691217 0.000000 -0.918371 -0.000006
1.730414 0.143208 0.165884 -0.052720 -0.007679 0.006487
2.596806 0.688841 0.646070 0.000000 0.343538 -0.000019
1.494275 0.700376 0.651141 0.000000 0.471432 -0.000026
0.085699 0.615082 0.766083 -0.390550 -0.000055 0.000046
1.877764 0.588691 0.683051 0.000001 -0.868178 -0.000016
1.889139 0.663712 0.641399 0.000000 0.028038 -0.000251
1.782938 0.962190 0.388165 0.052745 -0.006466 -0.005833
1.829828 0.622353 0.799135 -0.000000 -0.471023 0.000013
1.549119 0.399248 0.430624 -0.024551 0.007144 -0.006418
0.439681 0.708608 0.793813 -0.000000 0.567182 0.000082
0.966978 0.738131 0.692429 0.000000 0.918640 -0.000002
3.219976 0.625009 0.649502 0.000001 -0.419585 -0.000030
1.407892 0.864378 0.951720 -0.024552 -0.033677 0.018579
3.013376 0.478417 0.917751 0.071550 0.010884 0.007472
3.013376 0.486584 0.524791 0.071550 -0.008560 0.010044
2.213317 0.579877 0.745094 -0.000000 -0.971377 0.000003
1.770023 1.069177 0.289976 0.112857 0.002598 0.002361
1.329546 0.806512 0.887058 -0.024553 -0.009340 0.008169
2.261253 0.585129 0.760050 -0.000000 -0.906842 0.000007
1.448026 0.460391 0.514516 -0.052719 -0.016356 0.013336
1.574396 0.783435 0.833415 -0.052718 0.016356 -0.013336
1.528296 0.475186 0.538377 -0.052720 -0.016356 0.013336
1.407892 0.869154 0.502585 -0.052720 0.016356 0.013336
2.632555 0.660414 0.808631 0.000000 -0.014633 0.000065
1.787858 0.324394 0.349422 0.052745 0.012023 -0.010655
3.155048 0.502500 0.534100 0.000000 -0.740025 0.001091
3.155048 0.486167 0.901020 -0.000001 0.740025 0.001091
1.593198 0.836755 0.521107 -0.024551 -0.016042 -0.012567
2.328689 0.659461 0.641370 -0.000004 -0.006152 -0.000155
1.549119 0.932743 0.439572 -0.052720 0.013864 0.011446
3.334636 0.841709 0.940140 0.000000 0.740025 -0.000730
0.983227 0.660927 0.641327 0.000000 -0.014226 -0.000033
0.898730 0.659021 0.641383 -0.000000 -0.028038 -0.000017
1.564556 0.748891 0.656218 -0.052717 0.002667 0.002273
1.302319 0.527998 0.581873 -0.052719 -0.006800 0.005756
1.652428 1.183336 0.148562 -0.024553 -0.015821 -0.012446
1.302531 0.669309 0.808225 0.000002 0.097354 0.000144
1.206659 0.739772 0.696629 -0.000000 0.938995 -0.000010
1.742963 0.388047 0.415932 0.052745 0.006920 -0.006236
1.446339 0.623923 0.650035 0.000000 -0.446379 -0.000028
1.389260 0.753995 0.635985 -0.052720 0.004533 0.003855
1.811228 -0.000000 1.445284 0.000001 -0.672580 0.000320
1.811228 1.322147 0.004680 0.000000 0.672587 -0.000320
1.669044 0.374255 0.431576 -0.052720 -0.003253 0.002772
3.219976 0.619652 0.797656 -0.000001 -0.495907 0.000098
3.267912 0.583784 0.692968 -0.123547 -0.000302 -0.000120
1.494127 0.784655 0.580351 -0.024552 -0.033677 -0.018579
1.820453 0.319106 1.095737 0.112857 -0.002810 -0.002553
1.559636 0.720355 0.784151 0.000001 -0.672580 -0.000941
3.225908 0.464379 0.957810 -0.000000 -0.740025 -0.000487
3.225908 0.448045 0.507000 0.000000 0.740025 -0.000487
3.259347 0.411555 0.466851 -0.000001 0.740024 -0.000487
1.658707 0.762799 0.597795 0.052745 -0.009642 -0.008621
2.967359 0.826707 0.899021 0.071549 -0.010884 0.007472
2.943751 0.504173 0.560553 0.071550 0.010884 -0.007472
1.569899 0.300847 1.112452 -0.052721 -0.003040 -0.002590
1.737428 0.259073 0.302195 0.112857 -0.005196 0.004717
2.855963 0.761369 0.631038 -0.000001 -0.740018 -0.000312
3.078575 0.560778 0.631038 0.000000 0.740025 -0.000468
3.267912 0.624776 0.800355 -0.127397 -0.000133 0.000286
1.649760 0.452283 0.483688 -0.024554 0.007472 -0.006689
1.683698 1.233474 0.098195 -0.052719 0.012371 0.010281
1.683698 0.088673 1.351770 -0.052719 -0.012372 -0.010282
3.472814 0.313309 0.342345 -0.143580 -0.003403 0.002863
3.472814 0.313309 1.107620 -0.143580 -0.003403 -0.002863
1.423952 0.570802 0.618475 -0.024550 0.011677 -0.009867
2.833553 0.569068 0.640159 -0.000000 0.740024 -0.000623
2.945604 0.543951 0.579707 0.000001 -0.740025 0.000935
0.812607 0.658288 0.641403 -0.000000 -0.028049 -0.000068
3.312579 0.536838 0.878084 0.000000 -0.740025 -0.000306
1.415581 0.405511 1.002381 -0.052718 -0.007786 -0.006575
1.792778 1.023052 0.336884 0.112859 0.002810 0.002553
1.675786 0.168881 1.270105 -0.024552 0.017579 0.013376
1.685472 0.974994 1.079921 -0.024553 -0.006154 0.005585
1.509494 0.560678 0.604580 -0.024553 0.033675 -0.018579
1.383124 0.470793 0.936909 -0.024552 0.033677 0.018579
1.254595 0.621577 0.798720 0.000000 -0.471329 0.000026
2.884423 0.584364 0.758344 -0.000001 -0.915332 0.000003
1.733956 0.627982 0.648157 0.000000 -0.395594 -0.000131
1.658707 0.762799 0.852170 0.052744 -0.009642 0.008621
3.402230 0.400697 1.019673 -0.143581 -0.005665 -0.004763
3.428732 0.332932 0.355731 -0.143579 -0.003403 0.002863
3.402230 0.400697 0.430292 -0.143581 -0.005665 0.004763
3.428732 0.332932 1.094234 -0.143580 -0.003403 -0.002863
1.813073 0.892628 0.982896 0.052744 -0.007373 0.006637
1.700019 1.103456 0.251844 -0.052719 0.009386 0.007888
0.583489 0.627712 0.801692 -0.000000 -0.395114 0.000016
2.128007 0.661147 0.641327 0.000000 0.027632 -0.000069
1.302531 0.629809 0.647395 -0.000002 -0.271713 -0.000006
1.817378 1.197834 0.140420 0.112857 0.006998 0.006348
1.817378 0.124312 1.309545 0.112857 -0.006998 -0.006348
2.921341 0.801517 0.887713 0.071550 0.008560 -0.010043
2.895881 0.497752 0.545284 0.071550 -0.009017 0.010572
1.853048 0.587122 0.643615 0.052744 0.009642 -0.008621
3.012089 0.560531 0.597950 0.000000 -0.740025 0.000779
3.107519 0.514935 0.547782 0.000000 -0.740025 0.000546
1.332592 0.744727 0.724836 0.000000 0.999607 -0.000000
1.817378 1.215520 1.329003 0.112858 0.006150 -0.005581
1.817378 0.106627 0.120961 0.112857 -0.006150 0.005581
1.663627 0.518145 0.599711 0.112857 -0.002041 0.001855
1.468057 0.398224 1.017522 -0.024553 0.015163 0.012073
1.702479 0.219673 0.233186 -0.024552 0.019336 -0.014217
1.590148 0.585881 0.761641 -0.000001 -0.894571 0.000014
1.254595 0.736381 0.688554 0.000000 0.894752 -0.000004
2.945604 0.527617 0.855413 -0.000001 0.740025 0.000935
1.925700 0.621512 0.798685 -0.000000 -0.469802 0.000007
1.496868 0.967848 1.055769 -0.052719 0.006826 -0.005779
3.346318 0.778484 0.862371 -0.143579 0.005665 -0.004763
1.672084 0.285538 0.327887 -0.052720 -0.005546 0.004708
1.648867 0.569960 0.790751 0.112857 -0.004506 -0.004093
2.932359 0.620607 0.798201 0.000000 -0.495964 0.000012
3.076167 0.630013 0.647314 -0.000001 -0.368829 -0.000035
3.137916 0.656969 0.808525 0.000000 -0.028038 0.000017
1.312413 0.578414 0.641759 -0.052720 -0.013597 0.011240
1.706062 0.557082 0.814579 0.112856 -0.008164 -0.007401
1.171722 0.659608 0.808599 0.000000 -0.028038 0.000034
2.989769 0.826830 0.534400 0.071550 0.008560 0.010043
2.875323 0.792660 0.588404 0.071548 -0.010884 -0.007472
2.788551 0.624120 0.800028 -0.000000 -0.446476 0.000056
1.625684 0.576715 0.832422 -0.024553 0.010989 0.009385
1.505916 0.979381 0.371810 -0.024553 -0.006703 -0.006051
1.675005 0.728066 0.812674 0.052748 -0.004821 0.004363
1.701142 0.729087 0.638219 0.052743 -0.004821 -0.004364
0.041983 0.687185 0.698870 -0.561619 0.000021 -0.000020
1.632641 0.944975 1.017931 -0.052719 0.006826 -0.005779
1.506128 0.399837 0.448299 -0.052720 -0.003680 0.003133
1.730414 0.143208 1.284081 -0.052721 -0.015356 -0.012586
1.350467 0.628790 0.647809 0.000000 -0.395562 -0.000065
3.202044 0.744641 0.800522 0.000006 -0.739555 0.000153
1.822298 0.089356 1.348838 0.112858 -0.006150 -0.005581
1.822298 1.232791 0.101127 0.112857 0.006150 0.005581
3.057655 0.835980 0.548944 0.000000 -0.740026 -0.000468
1.732874 1.180077 1.300812 -0.024550 -0.015823 0.012446
3.332340 0.742743 0.823045 -0.143580 0.005665 -0.004763
3.012089 0.761615 0.852015 0.000000 0.740025 -0.000779
3.360296 0.814225 0.548269 -0.143579 0.005665 0.004763
3.059394 0.461394 0.936482 0.071549 0.010884 0.007472
3.059394 0.461394 0.513483 0.071548 0.010884 -0.007472
3.267912 0.686478 0.804689 -0.127396 0.000100 0.000299
0.200000 0.681969 0.805988 0.021457 0.000241 0.000884
3.048785 0.806965 0.580870 0.000002 -0.740018 -0.000390
1.506128 0.914472 1.008790 -0.024556 -0.007582 0.006778
1.469359 0.537694 0.843149 -0.052720 -0.016356 -0.013336
3.124886 0.477630 0.506735 0.000000 -0.740025 0.001091
3.124886 0.477630 0.943230 -0.000000 -0.740024 -0.001091
3.426436 0.890249 0.977139 -0.143579 -0.004763 0.004670
3.426436 0.890249 0.472826 -0.143579 -0.004763 -0.004670
3.388252 0.428272 0.972925 -0.143580 0.005285 0.005182
3.388252 0.428272 0.477040 -0.143580 0.005285 -0.005182
3.318362 0.707001 0.666245 0.290683 0.000899 -0.000989
1.662894 0.395844 0.993596 -0.052720 -0.006826 -0.005778
1.603405 1.029655 1.119516 -0.052720 0.002827 -0.002409
1.660576 1.011822 0.355991 -0.052718 0.005973 0.005066
3.196249 0.903213 0.450357 0.071549 0.008560 0.010044
1.542211 0.581282 0.699858 -0.000000 -0.951942 -0.000001
1.673467 0.483602 0.560042 0.112857 -0.003870 0.003516
0.487617 0.701540 0.651764 0.000000 0.495614 -0.000006
1.425931 0.534054 0.850945 -0.052724 -0.002833 -0.002415
1.552774 0.663859 0.641403 0.000000 0.028049 -0.000250
0.487617 0.579791 0.744738 0.000000 -0.971723 0.000003
3.025630 0.757224 0.635599 -0.000000 -0.740025 -0.000779
3.026375 0.539806 0.874819 0.000000 -0.740025 -0.000390
1.733956 0.636791 0.805030 -0.000000 -0.288258 0.000012
2.829306 0.767470 0.599712 0.071550 0.008560 0.010044
1.808153 0.503766 0.890483 0.112857 -0.007740 -0.007019
1.829828 0.622742 0.650625 0.000000 -0.447214 -0.000007
1.567214 0.366339 0.394800 -0.024551 0.028115 -0.017313
1.675005 0.572157 0.657217 0.112857 -0.004506 0.004093
2.069509 0.689771 0.803555 -0.000000 0.343269 0.000038
1.770023 1.067796 1.179010 0.052743 -0.005105 0.004618
1.725743 0.468303 0.502884 0.052744 0.007827 -0.007037
1.733123 0.889503 0.985736 0.052745 -0.007373 0.006637
1.747883 0.960820 1.063046 0.052746 -0.006466 0.005833
1.645236 0.861636 0.957321 -0.024550 -0.007913 0.007047
2.740614 0.631103 0.803085 0.000000 -0.369849 0.000018
1.813073 0.451124 0.949234 0.112857 -0.003658 -0.003323
1.639735 0.768909 0.638880 -0.052720 0.005333 0.004529
1.813073 0.424596 0.471543 0.112857 -0.003446 0.003131
1.158723 0.729467 0.676814 -0.000001 0.764559 -0.000001
1.673467 0.483602 0.889923 0.112857 -0.007740 -0.007019
2.740614 0.734811 0.685486 0.000000 0.881903 -0.000008
1.620764 0.571058 0.658215 -0.052720 -0.005333 0.004529
1.524860 0.566267 0.805161 -0.052719 -0.016356 -0.013336
1.760183 0.296355 1.110591 0.112856 -0.002810 -0.002553
1.747883 0.964928 0.408418 0.112857 0.003234 0.002938
1.503528 0.501280 0.908654 -0.024551 0.033678 0.018579
2.783288 0.563533 0.824100 0.071548 0.010884 0.007472
2.783288 0.750447 0.618442 0.071550 0.008560 0.010043
1.673467 0.816431 0.539944 0.052745 -0.008281 -0.007435
0.871106 0.624776 0.649610 0.000000 -0.446238 -0.000007
2.490372 0.658288 0.808562 0.000000 -0.028049 0.000250
2.261253 0.693896 0.648041 0.000000 0.395782 -0.000008
1.712828 0.362697 0.385674 0.052744 0.006466 -0.005833
1.623777 0.322438 1.082775 -0.052713 -0.003040 -0.002591
1.733956 0.738797 0.694058 -0.000000 0.924580 -0.000001
0.343808 0.582791 0.695493 -0.000001 -0.933204 -0.000003
1.739462 1.195091 0.147697 -0.052720 0.007039 0.005956
2.788551 0.586852 0.686391 -0.000001 -0.847055 -0.000001
2.980295 0.637914 0.805370 0.000000 -0.290515 0.000023
1.781892 0.622676 0.799308 0.000000 -0.471432 0.000013
1.973637 0.675375 0.642560 0.000000 0.181245 -0.000038
3.211872 0.585696 0.625638 -0.000003 -0.739894 0.000153
2.884423 0.736184 0.688160 0.000001 0.894054 -0.000007
3.374274 0.849967 0.508943 -0.143581 0.005665 0.004763
1.439247 0.884919 0.475164 -0.024553 -0.008022 -0.007135
1.444591 0.770675 0.829022 -0.052723 0.005666 -0.004809
3.265915 0.750270 0.643249 0.000000 -0.740025 -0.000675
0.631425 0.732614 0.681633 -0.000001 0.854054 -0.000034
3.076167 0.697371 0.649610 0.000000 0.446238 -0.000007
0.679361 0.584867 0.759484 -0.000000 -0.906824 0.000003
1.438625 0.818004 0.903262 -0.024552 -0.033677 0.018579
2.730629 0.558883 0.612545 0.071549 -0.009017 0.010572
3.334636 0.480438 0.940140 -0.000000 -0.740024 -0.000730
3.334636 0.480438 0.509825 -0.000001 -0.740023 0.000730
3.236937 0.436179 0.988837 -0.000000 -0.740024 -0.000730
1.476088 0.442855 0.953711 -0.052721 -0.003893 -0.003314
3.380899 0.866908 0.959662 -0.143579 0.005665 -0.004763
1.757723 1.005417 0.338623 0.052748 -0.006012 -0.005429
0.919042 0.738145 0.757502 0.000001 0.873657 0.000002
1.617030 1.136816 0.199553 -0.024550 -0.018020 -0.013595
1.254595 0.699208 0.799438 0.000000 0.446482 0.000028
2.644742 0.580328 0.703132 0.000001 -0.964465 -0.000008
1.444617 1.002953 0.348819 -0.024551 -0.026799 -0.016947
1.465385 0.339944 1.075146 -0.052718 -0.003253 -0.002772
1.604706 0.444019 0.941888 -0.052720 -0.007679 -0.006487
1.634675 1.076991 0.277536 -0.052719 0.002613 0.002228
1.537014 0.252389 1.171897 -0.052723 -0.005653 -0.004798
1.632641 0.944975 0.432034 -0.052720 0.006826 0.005778
1.621133 0.416728 0.446716 -0.024551 0.014285 -0.011554
1.744382 1.205470 1.328365 -0.024554 -0.028112 0.017313
1.649069 0.348063 0.372325 -0.024553 0.006594 -0.005958
1.781892 0.628790 0.647809 0.000002 -0.392798 -0.000033
1.590148 0.639435 0.644179 -0.000000 -0.263306 -0.000052
2.021573 0.700829 0.651383 -0.000000 0.471023 -0.000013
1.635101 0.368536 1.027848 -0.052719 -0.006506 -0.005512
2.322189 0.577482 0.727328 0.000000 -0.999607 0.000000
1.438625 0.495343 0.554701 -0.052719 -0.016356 0.013336
1.438625 0.495343 0.895264 -0.052718 -0.016356 -0.013336
1.276532 0.744696 0.723736 0.000000 0.999595 -0.000000
1.744382 0.109785 1.322102 -0.052719 -0.013651 -0.011281
1.776788 0.130291 0.134986 0.052745 0.014971 -0.013091
1.630205 1.154954 1.264130 -0.052718 0.008746 -0.007365
3.076167 0.587785 0.684645 0.000000 -0.881855 -0.000015
1.654888 0.127373 1.308774 -0.052719 -0.007040 -0.005956
1.829828 0.592846 0.773393 0.000000 -0.824089 0.000002
1.519700 0.939154 1.035657 -0.024558 -0.007141 0.006416
1.597580 0.576204 0.618007 -0.024551 0.010989 -0.009386
1.722668 1.011260 0.361698 -0.052721 0.002827 0.002409
1.544832 1.079737 0.263153 -0.024551 -0.010770 -0.009229
1.774635 0.741616 0.649606 0.112856 0.008164 0.007401
3.281757 0.902548 0.442885 -0.000001 0.740024 0.000487
3.124104 0.619333 0.652491 0.000001 -0.495684 -0.000049
1.572359 0.292211 0.327596 -0.052719 -0.005973 0.005066
1.490280 0.361815 0.402465 -0.052718 -0.006933 0.005867
1.463393 0.840581 0.540574 -0.052720 0.016356 0.013336
1.792778 1.015630 1.119826 0.052741 -0.005559 0.005024
1.668063 1.209806 0.124652 -0.052720 0.007039 0.005956
1.444392 0.955336 1.045378 -0.052721 0.003466 -0.002953
1.444392 0.366811 0.404587 -0.052720 -0.003467 0.002953
1.559029 0.787518 0.875007 -0.024552 -0.033676 0.018579
1.369154 0.662393 0.641362 0.000000 0.028049 -0.000250
2.644742 0.735497 0.686782 0.000000 0.894590 -0.000002
3.272920 0.847272 0.913445 0.000003 -0.739968 0.000244
1.302531 0.584480 0.691352 -0.000000 -0.918344 -0.000003
3.001257 0.794529 0.594552 0.000001 -0.740017 -0.000312
3.012089 0.544198 0.837170 0.000000 0.740025 0.000779
1.717748 0.344820 1.083575 0.052746 0.012930 0.011415
3.161073 0.554314 0.858856 0.000001 -0.740024 -0.000546
1.638084 0.734001 0.765959 0.000000 0.868374 0.000016
1.615959 0.976931 1.079493 -0.024550 -0.006594 0.005959
0.727297 0.578771 0.710032 0.000000 -0.983169 -0.000003
1.805693 0.786229 0.583558 0.052746 -0.004367 -0.003956
0.535553 0.731569 0.679951 -0.000000 0.839051 -0.000009
1.062850 0.586683 0.763248 0.000001 -0.888440 0.000004
1.973637 0.736184 0.688160 0.000000 0.894752 -0.000007
1.110786 0.625674 0.800772 0.000000 -0.421215 0.000030
2.825059 0.523951 0.875855 0.071547 -0.008560 -0.010044
1.877764 0.680544 0.806335 0.000001 0.236165 0.000116
3.399934 0.822483 0.902578 -0.143580 -0.004763 0.004670
1.350467 0.579391 0.706941 0.000001 -0.858745 -0.000000
3.302169 0.631990 0.641866 -0.127214 -0.000359 -0.001246
1.973637 0.736477 0.761214 0.000000 0.907053 0.000003
2.069509 0.739671 0.696354 0.000002 0.888913 -0.000003
2.836487 0.610247 0.791421 0.000001 -0.612364 0.000073
0.028586 0.635738 0.716117 -0.614203 -0.000018 -0.000006
3.121432 0.823545 0.887338 0.000000 -0.740025 0.000546
1.706062 0.575182 0.618935 0.052745 0.017465 -0.015071
1.853048 1.088726 1.195519 0.052746 -0.009301 0.008326
1.825373 0.248780 1.173946 0.112857 -0.002386 -0.002168
1.398403 0.584509 0.691284 0.000001 -0.917736 -0.000006
1.549740 0.332591 1.076902 -0.052718 -0.003253 -0.002772
1.711976 0.103061 0.108213 -0.024551 0.028115 -0.017313
3.245441 0.553076 0.827401 0.000000 0.740025 0.000612
3.292923 0.536790 0.604645 0.000000 0.740025 -0.000306
0.583489 0.622159 0.650934 0.000000 -0.471432 -0.000013
1.806266 0.660634 0.808628 0.000000 -0.028038 0.000251
1.376085 0.592840 0.806216 -0.024553 0.004670 0.004293
1.767563 0.272132 1.159639 0.052746 0.011116 0.009886
2.117445 0.586355 0.762592 0.000000 -0.894211 0.000004
2.548870 0.642173 0.643492 0.000000 -0.236123 -0.000058
1.787858 0.342079 1.081084 0.052744 0.012024 0.010655
2.213317 0.736909 0.689682 -0.000000 0.907007 -0.000007
3.290522 0.593238 0.633936 -0.000001 -0.740024 0.000675
0.775233 0.584480 0.758613 -0.000000 -0.918141 0.000006
3.265915 0.733937 0.821561 -0.000000 0.740025 -0.000675
3.225908 0.857768 0.492155 -0.000000 0.740025 0.000487
3.293492 0.850862 0.532570 0.000000 -0.740025 -0.000487
0.487617 0.731908 0.769491 -0.000000 0.854104 0.000004
3.408855 0.946558 0.419075 -0.143581 -0.004763 -0.004670
3.408855 0.946558 1.030890 -0.143581 -0.004763 0.004670
2.967359 0.495440 0.899021 0.071549 0.010884 0.007472
1.686051 1.070033 1.160099 -0.052717 0.005120 -0.004350
1.484726 0.748443 0.619391 -0.024552 -0.033676 -0.018579
3.319298 0.575880 0.754793 -0.127214 -0.001228 0.000509
1.608565 0.489982 0.562238 -0.052718 -0.016356 0.013336
1.425931 0.544112 0.589878 -0.024547 0.005839 -0.005315
3.124104 0.744413 0.717732 0.000001 0.786796 -0.000000
1.815533 0.389433 1.017527 0.112857 -0.003234 -0.002938
3.366806 0.584370 0.809377 -0.143580 -0.005665 -0.004763
0.343808 0.729509 0.773091 -0.000000 0.823328 0.000005
1.601394 1.112845 1.224231 -0.024552 -0.009890 0.008584
1.642245 0.093709 0.100724 -0.052719 -0.006186 0.005245
1.661475 1.202290 1.317044 -0.052721 0.007039 -0.005956
1.817993 0.363112 0.403062 0.112857 -0.003022 0.002746
1.817993 0.959035 1.046902 0.112855 0.003022 -0.002746
1.206659 0.741983 0.746232 -0.000000 0.964708 0.000001
3.311873 0.440618 0.466012 0.000000 -0.740025 0.000487
1.633221 0.297091 0.338262 -0.052719 -0.005653 0.004798
0.070600 0.613475 0.698676 -0.449545 -0.000045 -0.000023
0.520116 0.664738 0.808537 0.000000 0.028038 0.000017
1.829828 0.695175 0.801373 0.000000 0.395392 0.000008
3.051793 0.577519 0.728647 0.000000 -0.999607 0.000000
2.955691 0.736498 0.791562 -0.000001 0.672579 0.000676
1.826910 0.737222 0.804353 0.112856 0.002253 -0.002048
0.109156 0.720977 0.687343 -0.299035 0.000091 -0.000054
3.013918 0.868060 0.952725 0.071548 0.008560 -0.010044
1.494275 0.739507 0.695906 0.000000 0.912558 -0.000001
1.502846 1.027859 1.125589 -0.052720 0.012158 -0.010113
1.797698 1.051192 1.158568 0.052747 -0.005105 0.004618
3.172040 0.738160 0.757468 0.000001 0.917400 0.000006
1.446339 0.738878 0.755702 -0.000001 0.927563 0.000006
1.676028 0.964604 1.037399 -0.052718 0.003200 -0.002726
1.376536 0.847860 0.924983 -0.052719 0.005666 -0.004809
3.373431 0.754718 0.621948 -0.143580 -0.004763 -0.004670
0.536365 0.665618 0.641453 0.000000 0.028049 -0.000250
1.542211 0.625707 0.800788 0.000000 -0.421012 0.000015
2.244191 0.577441 0.724103 0.000000 -0.999607 -0.000000
0.871106 0.694637 0.648360 0.000000 0.395114 -0.000016
0.078090 0.661073 0.666827 -0.427638 0.000001 -0.000029
1.787858 0.988095 1.073788 0.112857 0.006044 -0.005485
1.374996 0.507011 0.563195 -0.052717 -0.005667 0.004809
1.484726 0.558869 0.632873 -0.052719 -0.016356 0.013336
1.446339 0.626172 0.801004 -0.000000 -0.420780 0.000015
1.312413 0.584047 0.813325 -0.024550 0.014011 0.011387
2.165381 0.700732 0.651331 -0.000001 0.469590 -0.000013
3.172040 0.621771 0.798824 0.000000 -0.471347 0.000053
0.775233 0.676961 0.642853 -0.000001 0.180564 -0.000038
2.133694 0.662173 0.808609 0.000005 0.005420 0.000176
3.151429 0.427347 0.973942 0.071548 0.010885 0.007472
3.151429 0.427347 0.476023 0.071548 0.010885 -0.007472
1.826910 0.549555 0.843270 0.112857 -0.008164 -0.007401
3.179169 0.392956 1.019987 0.071549 -0.009017 -0.010572
3.179169 0.392956 0.429978 0.071550 -0.009017 0.010572
1.431441 0.334226 0.365359 -0.052719 -0.003253 0.002772
1.638084 0.693492 0.647867 0.000000 0.395658 -0.000033
2.947796 0.659680 0.641345 0.000000 -0.013820 -0.000034
1.774635 0.590187 0.640830 0.052748 0.004821 -0.004363
1.732200 0.556476 0.600405 0.052744 0.017466 -0.015072
1.774635 0.731960 0.809135 0.052746 -0.004821 0.004364
1.684845 0.558326 0.851242 0.052745 0.017465 0.015071
3.259524 0.886537 0.956647 0.000001 -0.740025 0.000730
1.601158 0.959329 1.037308 -0.052718 0.006507 -0.005512
1.590148 0.712277 0.658835 -0.000000 0.611301 -0.000009
2.644742 0.629502 0.647517 -0.000000 -0.369634 -0.000035
1.459958 0.572647 0.802965 -0.052723 -0.002833 -0.002415
1.822913 0.283943 0.315123 0.112857 -0.002598 0.002360
1.827218 1.267748 1.388131 0.112859 0.005302 -0.004813
1.550018 0.198935 1.233463 -0.052717 -0.009599 -0.008062
1.697376 0.312109 0.332162 -0.024554 0.005714 -0.005207
1.583797 0.503759 0.873600 -0.052719 -0.016356 -0.013336
1.623932 0.810989 0.861669 -0.052719 0.016356 -0.013336
1.543662 0.825785 0.885530 -0.052720 0.016356 -0.013336
