0.700088 0.738157 0.724716 0.000000 -0.723511 0.000014
2.427664 0.886141 0.555743 0.000000 0.600866 -0.000010
2.755146 0.914649 0.730254 0.052808 0.004562 -0.006411
3.128164 0.853467 0.541949 0.147127 0.000089 -0.000321
2.700439 0.892738 0.560979 0.000000 0.655562 -0.000009
0.836475 0.717100 0.599409 0.000001 -0.894586 -0.000002
0.927400 0.771482 0.544625 0.000001 -0.420131 -0.000065
2.564051 0.876624 0.549482 0.000000 0.503239 -0.000026
1.703140 1.058593 0.452283 0.049652 -0.006664 -0.008365
1.684480 0.144172 1.183472 -0.025445 0.009276 0.011354
3.019087 0.897939 0.584664 -0.000001 0.784857 -0.000397
1.570215 0.605629 0.467695 -0.025442 0.005867 -0.007448
1.387291 1.169058 0.373173 -0.049635 0.005517 0.006578
2.200351 0.906379 0.718397 0.000000 0.770086 0.000012
1.711719 0.714237 0.558563 0.049652 0.008013 -0.010020
0.654625 0.708643 0.625937 0.000000 -0.984598 -0.000003
0.563700 0.708701 0.625612 0.000000 -0.984623 -0.000001
1.790587 0.213397 0.168128 0.049653 0.006579 -0.008261
1.010127 0.706805 0.650099 0.000000 -0.999725 0.000000
3.183851 0.793931 0.646631 1.000000 0.000000 0.000000
1.526049 0.677767 0.555486 -0.049633 -0.002023 0.002425
1.304999 0.532310 0.873342 -0.049635 -0.005812 -0.006924
1.350170 0.466087 0.925627 -0.049636 -0.011034 -0.012920
1.790587 0.443432 0.943514 0.049652 0.010627 0.013163
1.109250 0.742593 0.729097 0.000000 -0.690313 0.000008
2.966712 1.095556 0.856373 0.052808 -0.010401 0.011637
1.745726 0.927795 0.677770 -0.000000 0.963624 0.000002
1.654801 0.927751 0.677930 0.000000 0.963858 0.000001
1.471072 1.036603 0.468324 -0.025442 -0.023725 -0.022614
1.836651 0.899160 0.726338 0.000000 0.707107 0.000008
1.572905 1.380019 1.091830 -0.025438 -0.003412 0.004405
1.683769 1.192184 0.345581 0.049653 -0.011301 -0.013958
1.154713 0.896941 0.728498 -0.000000 0.690313 0.000031
0.245463 0.923232 0.602617 0.000002 0.910342 -0.000007
3.099561 0.744708 0.579927 -0.000001 -0.784860 -0.000263
2.113898 0.932144 0.648283 0.000000 0.999725 0.000000
0.700088 0.899773 0.567538 0.000001 0.705763 -0.000015
1.471639 0.541103 0.421325 -0.025443 0.005389 -0.006868
1.609338 0.742175 0.728698 -0.000001 -0.689985 0.000031
1.329660 1.050630 0.468175 -0.049634 0.004368 0.005220
1.614218 0.442811 0.365316 -0.049636 -0.009710 0.011431
1.563876 0.894787 0.730487 0.000001 0.672886 0.000033
3.124696 1.061278 0.837561 -0.070903 -0.007190 0.008689
1.564732 0.151531 1.173980 -0.049633 -0.011475 -0.013412
1.373036 0.594152 0.828051 -0.025443 0.023724 0.022614
2.336739 0.719406 0.698563 -0.000000 -0.886219 0.000008
1.433650 0.684452 0.555081 -0.049635 -0.012799 0.014867
2.760625 0.746112 0.715115 -0.000000 -0.784862 0.000247
0.843928 0.932175 0.647292 -0.000000 0.999933 0.000000
0.745550 0.925559 0.684684 0.000000 0.942714 0.000005
2.154889 0.898459 0.566224 -0.000001 0.705853 -0.000015
1.641969 0.264161 0.203264 -0.025442 0.013641 -0.015663
3.146726 0.852645 0.748785 0.141640 0.000515 0.001341
0.427313 0.768622 0.747249 0.000000 -0.441434 0.000004
1.590571 0.330086 1.023453 -0.049636 -0.002133 -0.002557
2.836826 0.879589 0.741982 -0.000001 0.543254 0.000046
3.144415 0.631528 0.795006 -0.070905 -0.003726 -0.004916
1.710335 1.353660 0.234784 0.096649 0.002210 0.002798
0.700088 0.742929 0.563860 0.000001 -0.632813 -0.000004
1.852302 0.817637 0.533944 -0.000000 -0.023459 -0.000320
0.290925 0.866751 0.748951 0.000000 0.420178 0.000065
2.953091 0.823912 0.534006 0.000000 0.023459 -0.000042
2.091539 0.706759 0.648118 -0.000005 -0.193289 0.000000
1.836651 0.744181 0.730542 0.000000 -0.673221 0.000033
1.274210 1.024610 0.806984 -0.049634 0.003495 -0.004181
3.066273 1.026369 0.476917 -0.070904 0.003414 0.004505
1.707446 1.637641 1.290019 -0.049635 0.012946 -0.015027
1.707446 1.637641 0.003244 -0.049636 0.012945 0.015027
1.460281 0.932125 0.644155 0.000000 0.999733 -0.000000
3.037061 0.629992 0.805739 -0.070905 -0.003726 -0.004916
0.411662 0.706828 0.642173 0.000000 -0.999716 -0.000000
1.031741 0.817142 0.533956 -0.000000 -0.023451 -0.000021
1.624416 1.441444 1.131827 -0.049635 0.012652 -0.014707
3.124696 0.577628 0.455702 -0.070903 -0.006827 0.008978
1.599716 1.137398 0.906442 -0.025443 -0.010096 0.012225
1.502051 0.399350 0.971437 -0.049635 -0.002428 -0.002909
2.245814 0.717117 0.693891 0.000000 -0.907338 0.000007
0.791013 0.839294 0.757594 -0.000001 0.172970 0.000043
1.671316 0.653180 0.507798 0.049651 0.001835 -0.002322
1.109250 0.870396 0.546069 0.000000 0.462307 -0.000014
1.470499 1.178628 0.359316 -0.025443 -0.010096 -0.012225
1.006401 0.932121 0.649273 0.000000 0.999733 0.000000
1.373036 1.044754 0.828051 -0.025443 -0.023723 0.022614
2.862622 0.532716 0.873021 0.052812 -0.009123 -0.012680
2.913907 1.068672 0.443517 0.052809 0.005155 0.007237
1.336563 0.924550 0.605870 -0.000001 0.933911 -0.000006
1.546532 0.624632 0.810220 -0.025442 0.023724 0.022614
1.665781 0.685128 0.737246 0.096647 -0.003770 -0.004772
1.154713 0.733747 0.573409 0.000000 -0.755475 -0.000003
2.926167 0.687729 0.555324 -0.000001 0.619673 -0.000479
1.735292 0.819536 0.533904 0.000000 0.023820 -0.000083
1.350979 0.626113 0.501097 -0.049634 -0.004368 0.005220
1.668272 0.533464 0.880179 0.049654 0.006326 0.007948
0.972863 0.899189 0.726309 -0.000001 0.706771 0.000030
1.757933 1.232808 0.975058 0.049653 -0.004977 0.006272
2.934776 0.711262 0.719359 -0.000000 0.619673 0.000958
1.323531 0.905501 0.719565 -0.000000 -0.784860 -0.000078
2.942657 0.932079 0.651090 0.000000 0.999725 0.000000
1.650360 1.317367 1.046221 -0.025443 -0.014732 0.016610
1.471639 0.541103 0.871938 -0.025440 0.005390 0.006869
1.951425 0.706743 0.647457 0.000005 -0.193271 0.000000
1.716423 1.161598 0.907592 0.096647 0.006154 -0.007778
1.764298 0.947851 0.548509 0.096648 0.002058 0.002607
0.234283 0.706844 0.641513 0.000000 -0.999725 -0.000000
1.894783 0.818628 0.759342 0.000000 -0.023459 0.000010
2.109426 0.763425 0.548817 0.000002 -0.306146 -0.000005
2.970896 0.966866 0.750325 -0.000000 -0.619673 0.000958
2.443315 0.819371 0.759360 0.000000 -0.011552 0.000043
0.563700 0.873607 0.745493 0.000000 0.482660 0.000014
1.765128 0.058508 0.048987 0.096647 -0.004680 0.005921
2.336739 0.920964 0.695647 -0.000000 0.897223 0.000004
1.200176 0.757238 0.740636 0.000000 -0.543326 0.000012
2.836826 0.776163 0.750712 0.000000 -0.374418 0.000005
0.791013 0.849677 0.538037 0.000001 0.266218 -0.000109
0.635248 0.818215 0.533916 0.000000 -0.011552 -0.000043
1.560506 0.280270 1.075018 -0.025444 0.006958 0.008743
3.023314 1.046491 0.835407 -0.070905 0.007451 -0.009791
2.109426 0.776163 0.750712 -0.000000 -0.374243 0.000009
3.026261 0.534680 0.863855 -0.070905 0.002876 0.003491
1.603646 1.146363 0.379812 -0.025444 -0.004775 -0.006114
2.842449 0.734794 0.592484 0.000000 -0.784857 -0.000397
1.523955 1.000099 0.798614 -0.025442 -0.023724 0.022614
2.564051 0.782802 0.540030 0.000000 -0.333351 -0.000021
0.290925 0.780545 0.752433 0.000000 -0.344500 0.000005
2.525296 0.706732 0.647292 0.000010 -0.049516 0.000000
0.355020 0.932171 0.645640 0.000000 0.999931 -0.000000
1.388319 1.106178 0.425661 -0.049635 0.005812 0.006924
1.338878 1.156264 0.912556 -0.025441 -0.021547 0.021427
1.460346 1.081248 0.858867 -0.025442 -0.023453 0.022474
1.229039 0.958388 0.538564 -0.049636 0.003494 0.004181
2.950417 0.580247 0.448249 0.052812 -0.005155 0.007236
0.051617 0.800152 0.699235 -0.614952 -0.000010 0.000025
0.700088 0.806269 0.758587 0.000000 -0.128830 0.000058
2.700439 0.865626 0.749471 -0.000000 0.420316 0.000032
1.713483 0.046717 1.251737 -0.049635 -0.007651 -0.009070
2.973214 0.853910 0.753960 0.000001 0.311241 0.000183
1.180053 0.820692 0.533931 0.000005 0.004887 -0.000202
2.708637 0.822591 0.533975 0.000000 0.023451 -0.000042
2.700439 0.780081 0.752256 -0.000001 -0.354292 0.000020
3.109601 0.773280 0.749471 0.142060 -0.000145 0.000313
1.740509 0.823581 0.759264 0.000000 0.023451 0.000320
3.000639 0.421648 0.960713 0.052811 -0.007299 -0.010198
2.707354 0.981240 0.774368 0.052813 0.004562 -0.006410
1.200176 0.712331 0.681716 0.000000 -0.950117 0.000001
3.078687 1.187043 0.936857 -0.070905 -0.005752 0.006964
1.467178 1.164148 0.922725 -0.025446 -0.010094 0.012224
1.906708 0.932164 0.647457 0.000000 0.999725 0.000000
1.734134 0.330154 0.256736 0.049652 0.004302 -0.005428
1.272183 0.906310 0.574724 -0.000001 -0.784829 0.000039
0.563700 0.763568 0.744529 -0.000001 -0.502051 0.000026
1.430058 0.469109 0.925871 -0.025442 0.010232 0.012368
2.427664 0.782374 0.540181 -0.000000 -0.333377 -0.000042
2.882289 0.852926 0.538990 0.000000 0.288805 -0.000012
1.565962 0.325933 0.253123 -0.025441 0.015823 -0.017507
2.902802 0.618565 0.814761 0.052810 -0.005155 -0.007237
3.001276 0.617133 0.499586 0.000000 0.619674 -0.000799
1.790587 0.520111 0.882973 0.049654 0.011976 0.014746
1.790587 1.272153 0.289209 0.049655 -0.009277 -0.011551
1.790587 1.118796 0.882973 0.049653 -0.011976 0.014746
2.403815 0.932119 0.649356 0.000000 0.999716 0.000000
2.836826 0.916437 0.589176 -0.000000 0.863752 -0.000009
1.336563 0.772793 0.544017 0.000001 -0.419482 -0.000032
2.325559 0.816977 0.759303 0.000000 -0.023459 0.000010
1.713103 0.151226 0.128627 0.096647 -0.006067 0.007669
1.361463 0.449532 0.354565 -0.049636 -0.011034 0.012920
1.882113 0.712962 0.683594 0.000000 -0.942790 0.000005
2.336739 0.889031 0.557945 0.000000 0.619621 -0.000019
2.270408 0.932133 0.648778 -0.000005 0.188659 0.000000
2.654976 0.929748 0.669918 -0.000001 0.979943 0.000006
1.695392 0.235499 1.113715 0.049654 0.003627 0.004582
1.628843 1.460348 0.145963 -0.049633 0.011475 0.013412
0.152143 0.812025 0.752073 -0.222142 -0.000016 0.000175
1.429219 0.350198 1.017126 -0.049633 -0.009269 -0.010930
1.474391 0.283976 1.069411 -0.049633 -0.008092 -0.009581
1.519561 1.421153 1.121696 -0.025442 -0.025630 0.023536
1.621196 0.068753 0.053926 -0.049636 -0.003973 0.004750
1.751153 0.709434 0.728617 0.096647 -0.004117 -0.005210
0.495134 0.932094 0.650429 0.000000 0.999725 0.000000
3.032808 1.117845 0.404693 -0.070904 0.002731 0.003605
1.723618 1.429540 1.120032 0.096650 0.003727 -0.004717
1.418496 0.978300 0.759041 -0.049636 0.012798 -0.014867
1.738562 1.351962 1.060630 0.096647 0.004420 -0.005593
1.753505 1.168951 0.375278 0.096646 0.005807 0.007342
3.170706 0.935513 0.738265 -0.070904 -0.004355 0.005281
3.078687 0.451864 0.356406 -0.070904 -0.005462 0.007195
1.427488 0.716152 0.691744 0.000001 -0.916242 0.000007
2.654976 0.752766 0.555743 0.000000 -0.600866 -0.000010
1.276285 0.703375 0.560675 -0.049635 -0.010482 0.012303
1.631431 1.261670 0.311762 -0.049637 0.004561 0.005448
1.629806 1.013202 0.809788 0.049654 -0.003501 0.004423
0.051617 0.797708 0.594991 -0.614954 -0.000012 -0.000027
1.534554 1.164638 0.386387 -0.049634 0.002722 0.003260
1.592818 1.235316 0.962028 -0.049637 0.002317 -0.002777
0.128919 0.909637 0.687122 -0.312606 0.000105 0.000044
3.091832 1.151111 0.384776 -0.070904 -0.008627 -0.010403
1.631431 0.387736 0.298465 -0.025442 0.008459 -0.010457
3.164133 0.685427 0.752450 -0.070903 -0.004136 -0.005455
1.512316 1.318992 1.036996 -0.049633 0.002170 -0.002601
1.636448 1.060977 0.475009 0.096649 0.001798 0.002277
1.746864 0.588551 0.461556 0.049653 0.013325 -0.016301
3.183851 0.855548 0.585014 1.000000 0.000000 0.000000
1.624549 0.529290 0.438079 0.096647 -0.003250 0.004114
1.619844 0.960179 0.524708 0.049653 -0.007338 -0.009195
0.791013 0.714210 0.687007 0.000000 -0.934671 0.000011
2.749668 0.942677 0.555689 0.052813 -0.005200 -0.005902
0.113838 0.754403 0.580037 -0.371420 -0.000063 -0.000062
0.113838 0.887554 0.583160 -0.371421 0.000068 -0.000060
1.587318 1.520487 1.200123 -0.025440 -0.019095 0.019900
1.587318 1.520487 0.093140 -0.025442 -0.019094 -0.019900
3.022799 0.675963 0.747228 0.000000 0.619674 0.000799
2.279351 0.820609 0.533929 0.000000 0.023459 -0.000021
2.875803 1.007875 0.785877 0.052812 -0.005876 0.006660
1.476224 0.379033 0.303217 -0.049635 -0.002317 0.002777
1.689857 0.952331 0.739081 0.096647 0.003770 -0.004772
2.672849 0.953473 0.540818 0.052812 0.012162 0.016719
3.013115 1.132752 0.901608 -0.070904 0.008192 -0.010752
3.013115 0.506155 0.391655 -0.070904 -0.008192 0.010752
2.823411 0.815491 0.533995 -0.000000 -0.023459 -0.000021
1.757933 0.412713 0.329535 0.096648 -0.002730 0.003457
0.359491 0.823912 0.534006 0.000000 0.023459 -0.000021
1.646687 0.434774 0.932547 0.096648 -0.005807 -0.007342
1.609338 0.930249 0.625856 0.000002 0.979354 -0.000003
1.449211 0.431047 0.344832 -0.049636 -0.005223 0.006231
1.700263 0.877337 0.549898 0.000000 0.523332 -0.000012
2.377729 0.706774 0.644485 0.000000 -0.999725 -0.000000
0.609163 0.927095 0.613159 -0.000001 0.954136 -0.000005
3.001276 1.021774 0.499586 -0.070905 -0.003924 -0.004759
1.257801 0.712048 0.726553 -0.049633 -0.003495 -0.004182
0.972863 0.790583 0.755600 -0.000001 -0.265625 0.000027
1.063788 0.790543 0.755589 0.000000 -0.265943 0.000027
2.193644 0.706813 0.650429 0.000000 -0.999725 0.000000
1.704247 1.442020 0.149624 0.049653 -0.006579 -0.008261
2.609514 0.881808 0.740546 -0.000000 0.562833 0.000011
1.745726 0.710452 0.617881 0.000000 -0.969802 -0.000001
1.734134 0.330154 1.036527 0.049653 0.008603 0.010737
3.029973 0.930986 0.747384 -0.070903 0.005875 -0.007735
1.590342 0.223714 0.173872 -0.025443 0.006276 -0.007938
2.738258 0.672191 0.527189 0.052812 -0.005155 0.007236
3.104978 0.523729 0.880117 -0.070905 -0.002731 -0.003605
1.429219 1.288709 0.276137 -0.025443 -0.017185 -0.018556
1.427488 0.795602 0.756806 0.000000 -0.220903 0.000017
1.063788 0.713196 0.609007 -0.000000 -0.936419 -0.000001
1.323531 0.726231 0.710477 -0.049636 -0.005242 -0.006253
1.572308 0.659827 0.509233 -0.025443 0.007504 -0.009376
1.777442 0.691846 0.547507 0.096645 -0.002059 0.002607
2.862622 1.106191 0.420242 0.052811 0.009123 0.012681
2.609514 0.763354 0.744405 0.000000 -0.503209 0.000026
1.620121 1.075205 0.859355 0.049655 -0.013324 0.016301
3.093766 0.681517 0.544073 -0.070904 0.007847 -0.009475
2.888316 0.938830 0.539685 0.000002 0.619671 0.000639
1.427488 0.845881 0.537046 0.000000 0.243215 -0.000015
1.533592 1.061604 0.472221 -0.049635 0.003163 0.003787
1.537779 0.956810 0.733407 -0.049634 0.004046 -0.004838
2.473126 0.922425 0.692501 0.000001 0.916242 0.000007
0.654625 0.915020 0.706415 0.000001 0.851525 0.000009
1.725002 0.583258 0.825002 0.096647 -0.003424 -0.004333
0.927400 0.923347 0.602882 -0.000000 0.926025 -0.000012
1.625379 0.645010 0.794825 0.049651 0.001835 0.002322
1.644564 0.143101 0.117419 -0.049636 -0.005150 0.006144
1.716423 0.458139 0.370536 0.096647 -0.002904 0.003676
2.866055 0.648137 0.501850 0.052810 -0.005155 0.007237
2.537221 0.932121 0.643990 0.000000 0.999725 -0.000000
1.063788 0.714983 0.688966 -0.000001 -0.925265 0.000006
3.096664 0.922708 0.558090 -0.070903 0.010019 0.013107
0.427313 0.843990 0.756651 0.000001 0.220495 0.000066
1.654801 0.748579 0.558969 0.000000 -0.637981 -0.000005
2.047567 0.932144 0.644980 0.000000 0.999725 -0.000000
2.518589 0.884529 0.738674 0.000000 0.582125 0.000010
1.472951 0.738471 0.568218 -0.000000 -0.723401 -0.000029
0.881938 0.834890 0.534968 -0.000001 0.128112 -0.000116
1.200176 0.711068 0.615652 0.000000 -0.963884 -0.000004
1.836651 0.910342 0.579944 0.000000 0.813221 -0.000005
2.973214 0.715263 0.603609 -0.000000 -0.926104 -0.000024
2.382201 0.850752 0.754929 0.000000 0.265559 0.000007
3.183851 0.917149 0.616996 0.139450 0.000320 -0.000093
2.518589 0.911688 0.581824 0.000000 0.812928 -0.000005
1.377437 0.946485 0.540507 -0.025445 -0.008100 -0.010055
1.245638 0.848881 0.537817 -0.000001 0.265625 -0.000027
0.183911 0.715810 0.687442 -0.098633 -0.000402 0.000148
0.472775 0.788155 0.538334 0.000000 -0.288705 -0.000025
0.791013 0.745483 0.561575 0.000001 -0.653089 -0.000017
2.109426 0.858594 0.540918 0.000000 0.355470 -0.000039
2.867683 0.734794 0.700779 0.000000 -0.784857 0.000198
2.952836 0.947255 0.558421 -0.000001 -0.619675 -0.000958
1.790587 0.155888 1.170541 0.049654 0.010458 0.012962
1.790587 0.232566 1.110000 0.049650 0.006580 0.008261
1.523955 1.000099 0.494649 -0.025444 -0.023723 -0.022614
2.875803 1.007875 0.507386 0.052813 -0.005876 -0.006660
1.973038 0.851068 0.538429 0.000000 0.288870 -0.000050
1.590706 0.820609 0.533929 0.000000 0.023451 -0.000320
1.790587 1.540528 0.077317 0.049653 -0.009109 -0.011348
1.790587 1.578867 1.246216 0.049652 -0.007760 0.009711
2.973214 0.764179 0.548388 0.000000 -0.483001 -0.000027
1.245638 0.915387 0.705817 -0.000000 0.850437 0.000005
1.769832 1.070233 0.447317 0.049654 -0.006326 -0.007948
1.388995 0.925385 0.736929 -0.025443 -0.016197 0.017803
1.552488 0.437793 0.953839 -0.025442 0.009141 0.011207
3.071941 0.736011 0.702321 0.000000 -0.784857 0.000217
1.622509 0.255047 1.096371 -0.025440 0.012824 0.014920
1.721404 0.225113 0.172996 0.049655 0.003627 -0.004582
0.381850 0.733371 0.719414 -0.000001 -0.703794 0.000002
1.516532 0.663985 0.749882 -0.049636 -0.012798 -0.014867
0.472775 0.882012 0.552857 0.000001 0.552120 -0.000006
1.462717 1.233867 0.969238 -0.049635 0.004929 -0.005884
2.882289 0.837871 0.757846 -0.000000 0.174835 0.000085
1.363598 0.509675 0.400665 -0.025442 0.021546 -0.021427
2.063963 0.739221 0.725812 0.000000 -0.707107 0.000008
2.791136 1.009268 0.493592 0.052811 0.004562 0.006411
1.677159 0.819288 0.759357 0.000000 -0.023459 0.000168
1.518413 0.710771 0.676537 0.000001 -0.963159 0.000004
3.109601 0.790703 0.537630 0.145304 -0.000082 -0.000327
2.988431 0.502383 0.902683 0.052811 -0.003650 -0.005135
2.063963 0.853360 0.754140 0.000001 0.306833 0.000023
1.091364 0.932140 0.648448 0.000000 0.999725 0.000000
2.907811 0.966866 0.750325 0.000001 -0.619671 0.000479
1.425919 0.630656 0.491537 -0.025443 0.023724 -0.022614
0.336388 0.901862 0.723551 -0.000002 0.648440 0.000004
1.109250 0.860447 0.751640 0.000000 0.355470 0.000039
2.245814 0.838603 0.757716 0.000000 0.174923 0.000085
1.671577 0.091086 1.217459 -0.049640 -0.004561 -0.005448
1.456226 0.957572 0.529468 -0.025442 -0.023725 -0.022614
1.790587 1.521358 1.200811 0.049653 -0.009109 0.011348
0.502587 0.706821 0.642503 -0.000000 -0.999725 -0.000000
2.823161 0.643261 0.792089 0.052812 -0.005155 -0.007236
0.745550 0.929500 0.622216 0.000000 0.975302 -0.000003
1.528923 0.902261 0.569595 -0.000000 -0.784860 0.000235
1.637542 1.362943 0.227729 -0.049635 0.007356 0.008729
2.966135 1.189492 0.354473 0.052811 0.007299 0.010198
1.957387 0.821270 0.759319 0.000000 0.023451 0.000320
1.563876 0.777693 0.751336 0.000000 -0.377110 0.000037
0.200000 0.761570 0.743365 -0.067449 -0.000165 0.000269
0.972863 0.719120 0.698013 0.000000 -0.886720 0.000004
1.973038 0.914847 0.706697 -0.000000 0.851618 0.000005
0.927400 0.752766 0.737520 0.000000 -0.601096 0.000010
1.697052 0.361126 0.296337 0.096647 -0.005114 0.006468
1.530093 1.228692 0.332698 -0.049638 0.002428 0.002909
0.836475 0.797543 0.757204 -0.000001 -0.197565 0.000075
2.745901 0.718162 0.597171 0.000000 -0.897189 -0.000004
1.707568 0.534285 0.431752 0.096647 -0.003250 0.004114
0.872249 0.706766 0.648448 0.000000 -0.999725 0.000000
1.790587 0.309245 0.243803 0.049654 0.003964 -0.005005
1.620121 0.548193 0.839712 0.096647 -0.006847 -0.008650
1.516665 1.270290 0.996113 -0.049635 0.002317 -0.002777
1.406634 1.255597 0.990983 -0.025443 -0.018276 0.019341
2.918151 0.740968 0.584664 0.000000 -0.784857 -0.000397
1.335306 0.582989 0.457852 -0.025442 0.023724 -0.022614
2.973214 0.709644 0.672094 0.000001 -0.974913 0.000007
1.577254 1.329529 1.053211 -0.025437 -0.003685 0.004751
1.400553 0.729838 0.578218 -0.000000 0.784861 0.000156
1.751291 0.502152 0.393621 0.049653 0.011976 -0.014746
2.609514 0.710039 0.673740 0.000001 -0.968851 0.000004
2.427664 0.720075 0.699844 0.000001 -0.847011 0.000002
0.336388 0.710271 0.618602 -0.000000 -0.969860 -0.000008
0.518238 0.904808 0.720259 -0.000001 0.754646 0.000026
1.927576 0.731381 0.576276 0.000001 -0.779067 -0.000006
2.776362 0.602133 0.818214 0.052812 -0.005155 -0.007236
1.154713 0.916832 0.589854 -0.000001 0.861953 -0.000004
2.973214 0.878252 0.550460 0.000000 0.523180 -0.000024
1.637575 0.358921 0.996373 -0.049636 -0.004267 -0.005099
2.907811 0.684389 0.765964 0.000001 -0.619672 -0.000479
0.381850 0.877478 0.549984 -0.000000 0.510132 -0.000003
0.881938 0.739484 0.567188 0.000000 -0.707107 -0.000015
1.212100 0.818628 0.759342 0.000000 -0.023820 0.000021
2.291276 0.743143 0.729597 0.000001 -0.608664 0.000002
1.525822 1.344999 0.235460 -0.049633 0.004046 0.004838
2.336739 0.765047 0.547909 -0.000000 -0.482925 -0.000054
3.183851 0.723330 0.612238 0.141427 -0.000311 -0.000107
1.973038 0.917185 0.590460 0.000000 0.864014 -0.000004
2.700439 0.915063 0.706345 -0.000001 0.851569 0.000018
1.258815 0.655290 0.773805 -0.049633 -0.005242 -0.006253
1.554597 0.719113 0.591802 -0.049636 -0.008092 0.009580
0.039368 0.854168 0.676070 -0.663089 0.000015 0.000012
1.569775 0.217060 1.119025 -0.049637 -0.006915 -0.008215
1.767619 1.009953 0.794196 0.096647 0.001798 -0.002278
0.654625 0.769326 0.747595 -0.000001 -0.429894 0.000008
0.121334 0.725046 0.664549 -0.342186 -0.000099 0.000016
0.700088 0.709671 0.672215 0.000001 -0.971391 0.000003
0.972863 0.808897 0.534397 0.000000 -0.105281 -0.000567
0.200000 0.930668 0.665049 -0.067456 0.000312 0.000048
2.862622 0.532716 0.420242 0.052811 -0.009123 0.012680
1.329856 0.823251 0.759272 0.000000 0.023459 0.000320
0.064501 0.855828 0.591846 -0.564400 0.000022 -0.000032
2.245814 0.919577 0.594847 0.000001 0.882384 -0.000004
1.836651 0.730256 0.577702 -0.000000 -0.784820 -0.000006
2.948883 0.463299 0.365434 0.052811 -0.005474 0.007680
1.578316 1.189231 0.924548 -0.049636 0.005150 -0.006144
1.757933 0.403128 0.971296 0.096647 -0.002557 -0.003237
2.859185 0.706824 0.642338 0.000000 -0.999725 -0.000000
0.231302 0.824572 0.534022 0.000000 0.023459 -0.000021
2.882289 0.929830 0.623750 0.000002 0.969941 -0.000003
2.791364 0.929830 0.623750 0.000001 0.976607 -0.000002
3.064139 0.874981 0.548527 0.000003 0.260126 -0.000006
1.577673 1.277501 0.295086 -0.049635 0.004340 0.005187
1.472951 0.873752 0.745414 -0.000001 0.480512 0.000014
2.291276 0.733476 0.573721 0.000000 -0.770052 -0.000006
1.793424 0.814665 0.534014 0.000000 -0.023459 -0.000320
2.580448 0.816977 0.759303 0.000000 -0.023459 0.000010
2.018501 0.883992 0.554205 0.000000 0.582125 -0.000010
1.336563 0.715435 0.603188 0.000000 -0.925605 -0.000006
2.221219 0.817472 0.533948 0.000000 -0.023459 -0.000042
1.538020 0.558399 0.456748 -0.049636 -0.002906 0.003480
1.663568 0.923187 0.556684 0.049651 -0.007338 -0.009195
0.881938 0.870100 0.747340 0.000001 0.441083 0.000031
2.382201 0.914086 0.585387 0.000000 0.839422 -0.000019
1.549312 1.085129 0.864701 -0.025443 -0.005321 0.006785
1.521657 0.505589 0.881600 -0.049637 -0.005517 -0.006578
3.072114 1.205010 0.342221 -0.070906 -0.002876 -0.003491
1.275247 0.658836 0.523477 -0.049635 -0.005242 0.006253
3.105344 1.019961 0.801766 -0.070904 -0.003595 0.004361
1.318367 0.604832 0.812017 -0.049641 -0.002184 -0.002617
1.700263 0.719788 0.699295 0.000001 -0.886403 0.000016
1.688197 1.230390 0.958413 0.096648 0.002730 -0.003457
1.364600 0.684447 0.742654 -0.049635 -0.004368 -0.005219
1.635361 1.260136 1.001806 -0.025446 -0.007912 0.009842
1.600823 0.496683 0.383080 -0.025442 0.005048 -0.006451
0.290925 0.879658 0.551326 -0.000001 0.469146 -0.000003
2.764136 0.990628 0.778606 0.052811 -0.005876 0.006660
1.637278 0.922377 0.737604 0.049650 -0.004007 0.005059
2.811476 0.719106 0.713166 -0.000001 0.619675 0.001278
2.154889 0.924344 0.687933 -0.000000 0.934688 0.000003
3.044321 0.734794 0.592484 0.000000 -0.784857 -0.000435
0.200000 0.730153 0.577831 -0.067451 -0.000252 -0.000190
1.791188 0.870689 0.747041 0.000000 0.462739 0.000007
1.725279 1.237743 0.324456 0.096645 0.002730 0.003457
1.882113 0.919844 0.697904 0.000000 0.886378 0.000008
1.559242 0.424688 0.329148 -0.025445 0.004502 -0.005775
1.506670 0.328192 0.262803 -0.049634 -0.004341 0.005187
1.567881 0.976504 0.545385 -0.049627 0.002023 0.002425
1.790587 0.060040 1.246216 0.049652 0.007760 0.009711
3.128164 0.730405 0.711329 0.149396 -0.001201 0.000780
2.993853 0.891765 0.716419 -0.000000 0.784859 0.000397
0.160014 0.832026 0.539873 -0.191517 0.000030 -0.000209
2.766769 0.823086 0.533987 0.000000 0.023459 -0.000042
0.152143 0.869418 0.739780 -0.222144 0.000087 0.000153
3.183851 0.819453 0.697677 1.000000 0.000000 0.000000
0.381850 0.921252 0.695053 0.000000 0.905019 0.000002
2.867683 0.904113 0.700779 0.000000 0.784860 0.000198
1.615941 0.130760 1.187983 -0.049637 -0.010298 -0.012096
1.282414 1.073486 0.446063 -0.025436 -0.004052 -0.005212
1.559025 0.717745 0.739143 -0.025443 0.015005 0.016839
2.690102 0.671550 0.763406 0.052810 -0.006082 -0.008523
3.183851 0.814444 0.544663 0.137086 -0.000021 -0.000339
3.183851 0.730625 0.696952 0.141088 -0.000289 0.000159
0.745550 0.774189 0.543396 0.000003 -0.215826 -0.000008
1.628700 0.615803 0.505870 0.096649 -0.001885 0.002387
1.472951 0.811531 0.534181 0.000000 -0.081911 -0.000091
1.382026 0.811531 0.534181 0.000000 -0.081911 -0.000183
1.673253 1.317552 0.267880 -0.049635 0.007945 0.009410
0.472775 0.875410 0.744488 0.000000 0.503248 0.000013
1.472951 0.879448 0.551195 0.000000 0.522787 -0.000012
0.381850 0.875482 0.744446 -0.000001 0.501796 0.000013
1.707446 0.001266 0.003244 0.000000 -0.784857 -0.000200
0.099147 0.793527 0.729048 -0.428787 -0.000022 0.000065
0.518238 0.737245 0.723760 -0.000000 -0.718668 0.000004
1.346659 1.106388 0.870472 -0.049634 0.002906 -0.003480
1.382026 0.876838 0.549607 0.000000 0.503239 -0.000026
3.018677 0.801199 0.757872 0.000000 -0.151303 0.000025
0.518238 0.757897 0.552201 -0.000001 -0.543004 -0.000046
1.882113 0.864301 0.543215 0.000000 0.398814 -0.000035
1.018325 0.899101 0.566867 -0.000000 0.707060 -0.000030
0.290925 0.769771 0.545449 -0.000001 -0.441348 -0.000061
1.659417 1.059595 0.820004 0.096649 0.001798 -0.002277
1.700263 0.776660 0.542348 0.000001 -0.376920 -0.000037
1.329925 1.014171 0.794676 -0.049632 0.004368 -0.005220
1.682109 0.283548 0.236935 0.096648 -0.004420 0.005593
1.791188 0.771182 0.748499 -0.000002 -0.417590 0.000033
0.245463 0.894328 0.730903 -0.000001 0.579796 0.000002
1.674405 1.467151 1.161974 -0.025440 -0.010369 0.012510
1.590342 1.418642 0.178240 -0.049636 0.006768 0.008044
2.973214 0.924251 0.605100 0.000001 0.777695 -0.000001
0.881938 0.918794 0.699917 0.000000 0.875617 0.000017
1.751153 0.925885 0.733161 0.049654 -0.004007 0.005058
1.291680 0.976525 0.765767 -0.049636 0.010482 -0.012303
1.454857 0.426345 0.959494 -0.025443 0.009550 0.011648
3.125663 0.964418 0.535350 -0.070905 -0.003924 -0.004759
0.289434 0.706751 0.648944 0.000000 -0.999929 0.000000
1.609338 0.714999 0.604259 -0.000000 -0.925841 -0.000006
2.811476 0.919801 0.713166 0.052812 -0.011751 0.013081
1.749078 1.092539 0.857107 0.096647 0.003250 -0.004114
1.518413 0.920891 0.695795 -0.000000 0.897260 0.000007
1.573536 0.576925 0.818773 -0.049635 -0.012651 -0.014707
1.605682 0.289315 0.236798 -0.049635 -0.003752 0.004488
1.574522 1.004859 0.771087 -0.049630 0.002023 -0.002425
2.109426 0.881944 0.740453 0.000000 0.563001 0.000011
1.652775 1.009118 0.488155 0.049655 -0.003500 -0.004423
1.395612 1.058930 0.453605 -0.025441 -0.023725 -0.022614
1.734134 1.308753 0.256736 0.049653 -0.008603 -0.010737
2.018501 0.881808 0.740546 0.000000 0.562780 0.000044
2.200351 0.806598 0.758622 -0.000001 -0.105084 0.000142
2.200351 0.749097 0.734704 0.000000 -0.619574 0.000005
1.291101 0.814170 0.534026 -0.000000 -0.023451 -0.000320
1.212100 0.932148 0.645145 0.000000 0.999716 -0.000000
2.654976 0.866376 0.544139 0.000000 0.420200 -0.000065
1.314265 1.006049 0.496810 -0.025435 -0.003242 -0.004189
1.765128 1.599569 0.033852 0.096647 0.003987 0.005045
1.749078 0.550144 0.861890 0.049652 0.006326 0.007948
2.654976 0.913368 0.584277 0.000000 0.839551 -0.000010
2.791364 0.735459 0.571451 0.000001 -0.692567 -0.000004
2.473126 0.754780 0.554301 -0.000000 -0.582007 -0.000010
2.200351 0.737330 0.569413 -0.000001 -0.645315 -0.000002
2.018501 0.767925 0.546374 -0.000000 -0.462096 -0.000029
2.018501 0.707428 0.634104 -0.000000 -0.994426 -0.000002
1.596788 0.167009 0.130135 -0.025443 0.010641 -0.012789
1.791188 0.925049 0.607182 0.000000 0.934711 -0.000006
0.654625 0.851938 0.754571 0.000001 0.288753 0.000100
0.290925 0.931250 0.632219 0.000000 0.991698 -0.000004
1.882113 0.753471 0.555238 -0.000000 -0.578739 -0.000005
1.508269 0.234309 0.184639 -0.049635 -0.003458 0.004138
1.519561 1.421153 0.171567 -0.025443 -0.025629 -0.023536
0.559228 0.820692 0.759347 0.000000 0.012265 0.000040
1.710335 0.285246 1.058479 0.096646 -0.002210 -0.002799
2.749668 0.696230 0.737574 0.052808 0.005201 0.005902
0.927400 0.709093 0.669594 -0.000001 -0.972200 0.000002
1.200176 0.756212 0.553321 -0.000001 -0.561311 -0.000011
0.563700 0.861061 0.541865 -0.000000 0.364654 -0.000005
1.478803 0.983996 0.759888 -0.049635 0.012799 -0.014867
2.969985 0.533455 0.428442 0.052811 0.005200 -0.005902
2.957200 1.124209 0.411093 0.052811 -0.008320 -0.009373
1.790587 1.444680 0.152992 0.049653 -0.011807 -0.014550
1.745726 0.900607 0.568397 0.000000 0.723464 -0.000029
1.790587 0.635128 0.792163 0.049654 0.007001 0.008780
3.064139 0.922787 0.601595 -0.000000 0.917002 -0.000026
2.245814 0.717533 0.598473 -0.000001 -0.904683 -0.000003
2.336739 0.717568 0.598398 0.000001 -0.906018 -0.000007
0.745550 0.876624 0.549482 0.000001 0.502733 -0.000026
0.427313 0.904050 0.572131 0.000000 0.755055 -0.000026
1.836651 0.706935 0.639863 -0.000001 -0.985111 -0.000000
3.128164 0.920007 0.691401 0.145639 0.000302 0.000149
2.994102 0.597523 0.809160 -0.000000 0.619674 0.000799
1.545814 0.381101 0.997144 -0.025443 0.016913 0.018352
2.518589 0.769141 0.747504 0.000000 -0.441429 0.000015
2.427664 0.836320 0.535178 0.000000 0.151841 -0.000098
1.427488 0.918890 0.699734 -0.000000 0.886042 0.000004
1.478803 0.667159 0.517862 -0.025442 0.023724 -0.022614
2.697911 0.739939 0.585967 0.000001 -0.784847 -0.000164
0.336388 0.754915 0.739058 0.000000 -0.582083 0.000042
0.609163 0.896821 0.728612 -0.000000 0.690313 0.000016
0.791013 0.931732 0.656653 -0.000000 0.996320 0.000001
1.472951 0.918947 0.593638 0.000000 0.885850 -0.000004
1.063788 0.762926 0.549108 -0.000002 -0.453842 -0.000007
2.745901 0.710980 0.677293 0.000000 -0.963624 0.000002
3.072114 0.433897 0.951042 -0.070903 -0.002731 -0.003605
2.918537 0.516765 0.883076 0.052813 0.004160 0.004729
3.085312 0.545346 0.432752 -0.070905 0.002876 -0.003491
1.713483 0.050393 0.036871 -0.025442 0.014187 -0.016144
1.571989 1.431299 1.126761 -0.049638 0.006326 -0.007528
3.029547 1.095244 0.856762 -0.070903 -0.003595 0.004361
0.972863 0.722720 0.588748 0.000000 -0.864072 -0.000035
1.154713 0.724485 0.707356 -0.000000 -0.838663 0.000005
1.672700 1.135474 0.881557 0.096646 0.006154 -0.007778
2.760625 0.898968 0.585967 0.000000 0.784858 -0.000329
1.973038 0.771032 0.748430 0.000001 -0.419189 0.000016
1.493648 0.588128 0.456717 -0.025442 0.005867 -0.007448
1.472951 0.769252 0.747559 0.000001 -0.440102 0.000015
2.427664 0.718782 0.595911 0.000000 -0.897295 -0.000007
0.381850 0.720911 0.591899 0.000001 -0.873607 -0.000008
1.973038 0.728276 0.712916 0.000000 -0.813099 0.000005
2.245814 0.921356 0.694828 -0.000000 0.906953 0.000007
1.463649 1.007841 0.512516 -0.049637 0.012798 0.014867
1.593074 0.530468 0.883999 -0.025437 0.005049 0.006452
0.472775 0.920198 0.697203 -0.000000 0.897189 0.000004
1.418189 0.565801 0.851264 -0.025442 0.011733 0.013880
1.463649 0.641820 0.794367 -0.025444 0.023723 0.022614
1.192072 0.941041 0.742630 -0.025444 -0.012959 0.015044
3.004739 0.930986 0.545879 0.000000 0.619674 0.000399
1.698712 0.610431 0.492967 0.096647 -0.001798 0.002277
2.979505 0.707921 0.747384 -0.000001 -0.619674 -0.000958
2.881439 0.715765 0.552072 -0.000001 -0.619673 0.000639
2.382201 0.862591 0.542488 -0.000001 0.368068 -0.000009
3.109601 0.709808 0.620444 0.141933 -0.000337 -0.000076
0.563700 0.711347 0.678562 0.000000 -0.957249 0.000001
0.654625 0.916187 0.588748 0.000000 0.864106 -0.000004
0.745550 0.725539 0.584277 0.000000 -0.839415 -0.000005
2.200351 0.864112 0.750130 0.000001 0.398665 0.000035
1.493648 1.061227 0.823312 -0.049636 0.006327 -0.007528
0.563700 0.730358 0.577572 -0.000000 -0.784881 -0.000012
1.744650 0.996958 0.512169 0.096650 0.000943 0.001194
0.609163 0.716718 0.600234 -0.000001 -0.904183 -0.000003
3.064139 0.766131 0.547311 -0.000001 -0.482985 -0.000218
0.609163 0.706869 0.652286 0.000001 -0.998072 0.000002
1.882113 0.769104 0.747486 0.000000 -0.441358 0.000031
0.654625 0.770882 0.544902 0.000000 -0.442006 -0.000004
1.609338 0.713430 0.684918 0.000002 -0.941593 0.000011
0.836475 0.873824 0.547889 -0.000001 0.482164 -0.000027
0.245463 0.748102 0.559364 0.000000 -0.637773 -0.000036
2.473126 0.861979 0.751024 0.000001 0.375944 0.000018
1.882113 0.923084 0.602276 0.000000 0.916975 -0.000007
1.609338 0.873860 0.745354 0.000000 0.482997 0.000014
1.666058 1.086205 0.428133 0.049653 -0.006326 -0.007948
0.191945 0.911434 0.582404 -0.067458 0.000261 -0.000178
2.609514 0.896971 0.564793 0.000001 0.689984 -0.000031
0.084904 0.757033 0.694722 -0.484485 -0.000043 0.000032
1.665781 0.696482 0.541636 0.049653 0.007338 -0.009195
1.642259 1.185230 0.376188 -0.049636 0.009710 0.011431
0.654625 0.865475 0.543726 0.000000 0.398792 -0.000017
1.518413 0.786692 0.538775 0.000000 -0.287346 -0.000013
3.015625 0.656353 0.530552 -0.000001 0.619675 -0.000799
1.673530 0.632877 0.779458 0.096646 -0.001885 -0.002387
1.687297 1.583279 1.246003 -0.049638 0.007945 -0.009410
1.687297 1.583279 0.047260 -0.049639 0.003972 0.004750
1.700263 0.931999 0.652946 -0.000002 0.990270 0.000001
1.791188 0.918216 0.700966 -0.000000 0.875455 0.000004
0.381850 0.920672 0.597023 -0.000000 0.897295 -0.000007
2.063963 0.714796 0.604756 0.000002 -0.920270 -0.000006
0.745550 0.781400 0.752737 0.000000 -0.333423 0.000042
1.561600 1.122366 0.399583 -0.025441 -0.005049 -0.006451
1.563876 0.871494 0.546642 -0.000000 0.461181 -0.000007
1.451805 1.321820 1.043268 -0.025443 -0.016095 0.017722
0.836475 0.739513 0.726104 0.000000 -0.707107 0.000008
0.791013 0.914804 0.706767 0.000000 0.839468 0.000010
0.144331 0.783745 0.549313 -0.252551 -0.000056 -0.000143
3.064139 0.882900 0.739802 0.000001 0.562743 0.000088
3.064139 0.921738 0.694004 0.000000 0.907405 0.000028
2.653486 0.706730 0.646136 0.000000 -0.999933 -0.000000
0.427313 0.929236 0.672215 0.000000 0.975263 0.000007
2.973214 0.770215 0.748033 -0.000000 -0.441430 0.000061
2.291276 0.906326 0.574803 0.000000 0.768861 -0.000006
1.584699 0.939488 0.715931 -0.049636 0.008092 -0.009580
3.018677 0.717655 0.695053 -0.000000 -0.906906 0.000003
1.365613 0.627688 0.789906 -0.049631 -0.002184 -0.002618
1.973038 0.748070 0.559390 0.000000 -0.637627 -0.000005
3.183851 0.882263 0.727115 0.136278 0.000213 0.000266
2.906638 1.102218 0.873058 0.052809 0.005155 -0.007237
2.835387 1.044879 0.827787 0.052811 0.009123 -0.012680
1.291101 0.752238 0.556140 0.000001 -0.493750 -0.000003
2.063963 0.744120 0.562776 -0.000000 -0.673110 -0.000008
1.563876 0.922754 0.601519 -0.000001 0.854598 -0.000002
2.912549 1.037446 0.484039 0.052813 -0.005876 -0.006660
0.563700 0.778769 0.541506 0.000001 -0.354660 -0.000040
3.001276 1.021774 0.793677 -0.070904 -0.007847 0.009475
1.336563 0.895611 0.563527 0.000001 0.653567 -0.000004
1.467178 0.474758 0.370538 -0.025444 0.010095 -0.012224
1.703694 1.307815 1.037715 0.049653 -0.004639 0.005850
3.183851 0.844976 0.646631 1.000000 0.000000 0.000000
3.086592 0.970826 0.772493 -0.070905 0.007451 -0.009791
2.382201 0.908754 0.715432 0.000000 0.785215 0.000001
1.375120 0.659811 0.530752 -0.049633 -0.002184 0.002617
2.473126 0.866376 0.544139 -0.000000 0.420213 -0.000032
3.059072 1.089911 0.438173 -0.070906 -0.007189 -0.008689
1.614151 1.362009 1.066269 -0.049634 0.003752 -0.004488
0.881938 0.772419 0.749072 0.000000 -0.420201 0.000032
1.700263 0.917677 0.701942 -0.000001 0.874882 0.000008
2.018501 0.924932 0.686389 -0.000000 0.933015 0.000001
3.080019 0.643940 0.778858 -0.070906 0.003924 0.004759
1.583610 0.563566 0.434976 -0.025443 0.005321 -0.006785
1.646134 0.993301 0.766019 0.096647 0.000943 -0.001194
2.142219 0.706759 0.645145 0.000010 -0.049184 -0.000000
1.882113 0.866825 0.748916 -0.000000 0.421069 0.000004
1.713933 0.943908 0.543515 0.049653 -0.007338 -0.009195
0.609163 0.930838 0.663947 0.000001 0.988374 0.000009
0.745550 0.897986 0.727500 0.000000 0.690313 0.000016
1.372756 1.205931 0.341493 -0.025444 -0.005048 -0.006450
1.973038 0.715741 0.602465 -0.000000 -0.916798 -0.000007
1.791188 0.718362 0.596763 0.000000 -0.897189 -0.000004
2.154889 0.925711 0.609007 0.000000 0.941155 -0.000003
2.988956 0.974128 0.511816 -0.000002 0.619671 0.000799
1.262780 0.820279 0.759342 0.000000 0.023451 0.000084
1.535661 1.160426 0.922065 -0.025442 -0.010096 0.012225
0.563700 0.931583 0.635090 -0.000000 0.993719 -0.000001
1.602434 1.482139 1.167176 -0.049633 0.011475 -0.013412
1.063788 0.880525 0.741376 0.000000 0.543280 0.000023
0.820079 0.706729 0.646219 0.000000 -0.999933 -0.000000
0.745550 0.724372 0.707183 -0.000000 -0.835993 0.000002
1.716977 1.384903 0.195526 0.049652 -0.007929 -0.009917
0.033496 0.780572 0.655918 -0.686204 -0.000018 0.000004
2.809509 0.614853 0.481918 0.052811 -0.005155 0.007237
1.721958 1.525488 0.097682 -0.049636 0.004561 0.005448
1.721958 1.525488 1.195581 -0.049635 0.004561 -0.005448
1.291101 0.869507 0.545631 0.000001 0.440059 -0.000015
1.740222 0.968470 0.758054 0.096650 0.003770 -0.004771
2.382201 0.732212 0.718015 -0.000000 -0.765319 0.000003
2.427664 0.924126 0.604794 0.000000 0.924013 -0.000003
0.518238 0.718709 0.596059 0.000002 -0.892116 -0.000007
0.972863 0.912973 0.583697 0.000001 0.826523 -0.000041
1.615416 0.698034 0.753592 0.049647 0.004007 0.005059
1.659893 0.055272 1.250927 -0.025446 0.014730 0.016609
1.499183 1.074911 0.438014 -0.025445 -0.005866 -0.007447
1.716147 0.668989 0.537044 0.096646 -0.003770 0.004772
1.739669 1.601100 1.257471 -0.049636 0.006768 -0.008044
2.564051 0.720192 0.593201 0.000000 -0.874959 -0.000004
0.654625 0.728664 0.579812 0.000000 -0.799177 -0.000006
0.700088 0.714562 0.605330 0.000000 -0.934711 -0.000006
1.450848 0.499240 0.891475 -0.049635 -0.005738 -0.006838
1.720851 1.193326 0.946235 0.049652 -0.005314 0.006693
1.720851 0.445581 0.946235 0.049653 0.010627 0.013162
1.973038 0.800955 0.535431 0.000001 -0.165862 -0.000022
1.927576 0.830338 0.534432 0.000000 0.105183 -0.000142
1.745726 0.930553 0.627563 0.000000 0.984582 -0.000005
0.336388 0.740741 0.565934 -0.000000 -0.690257 -0.000004
1.698712 1.028476 0.492967 0.096647 0.003597 0.004553
2.609514 0.737102 0.569652 0.000000 -0.723159 -0.000004
2.725033 0.823086 0.759276 -0.000000 0.023451 0.000021
0.200000 0.860755 0.751522 -0.067448 0.000119 0.000292
2.081105 0.817967 0.533937 0.000000 -0.023459 -0.000320
2.791364 0.777884 0.541849 0.000001 -0.368068 -0.000009
2.963747 1.144001 0.899065 0.052809 -0.008321 0.009373
2.109426 0.716995 0.693629 0.000000 -0.907161 0.000007
0.084904 0.886102 0.688666 -0.484481 0.000049 0.000029
1.411074 0.709687 0.740582 -0.025442 0.023725 0.022614
1.109250 0.721805 0.590318 0.000001 -0.859505 -0.000004
2.564051 0.863809 0.750262 -0.000000 0.398666 0.000035
0.290925 0.719158 0.698087 0.000000 -0.886751 0.000008
1.245638 0.718289 0.596912 -0.000001 -0.894187 -0.000007
1.316440 0.706751 0.647787 0.000000 -0.999725 0.000000
1.605682 0.289315 1.056465 -0.049634 -0.003752 -0.004488
2.200351 0.861826 0.542177 -0.000001 0.368068 -0.000009
1.672192 0.175518 1.147031 -0.049638 -0.005738 -0.006837
3.183851 0.819453 0.748723 0.118750 0.000005 0.000392
1.742990 1.385705 1.096722 0.049660 -0.003627 0.004581
1.563876 0.851305 0.754762 0.000001 0.288754 0.000100
3.039302 0.422050 0.330328 -0.070905 -0.005462 0.007194
3.039302 1.216857 0.962935 -0.070906 0.005462 -0.007194
2.635198 0.739939 0.707296 0.000000 -0.784863 0.000082
2.882289 0.758798 0.741645 0.000000 -0.543288 0.000046
2.018501 0.754109 0.738481 0.000000 -0.582096 0.000010
0.927400 0.853910 0.539303 0.000001 0.283519 -0.000006
2.836826 0.760444 0.550589 -0.000001 -0.522442 -0.000024
0.472775 0.751710 0.736726 -0.000000 -0.600888 0.000020
0.472775 0.923051 0.602200 -0.000000 0.916815 -0.000007
0.563700 0.901919 0.569772 -0.000001 0.738677 -0.000014
3.017892 1.231142 0.321588 0.052810 0.007299 0.010198
2.966135 0.449415 0.938790 0.052812 -0.007299 -0.010198
2.967433 1.032959 0.465367 0.052813 0.010308 0.014271
2.962287 0.660857 0.508720 0.000000 -0.619674 0.000799
1.690964 0.245742 0.205990 0.096647 -0.004074 0.005155
2.291276 0.710584 0.675860 -0.000000 -0.962012 0.000002
0.313284 0.824077 0.759253 0.000069 0.002378 0.001965
1.424333 0.541216 0.435067 -0.049635 -0.002906 0.003480
1.659140 0.735026 0.721616 0.049654 0.008013 0.010019
1.760700 0.099300 0.076151 0.049653 0.009109 -0.011348
3.154801 0.896633 0.583009 -0.071798 0.001339 -0.001057
2.824902 0.823251 0.759272 0.000000 0.023451 0.000021
0.836475 0.921981 0.599784 0.000001 0.902834 -0.000003
1.760147 1.273985 1.001734 0.096646 0.002384 -0.003018
1.382026 0.916437 0.589176 -0.000000 0.863752 -0.000009
1.336563 0.931914 0.654389 -0.000000 0.998237 0.000000
1.654801 0.860755 0.541740 -0.000001 0.377177 -0.000148
1.654801 0.775704 0.750525 0.000000 -0.398871 0.000138
0.245463 0.894390 0.562415 0.000000 0.673175 -0.000002
1.764575 1.369566 0.215515 0.096647 0.002037 0.002579
2.654976 0.718709 0.596059 -0.000000 -0.896487 -0.000004
2.107935 0.824407 0.759245 -0.000000 0.023459 0.000320
2.109426 0.916270 0.704373 0.000000 0.863678 0.000004
2.518589 0.717481 0.694678 -0.000000 -0.907339 0.000014
1.063788 0.853714 0.539239 -0.000001 0.310387 -0.000023
2.700439 0.922137 0.600121 0.000001 0.904683 -0.000003
1.532340 0.483720 0.394123 -0.049635 -0.002722 0.003260
1.449741 1.134941 0.887607 -0.049635 0.005812 -0.006924
1.200176 0.882832 0.739849 -0.000000 0.562821 0.000022
2.245068 0.706735 0.646136 -0.000000 -0.999725 -0.000000
2.700439 0.775212 0.542952 0.000000 -0.398767 -0.000035
1.790587 0.673468 0.761892 0.049651 0.004007 0.005059
1.790587 1.348832 1.064595 0.049655 -0.007928 0.009916
1.790587 1.444680 1.140270 0.049653 -0.011807 0.014550
1.790587 0.175058 0.137857 0.049653 0.011807 -0.014550
1.790587 0.328415 1.034325 0.049652 0.008603 0.010737
1.790587 0.481772 0.913244 0.049654 0.011301 0.013958
1.790587 0.270906 0.213533 0.049654 0.003627 -0.004582
0.927400 0.885604 0.737905 0.000001 0.581871 0.000042
2.200351 0.910143 0.579680 0.000001 0.798777 -0.000011
2.700439 0.717134 0.693929 0.000000 -0.907316 0.000014
2.609514 0.924638 0.687161 -0.000000 0.934692 0.000011
1.154713 0.772793 0.544017 0.000000 -0.419385 -0.000016
3.115504 0.646717 0.513423 -0.070904 0.007189 -0.008689
2.018501 0.924697 0.606256 0.000000 0.934619 -0.000011
1.973038 0.866526 0.749055 0.000000 0.420236 0.000032
0.972863 0.756280 0.553275 -0.000000 -0.562794 -0.000022
1.589144 1.112792 0.860122 -0.049637 0.002869 -0.003436
0.745550 0.856105 0.753233 -0.000000 0.333408 0.000042
1.435625 1.108280 0.414438 -0.025445 -0.005389 -0.006868
3.059700 0.588397 0.470551 -0.070905 0.007847 -0.009475
2.063963 0.792625 0.756116 0.000000 -0.243554 0.000030
0.113838 0.910914 0.629273 -0.371424 0.000087 -0.000014
1.684599 0.556865 0.840842 0.096647 -0.003424 -0.004333
2.336739 0.757099 0.740546 0.000000 -0.562855 0.000088
2.564051 0.920453 0.596578 -0.000001 0.896180 -0.000007
0.427313 0.771969 0.544399 -0.000000 -0.420250 -0.000130
1.703140 1.039424 0.825845 0.049652 -0.003332 0.004211
3.018677 0.929355 0.621571 0.000000 0.975288 -0.000007
1.836651 0.772681 0.544069 0.000000 -0.420157 -0.000016
0.654625 0.714656 0.688163 0.000001 -0.864799 0.000001
0.972863 0.858401 0.752418 -0.000001 0.351358 0.000020
2.947939 0.609289 0.799870 -0.000000 0.619674 0.000799
1.543069 0.311290 1.042196 -0.049639 -0.002023 -0.002425
0.972863 0.925255 0.685540 0.000001 0.916220 0.000001
1.200176 0.923018 0.691138 -0.000000 0.913242 0.000002
1.671577 1.544699 0.071850 -0.025441 -0.016369 -0.017936
1.671577 1.544699 1.221413 -0.025443 -0.008186 0.010152
2.154889 0.895031 0.730264 -0.000000 0.673173 0.000033
1.291101 0.923971 0.688851 0.000000 0.895922 0.000001
1.427488 0.887494 0.736502 0.000000 0.600462 0.000005
2.109426 0.919100 0.593931 0.000000 0.886572 -0.000004
1.336563 0.763496 0.744488 0.000001 -0.502793 0.000026
2.427664 0.757897 0.741062 0.000000 -0.543280 0.000023
0.836475 0.854930 0.753626 0.000000 0.311214 0.000046
1.536925 1.309301 0.265939 -0.049633 0.002170 0.002601
2.745901 0.925724 0.684217 0.000000 0.942750 0.000003
1.109250 0.907833 0.576665 0.000001 0.784836 -0.000024
3.018677 0.780700 0.540774 0.000000 -0.333500 -0.000011
2.245814 0.891886 0.733004 0.000001 0.626753 0.000009
0.881938 0.928475 0.617961 0.000001 0.966430 -0.000002
2.154889 0.750329 0.557587 -0.000001 -0.617997 -0.000010
2.109426 0.727748 0.581085 -0.000000 -0.813159 -0.000011
1.637832 1.166327 0.901602 -0.049636 0.010298 -0.012096
1.673253 0.321354 1.025383 0.096648 -0.004767 -0.006030
1.531469 1.350508 1.067847 -0.025443 -0.003684 0.004749
2.564051 0.830995 0.534501 0.000001 0.105024 -0.000142
2.336739 0.865323 0.749603 -0.000001 0.398385 0.000035
1.474010 1.247049 0.306681 -0.025442 -0.009005 -0.011059
2.973214 0.924579 0.687316 0.000000 0.934699 0.000023
1.453062 1.143454 0.386877 -0.025441 -0.010642 -0.012790
1.311683 0.568571 0.842680 -0.049636 -0.004368 -0.005219
2.291276 0.913368 0.708986 0.000000 0.826514 0.000010
2.291276 0.866226 0.544069 0.000000 0.420202 -0.000065
2.913907 0.564061 0.841926 0.052811 0.011752 0.013082
1.655542 0.396967 0.963492 0.096648 -0.005460 -0.006905
3.102057 0.613050 0.812768 -0.070904 -0.006827 -0.008978
0.791013 0.801730 0.535310 -0.000000 -0.151681 -0.000098
1.109250 0.907219 0.717376 -0.000000 0.780381 0.000003
0.033496 0.855114 0.628567 -0.686203 0.000016 -0.000008
2.154889 0.762747 0.744051 -0.000001 -0.497366 0.000013
1.485683 1.371487 0.210781 -0.025445 -0.003684 -0.004749
1.474391 0.283976 0.223852 -0.049635 -0.008092 0.009580
1.338878 1.156264 0.380707 -0.025441 -0.021547 -0.021427
1.384049 0.416421 0.328422 -0.049636 -0.010445 0.012262
1.451805 0.317087 1.043268 -0.049638 -0.008680 -0.010256
1.429219 0.350198 0.276137 -0.049636 -0.009269 0.010929
1.372756 0.432976 0.951769 -0.049636 -0.010445 -0.012261
1.609903 1.553598 0.066997 -0.025441 -0.016914 -0.018352
1.609903 1.553598 1.226266 -0.025442 -0.016913 0.018352
1.361463 1.189375 0.938698 -0.025442 -0.020456 0.020775
1.542147 0.184642 1.147838 -0.049636 -0.012651 -0.014707
1.655074 1.619820 1.278550 -0.025440 -0.012552 0.014665
1.327585 0.499198 0.899485 -0.049635 -0.002906 -0.003480
1.225950 0.648199 0.511420 -0.049636 -0.006989 0.008301
1.282414 0.565421 0.446063 -0.049635 -0.006989 0.008301
1.655074 1.619820 0.014713 -0.025441 -0.012551 -0.014664
3.146726 0.732557 0.583497 0.141642 -0.001145 -0.000927
1.609338 0.776890 0.542255 -0.000001 -0.377245 -0.000147
1.742990 0.229702 1.106373 0.096650 -0.003727 -0.004717
1.628976 1.113817 0.403984 0.049653 -0.012650 -0.015528
1.584699 0.718150 0.553607 0.049652 0.008013 -0.010020
1.427488 0.711776 0.613277 0.000002 -0.877982 -0.000001
3.064139 0.786969 0.754571 -0.000002 -0.288738 0.000199
0.587549 0.820444 0.533913 0.000000 0.011547 -0.000085
1.790587 0.984609 0.516235 0.049654 -0.007001 -0.008780
1.336563 0.869247 0.747759 -0.000001 0.441092 0.000031
1.654801 0.860755 0.751522 0.000000 0.354915 0.000005
2.518589 0.769474 0.545595 0.000000 -0.441315 -0.000031
1.496969 0.573649 0.847767 -0.025444 0.011732 0.013880
0.336388 0.864528 0.543314 -0.000000 0.398820 -0.000035
2.063963 0.871604 0.546699 0.000001 0.461000 -0.000029
2.572995 0.706801 0.643329 -0.000000 -0.999725 -0.000000
3.137842 0.613561 0.484072 -0.070905 -0.006827 0.008978
3.131269 1.043312 0.469887 -0.070904 -0.007190 -0.008689
2.791364 0.867125 0.748777 0.000001 0.419857 0.000032
0.336388 0.782724 0.540058 0.000002 -0.326070 -0.000022
1.791188 0.733371 0.719414 0.000002 -0.747788 0.000006
2.927752 0.865926 0.543930 0.000000 0.419737 -0.000016
3.018677 0.866825 0.748916 0.000000 0.420276 0.000065
1.700263 0.714827 0.604679 0.000000 -0.926042 -0.000012
0.427313 0.725001 0.708154 0.000001 -0.839474 0.000039
0.245463 0.718344 0.596801 -0.000001 -0.897266 -0.000030
2.654976 0.893112 0.731959 0.000000 0.655679 0.000035
1.154713 0.768993 0.747431 -0.000000 -0.441429 0.000015
