1.968758 0.607056 0.835690 0.081265 0.003543 0.003564
3.557839 0.724815 0.611370 0.000000 0.012858 -0.000193
0.921425 0.626446 0.671154 -0.000000 -0.896783 -0.000019
1.698343 0.711187 0.826021 0.000001 -0.117392 0.000165
0.242281 0.830502 0.716361 0.000000 0.999913 -0.000000
2.086803 0.827193 0.745587 -0.000000 0.968741 0.000002
1.309884 0.823386 0.680422 0.000000 0.928826 -0.000004
1.983156 1.141496 1.134766 0.081262 -0.009742 0.009739
3.425042 0.944678 0.939291 0.024173 0.022371 -0.017691
3.728773 0.473359 0.466217 -0.041437 -0.008494 0.008383
3.265624 0.863452 0.579388 0.024170 0.039873 0.022295
0.639549 0.615343 0.714249 0.000000 -0.999652 -0.000000
0.508301 0.830405 0.713985 0.000001 0.998160 -0.000000
2.919216 0.666626 0.810798 0.000000 -0.533675 0.000015
1.805481 1.310836 0.135057 -0.116913 -0.006085 -0.006772
3.425042 0.501076 0.939291 0.024172 -0.022372 -0.017692
1.767174 0.557382 0.571805 0.056304 -0.007669 0.007651
1.983156 0.243865 0.243259 0.081262 0.003986 -0.004008
1.774373 1.008713 1.026880 0.081262 -0.013283 0.013200
1.983156 0.243865 1.194748 0.081261 0.007971 0.007987
3.197301 0.617114 0.824045 0.024170 -0.013311 -0.012560
2.697239 0.785187 0.806788 0.000000 0.577031 0.000028
2.548373 0.615313 0.722613 0.000001 -0.976375 0.000000
1.679389 0.343337 1.095954 -0.081213 -0.007764 -0.007256
3.610691 0.717683 0.826526 0.000000 -0.026396 0.000012
1.770774 0.933525 0.526675 0.056306 0.005432 0.005444
1.103763 0.726135 0.611430 -0.000001 0.025852 -0.000378
1.983156 0.586097 0.583156 0.081265 0.003543 -0.003564
1.957958 1.291033 1.286178 0.081263 -0.006199 0.006224
2.308779 0.785582 0.631499 0.000000 0.577069 -0.000014
0.191248 0.630057 0.772593 -0.058839 -0.000734 0.000398
1.267603 0.615290 0.716274 -0.000001 -0.976374 -0.000000
1.531861 0.826390 0.748563 0.000000 0.962422 0.000011
3.751629 0.830389 0.713369 0.364275 0.000124 -0.000008
0.959302 0.830451 0.722261 0.000000 0.999652 0.000000
3.630009 1.049112 1.043012 0.024170 0.022374 -0.017692
1.651658 0.723670 0.611365 0.000000 0.026396 -0.000012
1.866166 0.829077 0.815180 0.056308 0.013418 -0.013144
2.863721 0.816113 0.665174 0.000000 0.859576 -0.000003
1.795972 0.375407 0.352394 0.081263 0.005757 -0.005782
3.220075 0.840245 0.835570 0.024170 0.026608 -0.019281
3.647586 1.034135 0.411526 0.024170 -0.023945 -0.016018
3.030204 0.642029 0.647926 -0.000001 -0.750567 -0.000009
3.815101 0.603951 0.837118 -0.041436 -0.007645 -0.007574
1.799571 0.546316 0.915456 0.081262 0.003764 0.003786
1.387400 0.721293 0.826621 0.000017 -0.000571 0.000543
2.142297 0.689735 0.616575 0.000000 -0.296272 -0.000008
0.810436 0.677129 0.816451 0.000000 -0.418434 0.000021
3.652783 0.385039 1.054537 0.024172 -0.033535 -0.021142
3.406412 0.599530 0.602657 0.024171 0.017805 -0.013496
3.813554 1.001878 0.996100 -0.041439 0.020377 -0.018427
1.861117 0.103473 0.098034 -0.116913 0.004754 -0.005293
2.419768 0.699807 0.824154 0.000000 -0.219483 0.000011
3.418664 0.821681 0.676267 0.000000 0.918631 -0.000008
3.813554 0.443877 0.996100 -0.041439 -0.020377 -0.018427
0.148008 0.712388 0.619205 -0.222729 -0.000026 -0.000200
0.366483 0.757897 0.820799 -0.000000 0.321451 0.000230
1.932760 0.125972 1.317627 0.081264 0.006199 0.006224
2.253285 0.795045 0.798890 0.000000 0.678814 0.000011
2.641745 0.783124 0.629790 0.000001 0.521534 -0.000004
0.366483 0.755136 0.616300 0.000000 0.296569 -0.000126
1.833115 0.615345 0.723846 0.000000 -0.999669 0.000000
3.604523 0.892530 0.560450 0.024173 -0.020952 -0.014907
3.604523 0.553225 0.560450 0.024167 0.010482 -0.009052
0.532965 0.698003 0.823746 -0.000000 -0.220639 0.000043
1.786468 1.184314 0.251615 -0.116912 -0.007797 -0.008668
1.595233 0.564566 0.553913 -0.116912 0.003613 -0.004024
0.754942 0.696208 0.614710 0.000000 -0.246148 -0.000154
1.983156 1.322678 0.123296 0.081262 -0.010627 -0.010610
1.889564 1.075725 0.357809 0.081263 -0.005757 -0.005782
0.532965 0.697745 0.614319 0.000000 -0.245957 -0.000039
1.518908 0.608597 0.832504 -0.081212 -0.007963 -0.007440
1.732697 0.830423 0.714690 0.000000 0.999652 -0.000000
2.419768 0.662777 0.629692 -0.000000 -0.553488 -0.000007
1.723977 0.864898 0.889838 0.081262 -0.005314 0.005339
3.513739 0.851438 0.837103 0.024172 -0.024322 0.016144
3.670589 0.615357 0.713721 -0.000000 -0.999660 -0.000000
3.510273 0.615343 0.723758 0.000000 -0.999660 0.000000
1.072052 0.615288 0.721645 -0.000017 -0.018339 0.000000
3.075128 0.719356 0.826570 0.000000 -0.026396 0.000024
1.839870 1.367677 1.359404 -0.116910 -0.004754 0.005293
1.983156 0.859658 0.583156 0.081260 -0.003543 -0.003564
1.156614 0.830458 0.716010 0.000000 0.999661 -0.000000
1.630517 0.615301 0.722173 0.000000 -0.999660 0.000000
3.141192 0.744267 0.613500 -0.000001 0.194973 -0.000098
0.122840 0.773401 0.796803 -0.320799 0.000071 0.000104
0.968110 0.719004 0.826561 0.000000 -0.025719 0.000190
2.086803 0.617159 0.739314 0.000000 -0.980788 0.000008
3.314722 0.615329 0.723229 0.000000 -0.999652 0.000000
3.320007 0.724198 0.611362 0.000000 0.012854 -0.000193
1.983156 0.485440 0.954820 0.081262 0.006642 0.006666
3.600121 0.830402 0.713897 0.000000 0.999669 -0.000000
2.752733 0.645460 0.793805 0.000001 -0.709513 0.000010
1.476367 0.768306 0.621408 0.000000 0.418622 -0.000085
3.607235 0.408246 0.406519 0.024171 -0.022373 0.017692
1.842768 0.483441 0.465068 0.081262 0.001771 -0.001783
1.817570 0.313772 1.144345 0.081262 0.010627 0.010610
2.565991 0.721557 0.826628 0.000000 -0.026396 0.000047
1.733765 0.447972 1.010648 -0.116913 0.002900 0.003230
1.646152 0.978321 0.458685 -0.116913 -0.003090 -0.003442
1.679389 1.102418 1.095954 -0.116912 -0.002520 0.002807
1.254390 0.779948 0.810281 -0.000001 0.530601 0.000016
0.643954 0.788416 0.633592 0.000000 0.619151 -0.000025
3.530011 0.575542 0.873619 0.024169 -0.011192 -0.010940
0.675664 0.727719 0.826536 0.000000 0.026396 0.000185
3.702300 0.728336 0.611488 0.000000 0.026396 -0.000024
3.813361 1.021887 0.422034 -0.041439 0.020377 0.018427
3.814908 0.861813 0.856991 -0.041438 0.011890 -0.011515
2.136131 0.718475 0.826547 0.000000 -0.026058 0.000375
1.254390 0.711405 0.611960 0.000001 -0.114756 -0.000042
3.751629 0.736930 0.825741 0.358745 0.000015 0.000125
2.004002 0.722877 0.611345 0.000000 0.026058 -0.000190
1.909362 1.048805 1.036842 0.056307 0.004474 -0.004490
0.865930 0.781513 0.628713 0.000000 0.533280 -0.000008
3.311172 0.559095 0.881668 0.024171 -0.013311 -0.012560
3.538913 0.443057 0.996914 0.024172 -0.016783 -0.014852
1.676974 0.569796 0.855017 -0.081213 -0.005450 -0.005105
1.878765 1.216104 1.200568 0.056308 0.006391 -0.006394
1.975814 0.745261 0.824310 -0.000001 0.220692 0.000346
3.286534 0.830432 0.715042 -0.000008 0.073175 -0.000000
2.919216 0.803058 0.790843 -0.000000 0.751823 0.000017
3.358461 0.853819 0.845110 0.024174 -0.017803 0.013496
1.983156 0.143208 0.143289 0.081262 0.006200 -0.006224
0.255494 0.637413 0.653536 0.000000 -0.801298 -0.000007
1.860766 0.913020 0.921913 0.081263 -0.007528 0.007547
1.939960 0.336937 0.330733 0.081262 0.010627 -0.010610
3.814521 0.543923 0.541270 -0.041439 -0.010192 0.009971
1.956435 0.830432 0.715042 -0.000001 0.998152 -0.000000
2.974710 0.759393 0.617733 -0.000000 0.346108 -0.000026
1.983156 0.344521 1.094778 0.081262 0.010627 0.010610
1.862796 1.405571 0.040968 -0.116912 -0.007607 -0.008458
1.862796 0.040183 1.397040 -0.081213 -0.011944 -0.011094
1.667642 0.856562 0.602540 -0.081215 0.005674 0.005314
3.553892 0.974430 0.966354 0.024171 -0.017963 0.013573
3.394816 0.893693 0.551817 0.024174 -0.017803 -0.013496
1.810370 1.111437 1.124768 0.081262 -0.005314 0.005339
2.863721 0.616241 0.704254 0.000000 -0.989649 -0.000001
2.364274 0.828338 0.740610 0.000001 0.966502 0.000001
3.141192 0.615784 0.708013 0.000001 -0.898722 -0.000000
1.570619 0.726311 0.826572 0.000000 0.026386 0.000185
0.865930 0.792119 0.801431 0.000000 0.639376 0.000024
2.197791 0.823995 0.682075 0.000001 0.902758 -0.000002
2.528114 0.727984 0.611478 0.000000 0.026396 -0.000185
1.848167 0.987788 0.440388 0.081262 -0.003321 -0.003341
3.813168 0.403859 0.402161 -0.041439 -0.013588 0.013009
0.976919 0.723318 0.611350 0.000004 0.004074 -0.000305
0.381457 0.830507 0.716802 0.000000 0.999917 -0.000000
1.702315 0.305443 0.304417 -0.081214 -0.007167 0.006702
0.765512 0.615318 0.715218 -0.000008 -0.073169 -0.000000
3.265394 0.723230 0.826658 -0.000000 0.013192 0.000094
1.864826 0.687691 0.820742 -0.000000 -0.321415 0.000058
2.863721 0.702567 0.613285 0.000000 -0.194815 -0.000012
0.245805 0.728336 0.826519 0.000000 0.026396 0.000024
1.365378 0.661287 0.630711 0.000001 -0.576233 -0.000014
1.657615 1.002866 0.992504 -0.081215 0.009555 -0.008910
1.638112 0.826290 0.806736 -0.081212 0.007615 -0.007118
1.967887 0.615325 0.714954 0.000000 -0.999669 -0.000000
2.253285 0.648644 0.641033 -0.000001 -0.695698 -0.000010
1.891364 0.909745 0.522863 0.081261 -0.001882 -0.001894
0.518871 0.615334 0.714602 -0.000000 -0.999652 -0.000000
1.753837 0.662485 0.629888 0.000000 -0.555582 -0.000059
2.752733 0.830132 0.709767 -0.000001 0.912363 -0.000000
3.815101 0.841804 0.600889 -0.041441 0.007644 0.007573
0.090731 0.645101 0.706685 -0.446209 -0.000075 -0.000010
1.824769 0.277833 0.289585 0.056308 -0.007030 0.007024
3.030204 0.626290 0.766537 -0.000000 -0.896729 0.000010
2.808227 0.746249 0.824086 0.000001 0.220583 0.000086
1.983156 0.859658 0.854851 0.081262 -0.003543 0.003564
2.419768 0.617159 0.739314 0.000001 -0.980660 0.000008
3.438042 0.718299 0.611465 0.000000 -0.026396 -0.000012
2.666409 0.615265 0.717243 -0.000000 -0.999660 -0.000000
1.866166 0.628048 0.611378 0.081263 0.009299 -0.009302
0.090731 0.793040 0.683254 -0.446207 0.000067 -0.000036
1.889564 1.246841 0.187860 0.081268 -0.003985 -0.004008
1.889564 0.198914 0.187860 0.081265 0.003985 -0.004008
3.683949 0.603131 0.845596 -0.041438 -0.023770 -0.020780
0.588459 0.799557 0.794562 -0.000001 0.714031 0.000010
1.954359 0.507226 0.501515 0.081264 0.003543 -0.003564
1.713634 0.498535 0.475923 -0.116912 0.006181 -0.006877
1.419111 0.830509 0.720060 -0.000000 0.999660 0.000000
3.652241 0.832341 0.818193 -0.041437 -0.007649 0.007570
3.778881 0.521621 0.916815 -0.041438 0.008499 0.008378
1.782555 1.272942 1.265315 -0.116910 -0.006846 0.007615
1.816944 0.115972 1.321768 -0.081215 -0.008361 -0.007808
3.428525 0.613172 0.820077 0.024171 0.042671 0.019826
3.738683 1.080551 1.072579 0.024174 -0.023941 0.016018
0.310988 0.641419 0.789386 -0.000000 -0.751801 0.000017
2.752733 0.758314 0.617350 0.000000 0.321502 -0.000029
1.420872 0.628351 0.770528 0.000000 -0.872541 0.000005
3.700319 0.982577 0.983560 0.024173 0.013987 -0.013041
3.815681 0.689886 0.744189 1.000000 0.000000 0.000000
3.173784 0.830414 0.723670 -0.000001 0.998152 0.000000
2.419768 0.800970 0.644896 0.000000 0.716351 -0.000010
1.885964 0.209186 1.240358 0.081261 0.003986 0.004008
2.086803 0.793988 0.638184 0.000000 0.659223 -0.000011
0.255494 0.770490 0.622456 -0.000000 0.442275 -0.000159
3.311172 0.559095 0.556339 0.024171 -0.013311 0.012560
3.721105 1.095527 0.348896 0.024170 0.022374 0.017692
3.698331 0.361831 0.360421 0.024172 -0.022372 0.017692
1.874259 0.021236 0.022150 -0.081214 -0.005973 0.005592
1.198896 0.649352 0.797635 -0.000001 -0.678686 0.000042
0.643954 0.677169 0.621537 -0.000000 -0.418532 -0.000042
3.715657 0.577522 0.580440 -0.041439 0.023783 -0.020765
2.641745 0.671819 0.624227 0.000000 -0.465663 -0.000037
2.308779 0.695355 0.823081 0.000000 -0.246156 0.000077
1.753837 0.772377 0.623407 0.000000 0.465523 -0.000019
1.983156 1.121365 0.323235 0.081262 -0.009742 -0.009739
3.501464 0.727631 0.826538 0.000000 0.025719 0.000012
2.615319 0.830396 0.724374 -0.000001 0.977547 0.000000
3.513739 0.841854 0.591254 0.024172 0.022726 0.017841
3.672349 0.942736 0.492360 0.024171 0.033537 0.021142
0.921425 0.633566 0.779103 0.000000 -0.831427 0.000026
3.513739 0.603901 0.591254 0.024171 -0.022727 0.017841
1.759974 0.617490 0.805932 0.056309 -0.005113 -0.005127
0.421977 0.666477 0.810704 -0.000000 -0.533583 0.000062
1.032413 0.799065 0.795067 -0.000001 0.707905 0.000005
1.587355 0.811449 0.657809 0.000000 0.816968 -0.000003
1.530371 0.856105 0.851322 -0.116912 -0.005071 0.005645
1.725241 0.267549 1.171226 -0.081214 -0.013138 -0.012177
0.477471 0.786793 0.805627 -0.000001 0.597687 0.000026
1.032413 0.805192 0.649626 0.000000 0.768852 -0.000033
0.421977 0.664540 0.628525 0.000000 -0.533560 -0.000015
1.838400 0.830396 0.713633 0.000001 0.998160 -0.000000
1.882365 0.400910 0.407244 0.056307 -0.004474 0.004490
1.633537 0.419125 1.020683 -0.081213 -0.008959 -0.008360
1.309884 0.655402 0.802888 0.000000 -0.618902 0.000025
1.833768 0.860562 0.594133 0.056308 0.013419 0.013144
3.756260 0.380181 1.056048 -0.041437 0.013596 0.013001
1.756375 0.796300 0.817985 0.081262 -0.003543 0.003564
3.715657 0.862433 0.574600 -0.041439 0.023770 0.020779
1.143401 0.639492 0.650913 0.000000 -0.768854 -0.000016
1.476367 0.771279 0.815162 -0.000000 0.442199 0.000020
1.983156 1.362941 1.354699 0.081261 -0.008856 0.008865
1.983156 1.222021 1.214742 0.081263 -0.007971 0.007987
1.365378 0.763054 0.619132 0.000000 0.370511 -0.000025
3.815681 0.747121 0.639611 0.358131 0.000034 -0.000105
1.693472 0.380574 0.373245 -0.116912 0.002663 -0.002966
0.477471 0.782391 0.629300 -0.000000 0.555594 -0.000117
3.622304 0.642762 0.628147 -0.041439 -0.007644 0.007573
1.706435 0.501236 0.924540 -0.081213 -0.005077 -0.004757
2.475262 0.783563 0.807924 -0.000000 0.555793 0.000007
3.585647 0.892163 0.895833 0.024170 0.009793 -0.009776
1.844568 0.478304 0.977833 0.081263 0.003543 0.003564
2.641745 0.658327 0.805153 0.000000 -0.598293 0.000026
1.678511 0.597712 0.612909 -0.081212 -0.003808 0.003571
1.587355 0.651237 0.638649 0.000000 -0.659178 -0.000022
1.860766 0.552866 0.536088 0.081264 0.001882 -0.001894
3.418664 0.814249 0.775926 -0.000000 0.845538 0.000012
3.574452 0.628379 0.798773 -0.041438 0.015295 0.014441
3.778785 0.932067 0.928837 -0.041438 0.008494 -0.008383
1.198896 0.790629 0.635337 0.000000 0.619046 -0.000025
0.650120 0.830421 0.723405 0.000000 0.999652 0.000000
1.810370 1.128232 0.330149 -0.081214 0.007167 0.006702
0.699448 0.640422 0.788211 -0.000000 -0.768848 0.000033
0.754942 0.782831 0.808413 0.000000 0.555497 0.000059
1.864366 0.591442 0.840100 0.056307 -0.013419 -0.013144
3.572272 0.987707 0.453910 0.024169 0.016785 0.014852
1.903963 1.157077 0.278666 0.081265 -0.004871 -0.004896
3.503226 0.830396 0.724374 0.000000 0.999669 0.000000
3.141192 0.787675 0.804968 0.000000 0.598266 0.000007
1.885721 1.443466 1.434675 -0.000000 0.709526 0.000314
3.413378 0.615338 0.714426 -0.000001 -0.976374 -0.000000
3.638255 0.802893 0.629178 -0.041441 0.007644 0.007573
3.591645 0.492959 0.485683 0.024172 -0.033536 0.021142
1.788772 0.377059 1.047012 0.056309 -0.017889 -0.017169
1.032413 0.649514 0.640223 -0.000000 -0.678813 -0.000021
0.865930 0.685287 0.618130 0.000001 -0.320359 -0.000007
3.815681 0.787338 0.771308 0.359502 0.000086 0.000068
0.846551 0.830432 0.715042 -0.000001 0.998152 -0.000000
0.754942 0.790422 0.635173 -0.000002 0.527387 -0.000004
1.739496 1.007257 0.417950 -0.116915 -0.002710 -0.003019
1.781573 0.963293 0.941756 0.056307 0.002716 -0.002732
1.032413 0.652760 0.800694 -0.000000 -0.659284 0.000022
1.725650 0.615364 0.713457 0.000000 -0.999652 -0.000000
3.333493 0.631428 0.815250 0.024171 -0.026606 -0.019281
0.106547 0.679727 0.793743 -0.384385 -0.000052 0.000084
3.319042 0.626254 0.627967 0.024171 0.014245 -0.011553
3.215688 0.792351 0.647047 -0.000000 0.709514 -0.000080
1.655831 0.920465 0.533065 -0.081213 0.005375 0.005035
2.031308 0.640619 0.649559 0.000000 -0.768843 -0.000033
3.030204 0.797174 0.796912 -0.000000 0.697612 0.000020
3.333493 0.819747 0.628215 0.024169 -0.014247 -0.011553
1.891364 0.527088 0.906161 0.056305 -0.002716 -0.002732
3.719975 0.659652 0.779933 0.049922 -0.001199 0.001191
2.967663 0.830455 0.715922 -0.000008 0.073185 -0.000000
3.671355 0.452346 0.992660 0.024172 -0.013987 -0.013041
1.607044 0.635817 0.822016 -0.116911 0.004850 0.005399
1.889564 1.337432 0.097887 0.081263 -0.012398 -0.012341
1.903963 0.280980 1.151591 0.056309 -0.014057 -0.013734
2.031308 0.671507 0.813616 0.000000 -0.488397 0.000009
1.365378 0.803522 0.790313 0.000001 0.749393 0.000009
1.947159 0.064751 0.061231 0.081262 0.008856 -0.008865
2.364274 0.772806 0.814375 0.000000 0.465523 0.000019
1.774373 0.416749 0.431559 0.056308 -0.009586 0.009515
0.310988 0.814762 0.775104 0.000000 0.858471 0.000006
2.953569 0.615229 0.718211 -0.000000 -0.999917 -0.000000
1.531861 0.617960 0.743105 0.000000 -0.975326 0.000009
2.331682 0.615341 0.714338 -0.000001 -0.998160 -0.000000
0.173817 0.801153 0.648524 -0.122335 0.000301 -0.000257
0.588459 0.638038 0.785268 -0.000000 -0.785279 0.000015
3.307675 0.797237 0.796851 0.000001 0.666081 0.000003
2.197791 0.760467 0.618130 0.000000 0.344713 -0.000013
2.985280 0.725518 0.826593 0.000000 0.026058 0.000095
2.174008 0.615242 0.718123 -0.000000 -0.999669 -0.000000
3.054868 0.719972 0.611421 0.000000 -0.026396 -0.000094
1.702315 1.140312 0.304417 -0.116912 -0.002330 -0.002595
3.500549 0.539374 0.531781 0.024170 -0.022374 0.017692
3.500549 0.906381 0.531781 0.024176 0.011189 0.010938
3.568871 0.504562 0.940800 0.024172 -0.019578 -0.016391
1.896763 1.124798 1.111315 0.056308 0.007669 -0.007651
2.278830 0.830532 0.718827 0.000000 0.999652 -0.000000
0.173817 0.622702 0.686455 -0.122339 -0.000380 -0.000113
1.875165 0.984737 0.970493 0.056309 0.010224 -0.010129
1.625358 0.500179 0.502689 -0.081214 -0.005077 0.004757
1.553001 0.727191 0.611458 0.000000 0.026396 -0.000185
1.663031 0.928414 0.937202 -0.116912 -0.006561 0.007299
3.560466 0.783371 0.793998 0.024171 0.016798 -0.014861
1.476367 0.683969 0.819381 -0.000000 -0.370497 0.000049
3.500549 0.911352 0.901221 0.024175 -0.011975 0.010101
0.068060 0.712640 0.654367 -0.534993 -0.000009 -0.000050
2.224217 0.717507 0.826522 0.000000 -0.026396 0.000370
3.141192 0.659068 0.632301 -0.000000 -0.598293 -0.000026
3.227517 0.615322 0.722965 0.000000 -0.999652 0.000000
2.530756 0.646505 0.643130 0.000000 -0.716266 -0.000019
1.553297 0.551755 0.888958 -0.081214 -0.011347 -0.010550
1.794018 0.153866 0.153875 -0.081213 -0.009556 0.008910
1.771092 1.253995 0.191510 -0.116911 -0.007036 -0.007826
1.354808 0.615311 0.715482 0.000000 -0.999669 -0.000000
1.867966 1.275797 1.281387 0.081262 -0.003543 0.003564
0.156553 0.823919 0.735007 -0.189460 0.000245 0.000032
1.920320 0.695696 0.614840 -0.000000 -0.246151 -0.000154
0.851837 0.615308 0.722437 0.000000 -0.999652 0.000000
1.947159 0.061252 1.373253 0.056307 -0.015335 -0.014899
1.646373 0.830513 0.719884 0.000000 0.999660 0.000000
1.896763 0.349485 1.099776 0.081263 0.010627 0.010610
2.919216 0.644784 0.644896 0.000000 -0.734310 -0.000005
1.070290 0.830442 0.722613 0.000000 0.999652 0.000000
1.689904 0.559371 0.534276 -0.116912 0.003281 -0.003654
2.808227 0.815730 0.773476 -0.000000 0.859403 0.000047
2.779159 0.615246 0.717947 0.000000 -0.999652 -0.000000
0.310988 0.817318 0.667326 0.000000 0.872460 -0.000005
1.745576 0.846008 0.569413 0.081261 -0.003543 -0.003564
3.719782 0.643371 0.634448 -0.041439 -0.023770 0.020779
3.767642 0.622018 0.707639 0.366855 -0.000490 -0.000083
1.983156 1.081102 1.074784 0.081260 -0.005314 0.005339
1.983156 0.183471 1.254730 0.081264 0.007085 0.007107
1.983156 0.404915 1.034796 0.081263 0.011512 0.011478
1.983156 1.040840 0.403211 0.081265 -0.011512 -0.011477
1.983156 1.383072 0.063314 0.081262 -0.008856 -0.008865
1.983156 1.262284 0.183277 0.081265 -0.007085 -0.007107
1.983156 0.545834 0.894839 0.081264 0.007528 0.007547
1.983156 0.920052 0.523175 0.081264 -0.007085 -0.007107
2.363393 0.723582 0.611363 0.000000 0.026396 -0.000047
3.733574 0.842313 0.842388 -0.041438 0.023770 -0.020780
1.143401 0.800018 0.794089 -0.000001 0.715127 0.000010
2.530756 0.649869 0.798113 0.000000 -0.678801 0.000005
0.310988 0.689777 0.616562 0.000000 -0.296306 -0.000016
3.813748 0.463886 0.461780 -0.041439 -0.013588 0.013009
3.812781 1.081915 0.362416 -0.041433 0.006796 0.006756
1.183040 0.615283 0.721469 0.000000 -0.999652 0.000000
2.586251 0.797647 0.796451 0.000000 0.697748 0.000020
3.735733 0.802284 0.635479 -0.041438 0.007644 0.007574
3.379494 0.524284 0.521765 0.024172 -0.033242 0.021078
3.538913 0.443057 0.441093 0.024170 -0.016784 0.014852
3.631997 0.947766 0.948986 0.024173 0.016782 -0.014851
3.128979 0.651925 0.789472 0.000001 -0.709396 0.000040
2.530756 0.803755 0.647959 0.000000 0.751718 -0.000017
3.236325 0.718916 0.611448 -0.000008 -0.002099 -0.000295
1.637169 0.868377 0.879229 -0.116909 -0.003471 0.003866
1.808571 1.052811 0.405198 0.056310 0.008946 0.008897
1.975814 0.796985 0.640911 0.000000 0.679516 -0.000003
0.986608 0.615299 0.722085 0.000000 -0.999669 0.000000
3.475814 0.646012 0.654489 -0.000000 -0.709525 -0.000482
1.254390 0.827999 0.742203 -0.000000 0.975065 0.000001
1.803171 0.849317 0.865263 0.081262 -0.009299 0.009302
0.310988 0.615533 0.710820 0.000001 -0.994361 -0.000001
2.142297 0.795853 0.798143 -0.000001 0.676777 0.000011
1.518908 0.837158 0.605503 -0.116912 -0.005071 -0.005645
3.085698 0.798120 0.642017 -0.000001 0.697420 -0.000020
1.789072 0.721293 0.826621 0.000000 -0.026058 0.000375
1.763226 1.082088 1.064318 -0.081213 0.003957 -0.003710
3.180831 0.719180 0.826566 0.000000 -0.026058 0.000024
1.983156 1.020708 1.014802 0.081263 -0.006199 0.006224
3.443926 0.562702 0.882699 0.024169 -0.022729 -0.017841
3.356720 0.909867 0.904718 0.024168 0.016639 -0.014764
3.728290 1.022418 0.416535 0.024172 0.022372 0.017692
2.142297 0.644396 0.792691 -0.000002 -0.719064 0.000009
0.699448 0.632164 0.661039 0.000000 -0.845726 -0.000049
2.364274 0.644186 0.792464 0.000000 -0.734310 0.000005
1.476367 0.687274 0.617407 0.000000 -0.321451 -0.000058
2.031308 0.797426 0.796666 -0.000000 0.697763 0.000040
0.887071 0.718563 0.826549 -0.000001 -0.025456 0.000192
0.200000 0.796985 0.797096 -0.054662 0.000315 0.000323
0.810436 0.638175 0.652566 0.000001 -0.783364 -0.000015
1.518908 0.608597 0.605503 -0.081212 -0.007963 0.007440
3.585146 0.618008 0.694687 -0.000000 -0.975340 -0.000018
1.920320 0.632258 0.777117 -0.000001 -0.845532 0.000025
1.903963 0.288677 0.278666 0.081263 0.009741 -0.009739
3.474158 0.786086 0.631855 -0.000001 0.552117 -0.000007
1.200657 0.723934 0.826635 0.000000 0.026396 0.000047
3.439041 0.860496 0.861596 0.024177 0.009981 -0.009938
2.031308 0.826282 0.689063 0.000000 0.962378 -0.000011
2.268260 0.720236 0.611414 -0.000000 -0.026058 -0.000375
0.588459 0.634509 0.657521 0.000001 -0.781144 -0.000004
3.812974 1.061905 1.055718 -0.041439 0.013588 -0.013009
2.697239 0.709437 0.825814 0.000001 -0.115003 0.000042
0.588459 0.821854 0.676671 -0.000001 0.918215 -0.000008
3.658363 0.513826 0.520492 -0.041439 0.020389 -0.018414
3.604523 0.553225 0.877557 0.024173 0.020952 0.014907
3.288398 0.875056 0.870144 0.024173 0.019959 -0.016582
1.700356 0.438356 0.424014 -0.116913 0.005800 -0.006455
0.053750 0.769273 0.749133 -0.591154 0.000030 0.000018
1.842768 1.062971 1.072909 0.081263 -0.005757 0.005782
1.309884 0.729215 0.826469 -0.000001 0.065384 0.000597
3.719975 0.787966 0.778056 0.049923 0.001199 0.001191
1.044745 0.726047 0.826579 -0.000000 0.026396 0.000185
1.254390 0.643290 0.646513 0.000000 -0.734310 -0.000005
1.713634 0.947220 0.475923 -0.116910 -0.003090 -0.003442
0.173817 0.700978 0.822032 -0.122335 -0.000092 0.000385
2.475262 0.619952 0.687459 0.000000 -0.955025 -0.000012
1.809332 0.711055 0.612002 0.000000 -0.117576 -0.000165
3.363169 0.830224 0.727143 -0.000000 0.997661 0.000001
1.179517 0.721645 0.611377 0.000000 -0.026057 -0.000024
1.839168 0.238142 1.188986 0.056308 -0.012780 -0.012549
1.853567 0.329305 0.338418 0.056307 -0.008308 0.008276
3.560466 0.798284 0.659025 0.024173 -0.017977 -0.013581
0.477471 0.630903 0.774952 0.000000 -0.859384 0.000023
3.677636 0.830398 0.724286 0.000000 0.999661 0.000000
1.921961 0.886339 0.888382 0.081264 -0.001882 0.001894
2.197791 0.823751 0.756593 -0.000000 0.937841 0.000004
1.929161 0.448280 0.997932 0.081263 0.003321 0.003341
1.476367 0.820657 0.673975 0.000001 0.872008 -0.000002
1.907562 1.033778 0.416233 0.056308 0.008947 0.008897
0.601672 0.726927 0.826556 -0.000008 0.001734 0.000358
2.863721 0.631835 0.776447 -0.000000 -0.845738 0.000025
2.974710 0.685701 0.617977 -0.000000 -0.346128 -0.000053
3.503970 0.649014 0.804546 0.024172 -0.016798 -0.014861
3.815681 0.800694 0.690099 0.359552 0.000103 -0.000037
1.920320 0.632188 0.661001 0.000000 -0.845717 -0.000025
0.699448 0.744483 0.613543 -0.000001 0.195124 -0.000197
1.735060 1.142567 1.140793 -0.116915 -0.002282 0.002542
1.695180 0.810709 0.654662 0.000000 -0.709523 0.001310
1.903963 0.140061 0.146458 0.056307 -0.010225 0.010130
3.497358 0.486621 0.955097 0.024172 -0.019578 -0.016391
2.455002 0.724286 0.611382 0.000000 0.026396 -0.000047
2.077113 0.726575 0.611441 0.000000 0.026396 -0.000185
1.774373 0.502307 0.516534 0.056308 -0.005432 0.005444
2.697239 0.815685 0.664455 0.000001 0.844364 -0.000003
0.588459 0.745261 0.613697 0.000000 0.194815 -0.000025
1.684141 1.045434 1.045565 -0.116913 -0.002710 0.003019
3.696727 0.422481 0.424799 0.024172 0.023943 -0.016018
3.426557 0.842721 0.593326 0.024171 0.019961 0.016583
3.743435 0.519329 0.520986 -0.041437 0.010198 -0.009966
1.587685 0.950841 0.492596 -0.116912 -0.003281 -0.003654
2.877815 0.724638 0.826616 -0.000000 0.026396 0.000012
0.921425 0.814366 0.662268 0.000000 0.845508 -0.000006
3.630070 0.717771 0.611478 -0.000000 -0.026049 -0.000048
0.699448 0.815077 0.774574 0.000001 0.859386 0.000047
2.687549 0.726575 0.611441 0.000000 0.025719 -0.000190
3.389105 0.656360 0.644070 0.000001 -0.709512 -0.000201
0.699448 0.819464 0.671470 0.000001 0.894500 -0.000005
3.640640 0.656370 0.803652 -0.000000 -0.619043 0.000050
3.770246 0.363574 0.359667 -0.041438 -0.013588 0.013009
3.546296 0.651287 0.634175 0.024172 -0.016798 0.014860
1.809332 0.807416 0.652358 0.000000 0.785472 -0.000002
1.642849 0.756146 0.821393 -0.000000 0.321451 0.000058
1.939960 0.816913 0.817362 0.081259 -0.003543 0.003564
3.729643 0.558430 0.877358 -0.041439 0.011897 0.011508
1.781573 0.482462 0.941756 0.056309 -0.005432 -0.005444
1.785172 0.959005 0.461737 0.081261 -0.003543 -0.003564
0.238758 0.615253 0.721646 0.000000 -0.999917 0.000000
1.672678 1.031736 0.416545 -0.081212 0.008959 0.008360
1.749143 0.340425 1.109601 -0.116912 0.004659 0.005187
3.681160 0.727632 0.826545 -0.000064 0.007436 0.001668
3.742662 0.443434 1.000683 -0.041438 -0.013588 -0.013009
1.763574 0.567305 0.856061 0.056308 -0.015335 -0.014899
0.477471 0.633027 0.659709 0.000001 -0.831381 -0.000026
1.911162 0.822256 0.626025 0.056307 0.005113 0.005127
1.726565 0.993682 0.974513 -0.081214 0.004554 -0.004269
0.810436 0.740240 0.612760 0.000000 0.169320 -0.000114
1.695180 0.635046 0.783345 0.056307 -0.010225 -0.010130
3.252181 0.657339 0.804415 0.000000 -0.619098 0.000050
0.421977 0.816023 0.772984 0.000000 0.855767 0.000003
3.252181 0.633639 0.658794 -0.000000 -0.831406 -0.000026
0.421977 0.813168 0.660368 0.000000 0.831633 -0.000002
3.785487 0.972041 0.469883 -0.041438 0.013588 0.013009
1.864826 0.758815 0.820487 -0.000000 0.346223 0.000026
2.495522 0.718740 0.826554 -0.000001 -0.025852 0.000378
0.464258 0.720940 0.826637 0.000004 -0.004074 0.000305
1.809332 0.814484 0.775553 0.000001 0.845375 0.000012
0.366483 0.633712 0.658684 -0.000000 -0.831471 -0.000026
0.310988 0.701876 0.824585 0.000000 -0.195156 0.000197
1.809332 0.632587 0.660368 0.000000 -0.845738 -0.000012
3.657369 0.472266 0.464303 0.024171 -0.027957 0.019707
3.767642 0.700292 0.620051 0.365205 -0.000034 -0.000119
2.142297 0.633712 0.658684 -0.000000 -0.831471 -0.000026
3.714788 0.493280 0.952834 -0.041439 -0.016983 -0.015834
2.597702 0.725254 0.611407 0.000000 0.026396 -0.000370
2.863721 0.829514 0.733753 0.000000 0.989649 0.000001
1.698343 0.815752 0.773439 -0.000000 0.859427 0.000012
1.795972 0.616983 0.592322 0.081262 0.005314 -0.005339
2.428576 0.830435 0.715130 0.000000 0.999660 -0.000000
2.697239 0.825750 0.750716 0.000000 0.954934 0.000006
1.766826 1.078365 0.349809 -0.116911 -0.002520 -0.002807
1.839168 0.950938 0.503944 0.056307 0.002716 0.002732
1.929161 0.458346 0.450072 0.081262 0.003321 -0.003341
0.810436 0.745433 0.824271 0.000000 0.220591 0.000043
1.719018 0.389068 1.042524 -0.081216 -0.008361 -0.007808
1.562381 0.793749 0.800422 -0.000000 -0.709522 -0.000437
0.046861 0.700223 0.763465 -0.618224 -0.000015 0.000028
0.460735 0.718475 0.611460 0.000000 -0.026057 -0.000024
2.808227 0.678129 0.816912 0.000000 -0.418704 0.000042
3.334816 0.868269 0.572633 0.024170 0.026608 0.019281
3.474158 0.787181 0.805337 -0.000000 0.598313 0.000105
2.641745 0.749205 0.823384 0.000000 0.246177 0.000154
2.364274 0.634534 0.657485 -0.000000 -0.816662 -0.000014
2.419768 0.811602 0.779982 -0.000000 0.831321 0.000003
0.200000 0.666626 0.627209 -0.054659 -0.000241 -0.000382
0.810436 0.817081 0.771104 -0.000001 0.871195 0.000005
1.903963 1.378522 1.379275 0.081264 -0.010627 0.010610
3.815681 0.725337 0.801979 0.349148 0.000005 0.000113
1.805130 1.223806 1.224787 -0.116911 -0.007036 0.007826
1.419111 0.722525 0.611354 0.000000 -0.026058 -0.000024
2.069185 0.726487 0.826568 -0.000001 0.025445 0.000192
0.742610 0.719180 0.826566 -0.000004 -0.007006 0.000177
1.594638 0.851389 0.580752 -0.116912 -0.002425 -0.002701
0.643954 0.669663 0.812583 0.000000 -0.488170 0.000009
1.947159 1.179690 1.176836 0.081264 -0.004428 0.004452
2.808227 0.791747 0.636266 -0.000001 0.639373 -0.000047
1.420872 0.799127 0.643003 0.000000 0.715825 -0.000010
2.919216 0.792017 0.636491 -0.000001 0.638643 -0.000024
1.864366 1.154802 1.161632 0.081262 -0.004871 0.004896
3.075128 0.615229 0.718211 -0.000000 -0.999917 -0.000000
3.606433 0.438571 0.999299 0.024173 0.014969 0.011980
1.661980 0.660279 0.629256 -0.116912 0.005388 -0.005998
1.795972 0.432706 0.992317 0.056308 -0.009585 -0.009515
3.783199 0.601887 0.600703 -0.041438 0.023784 -0.020765
3.030204 0.672403 0.814088 -0.000000 -0.465193 0.000009
2.364274 0.821007 0.674735 0.000001 0.907059 -0.000009
0.810436 0.814249 0.662082 0.000001 0.843272 -0.000006
1.898563 0.960487 0.473295 0.081264 -0.003543 -0.003564
1.420872 0.616057 0.705651 -0.000000 -0.993039 -0.000001
3.151753 0.805433 0.637011 0.024171 0.026606 0.019281
1.799571 0.917282 0.897489 0.056307 0.005432 -0.005444
0.921425 0.815257 0.774271 0.000000 0.859368 0.000023
3.443926 0.558089 0.559953 0.024173 0.024320 -0.016144
1.254390 0.686320 0.820259 -0.000000 -0.345960 0.000027
0.810436 0.628975 0.771642 -0.000000 -0.872499 0.000022
3.215688 0.792351 0.790960 -0.000000 0.709514 0.000080
1.954359 0.192392 0.194427 0.056308 -0.005752 0.005761
0.122840 0.660806 0.650066 -0.320799 -0.000089 -0.000094
2.586251 0.626621 0.670799 -0.000000 -0.895807 -0.000005
2.475262 0.628760 0.771258 -0.000000 -0.872470 0.000022
1.875165 0.138916 1.290396 0.056306 -0.010225 -0.010130
3.606433 1.005113 1.001384 0.024172 0.013987 -0.013041
1.875165 1.206182 0.247581 0.056308 0.006391 0.006394
1.875165 0.239573 0.247581 0.056308 -0.006391 0.006394
1.143401 0.628631 0.771027 -0.000000 -0.872497 0.000044
1.646152 0.467434 0.979322 -0.116912 0.003090 0.003442
1.783356 0.327099 0.311034 -0.116912 0.002330 -0.002595
1.318693 0.719004 0.611446 -0.000000 -0.026396 -0.000185
3.644717 0.867879 0.872958 -0.041439 0.005946 -0.005929
1.975814 0.665434 0.627961 -0.000000 -0.531476 -0.000008
3.783654 0.663437 0.793540 0.358634 -0.000318 0.000356
1.716841 0.720941 0.611395 0.000000 -0.026396 -0.000370
0.255494 0.666588 0.810774 0.000001 -0.533614 0.000248
1.925561 0.936874 0.938158 0.081262 -0.003543 0.003564
1.809332 0.658962 0.805627 0.000000 -0.598300 0.000052
2.586251 0.629642 0.772833 0.000000 -0.872464 0.000022
2.308779 0.815527 0.773817 -0.000000 0.859367 0.000012
1.921961 0.553468 0.555614 0.056308 -0.005432 0.005444
1.862566 0.879549 0.865021 0.056309 0.013418 -0.013144
2.253285 0.808579 0.653853 -0.000000 0.801204 -0.000015
3.389105 0.656360 0.793937 0.000001 -0.709512 0.000201
3.543002 0.940806 0.498419 0.024172 0.009792 0.009776
2.142297 0.830389 0.713369 0.000000 0.999660 -0.000000
3.085698 0.816715 0.771757 0.000000 0.872495 0.000011
3.588437 0.836468 0.818563 0.024172 -0.017977 0.013581
2.808227 0.672170 0.624043 -0.000000 -0.465593 -0.000149
2.253285 0.663473 0.808780 0.000001 -0.555233 0.000029
1.893164 0.864553 0.567953 0.081263 -0.009299 -0.009302
1.897418 0.615246 0.720060 0.000000 -0.999669 0.000000
1.642849 0.783856 0.630279 0.000000 0.555637 -0.000015
0.532965 0.805643 0.650168 -0.000000 0.768687 -0.000016
3.328816 0.718563 0.826549 0.000000 -0.026396 0.000047
1.040341 0.718828 0.611451 0.000001 -0.025852 -0.000378
2.031308 0.615752 0.708364 0.000001 -0.995618 -0.000004
0.913497 0.726927 0.611451 0.000000 0.026058 -0.000375
3.624270 0.782972 0.789873 0.049923 0.007196 0.007074
1.925561 0.609537 0.599819 0.081260 0.003543 -0.003564
2.923620 0.722701 0.611347 0.000000 -0.012858 -0.000193
2.863721 0.766019 0.620374 0.000000 0.394726 -0.000091
2.308779 0.673222 0.623489 -0.000001 -0.456079 -0.000005
2.974710 0.643290 0.791494 0.000001 -0.733758 0.000018
2.253285 0.617659 0.696233 -0.000001 -0.974826 -0.000004
1.143401 0.811170 0.657414 -0.000001 0.815614 -0.000007
2.530756 0.816113 0.772833 -0.000000 0.872500 0.000011
0.532965 0.817404 0.770528 0.000000 0.872541 0.000005
2.086803 0.662851 0.629643 0.000001 -0.553876 -0.000015
1.738376 0.929780 0.905038 -0.081214 0.005077 -0.004757
1.309884 0.626485 0.671075 0.000000 -0.880385 -0.000001
1.655831 0.537885 0.917625 -0.116912 0.006561 0.007299
1.198896 0.817490 0.770374 -0.000000 0.884981 0.000021
1.731177 0.560312 0.909415 0.081262 0.005314 0.005339
0.532965 0.760963 0.819695 0.000000 0.344080 0.000007
0.976919 0.783343 0.629937 0.000001 0.549143 -0.000007
0.131142 0.633648 0.753255 -0.288423 -0.000138 0.000057
2.697239 0.628203 0.770257 0.000000 -0.885036 0.000005
0.588459 0.828673 0.738925 -0.000000 0.980788 0.000004
1.087907 0.776092 0.812583 -0.000000 0.488611 0.000070
0.865930 0.652694 0.800636 -0.000000 -0.659334 0.000011
1.920320 0.716540 0.826469 0.000000 -0.065390 0.000597
1.087907 0.783856 0.630279 0.000000 0.556261 -0.000004
1.254390 0.631177 0.775404 0.000001 -0.844239 0.000006
1.616375 0.602425 0.610532 -0.081215 -0.003808 0.003571
1.198896 0.664913 0.628290 0.000000 -0.533280 -0.000004
1.709579 0.850399 0.823909 -0.081215 0.005674 -0.005314
3.700319 0.989205 0.461121 0.024171 -0.014970 -0.011981
3.728290 1.027389 1.016467 0.024170 -0.023945 0.016018
2.974710 0.811043 0.657234 -0.000000 0.816671 -0.000014
1.254390 0.809975 0.655723 0.000000 0.801216 -0.000015
0.699448 0.615896 0.731000 -0.000001 -0.992187 0.000002
2.697239 0.629642 0.665174 0.000000 -0.872428 -0.000011
3.743879 0.338624 1.100635 0.024171 -0.022373 -0.017692
3.815681 0.701770 0.683265 1.000000 -0.000000 0.000000
3.812781 0.363840 1.075591 -0.041436 -0.006795 -0.006756
2.031308 0.627629 0.769166 0.000000 -0.885036 0.000005
2.586251 0.819133 0.670799 0.000001 0.890026 -0.000005
0.921425 0.769066 0.816249 0.000001 0.418240 0.000021
2.197791 0.772689 0.814436 -0.000000 0.465625 0.000019
0.446641 0.830522 0.717947 0.000008 0.145201 -0.000000
1.309884 0.818802 0.767880 -0.000000 0.896817 0.000010
2.863721 0.782098 0.808902 0.000000 0.555387 0.000015
1.936360 0.387472 0.380510 0.081263 0.005757 -0.005782
3.442620 0.928045 0.513579 0.024171 0.022373 0.017692
1.420872 0.641245 0.648820 0.000000 -0.751864 -0.000017
1.357450 0.830485 0.720940 -0.000000 0.999652 0.000000
1.709579 0.621947 0.850683 0.081264 0.007085 0.007107
2.475262 0.780134 0.627844 -0.000000 0.533560 -0.000015
0.643954 0.778523 0.811158 0.000000 0.511222 0.000033
3.363169 0.775746 0.812777 -0.000000 0.488734 0.000017
0.200000 0.745261 0.613697 -0.054660 0.000100 -0.000440
3.442620 0.517710 0.513579 0.024172 -0.011191 0.010939
3.372042 0.566129 0.877146 0.024168 -0.016639 -0.014764
1.476367 0.816113 0.772833 -0.000000 0.872500 0.000011
1.087907 0.674633 0.815240 0.000000 -0.442083 0.000010
1.642849 0.685701 0.820030 -0.000000 -0.346128 0.000053
2.808227 0.732771 0.611810 -0.000000 0.091523 -0.000425
3.504045 0.534394 0.910965 0.024171 -0.005596 -0.005872
1.309884 0.785870 0.631702 -0.000000 0.577089 -0.000028
3.363169 0.766666 0.620652 0.000000 0.394756 -0.000045
1.584712 0.830509 0.717947 0.000000 0.999660 -0.000000
3.493364 0.979490 0.973865 0.024172 0.019578 -0.016391
1.918362 1.419612 0.019577 0.081265 -0.008856 -0.008865
1.918362 0.026143 1.418430 0.081262 0.008856 0.008865
1.842768 0.372718 1.082905 0.081263 0.005757 0.005782
1.929161 0.997475 0.997932 0.081262 -0.003321 0.003341
1.831969 1.036782 1.018749 0.056308 0.009586 -0.009515
1.830169 0.896163 0.529320 0.081261 -0.003764 -0.003786
2.641745 0.813638 0.776894 -0.000000 0.845083 0.000006
3.574356 0.600928 0.586495 0.024172 -0.022373 0.017692
3.574356 0.844826 0.586495 0.024172 0.005596 0.005872
0.122840 0.764992 0.636349 -0.320799 0.000060 -0.000110
1.983156 0.304259 0.303241 0.081263 0.009741 -0.009739
2.142297 0.810306 0.656191 0.000001 0.816022 -0.000014
1.087907 0.669048 0.625768 0.000000 -0.511008 -0.000008
0.578770 0.615334 0.723405 0.000000 -0.999669 0.000000
2.808227 0.628975 0.666365 0.000000 -0.872489 -0.000022
1.882365 1.326684 1.310678 -0.081213 0.008361 -0.007809
1.531861 0.662777 0.808315 -0.000001 -0.554608 0.000015
2.197791 0.667685 0.626579 0.000000 -0.511115 -0.000016
1.587355 0.625842 0.765628 -0.000000 -0.895866 0.000002
0.366483 0.627937 0.769750 -0.000000 -0.884985 0.000041
2.086803 0.622793 0.679359 0.000000 -0.928235 -0.000004
2.031308 0.774824 0.624714 0.000000 0.488607 -0.000070
2.808227 0.825489 0.686450 0.000000 0.955019 -0.000024
0.754942 0.657200 0.804306 0.000002 -0.462181 0.000004
1.875165 1.306838 0.147611 -0.081214 0.008660 0.008084
0.457211 0.615334 0.714602 -0.000000 -0.999652 -0.000000
3.030204 0.780134 0.627844 -0.000000 0.533636 -0.000062
1.896763 0.487040 0.491642 0.056307 -0.002556 0.002571
3.686914 0.910085 0.540529 -0.041438 -0.010198 -0.009965
3.497941 0.721468 0.611363 -0.000000 -0.012858 -0.000048
2.752733 0.802345 0.791623 0.000001 0.734227 0.000036
1.738376 0.596500 0.612945 0.056309 -0.005113 0.005127
1.365378 0.813215 0.660443 0.000000 0.843656 -0.000003
0.255494 0.711580 0.611940 0.000000 -0.117665 -0.000041
0.040161 0.755761 0.689395 -0.644581 0.000018 -0.000016
0.040161 0.683451 0.698915 -0.644586 -0.000025 -0.000012
2.974710 0.815797 0.773363 -0.000000 0.859188 0.000006
3.618012 0.935302 0.515485 0.024169 -0.017964 -0.013573
1.925561 0.498815 0.948155 0.081263 0.003543 0.003564
1.920320 0.821802 0.761457 0.000000 0.917274 0.000002
1.365378 0.640253 0.788008 0.000000 -0.768595 0.000016
0.921425 0.666477 0.627303 0.000001 -0.532759 -0.000016
1.531861 0.668140 0.626309 -0.000000 -0.511294 -0.000066
3.751490 0.619833 0.817616 -0.041438 0.023784 0.020765
2.974710 0.629867 0.664796 0.000000 -0.859188 -0.000006
1.828369 0.433940 0.414251 0.081262 0.006642 -0.006666
2.752733 0.698518 0.614144 -0.000000 -0.220698 -0.000173
1.918362 1.238430 1.238484 0.081265 -0.007970 0.007987
3.634324 0.592258 0.599839 -0.041439 0.015294 -0.014441
1.420872 0.788693 0.804197 0.000000 0.619046 0.000025
1.821169 0.981204 0.994182 0.081264 -0.003321 0.003341
3.196687 0.676371 0.621910 0.000000 -0.433777 -0.000005
1.585307 0.840973 0.828663 -0.081214 0.007963 -0.007440
1.531861 0.785870 0.631702 0.000001 0.576749 -0.000028
3.363169 0.621181 0.683692 -0.000000 -0.946951 -0.000013
2.308779 0.754379 0.821942 0.000000 0.296675 0.000031
2.197791 0.632117 0.776894 0.000000 -0.845713 0.000025
1.936360 0.372858 1.062915 0.056308 -0.016612 -0.016045
2.308779 0.632070 0.776819 -0.000001 -0.838910 0.000006
2.086803 0.780246 0.810093 -0.000000 0.533292 0.000015
2.754495 0.722613 0.826659 0.000000 -0.013540 0.000011
1.975814 0.655125 0.802670 0.000000 -0.639425 0.000094
1.753837 0.675423 0.815629 -0.000001 -0.429823 0.000010
0.976919 0.636517 0.654735 -0.000001 -0.788855 -0.000004
3.783392 0.823858 0.817431 -0.041439 -0.007649 0.007569
0.366483 0.683519 0.819202 0.000001 -0.370532 0.000196
1.767805 1.153219 0.298465 -0.081214 0.007167 0.006702
3.634324 0.853497 0.599839 -0.041440 -0.007649 -0.007569
0.532965 0.646628 0.643003 0.000000 -0.716351 -0.000010
1.698343 0.773468 0.814026 -0.000001 0.463107 0.000009
1.731177 0.885443 0.528592 0.081262 -0.005314 -0.005339
1.788772 0.457584 0.470971 0.056307 -0.010225 0.010130
1.896763 0.087778 1.359697 0.081264 0.010627 0.010610
2.530756 0.767386 0.817023 0.000000 0.418434 0.000021
3.531118 0.485414 0.480675 0.024172 -0.019578 0.016391
3.085698 0.631083 0.662752 0.000000 -0.859576 -0.000003
0.976919 0.784863 0.807016 0.000000 0.577222 0.000028
3.618373 0.602721 0.849835 -0.041438 -0.007644 -0.007574
1.698343 0.630430 0.663849 0.000001 -0.858744 -0.000012
1.896763 1.124798 0.326692 0.056308 0.015335 0.014899
3.196687 0.624895 0.674415 0.000000 -0.907905 -0.000009
3.363169 0.621455 0.755106 0.000000 -0.937474 0.000004
2.557182 0.830490 0.720764 -0.000000 0.999660 0.000000
1.943560 0.316599 1.127060 0.081259 0.004871 0.004896
1.911162 0.248001 1.198913 0.081262 0.004428 0.004452
1.828407 1.348730 0.097421 -0.116913 -0.005325 -0.005927
1.816944 1.329783 1.321768 -0.116911 -0.005515 0.006138
1.553297 0.893999 0.888958 -0.116911 -0.007227 0.008037
1.702315 0.305443 1.133590 -0.081214 -0.007167 -0.006702
1.748166 0.229654 1.208861 -0.081213 -0.011944 -0.011094
1.736704 0.248601 0.247964 -0.081213 -0.013138 0.012177
1.656463 0.381231 1.058318 -0.081212 -0.008361 -0.007809
1.794018 0.153866 1.284133 -0.081213 -0.009556 -0.008910
1.725241 1.178206 0.266782 -0.116911 -0.004279 -0.004765
1.851333 0.059130 0.059785 -0.081212 -0.007167 0.006703
1.599148 0.969788 0.964229 -0.116912 -0.006466 0.007194
0.643954 0.628437 0.770681 0.000000 -0.871204 0.000003
1.531861 0.826581 0.690122 0.000001 0.957125 -0.000001
2.086803 0.657131 0.804251 0.000000 -0.618935 0.000012
3.273494 0.796293 0.651016 0.000000 0.709524 -0.000120
1.645000 0.400178 0.398506 -0.081213 -0.008959 0.008360
2.919216 0.824828 0.684442 0.000002 0.946169 -0.000013
0.255494 0.783783 0.807777 -0.000000 0.551270 0.000004
3.772275 0.874569 0.570833 -0.041439 -0.011897 -0.011508
2.752733 0.805924 0.650507 0.000000 0.768091 -0.000008
1.476367 0.637520 0.784611 -0.000001 -0.778241 0.000004
1.932760 1.299651 0.140374 0.081261 -0.006200 -0.006224
1.983156 0.102946 1.334705 0.081261 0.010627 0.010610
1.625706 0.596324 0.860412 -0.116912 0.002425 0.002701
1.309884 0.621577 0.755437 -0.000001 -0.817676 0.000001
3.707795 0.948728 0.937100 -0.041438 -0.008499 0.008378
1.420872 0.668745 0.812059 0.000000 -0.511332 0.000033
2.364274 0.716144 0.826443 0.000000 -0.065388 0.000597
2.419768 0.757814 0.820827 -0.000000 0.321313 0.000029
1.925561 0.005598 -0.000000 -0.000000 -0.709527 -0.000314
0.421977 0.772689 0.814436 -0.000000 0.465625 0.000037
1.087907 0.628265 0.667633 -0.000000 -0.884998 -0.000021
3.372042 0.566129 0.560861 0.024171 -0.016637 0.014764
0.366483 0.805474 0.788042 0.000000 0.768776 0.000016
3.554886 0.518684 0.522003 0.024168 0.010482 -0.009052
1.839870 0.078077 1.359404 -0.081211 -0.007167 -0.006703
1.925561 0.161050 1.272419 0.056306 -0.010225 -0.010130
3.085698 0.774555 0.813444 -0.000000 0.488498 0.000017
0.366483 0.803813 0.648025 0.000000 0.751864 -0.000017
1.476367 0.615587 0.727845 0.000000 -0.995759 0.000000
0.421977 0.769226 0.621832 0.000000 0.419401 -0.000005
1.143401 0.766746 0.620689 0.000000 0.418434 -0.000042
0.976919 0.664764 0.809623 0.000000 -0.533292 0.000015
1.923761 0.578704 0.857472 0.056308 -0.013419 -0.013144
1.531861 0.620714 0.685068 0.000000 -0.946917 -0.000013
2.919216 0.624747 0.763272 0.000000 -0.908187 0.000005
1.939960 0.101229 0.105030 0.056307 -0.017889 0.017170
2.419768 0.625411 0.673295 0.000000 -0.907059 -0.000005
1.864826 0.815707 0.664493 -0.000000 0.859354 -0.000012
1.795972 1.013049 0.445690 0.056310 0.009585 0.009515
1.864826 0.625153 0.673855 0.000000 -0.907525 -0.000005
0.532965 0.647571 0.795929 0.000001 -0.697442 0.000020
0.310988 0.771595 0.815006 0.000001 0.429823 0.000010
3.085698 0.672910 0.623653 0.000000 -0.465534 -0.000037
2.142297 0.747065 0.614105 0.000001 0.219901 -0.000043
3.757034 0.985537 0.976557 -0.041439 -0.013596 0.013001
0.532965 0.758564 0.617435 -0.000000 0.320746 -0.000014
1.864826 0.640224 0.787974 0.000000 -0.768974 0.000004
1.753837 0.815032 0.663357 0.000000 0.859279 -0.000006
0.366483 0.677409 0.621427 0.000000 -0.418679 -0.000170
1.975814 0.816113 0.772833 -0.000000 0.872489 0.000044
0.754942 0.646751 0.642877 0.000000 -0.716267 -0.000019
0.323320 0.830506 0.721293 0.000000 0.999917 0.000000
2.586251 0.670085 0.812820 -0.000000 -0.488545 0.000035
2.475262 0.818638 0.669816 0.000000 0.884999 -0.000010
2.808227 0.625901 0.765747 0.000000 -0.896729 0.000010
3.756260 1.062260 0.378623 0.024172 0.033535 0.021142
3.665164 1.019159 1.009949 0.024172 -0.023943 0.016018
3.252181 0.822553 0.759671 0.000000 0.928791 0.000008
1.983156 0.545834 0.543168 0.081262 0.007528 -0.007548
1.983156 0.920052 0.914832 0.081262 -0.001771 0.001783
1.983156 1.161627 0.283247 0.081262 -0.008856 -0.008865
1.983156 1.081102 0.363223 0.081262 -0.010627 -0.010610
1.983156 1.403203 1.394687 0.081265 -0.007085 0.007107
1.983156 0.284127 1.154760 0.081261 0.008856 0.008865
1.983156 0.143208 1.294718 0.081262 0.006200 0.006224
1.864826 0.684296 0.618495 0.000000 -0.370515 -0.000025
1.809332 0.772806 0.814375 -0.000000 0.465476 0.000037
2.475262 0.672559 0.623837 -0.000001 -0.464916 -0.000019
3.418664 0.776707 0.625768 0.000000 0.488686 -0.000017
2.197791 0.627937 0.668257 0.000000 -0.885036 -0.000005
0.643954 0.733429 0.611870 0.000000 0.091390 -0.000053
0.098575 0.802719 0.740397 -0.415543 0.000084 0.000020
3.117409 0.830534 0.718827 0.000000 0.999917 -0.000000
0.588459 0.687232 0.617421 -0.000001 -0.318424 -0.000015
3.772082 0.894578 0.887047 -0.041439 -0.020389 0.018414
1.512482 0.726839 0.826559 0.000000 0.026396 0.000370
3.785584 0.483718 0.958188 -0.041438 -0.006795 -0.006756
0.865930 0.631647 0.661858 -0.000002 -0.678693 -0.000002
2.610034 0.615269 0.720940 0.000000 -0.999669 0.000000
2.722784 0.615354 0.713809 -0.000000 -0.999652 -0.000000
1.920320 0.752225 0.615431 0.000002 0.268227 -0.000035
0.902927 0.830526 0.718211 0.000000 0.999917 -0.000000
2.475262 0.668177 0.811721 -0.000000 -0.511115 0.000016
3.814714 0.563932 0.876864 -0.041439 -0.020377 -0.018427
3.813168 0.403859 1.035846 -0.041440 -0.013588 -0.013009
3.628405 0.988463 0.459373 0.024172 -0.029920 -0.017710
3.812588 1.101924 1.095464 -0.041436 0.013589 -0.013010
3.814134 0.503905 0.501525 -0.041438 -0.008494 0.008383
0.699448 0.686444 0.617703 -0.000000 -0.346113 -0.000027
3.742275 0.403416 0.397579 -0.041439 -0.020377 0.018427
3.446851 0.830391 0.724550 -0.000000 0.999669 0.000000
1.824769 1.167922 0.289585 -0.081214 0.013138 0.012176
3.196687 0.627322 0.768581 0.000000 -0.884959 0.000021
1.875165 0.440886 0.447520 0.056307 -0.004793 0.004809
2.863721 0.638774 0.651805 0.000000 -0.783373 -0.000002
2.364274 0.777956 0.626511 0.000000 0.511190 -0.000033
2.308779 0.629732 0.665023 0.000000 -0.859427 -0.000006
2.586251 0.664169 0.628762 0.000000 -0.555481 -0.000007
0.255494 0.812776 0.659782 -0.000001 0.831235 -0.000026
1.737680 0.350275 0.356383 -0.081213 -0.003882 0.003641
0.310988 0.746721 0.614028 -0.000000 0.220698 -0.000173
1.753837 0.819737 0.765984 0.000000 0.896884 0.000019
3.696134 0.819406 0.671352 -0.000001 0.896848 -0.000039
3.242849 0.593906 0.847095 0.024172 -0.026606 -0.019281
3.516138 0.991094 0.452617 0.024173 0.033535 0.021142
3.675557 1.072320 1.066062 0.024173 0.033534 -0.021142
3.220075 0.840245 0.602437 0.024170 0.026608 0.019281
3.265624 0.582303 0.579388 0.024171 -0.039871 0.022296
3.379494 0.524284 0.916242 0.024172 -0.033242 -0.021078
3.698331 0.361831 1.077586 0.024171 -0.022373 -0.017692
3.675557 1.072320 0.371945 0.024172 0.033535 0.021142
3.766653 1.118735 0.325847 0.024171 0.022373 0.017691
3.652783 0.385039 0.383470 0.024172 -0.033536 0.021142
0.310988 0.642523 0.647363 0.000001 -0.751503 -0.000017
2.419768 0.650063 0.798292 -0.000001 -0.678709 0.000042
1.812330 0.201404 0.193642 -0.116912 0.007036 -0.007826
1.823792 1.263298 0.174825 -0.116913 -0.006276 -0.006983
