0.757433 0.637493 0.785617 0.000000 -0.916552 0.000018
1.999974 0.003276 0.002217 -0.000000 -0.710486 -0.000398
1.871288 0.003276 1.473102 0.000001 -0.710489 0.000148
1.871288 1.488317 0.002217 -0.040459 -0.018953 -0.018131
3.870268 0.488405 0.482721 -0.379814 -0.001953 0.001875
3.870268 1.003188 0.992598 -0.379815 0.001953 -0.001875
3.398963 0.616586 0.609681 0.207160 -0.002091 0.004347
2.931422 0.679723 0.639355 0.000000 -0.552910 -0.000008
2.652705 0.822637 0.827798 -0.000001 0.646265 0.000006
2.485475 0.783697 0.625435 0.000001 0.328471 -0.000030
2.039529 0.810601 0.836807 0.000000 0.552981 0.000062
3.454245 0.891744 0.873120 0.207162 -0.002198 0.001083
1.838452 1.273658 1.248614 -0.060279 0.007105 -0.006662
1.951557 1.018191 1.001315 0.089777 0.005495 -0.005537
1.490345 0.637408 0.851420 -0.040462 0.005266 0.005515
1.016370 0.743213 0.856049 0.000000 -0.025194 0.000026
1.922508 1.410936 0.088689 -0.060281 0.017945 0.016240
1.786942 0.884617 0.848129 0.089776 0.003663 -0.003695
3.210138 0.803816 0.840921 0.000001 0.489156 0.000073
3.098652 0.729970 0.855043 0.000001 -0.136538 0.000149
1.716568 1.123722 0.374803 -0.060279 0.002618 0.002469
1.872299 0.702520 0.847925 0.000000 -0.377174 0.000013
1.036150 0.782468 0.625034 0.000000 0.306621 -0.000064
1.388591 0.627384 0.739320 0.000000 -0.999691 0.000000
3.321625 0.722325 0.853765 0.000000 -0.209882 0.000024
1.738614 0.885982 0.628568 -0.060279 0.005610 0.005273
1.875705 0.486900 1.004656 0.060313 0.008724 0.008717
0.924663 0.847438 0.676846 0.000001 0.859571 -0.000024
2.095272 0.804379 0.634714 0.000000 0.489142 -0.000073
0.255743 0.679646 0.835913 -0.000000 -0.552984 0.000062
0.590203 0.803816 0.840921 0.000000 0.489141 0.000073
1.967696 0.873151 0.615614 0.089774 0.003663 0.003695
3.373736 0.863375 0.621202 0.207158 0.002091 0.004347
1.656812 1.214000 0.273919 -0.040462 -0.025262 -0.022641
1.742602 0.167866 1.310081 -0.060280 -0.013461 -0.012404
1.870864 1.091926 1.091469 0.060312 -0.007634 0.007646
1.537839 0.856976 0.696801 -0.000000 0.935353 -0.000008
1.999974 0.517620 0.511659 0.060314 0.008723 -0.008717
2.832522 0.748380 0.619270 0.000000 0.024871 -0.000027
0.367230 0.640862 0.682722 -0.000001 -0.884080 -0.000044
0.255743 0.790440 0.627951 0.000000 0.376924 -0.000202
1.147636 0.836026 0.660924 0.000000 0.758070 -0.000009
3.522121 0.740722 0.619332 0.000000 -0.024540 -0.000007
2.151016 0.645973 0.801418 0.000001 -0.841049 0.000007
1.999974 1.344301 1.330459 0.060314 -0.015264 0.014941
1.999974 1.179710 1.167437 0.060315 -0.011994 0.011878
0.843745 0.745612 0.856111 0.000000 -0.012269 0.000054
1.742602 1.323727 0.165238 -0.040459 -0.018953 -0.018131
1.580698 0.919381 0.918190 -0.040461 -0.025613 0.022866
3.740063 0.831788 0.634297 -0.000000 0.703713 0.000568
0.980406 0.656139 0.660260 0.000000 -0.757824 -0.000018
1.983786 0.627931 0.725865 0.000000 -0.996192 -0.000007
0.645946 0.668257 0.827196 -0.000000 -0.652239 0.000012
1.543617 0.928617 0.550451 -0.040460 -0.025614 -0.022866
1.754665 0.604929 0.846062 0.089774 -0.007326 -0.007372
3.154395 0.860540 0.708252 -0.000001 0.958257 -0.000003
2.875679 0.628179 0.723664 0.000000 -0.992599 -0.000000
2.755201 0.743767 0.856063 0.000000 -0.024863 0.000027
2.652705 0.820080 0.645399 -0.000000 0.632934 -0.000025
0.701690 0.840713 0.808514 -0.000000 0.804577 0.000061
2.318245 0.862481 0.758047 0.000000 0.986878 0.000002
3.858254 0.627656 0.620645 -0.379812 -0.001984 0.001904
0.478717 0.633327 0.774815 -0.000001 -0.951732 0.000013
1.259123 0.688703 0.841440 0.000000 -0.488897 0.000018
1.471307 0.747457 0.856072 0.000000 0.024863 0.000027
0.478717 0.778233 0.623738 0.000001 0.282761 -0.000140
1.314866 0.780711 0.624468 0.000000 0.306323 -0.000016
1.684008 0.841655 0.850355 -0.040460 -0.015796 0.015542
2.262502 0.662761 0.653189 0.000000 -0.707107 -0.000041
2.262502 0.829125 0.653482 0.000001 0.705354 -0.000021
2.541219 0.663355 0.822711 0.000000 -0.689288 0.000022
1.825675 0.383122 0.400555 0.089775 -0.010256 0.010288
0.239560 0.627377 0.740428 0.000000 -0.999921 0.000000
3.600341 0.641013 0.682437 0.000000 -0.883879 -0.000011
0.701690 0.849148 0.679801 -0.000000 0.871997 -0.000006
1.816556 0.863974 0.745637 -0.000000 0.997996 0.000001
2.694063 0.864209 0.735999 0.000000 0.999691 -0.000000
2.485475 0.676576 0.641537 0.000000 -0.593665 -0.000014
3.210138 0.760067 0.620073 0.000001 0.104333 -0.000024
1.706471 0.330178 1.141331 -0.060281 -0.009722 -0.009062
1.928042 0.861902 0.714188 0.000000 0.982564 -0.000001
3.488855 0.648164 0.804727 0.000000 -0.819111 0.000004
2.931422 0.654997 0.813729 0.000002 -0.742587 0.000004
0.343854 0.740446 0.855980 0.000000 -0.024863 0.000027
3.600341 0.846651 0.799777 -0.000001 0.846337 0.000013
2.373989 0.627562 0.730604 0.000000 -0.998032 -0.000003
1.562896 0.544574 0.926863 -0.060279 -0.009100 -0.008495
1.653892 0.422983 1.063572 -0.040461 0.007899 0.008188
1.727080 1.001674 1.004275 -0.040459 -0.004345 0.004563
3.810910 0.852748 0.713249 0.197642 0.001330 -0.000226
1.771199 1.360303 1.346308 -0.040460 -0.016848 0.016429
1.851497 0.590497 0.602678 0.089774 -0.006594 0.006639
3.042908 0.666425 0.649743 -0.000000 -0.670534 -0.000011
1.522311 0.503205 0.501066 -0.060280 -0.013461 0.012404
0.509285 0.864131 0.742457 -0.000000 0.999699 0.000000
3.513936 0.624722 0.599548 -0.000000 -0.703712 0.000463
2.262502 0.690247 0.842270 0.000000 -0.467217 0.000078
0.200000 0.858082 0.775386 -0.084129 0.000294 0.000095
2.721036 0.747457 0.619247 0.000000 0.024871 -0.000027
1.203379 0.653303 0.663662 0.000000 -0.773986 -0.000008
3.265882 0.860540 0.767067 0.000001 0.961129 0.000003
2.863091 0.743398 0.856054 0.000000 -0.025194 0.000105
1.036150 0.835153 0.815409 -0.000000 0.757952 0.000035
0.813176 0.690002 0.633178 -0.000000 -0.467133 -0.000005
3.699102 0.547843 0.523402 -0.000000 -0.703712 0.000618
3.699102 0.943750 0.951917 0.000000 0.703712 -0.000618
0.173683 0.737179 0.852657 -0.152109 -0.000021 0.000498
3.841082 0.452867 1.009606 0.000001 0.703710 0.000824
2.095272 0.703297 0.627100 0.000001 -0.353411 -0.000054
1.909597 0.409019 1.059761 0.089776 -0.010256 -0.010288
1.737948 0.283995 0.275457 -0.040462 0.006056 -0.006326
1.723852 0.500343 0.481095 -0.040460 0.008689 -0.008973
1.974152 0.179251 0.174319 0.060314 0.008724 -0.008717
3.854249 0.645770 0.724031 0.198125 -0.000297 -0.000036
3.854249 0.759425 0.637633 0.195247 0.000045 -0.000300
3.854249 0.740331 0.838462 0.193807 -0.000021 0.000305
3.415130 0.864135 0.733047 0.000000 0.999691 -0.000000
1.631178 0.453271 0.457751 -0.060278 -0.002992 0.002821
0.590203 0.668921 0.647551 0.000000 -0.652309 -0.000024
0.075711 0.820113 0.718736 -0.534565 0.000052 -0.000012
1.899913 0.274990 1.212488 0.060313 0.011994 0.011878
1.723024 0.356599 0.345035 -0.040460 0.014217 -0.014167
3.098652 0.645703 0.800988 0.000000 -0.846675 0.000013
1.474366 0.901265 0.886186 -0.060280 0.007479 -0.007007
2.541219 0.828505 0.822457 -0.000000 0.707107 0.000021
2.485475 0.855853 0.693871 0.000000 0.926301 -0.000004
0.068409 0.674176 0.734085 -0.563307 -0.000048 -0.000002
0.813176 0.832152 0.818730 -0.000001 0.723517 0.000010
2.151016 0.832939 0.817886 0.000000 0.741429 0.000009
1.883775 0.919622 0.895086 0.089774 0.001648 -0.001664
2.303860 0.746719 0.619229 0.000017 0.000401 -0.000827
3.488855 0.827135 0.651558 0.000001 0.687585 -0.000022
1.091893 0.667977 0.826956 -0.000000 -0.650996 0.000006
1.542142 0.583026 0.587361 -0.060280 -0.009099 0.008495
1.634105 0.879328 0.626422 -0.060280 0.018195 0.016447
1.314866 0.860253 0.768137 0.000000 0.965870 0.000006
1.720624 0.980826 0.491145 -0.040460 -0.008689 -0.008973
2.764192 0.627605 0.745406 0.000000 -0.998034 0.000001
1.640567 0.392807 0.383918 -0.040462 0.003818 -0.004015
1.864408 1.060790 0.414139 0.060313 -0.007633 -0.007646
2.819935 0.864037 0.730696 0.000001 0.997333 -0.000001
3.656085 0.696576 0.845397 -0.000000 -0.422396 0.000044
3.005147 0.748564 0.619275 0.000000 0.024863 -0.000013
1.657467 1.073182 1.068101 -0.040467 -0.003949 0.004151
1.909597 0.130561 0.120603 0.060313 0.015264 -0.014942
1.294187 0.627377 0.736276 0.000004 -0.312665 -0.000000
3.657672 0.515143 0.975210 0.207158 -0.001062 -0.002208
3.310836 0.749671 0.619303 0.000000 0.024871 -0.000013
1.848269 0.610866 0.852057 0.089775 -0.006594 -0.006639
0.083180 0.719867 0.814834 -0.505293 -0.000022 0.000061
1.482096 0.629142 0.758229 0.000000 -0.986893 0.000007
1.764531 1.220790 1.199116 -0.060279 0.008227 -0.007696
3.653281 0.826249 0.676165 -0.002565 0.119625 -0.002577
1.955015 0.745797 0.856113 0.000000 0.024871 0.000213
0.156377 0.640799 0.699444 -0.219480 -0.000207 -0.000070
1.774031 0.660985 0.654961 0.000000 0.710485 0.000932
1.896686 0.990155 0.486847 0.060314 -0.008724 -0.008717
1.806309 0.464134 0.442212 0.060313 0.008178 -0.008183
1.917666 0.548404 0.552591 0.089775 -0.003114 0.003142
3.711828 0.825852 0.824957 0.000001 0.670742 0.000045
1.673514 0.512245 0.951376 -0.060280 -0.003272 -0.003085
3.488855 0.816020 0.833042 -0.000000 0.593811 0.000112
2.987165 0.828962 0.822000 0.000000 0.707107 0.000021
1.677552 0.670787 0.830255 -0.040462 0.015795 0.015542
2.577182 0.747457 0.856072 0.000000 0.024871 0.000053
1.537839 0.709828 0.624808 0.000000 -0.306662 -0.000128
3.615980 0.591667 0.872129 0.000003 0.703691 0.000355
1.928963 0.068017 1.415018 0.060312 0.013085 0.012911
3.810243 1.046802 1.044891 0.207157 0.001062 -0.002208
3.810243 0.444791 0.430428 0.207157 -0.001062 0.002208
1.854725 1.044907 1.015491 0.089775 0.005495 -0.005537
3.526751 0.618813 0.881623 -0.000000 -0.703713 -0.000464
3.154395 0.676204 0.641811 0.000001 -0.592889 -0.000028
3.407937 0.627366 0.739505 0.000000 -0.999925 0.000000
1.896686 0.274470 0.283930 0.089775 -0.004030 0.004064
1.370609 0.839257 0.664898 -0.000000 0.789212 -0.000008
3.676461 1.002963 0.482944 0.207159 0.002091 0.004347
0.422973 0.698431 0.846221 0.000000 -0.399912 0.000047
0.367230 0.855123 0.783244 -0.000001 0.922745 0.000004
1.928963 0.060493 0.067898 0.089776 -0.008791 0.008834
0.948039 0.627403 0.740058 0.000000 -0.999691 0.000000
3.782704 0.559013 0.904472 0.000000 0.703712 0.000618
1.919280 1.299722 1.293167 0.060313 -0.004907 0.004938
1.784726 1.132067 1.130954 -0.040460 -0.013164 0.013222
3.723113 0.641646 0.822626 0.000003 0.703685 0.000284
0.534460 0.836537 0.661519 0.000000 0.757795 -0.000004
1.868889 0.157444 1.326992 -0.040462 0.007899 0.008188
1.983786 0.670799 0.645984 -0.000000 -0.631487 -0.000006
1.743778 1.174131 0.306821 -0.040460 -0.013164 -0.013222
1.556723 1.085985 0.400714 -0.040459 -0.004082 -0.004289
1.399440 0.606773 0.875357 -0.060281 -0.009972 -0.009288
1.399440 0.606773 0.599962 -0.060278 -0.009972 0.009289
1.556723 0.405608 1.074606 -0.060280 -0.011218 -0.010413
1.456634 0.957971 0.527508 -0.040462 -0.010532 -0.010765
1.513828 1.031122 1.020265 -0.040459 -0.017901 0.017292
1.699707 1.268863 0.219579 -0.040460 -0.011059 -0.011267
1.485231 0.497047 0.984038 -0.060279 -0.013461 -0.012404
1.814094 1.415166 1.400648 -0.040462 -0.013690 0.013697
0.674717 0.741553 0.619312 0.000000 -0.025186 -0.000013
1.880547 0.899253 0.600818 0.089774 0.006594 0.006639
1.951557 0.637992 0.838294 0.089775 -0.007326 -0.007372
1.603274 0.981834 0.496735 -0.040461 -0.004608 -0.004836
3.240707 0.627439 0.733785 0.000000 -0.999691 -0.000000
1.967696 0.869731 0.863158 0.060311 -0.005453 0.005483
1.120664 0.627412 0.734892 0.000000 -0.999699 -0.000000
3.368838 0.674748 0.667288 -0.000001 -0.710485 -0.000981
3.787789 0.518267 0.981211 0.000001 -0.703710 -0.000412
1.935419 1.224953 1.204058 0.089773 0.008059 -0.008104
3.687180 0.683472 0.657739 -0.002565 -0.229682 -0.002684
1.999974 0.291309 1.187815 0.060314 0.010904 0.010834
1.999974 0.414752 1.065549 0.060316 0.014174 0.013932
1.999974 1.364874 0.124483 0.060312 -0.013085 -0.012911
1.999974 1.488317 1.473102 0.000000 0.710494 0.000398
2.399163 0.746719 0.856090 0.000004 0.007256 0.000183
1.799584 0.220903 0.212279 -0.040460 0.010006 -0.010259
2.566393 0.627389 0.735815 -0.000000 -0.999691 -0.000000
1.649326 0.634243 0.697843 -0.000001 -0.941802 -0.000004
1.774031 0.923218 0.932605 0.060313 -0.009814 0.009780
3.377368 0.664091 0.823411 -0.000000 -0.689231 0.000043
1.482096 0.818595 0.644227 0.000001 0.611973 -0.000013
1.370609 0.782249 0.850356 -0.000001 0.306345 0.000032
2.652705 0.665912 0.650208 0.000000 -0.670907 -0.000023
1.812060 0.746258 0.619217 -0.000004 0.007103 -0.000187
1.452847 0.827211 0.823788 0.000000 -0.710478 -0.000103
1.593583 0.861902 0.761131 -0.000000 0.982565 0.000008
2.151016 0.849329 0.680123 0.000001 0.869996 -0.000006
1.916052 1.123312 0.374389 0.089774 0.009524 0.009562
0.173683 0.765822 0.624091 -0.152148 0.000066 -0.000327
1.924122 0.487092 0.491044 0.089775 -0.002931 0.002957
0.930057 0.743767 0.856063 0.000000 -0.024871 0.000027
2.708448 0.648190 0.804765 -0.000001 -0.818874 0.000014
1.857953 1.194245 0.281407 0.060315 -0.005998 -0.006026
1.642513 0.295881 1.183287 -0.060279 -0.008975 -0.008381
1.883775 0.325086 1.139618 0.089774 -0.004396 -0.004433
3.626007 0.511895 0.505987 0.207157 -0.002091 0.004347
3.626007 0.979698 0.969332 0.207159 0.002091 -0.004347
1.999974 1.426596 0.063350 0.060316 -0.010904 -0.010834
1.649326 0.715408 0.623179 0.000001 -0.258684 -0.000077
1.828393 0.058139 0.056558 -0.060279 -0.017946 0.016240
1.654859 0.573813 0.587518 -0.060279 -0.018195 0.016447
1.545646 0.861957 0.613456 -0.040462 -0.007022 -0.007307
1.922508 1.402728 1.394917 0.060311 -0.013085 0.012911
1.734070 0.916178 0.551609 -0.040461 -0.004608 -0.004836
1.126058 0.748195 0.619266 0.000000 0.024863 -0.000027
1.983786 0.855505 0.782303 0.000000 0.922103 0.000002
2.093474 0.745981 0.856109 0.000000 0.024871 0.000027
1.816556 0.808305 0.838269 -0.000000 0.531930 0.000033
1.734070 0.575415 0.923710 -0.040461 0.004608 0.004836
3.759046 0.618010 0.629282 -0.000002 0.703685 -0.000284
0.645946 0.745427 0.856109 0.000000 -0.012596 0.000105
1.999974 0.538194 0.943283 0.060314 0.008724 0.008717
0.667525 0.627444 0.741719 0.000000 -0.999691 0.000000
3.539566 0.878689 0.887476 -0.000000 0.703711 -0.000569
1.577746 0.630551 0.862787 -0.040461 0.012813 0.012902
3.787789 0.973326 0.494108 -0.000000 0.703713 0.000412
0.813176 0.827302 0.651717 -0.000001 0.688312 -0.000022
0.924663 0.862704 0.756680 0.000001 0.986175 0.000003
0.813176 0.674274 0.832083 0.000000 -0.613706 0.000026
3.650354 0.932395 0.571031 0.000000 -0.703712 -0.001494
1.806309 0.443615 1.012391 0.089774 -0.010989 -0.011013
1.671110 1.232288 1.219513 -0.040462 -0.012111 0.012254
3.154395 0.814792 0.641377 -0.000001 0.571634 -0.000015
1.700058 0.650396 0.624502 -0.040462 0.007899 -0.008188
1.537839 0.702520 0.847925 0.000000 -0.377174 0.000013
2.262502 0.838691 0.811150 0.000001 0.789467 0.000032
1.559392 0.982230 0.964468 -0.060280 0.006731 -0.006316
0.054338 0.753384 0.677117 -0.618490 0.000006 -0.000037
2.414448 0.747180 0.619240 0.000000 0.025186 -0.000013
0.478717 0.755660 0.855694 -0.000000 0.087186 0.000118
2.206759 0.632888 0.701866 0.000000 -0.950951 -0.000003
1.613917 1.159137 1.147060 -0.040460 -0.007110 0.007396
0.868920 0.634364 0.777825 0.000000 -0.943744 0.000004
3.787789 0.500077 0.512473 0.000000 0.703713 -0.000412
3.787789 0.991516 0.962846 -0.000001 -0.703710 0.000412
3.600341 0.863211 0.722062 0.000000 0.990601 -0.000011
3.656085 0.776541 0.852044 0.000000 0.258803 0.000154
2.875679 0.847249 0.676528 -0.000001 0.851061 -0.000003
1.922508 1.143477 1.121721 0.089774 0.009524 -0.009562
1.890230 0.531233 0.936255 0.089775 -0.012453 -0.012455
0.311487 0.835574 0.660400 0.000000 0.757967 -0.000035
1.928042 0.808813 0.637370 0.000000 0.532436 -0.000004
1.916052 0.202295 1.283117 0.060313 0.004907 0.004938
1.705069 0.816688 0.642770 0.000000 0.593802 -0.000056
1.426353 0.651044 0.808737 0.000000 -0.804450 0.000015
3.336010 0.864140 0.733231 0.000000 0.999691 -0.000000
3.445470 0.683843 0.658106 0.000000 -0.710485 -0.000981
2.039529 0.634976 0.779468 -0.000001 -0.933320 0.000004
1.795171 1.085615 0.387767 -0.040460 -0.014217 -0.014167
3.042908 0.783215 0.850044 0.000000 0.306618 0.000064
1.917666 0.948333 0.547496 0.089775 0.006227 0.006272
1.880547 0.345455 0.356286 0.089775 -0.009524 0.009562
1.314866 0.649408 0.806504 0.000000 -0.819111 0.000002
1.613351 0.822636 0.828407 0.000000 -0.710483 -0.000309
0.318679 0.627373 0.740059 0.000000 -0.999921 0.000000
0.645946 0.814338 0.641059 0.000000 0.573766 -0.000007
2.429732 0.641948 0.680687 0.000000 -0.872127 -0.000012
1.912825 1.268587 0.212441 0.060315 -0.004907 -0.004938
2.151016 0.659982 0.656021 0.000000 -0.724322 -0.000002
3.841082 1.020536 0.447348 -0.379815 0.000992 0.000952
1.738912 0.559779 0.536533 -0.040460 0.009216 -0.009490
3.711828 0.761943 0.620321 -0.000001 0.136665 -0.000597
1.806309 0.669872 0.829331 0.060314 0.010904 0.010834
1.760812 0.856193 0.694729 0.000001 0.934267 -0.000004
2.095272 0.858733 0.773365 0.000001 0.951393 0.000007
0.534460 0.714695 0.623370 0.000000 -0.258784 -0.000154
3.042908 0.681842 0.837360 0.000000 -0.532145 0.000016
1.756901 0.149578 0.147125 -0.060280 -0.005983 0.005621
3.561189 0.914112 0.552758 0.000001 0.703712 0.001211
2.541219 0.827369 0.651781 -0.000000 0.689256 -0.000022
1.304077 0.747457 0.856072 -0.000000 0.024863 0.000027
1.370609 0.707940 0.625420 -0.000000 -0.330523 -0.000007
3.860256 0.604447 0.877661 -0.379818 -0.000976 -0.000937
1.820834 1.011053 0.497659 0.089774 0.005861 0.005905
1.215967 0.748195 0.856054 0.000000 0.024863 0.000027
1.737948 0.278010 1.193820 -0.060280 -0.008601 -0.008039
3.544598 0.684348 0.838924 -0.000000 -0.510489 0.000017
3.249698 0.742291 0.856026 0.000000 -0.024863 0.000027
1.875344 1.362521 0.135823 -0.060279 0.011218 0.010413
3.785488 0.885416 0.857758 -0.000007 -0.703466 0.000284
0.534460 0.840768 0.808440 0.000000 0.804450 0.000015
1.799473 0.627354 0.737198 -0.000008 -0.081465 -0.000000
1.919280 0.963661 0.943210 0.089776 0.003114 -0.003142
1.728279 0.412834 1.077330 -0.040456 0.007637 0.007926
0.412184 0.627467 0.742642 0.000000 -0.999683 0.000000
2.764192 0.856813 0.778950 0.000000 0.935370 0.000016
0.739451 0.864149 0.741719 0.000000 0.999683 0.000000
3.172377 0.741922 0.856017 0.000000 -0.024871 0.000013
3.377368 0.779605 0.851177 0.000000 0.282870 0.000035
3.042908 0.861902 0.761131 -0.000000 0.982542 0.000002
1.671110 0.259305 0.255806 -0.060279 -0.008227 0.007696
1.687331 1.128004 1.107624 -0.060282 0.002618 -0.002469
1.633553 0.957602 0.957328 -0.040463 -0.004608 0.004835
3.830912 0.920855 0.582461 0.000000 -0.703713 -0.000568
0.182418 0.682500 0.639658 -0.118196 -0.000243 -0.000357
1.999974 0.085571 1.391592 0.060315 0.010904 0.010834
1.999974 0.167866 1.310081 0.060314 0.015264 0.014942
1.741754 0.846336 0.804480 -0.000001 -0.710485 -0.001236
1.206976 0.864204 0.739505 0.000000 0.999691 0.000000
1.537839 0.630573 0.710225 -0.000000 -0.967321 -0.000001
3.551791 0.627352 0.736921 -0.000000 -0.999923 -0.000000
1.999974 0.394178 0.389393 0.060314 0.014174 -0.013932
2.429732 0.639566 0.790047 0.000001 -0.838985 0.000001
3.767571 0.853768 0.786378 0.197924 0.000293 0.000137
3.862259 0.910354 0.900649 -0.379813 0.001953 -0.001875
3.789241 0.795293 0.840440 0.197639 0.000652 0.001181
3.544598 0.674868 0.642798 0.000000 -0.593783 -0.000014
0.047586 0.775807 0.784125 -0.645061 0.000016 0.000024
3.073477 0.627407 0.735076 -0.000000 -0.999691 -0.000000
0.757433 0.629886 0.713286 0.000000 -0.977594 -0.000001
3.724731 0.517835 0.945257 0.000000 0.703713 0.000618
3.330522 0.807750 0.658106 0.000000 0.703711 0.000643
3.585483 0.807935 0.657922 -0.002565 0.119627 -0.002577
1.928042 0.641401 0.681702 0.000000 -0.884064 -0.000022
0.182418 0.809093 0.835661 -0.118204 0.000243 0.000357
3.582145 0.601055 0.576107 0.000001 -0.703712 0.000605
2.373989 0.830235 0.820727 0.000000 0.707107 0.000021
0.114539 0.794635 0.653069 -0.382617 0.000054 -0.000089
2.904449 0.743398 0.619266 -0.000000 -0.024863 -0.000027
1.091893 0.799175 0.843397 -0.000000 0.445045 0.000083
3.645296 0.627357 0.736552 0.000000 -0.999923 -0.000000
1.660762 0.463063 1.004594 -0.060280 -0.011966 -0.011081
3.433111 0.846430 0.800129 -0.000001 0.846337 0.000013
1.803081 0.546279 0.565023 0.089774 -0.006594 0.006639
3.789241 0.632436 0.750432 0.221986 -0.000288 0.000004
3.810910 0.660028 0.669261 0.197640 -0.000966 -0.000863
3.810910 0.814195 0.651891 0.197642 0.000899 -0.001006
0.130980 0.848793 0.753184 -0.318444 0.000138 0.000024
1.999974 1.241432 0.246749 0.060313 -0.009814 -0.009780
3.265882 0.649408 0.806504 -0.000001 -0.817081 0.000014
1.749645 0.218396 1.255937 -0.060280 -0.014956 -0.013706
2.318245 0.637942 0.688690 -0.000000 -0.892549 -0.000001
1.793398 0.882894 0.584301 0.060313 -0.009814 -0.009780
2.541219 0.646650 0.672855 0.000000 -0.833154 -0.000014
3.042908 0.805777 0.635523 0.000001 0.505777 -0.000009
1.675619 1.156209 0.327590 -0.040461 -0.006846 -0.007129
0.980406 0.715943 0.623036 -0.000000 -0.258557 -0.000038
3.864261 0.558030 0.551683 -0.379814 -0.001953 0.001875
0.422973 0.695907 0.630234 -0.000001 -0.422450 -0.000044
0.534460 0.636866 0.691140 0.000001 -0.842036 -0.000001
1.633418 1.094772 0.398154 -0.060281 0.005609 0.005273
0.980406 0.819651 0.645049 0.000000 0.613449 -0.000007
1.706259 1.042067 0.460389 -0.060280 0.005796 0.005447
1.537839 0.772155 0.853144 -0.000000 0.234777 0.000043
1.916052 0.397746 0.385790 0.060314 0.007088 -0.007108
1.861739 0.166588 0.157384 -0.040461 0.008952 -0.009232
0.311487 0.832502 0.818362 0.000000 0.722598 0.000005
3.407154 0.807750 0.658106 0.000001 0.703712 0.001287
1.259123 0.699447 0.628655 -0.000001 -0.399324 -0.000047
0.311487 0.711059 0.624416 -0.000000 -0.282778 -0.000017
1.821619 0.257325 0.266949 -0.060280 -0.007853 0.007352
0.868920 0.793162 0.629098 0.000001 0.399578 -0.000047
3.321625 0.634364 0.697495 0.000000 -0.943833 -0.000007
1.649326 0.853651 0.688690 0.000001 0.792676 -0.000001
1.906464 0.745612 0.619210 0.000000 -0.024863 -0.000053
1.729020 0.882436 0.891480 -0.040462 -0.003950 0.004152
2.318245 0.643122 0.796726 0.000000 -0.872170 0.000006
1.872299 0.771072 0.853376 0.000001 0.209834 0.000048
2.708448 0.638196 0.688146 0.000000 -0.906287 -0.000019
1.559671 1.039149 0.450585 -0.060282 0.006357 0.005969
1.983786 0.847626 0.677163 -0.000000 0.859722 -0.000049
3.785488 0.624367 0.876123 -0.000003 -0.703685 -0.000284
1.482096 0.859418 0.771114 -0.000001 0.958371 0.000006
3.210138 0.645163 0.675190 0.000000 -0.846697 -0.000013
1.510041 0.584391 0.889337 -0.060288 -0.003739 -0.003523
1.964468 0.289057 0.289778 0.089775 -0.004030 0.004064
2.373989 0.862838 0.719459 0.000000 0.986757 -0.000003
2.819935 0.638898 0.686641 0.000001 -0.905839 -0.000010
0.757433 0.801632 0.842120 0.000001 0.407770 0.000006
3.789241 0.696300 0.840440 0.197639 -0.000678 0.001228
1.774321 1.310711 1.293503 -0.060280 0.006731 -0.006316
1.948330 0.504058 0.970542 0.089775 -0.011721 -0.011735
1.572009 1.057906 1.043518 -0.060276 0.005984 -0.005622
1.848269 0.864653 0.868285 0.060313 -0.009814 0.009780
3.785488 0.867226 0.599197 -0.000003 0.703685 0.000284
2.262502 0.756166 0.855649 -0.000001 0.086173 0.000119
3.506836 0.750778 0.855989 -0.000008 0.002233 0.000298
2.206759 0.803413 0.841147 -0.000000 0.489063 0.000018
3.543572 0.855084 0.611223 0.000002 0.703706 0.000569
1.100884 0.864181 0.734892 0.000000 0.999682 -0.000000
1.799853 1.006611 1.013007 0.060313 -0.017443 0.016921
1.147636 0.644179 0.798513 0.000001 -0.859043 0.000012
2.708448 0.790996 0.847142 -0.000000 0.376907 0.000101
1.752169 0.503929 0.953266 -0.060280 -0.006171 -0.005795
0.367230 0.807562 0.636584 0.000000 0.510882 -0.000009
2.596962 0.641337 0.793495 -0.000001 -0.869689 0.000003
0.980406 0.642851 0.796243 0.000000 -0.872170 0.000012
1.861180 0.426521 0.439037 0.089775 -0.010988 0.011013
2.151016 0.627347 0.737475 -0.000000 -0.999683 -0.000000
2.875679 0.851534 0.791038 0.000001 0.839350 0.000001
1.036150 0.637069 0.690675 0.000000 -0.916507 -0.000009
1.474366 0.590328 0.589133 -0.060280 -0.007479 0.007007
1.598500 0.900178 0.574319 -0.040461 -0.012813 -0.012902
1.426353 0.676279 0.641757 -0.000000 -0.593740 -0.000007
1.835224 1.253316 0.226743 -0.040461 -0.010005 -0.010258
3.594960 0.914637 0.886700 0.000000 -0.703712 0.000710
2.987165 0.863142 0.721559 -0.000000 0.990547 -0.000003
1.203379 0.809516 0.637812 -0.000000 0.531333 -0.000008
3.854249 0.843763 0.762023 0.198264 0.000291 0.000068
3.154395 0.858408 0.774375 -0.000000 0.951825 0.000007
3.662360 0.858208 0.608129 -0.000002 0.703708 0.000747
2.931422 0.637401 0.689914 0.000000 -0.916507 -0.000009
0.868920 0.852027 0.790047 -0.000001 0.838985 0.000001
2.596962 0.789970 0.627759 -0.000000 0.376933 -0.000101
2.931422 0.800775 0.842572 0.000000 0.467250 0.000039
1.577746 0.874721 0.848975 -0.060280 0.009099 -0.008495
1.695179 0.745889 0.856111 0.000000 0.025202 0.000026
3.098652 0.644438 0.676370 0.000000 -0.859699 -0.000003
2.987165 0.834177 0.658801 -0.000000 0.739237 -0.000005
3.866264 0.956771 0.946623 -0.379815 0.001953 -0.001875
1.370609 0.643213 0.678433 0.000000 -0.872204 -0.000023
2.318245 0.852715 0.686683 -0.000000 0.906368 -0.000005
2.429732 0.803091 0.841327 -0.000001 0.488931 0.000037
0.590203 0.645924 0.801340 -0.000000 -0.846743 0.000026
2.596962 0.849171 0.795478 -0.000000 0.872034 0.000012
1.964468 1.178201 0.306358 0.060313 -0.011994 -0.011878
2.318245 0.722325 0.853765 0.000000 -0.210224 0.000096
1.760812 0.640224 0.791369 0.000000 -0.895586 0.000005
1.868301 0.078542 1.393639 -0.060279 -0.017946 -0.016240
0.367230 0.862689 0.718548 0.000000 0.986908 -0.000003
1.941874 1.471429 0.026316 -0.060279 0.013461 0.012404
1.941874 1.471429 1.449004 -0.060279 0.013461 -0.012404
1.941874 0.225902 0.230092 0.089775 -0.007326 0.007372
0.924663 0.681530 0.638155 0.000000 -0.553022 -0.000031
1.999974 0.599916 0.882150 0.060314 0.005452 0.005483
0.478717 0.669977 0.828663 -0.000001 -0.631345 0.000013
1.798996 0.143368 1.331069 -0.060280 -0.011966 -0.011081
1.798996 1.348225 0.144250 -0.060280 0.011966 0.011081
1.906369 0.624470 0.609528 0.060314 0.009814 -0.009780
2.652705 0.757591 0.619794 0.000000 0.112417 -0.000023
1.203379 0.838861 0.810931 0.000000 0.789535 0.000032
2.039529 0.648375 0.670290 0.000000 -0.819151 -0.000029
1.909597 1.052425 1.049051 0.060312 -0.007634 0.007646
3.551584 0.807874 0.817336 -0.002566 0.229585 0.002686
2.819935 0.809165 0.637591 0.000000 0.531950 -0.000033
0.816773 0.627358 0.738859 0.000000 -0.999925 0.000000
2.819935 0.686892 0.634895 -0.000001 -0.488579 -0.000037
0.422973 0.863455 0.751288 -0.000000 0.993619 0.000002
0.980406 0.853066 0.787884 0.000000 0.906122 0.000010
1.593583 0.836206 0.661134 0.000000 0.757906 -0.000018
2.485475 0.689635 0.841947 0.000000 -0.467250 0.000019
2.596962 0.847650 0.677203 -0.000001 0.858296 -0.000006
1.091893 0.811909 0.639380 -0.000000 0.552984 -0.000062
0.980406 0.795686 0.845085 -0.000000 0.422559 0.000044
3.874273 0.441988 0.436747 -0.379815 -0.001953 0.001875
3.874273 1.049605 1.038572 -0.379816 0.001953 -0.001875
1.690463 0.607659 0.848818 -0.060280 -0.018195 -0.016447
2.652705 0.759975 0.855256 -0.000001 0.102713 0.000025
2.535824 0.744136 0.619247 0.000000 -0.024863 -0.000053
1.370609 0.848003 0.797521 -0.000000 0.859764 0.000012
0.980406 0.691757 0.843068 0.000000 -0.467502 0.000010
2.931422 0.628659 0.755269 -0.000000 -0.990301 0.000001
1.780487 0.967321 0.546093 -0.060280 0.003179 0.002997
2.875679 0.638137 0.787047 0.000000 -0.905492 0.000002
2.764192 0.682702 0.837900 0.000000 -0.531990 0.000066
1.784726 0.346188 0.357831 -0.060279 -0.009723 0.009062
0.279119 0.740261 0.855975 0.000000 -0.024871 0.000027
1.203379 0.663556 0.822902 -0.000000 -0.689444 0.000005
2.875679 0.683405 0.838342 0.000000 -0.531854 0.000008
3.265882 0.828603 0.822359 0.000000 0.707107 0.000005
2.875679 0.656501 0.659840 0.000000 -0.758070 -0.000002
3.544598 0.850429 0.682151 -0.000000 0.883879 -0.000011
1.537839 0.651600 0.809474 -0.000000 -0.789522 0.000016
1.856339 0.580306 0.913788 0.060312 0.004907 0.004938
0.581212 0.741184 0.855998 0.000000 -0.024863 0.000053
2.039529 0.828734 0.653091 -0.000001 0.706822 -0.000021
3.612449 0.535655 0.927607 -0.000001 0.703712 0.001494
1.506537 0.553740 0.543774 -0.040461 0.012813 -0.012902
3.098652 0.836888 0.661948 -0.000000 0.773981 -0.000008
2.206759 0.665228 0.824492 0.000000 -0.689292 0.000011
2.708448 0.842953 0.805408 -0.000000 0.819050 0.000014
2.429732 0.810986 0.638768 -0.000000 0.552854 -0.000016
1.585320 0.369032 0.364487 -0.060280 -0.002618 0.002469
3.211936 0.864163 0.734154 0.000000 0.999691 -0.000000
3.474644 0.581689 0.575116 0.207158 -0.002091 0.004347
3.656085 0.858903 0.772838 -0.000000 0.951355 0.000003
1.793398 0.483943 0.504511 0.089775 -0.002931 0.002957
0.191193 0.677084 0.833233 -0.088247 -0.000354 0.000467
1.774031 0.820349 0.644603 0.060314 -0.010904 -0.010834
1.864408 1.229457 1.199511 -0.060281 0.015703 -0.014348
1.872299 0.652110 0.810130 -0.000000 -0.789513 0.000008
2.318245 0.806055 0.635688 -0.000001 0.510425 -0.000035
2.045823 0.745889 0.619208 0.000000 0.025202 -0.000026
2.206759 0.686252 0.635264 0.000000 -0.510561 -0.000017
1.999974 1.076842 0.409770 0.060314 -0.014174 -0.013932
1.999974 1.015120 0.470903 0.060314 -0.016353 -0.015938
1.954785 0.442746 1.032088 0.089775 -0.005495 -0.005537
3.789241 0.758569 0.624299 0.221987 0.000004 -0.000288
1.717821 1.226539 0.266004 -0.060280 0.008227 0.007696
1.506537 0.942413 0.926942 -0.060280 0.009099 -0.008495
2.206759 0.806452 0.635924 -0.000001 0.505777 -0.000009
1.928042 0.635041 0.779641 0.000000 -0.935263 0.000001
2.262502 0.861824 0.713828 0.000000 0.977620 -0.000004
3.725748 0.967355 0.500022 -0.000000 0.703709 0.000412
3.662360 0.633385 0.867191 -0.000001 -0.703711 -0.000747
0.590203 0.851945 0.685107 -0.000000 0.895216 -0.000010
0.255743 0.851205 0.683620 0.000000 0.884385 -0.000001
0.757433 0.667007 0.649217 0.000000 -0.671032 -0.000006
2.485475 0.862845 0.755815 0.000000 0.986878 0.000002
1.649326 0.853261 0.787466 -0.000000 0.906241 0.000010
0.825764 0.749395 0.619296 -0.000008 0.001805 -0.000368
1.487490 0.746535 0.619224 0.000000 0.024863 -0.000027
3.645140 0.837542 0.846722 0.000002 0.703709 -0.000710
1.828903 0.630212 0.644880 0.089774 -0.003663 0.003695
2.708448 0.688381 0.634060 -0.000000 -0.489127 -0.000037
1.576918 0.486807 0.476472 -0.040461 0.008953 -0.009232
2.095272 0.663088 0.822457 0.000000 -0.707107 0.000005
3.403389 0.859198 0.859076 0.207158 0.001062 -0.002208
3.628191 0.654082 0.628628 -0.000000 -0.703712 0.001421
1.786942 0.987486 0.950018 -0.060279 0.012340 -0.011414
1.767894 0.399942 0.383573 -0.040459 0.007110 -0.007396
1.259123 0.638917 0.686599 0.000001 -0.906045 -0.000010
3.265882 0.791252 0.628281 0.000000 0.376729 -0.000051
1.689918 0.312650 0.313966 -0.060278 -0.004862 0.004575
1.819220 1.088307 1.053973 -0.060278 0.002618 -0.002469
3.102248 0.864161 0.741258 -0.000000 0.999699 0.000000
0.868920 0.800816 0.842551 0.000000 0.467126 0.000039
1.691939 0.911622 0.597303 -0.060280 0.009100 0.008495
0.674717 0.864149 0.733600 0.000000 0.999683 -0.000000
1.872299 0.853768 0.688941 0.000000 0.906365 -0.000002
3.210138 0.699024 0.628839 0.000000 -0.399912 -0.000094
3.854249 0.698510 0.648469 0.192086 -0.000148 -0.000271
1.725052 1.068334 0.408040 -0.040460 -0.003818 -0.004015
0.701690 0.650606 0.808143 -0.000000 -0.804596 0.000061
1.784726 0.359526 1.130954 -0.040463 0.006583 0.006862
1.874092 0.378957 1.111708 0.060314 0.007088 0.007108
1.711100 1.057190 1.030524 -0.060276 0.002899 -0.002733
0.311487 0.655176 0.661379 0.000000 -0.758070 -0.000004
3.210138 0.847862 0.797759 0.000001 0.843864 0.000003
3.154395 0.824689 0.826010 -0.000000 0.670907 0.000023
0.813176 0.645187 0.675151 0.000000 -0.846330 -0.000006
1.147636 0.688783 0.841485 0.000001 -0.488623 0.000037
0.868920 0.858082 0.699934 0.000001 0.951741 -0.000013
0.534460 0.780534 0.850903 0.000000 0.282813 0.000035
1.555423 0.648610 0.630877 -0.040460 0.014042 -0.014011
0.255743 0.847579 0.798235 0.000001 0.859681 0.000049
3.154395 0.661326 0.820695 0.000000 -0.707107 0.000003
2.151016 0.691145 0.842745 -0.000000 -0.467249 0.000019
0.311487 0.659918 0.819232 0.000001 -0.724466 0.000039
0.645946 0.689472 0.633458 -0.000000 -0.467126 -0.000039
1.649326 0.629262 0.758864 0.000000 -0.982550 0.000004
2.987165 0.649893 0.668142 0.000000 -0.804500 -0.000008
1.821619 0.257325 1.208370 -0.060281 -0.007853 -0.007352
3.377368 0.852656 0.686557 -0.000000 0.905759 -0.000005
0.645946 0.823896 0.826715 0.000000 0.652229 0.000024
1.600047 0.520183 0.968534 -0.040464 0.009215 0.009490
2.708448 0.848584 0.678795 -0.000000 0.872034 -0.000012
1.826793 1.330675 1.321355 -0.040460 -0.017901 0.017292
1.658093 0.359308 1.114731 -0.060280 -0.005236 -0.004924
3.433111 0.683327 0.838293 -0.000000 -0.531911 0.000033
3.210138 0.637456 0.785532 -0.000001 -0.916467 0.000018
0.478717 0.629691 0.714188 0.000000 -0.982564 -0.000000
1.816556 0.725728 0.854396 -0.000001 -0.161360 0.000252
3.433041 0.855022 0.611284 0.000000 0.703712 0.001287
2.764192 0.812216 0.835735 0.000000 0.553022 0.000031
3.321625 0.691430 0.632423 0.000000 -0.467250 -0.000039
2.987165 0.641337 0.793495 -0.000000 -0.883892 0.000011
2.596962 0.802971 0.841395 -0.000000 0.488897 0.000018
1.036150 0.836654 0.661662 0.000000 0.773986 -0.000017
1.147636 0.819141 0.830667 0.000000 0.613294 0.000013
1.259123 0.637751 0.786209 0.000001 -0.915203 0.000004
1.872299 0.860229 0.768226 -0.000000 0.964857 0.000001
1.593583 0.643896 0.677282 -0.000001 -0.857479 -0.000006
2.151016 0.783697 0.625435 0.000001 0.328471 -0.000030
1.941874 0.026320 0.020101 0.060313 0.010904 -0.010834
3.499871 0.570057 0.911724 0.207157 -0.002091 -0.004347
3.499871 0.921537 0.911724 0.207157 0.002091 -0.004347
3.777369 0.442100 1.038461 0.207158 -0.002091 -0.004347
3.676461 0.488630 0.482944 0.207159 -0.002091 0.004347
3.676461 1.002963 0.992375 0.207158 0.002091 -0.004347
3.827824 0.418835 1.061504 0.207156 -0.002091 -0.004347
3.827824 1.072758 0.413815 0.207158 0.002091 0.004347
1.909597 1.267738 1.243160 0.089774 0.007326 -0.007372
1.147636 0.640798 0.682845 0.000000 -0.883428 -0.000003
1.598500 0.578420 0.887880 -0.060277 -0.009100 -0.008495
2.931422 0.856976 0.696801 -0.000000 0.935199 -0.000008
1.941874 0.020164 1.449004 0.089774 -0.007326 -0.007372
2.145621 0.864241 0.738029 0.000000 0.999691 0.000000
0.041033 0.711315 0.773012 -0.670863 -0.000017 0.000017
3.321625 0.800163 0.842896 0.000001 0.466743 0.000039
1.922508 1.318354 0.180388 0.089773 0.003297 0.003327
1.593583 0.682780 0.837950 0.000000 -0.532145 0.000008
1.036150 0.695196 0.630566 0.000000 -0.422575 -0.000044
2.095272 0.858167 0.700197 0.000001 0.949217 -0.000003
1.367013 0.864216 0.739043 0.000004 0.305153 0.000000
0.701690 0.795393 0.630098 0.000000 0.422603 -0.000088
0.868920 0.692583 0.843479 -0.000000 -0.445008 0.000041
1.941874 0.909781 0.905022 0.060314 -0.004907 0.004938
1.801559 1.184795 0.317588 -0.060278 0.008975 0.008381
0.980406 0.856715 0.696110 0.000000 0.935410 -0.000004
1.841814 0.524346 0.970450 0.060313 0.018533 0.017889
0.478717 0.826566 0.824302 0.000000 0.689123 0.000005
1.314866 0.860587 0.708430 0.000000 0.971975 -0.000001
1.259123 0.853027 0.787967 -0.000001 0.901697 0.000002
1.793398 0.608699 0.891018 0.060313 0.009814 0.009780
1.147636 0.693781 0.631245 0.000001 -0.437667 -0.000011
2.634723 0.864200 0.739689 0.000000 0.999683 0.000000
0.311487 0.770711 0.621865 0.000000 0.210378 -0.000191
1.314866 0.830594 0.820368 -0.000000 0.724564 0.000020
0.255743 0.731113 0.620120 -0.000000 -0.112151 -0.000023
1.832131 0.943472 0.912156 0.089774 0.003297 -0.003326
1.756795 1.282341 0.210325 -0.060278 0.007480 0.007008
2.095272 0.629434 0.759771 -0.000000 -0.982541 0.000002
1.537839 0.801468 0.633113 0.000001 0.462459 -0.000010
0.757433 0.691512 0.842939 -0.000000 -0.467249 0.000019
3.433111 0.798762 0.843602 0.000000 0.445064 0.000041
2.819935 0.630605 0.765229 -0.000001 -0.971416 0.000005
2.708448 0.803534 0.634240 -0.000000 0.489127 -0.000037
1.036150 0.654150 0.812693 0.000001 -0.773925 0.000034
1.077507 0.743213 0.856049 0.000000 -0.025194 0.000026
1.928963 1.176691 1.170486 0.060315 -0.005998 0.006026
3.656085 0.650551 0.808069 -0.000000 -0.804590 0.000030
1.861180 0.564670 0.546456 0.060314 0.002454 -0.002475
2.764192 0.861300 0.711391 0.000000 0.977594 -0.000001
0.645946 0.638761 0.686934 0.000000 -0.906204 -0.000005
1.091893 0.846872 0.799426 -0.000000 0.859819 0.000003
1.649326 0.800326 0.632510 -0.000000 0.467345 -0.000039
3.811929 0.594343 0.605841 0.000000 0.703713 -0.000568
0.868920 0.707548 0.625557 0.000000 -0.330294 -0.000029
1.513828 0.460471 1.020265 -0.060279 -0.012714 -0.011745
1.513828 0.460471 0.455054 -0.060280 -0.012713 0.011745
1.442336 0.939683 0.929698 -0.040462 -0.010532 0.010765
1.828393 1.433454 0.056558 -0.040462 -0.025262 -0.022641
1.413739 0.903107 0.893471 -0.040463 -0.014041 0.014011
1.842691 0.039851 1.436875 -0.060280 -0.014956 -0.013706
1.842691 1.451742 1.436875 -0.040461 -0.023160 0.021235
1.861180 0.441227 1.051130 0.060313 0.016354 0.015938
1.710247 0.978700 0.947458 -0.060280 0.003179 -0.002997
3.711828 0.850494 0.682273 -0.000001 0.884056 -0.000044
0.924663 0.641639 0.681253 -0.000000 -0.884259 -0.000003
1.851497 0.467055 0.480412 0.089775 -0.011721 0.011735
1.426353 0.635270 0.695074 -0.000000 -0.935370 -0.000004
3.796536 0.932087 0.534955 -0.000000 0.703713 0.000618
0.367230 0.793585 0.846037 -0.000000 0.399892 0.000189
1.593583 0.693038 0.631614 0.000000 -0.445026 -0.000041
1.793398 0.608699 0.584301 0.060314 0.009814 -0.009780
0.757433 0.839314 0.664971 0.000000 0.789178 -0.000004
1.672661 0.900857 0.868310 -0.060279 0.009100 -0.008495
3.210138 0.828505 0.652862 0.000000 0.707752 -0.000003
1.665242 0.350164 0.351531 -0.060282 -0.002618 0.002469
2.596962 0.680915 0.836756 0.000000 -0.552948 0.000031
0.367230 0.680530 0.638819 0.000000 -0.552944 -0.000031
1.598500 0.591415 0.574319 -0.040461 0.025613 -0.022866
0.590203 0.850127 0.793739 0.000000 0.883892 0.000011
2.485475 0.839965 0.809510 -0.000000 0.789491 0.000002
1.705069 0.641229 0.682029 -0.000001 -0.880312 -0.000005
2.206759 0.633511 0.775386 0.000000 -0.951894 0.000003
1.838586 1.148800 1.116346 -0.060281 0.018693 -0.016858
1.983786 0.795853 0.845007 0.000000 0.422249 0.000011
1.906369 0.867124 0.865791 0.060313 -0.009814 0.009780
1.482096 0.861620 0.712880 -0.000001 0.974504 -0.000002
1.970924 0.911016 0.571544 0.060314 -0.002454 -0.002475
2.596962 0.638469 0.687561 -0.000001 -0.902379 -0.000005
0.422973 0.649619 0.668513 0.000000 -0.819111 -0.000004
2.764192 0.785787 0.626167 0.000000 0.330168 -0.000029
2.987165 0.694485 0.630897 0.000000 -0.422496 -0.000011
3.098652 0.798349 0.843808 0.000000 0.445146 0.000041
3.433111 0.639854 0.790625 0.000000 -0.895458 0.000010
3.611241 0.654113 0.846660 -0.000000 -0.703712 -0.000710
3.098652 0.689962 0.633200 -0.000001 -0.467174 -0.000039
0.757433 0.849419 0.795035 0.000001 0.863788 0.000003
1.370609 0.641013 0.792883 0.000001 -0.883201 0.000011
0.200000 0.814943 0.641483 -0.084122 0.000184 -0.000249
2.206759 0.847721 0.797997 0.000000 0.859333 0.000006
1.259123 0.795561 0.630176 -0.000001 0.421888 -0.000022
3.580561 0.750963 0.619335 0.000000 0.024863 -0.000027
0.422973 0.793162 0.629098 0.000000 0.399912 -0.000047
1.999974 0.973973 0.963661 0.060314 -0.008724 0.008717
1.999974 0.558768 0.552414 0.060313 0.009269 -0.009250
1.999974 0.064997 0.063350 0.060314 0.010904 -0.010834
1.999974 1.220858 1.208193 0.060314 -0.010904 0.010834
1.999974 1.056268 1.045171 0.060314 -0.015264 0.014941
1.999974 0.476473 0.470903 0.060314 0.016353 -0.015938
1.999974 1.303153 1.289703 0.060313 -0.008724 0.008717
1.999974 1.138563 1.126682 0.060313 -0.013084 0.012911
1.999974 1.385448 1.371214 0.060311 -0.013085 0.012911
1.999974 0.044423 1.432347 0.060315 0.008723 0.008717
2.875679 0.793838 0.629393 -0.000000 0.399938 -0.000094
1.426353 0.711324 0.850981 -0.000001 -0.272180 0.000009
3.463680 0.743859 0.619230 -0.000004 -0.004266 -0.000312
1.784726 1.145405 0.357831 -0.060279 0.009723 0.009062
1.314866 0.722688 0.621486 -0.000001 -0.185768 -0.000109
1.654306 1.008366 0.491517 -0.060275 0.003179 0.002997
0.924663 0.806610 0.636018 0.000000 0.510882 -0.000009
2.819935 0.781458 0.850610 0.000000 0.306672 0.000128
2.485475 0.647032 0.803041 0.000001 -0.832729 0.000014
0.786204 0.749671 0.856017 0.000000 0.024863 0.000053
0.478717 0.845301 0.673393 0.000000 0.833241 -0.000007
2.708448 0.710179 0.850624 0.000000 -0.306767 0.000064
1.511588 0.974672 0.514651 -0.060279 0.006731 0.006316
2.095272 0.822357 0.828039 0.000000 0.652229 0.000024
1.426353 0.829549 0.653907 0.000000 0.707752 -0.000003
1.889055 1.451503 0.042775 -0.060280 0.014956 0.013706
2.875679 0.813129 0.835107 -0.000000 0.573420 0.000015
2.877477 0.864181 0.734892 -0.000008 0.079863 -0.000000
1.527843 0.881160 0.879053 -0.040459 -0.007022 0.007307
3.488855 0.697078 0.845631 0.000000 -0.422638 0.000044
2.429732 0.693079 0.631594 -0.000000 -0.445026 -0.000041
0.534460 0.638956 0.788804 0.000001 -0.897595 0.000002
2.012556 0.745889 0.856111 0.000034 0.000073 0.002077
1.872299 0.635433 0.694643 0.000000 -0.935405 -0.000004
2.987165 0.694236 0.844301 0.000000 -0.445016 0.000021
3.767571 0.634486 0.697146 0.197540 -0.000306 -0.000107
1.370609 0.793965 0.629448 -0.000000 0.399692 -0.000024
0.367230 0.685816 0.839796 -0.000000 -0.510764 0.000139
1.314866 0.829941 0.654298 -0.000001 0.705206 -0.000010
1.495743 0.888914 0.604096 -0.060282 0.007479 0.007007
1.983786 0.697078 0.845631 0.000000 -0.422634 0.000177
3.488855 0.853085 0.787842 0.000000 0.906305 0.000038
2.764192 0.709915 0.624780 -0.000001 -0.305938 -0.000032
2.541219 0.688824 0.633812 0.000000 -0.489080 -0.000037
2.318245 0.692335 0.631963 0.000000 -0.445146 -0.000041
2.429732 0.849998 0.681335 0.000000 0.884064 -0.000022
3.650354 0.577388 0.552666 -0.000000 -0.703712 0.001494
3.746771 0.600839 0.575893 -0.000000 -0.703712 0.002218
3.650354 0.914205 0.922653 0.000001 0.703713 -0.001494
1.785285 1.252403 1.244927 -0.040461 -0.022109 0.020496
1.883775 1.166507 0.335701 0.089774 0.004396 0.004433
0.422973 0.652279 0.810348 0.000000 -0.789596 0.000016
2.819935 0.706285 0.849320 -0.000000 -0.330326 0.000059
2.039529 0.849803 0.794351 0.000001 0.854816 0.000001
0.182418 0.629711 0.749276 -0.118199 -0.000435 0.000033
1.562896 0.544574 0.548456 -0.060280 -0.009099 0.008495
0.757433 0.717823 0.622566 -0.000000 -0.234674 -0.000170
0.106494 0.668116 0.684698 -0.414059 -0.000077 -0.000055
3.710838 0.867118 0.876016 -0.000001 0.703713 -0.002218
0.122704 0.758363 0.837935 -0.350742 0.000018 0.000118
1.896686 0.990155 0.988472 0.060315 -0.008723 0.008717
2.429732 0.679069 0.835531 0.000000 -0.573484 0.000015
0.534460 0.789756 0.627672 0.000001 0.376884 -0.000101
3.042908 0.636175 0.782517 0.000000 -0.926232 0.000017
1.983786 0.639731 0.790377 -0.000000 -0.895490 0.000041
0.701690 0.791081 0.847108 0.000000 0.377174 0.000013
2.652705 0.636436 0.783158 -0.000000 -0.926048 0.000008
2.151016 0.714205 0.623502 0.000000 -0.258784 -0.000154
2.373989 0.786483 0.626415 0.000001 0.353026 -0.000027
3.433111 0.637751 0.689110 0.000001 -0.902466 -0.000002
0.590203 0.687254 0.840627 -0.000000 -0.488962 0.000037
0.403193 0.750778 0.855989 0.000000 0.024871 0.000027
1.203379 0.848651 0.678916 0.000001 0.872034 -0.000023
3.042908 0.836206 0.814185 0.000000 0.758070 0.000004
1.482096 0.693203 0.843787 0.000000 -0.445026 0.000041
2.039529 0.691185 0.632553 0.000000 -0.467219 -0.000078
0.255743 0.641056 0.792964 -0.000001 -0.884056 0.000044
3.577471 0.873336 0.845792 0.000000 -0.703712 0.001137
1.634105 0.612265 0.848897 -0.060280 -0.018195 -0.016447
1.928042 0.679684 0.639380 0.000001 -0.552856 -0.000062
3.377368 0.713316 0.851569 0.000000 -0.282239 0.000017
1.793398 0.505830 0.992907 0.060313 0.008724 0.008717
1.928042 0.689186 0.841710 -0.000001 -0.407771 0.000006
0.255743 0.638488 0.687519 -0.000001 -0.906287 -0.000038
3.710838 0.885308 0.617669 0.000000 -0.703712 -0.002218
2.931422 0.701751 0.847612 0.000001 -0.376862 0.000101
3.321625 0.670227 0.828868 0.000000 -0.633202 0.000025
1.537839 0.863230 0.753120 0.000000 0.990534 0.000006
1.760812 0.863154 0.753669 0.000000 0.990547 0.000003
3.577471 0.618257 0.629527 0.000000 0.703712 -0.001137
1.091893 0.849825 0.681009 0.000000 0.871955 -0.000001
2.206759 0.852754 0.686766 0.000000 0.906275 -0.000019
3.544598 0.644155 0.798473 0.000001 -0.859454 0.000012
0.478717 0.721919 0.621642 0.000001 -0.209114 -0.000048
2.708448 0.628221 0.752022 -0.000001 -0.992086 0.000002
3.854249 0.830856 0.683291 0.198263 0.000254 -0.000158
1.739268 0.237622 0.238834 -0.060280 -0.008227 0.007696
1.760812 0.804057 0.840785 0.000000 0.487771 0.000009
0.701690 0.693699 0.631286 -0.000000 -0.444948 -0.000041
1.816556 0.691757 0.632251 0.000000 -0.467250 -0.000039
3.600341 0.799299 0.843335 -0.000001 0.444267 0.000021
1.314866 0.692583 0.843479 0.000000 -0.444948 0.000041
1.091893 0.639073 0.686264 0.000000 -0.906365 -0.000002
3.711828 0.693162 0.843767 0.000001 -0.445061 0.000166
2.596962 0.673436 0.643888 -0.000000 -0.612206 -0.000007
3.544598 0.854432 0.784855 0.000001 0.916118 0.000009
0.701690 0.694277 0.844321 -0.000000 -0.444401 0.000010
3.656085 0.642445 0.679801 0.000000 -0.872136 -0.000023
2.039529 0.628268 0.722885 -0.000000 -0.988953 -0.000000
1.426353 0.785003 0.849427 -0.000000 0.330326 0.000059
2.318245 0.840107 0.809328 0.000000 0.789613 0.000008
1.928042 0.859614 0.770450 0.000001 0.959030 0.000012
1.928042 0.793838 0.845926 -0.000001 0.399838 0.000094
1.705069 0.639258 0.789427 0.000000 -0.895458 0.000010
0.645946 0.851033 0.683293 0.000000 0.883905 -0.000011
1.816556 0.854451 0.690506 -0.000000 0.915267 -0.000002
0.200000 0.862451 0.717090 -0.084124 0.000305 -0.000050
2.262502 0.632475 0.703187 -0.000000 -0.959156 -0.000006
2.485475 0.640224 0.683950 0.000000 -0.895251 -0.000010
1.928963 0.314902 1.170486 0.060313 0.011994 0.011878
1.737322 1.162174 1.139421 -0.060279 0.009723 -0.009062
3.738563 0.973264 0.981150 -0.000003 0.703693 -0.000412
3.738563 0.518329 0.494170 -0.000000 -0.703713 0.000412
0.311487 0.786136 0.849031 0.000001 0.327872 0.000015
2.318245 0.627485 0.743380 0.000000 -0.999691 0.000000
0.130980 0.693717 0.827865 -0.318438 -0.000073 0.000120
1.816556 0.847320 0.798672 -0.000000 0.859764 0.000012
1.983786 0.808813 0.637370 -0.000000 0.532039 -0.000131
2.819935 0.847838 0.677520 -0.000000 0.859764 -0.000012
3.668590 0.946658 0.520522 -0.000001 0.703712 0.000618
3.154395 0.727641 0.620611 -0.000000 -0.161098 -0.000063
1.091893 0.635809 0.781620 0.000001 -0.926147 0.000017
1.854725 1.019231 0.454479 0.060314 -0.008178 -0.008183
0.034687 0.712678 0.709870 -0.695886 -0.000015 -0.000012
1.741754 0.672617 0.832102 0.060312 0.010904 0.010834
3.698562 0.902480 0.564279 -0.000000 0.703713 0.002218
3.433111 0.850386 0.682069 -0.000000 0.883879 -0.000011
2.764192 0.644014 0.798235 -0.000001 -0.837711 0.000003
2.262502 0.710442 0.624610 0.000000 -0.306618 -0.000128
3.656085 0.795686 0.630234 0.000001 0.422569 -0.000088
3.656085 0.862555 0.717728 0.000000 0.986878 -0.000003
3.265882 0.691185 0.842766 -0.000001 -0.465542 0.000020
1.705069 0.852047 0.685314 -0.000000 0.894975 -0.000005
1.772668 0.308026 0.316348 -0.060280 -0.004488 0.004225
1.476188 0.923443 0.565802 -0.060278 0.014956 0.013706
1.637056 0.934703 0.907293 -0.060280 0.009100 -0.008495
1.678702 0.502632 0.514217 -0.060280 -0.003179 0.002997
0.590203 0.816725 0.642798 0.000000 0.593992 -0.000007
0.122704 0.644863 0.742697 -0.350748 -0.000122 0.000009
1.634105 0.861772 0.866621 -0.040461 -0.025613 0.022866
1.482096 0.693286 0.631491 -0.000000 -0.444744 -0.000021
1.490345 0.862165 0.843364 -0.060280 0.014956 -0.013705
2.652705 0.853768 0.688941 0.000000 0.906422 -0.000005
2.262502 0.782249 0.624964 0.000001 0.306309 -0.000032
1.642513 1.195712 1.183287 -0.040462 -0.013164 0.013222
1.628215 1.177425 0.310146 -0.040460 -0.013691 -0.013698
3.154395 0.632973 0.773716 0.000001 -0.951466 0.000007
1.948330 0.987535 0.504777 0.089776 0.011721 0.011735
1.868301 1.413051 1.393639 -0.060280 0.017946 -0.016240
