2.662183 0.414630 0.565003 -0.000000 -0.974531 0.000001
0.230257 0.528445 0.425499 0.000000 0.013115 -0.000013
2.084562 0.066173 0.066863 -0.046064 -0.013607 0.011701
3.808176 0.411724 0.536722 -0.000000 -0.999918 -0.000000
3.131170 0.478313 0.435735 -0.000000 -0.418610 -0.000047
2.053200 0.707941 0.338965 -0.028828 -0.024690 -0.019188
1.913930 0.820308 0.839957 -0.046064 0.006983 -0.006191
3.280565 0.639334 0.535792 0.000000 0.999656 -0.000000
4.029457 0.649300 0.412064 -0.263987 0.001655 0.001734
2.084562 0.066173 1.011797 -0.046064 -0.013607 -0.011701
1.548338 0.617066 0.607081 0.000002 0.688143 0.000002
2.855073 0.526117 0.653184 0.000000 0.026239 0.000107
2.060512 0.311833 0.339200 -0.046064 -0.004119 0.003678
2.000525 0.668786 0.699286 -0.028830 -0.018598 0.015987
0.523374 0.530214 0.653076 0.000000 0.026239 0.000054
2.303618 0.893108 0.917347 0.046100 -0.016269 0.014919
3.926595 0.372133 0.367651 0.000000 -0.716963 0.000331
2.303618 0.671438 0.689364 0.046103 -0.008286 0.007930
2.169560 0.450615 0.453378 0.046101 0.007533 -0.007229
3.926595 0.358253 0.697514 0.000000 0.716962 0.000331
1.875495 0.639412 0.539889 0.000000 0.999656 0.000000
3.518918 0.448907 0.474381 0.000000 -0.697111 -0.000568
2.972320 0.411724 0.538026 0.000000 -0.999660 -0.000000
1.811198 0.411704 0.539889 0.000000 -0.999656 0.000000
0.727611 0.624075 0.482236 0.000000 0.859448 -0.000006
2.573302 0.524627 0.425486 0.000000 -0.026239 -0.000054
0.375870 0.418318 0.501058 0.000000 -0.938157 -0.000001
0.375870 0.634516 0.506278 0.000000 0.955008 -0.000003
0.727611 0.427826 0.480915 0.000000 -0.859403 -0.000052
3.702276 0.530679 0.425596 0.000000 0.026239 -0.000027
0.163884 0.421600 0.573108 -0.177580 -0.000277 0.000082
2.303618 0.915275 0.138515 0.046101 -0.022890 -0.019941
0.163884 0.627606 0.578503 -0.177578 0.000276 0.000098
2.728371 0.639373 0.541379 0.000016 0.022345 0.000000
2.303618 0.135840 0.138515 0.046101 0.022891 -0.019941
0.903481 0.420357 0.582906 0.000000 -0.928808 0.000017
2.486313 0.448749 0.623382 0.000000 -0.678727 0.000012
0.903481 0.631518 0.581002 0.000000 0.928690 0.000009
1.313845 0.633284 0.502467 -0.000000 0.946901 -0.000015
1.313845 0.417352 0.503878 0.000000 -0.946909 -0.000002
1.606962 0.432146 0.474226 -0.000000 -0.816653 -0.000031
2.955300 0.631052 0.496490 -0.000001 0.928791 -0.000035
2.105643 0.187562 0.203712 -0.046064 -0.011101 0.009677
1.808053 0.360995 0.712382 -0.028831 0.016873 0.014896
2.146405 0.338530 0.742091 0.046100 0.012956 0.012128
1.079351 0.412844 0.523223 -0.000000 -0.989420 -0.000002
3.829602 0.761572 0.782065 0.126703 0.004828 -0.007680
3.893274 0.535930 0.425945 0.000001 0.091517 -0.000951
1.079351 0.637803 0.520232 0.000000 0.985456 -0.000002
3.189793 0.465510 0.636071 0.000001 -0.533511 0.000069
3.365664 0.534585 0.425821 0.000000 0.091517 -0.000059
3.365664 0.541988 0.651997 -0.000000 0.143476 0.000301
3.906512 0.527793 0.653169 -0.000002 0.012960 0.000870
3.641761 0.639299 0.544172 0.000000 0.999656 0.000000
1.782832 0.534956 0.652805 0.000000 0.091513 0.000119
2.378521 0.639402 0.540261 0.000000 0.999656 0.000000
2.011932 0.169970 0.901043 -0.046063 -0.011101 -0.009677
1.489715 0.425807 0.594232 0.000000 -0.872517 0.000012
3.717404 0.495728 0.649217 0.000000 -0.271392 0.000039
2.134572 0.519366 0.653027 0.000000 -0.065416 0.000333
1.859364 0.680936 0.373188 -0.028830 -0.018598 -0.015988
0.574433 0.411802 0.543613 0.000000 -0.999656 0.000000
1.899748 0.350338 0.352159 -0.028829 0.037157 -0.023322
0.570651 0.639421 0.538957 0.000000 0.999914 -0.000000
2.303618 0.291010 0.780557 0.046101 0.023492 0.020358
3.636512 0.688814 0.707235 0.126703 0.002372 -0.003775
2.303618 0.113673 0.962943 0.046101 0.022891 0.019941
3.921640 0.639390 0.542124 0.000000 0.999914 0.000000
3.131170 0.626755 0.487140 0.000001 0.866329 -0.000003
3.802017 0.299938 0.307285 0.126702 -0.002372 0.003775
3.439416 0.639324 0.543241 -0.000000 0.999656 0.000000
2.815360 0.411714 0.538399 0.000000 -0.999656 -0.000000
2.662183 0.542725 0.651890 -0.000000 0.143481 0.000151
2.303618 0.379678 0.389296 0.046102 0.008286 -0.007930
2.000847 0.292424 0.765229 -0.046063 -0.007700 -0.006809
2.084562 0.984943 0.066863 -0.028830 -0.011813 -0.011181
2.017325 0.623028 0.480474 -0.000000 0.859377 -0.000026
1.810252 0.526396 0.425484 0.000000 0.026239 -0.000013
3.653107 0.411702 0.540262 0.000000 -0.999746 0.000000
2.144305 1.032444 1.060650 -0.028829 -0.032189 0.021982
1.965077 0.889942 0.164570 -0.028829 -0.018253 -0.015776
2.369066 0.538987 0.652394 -0.000001 0.117028 0.000093
2.270104 0.628878 0.436617 0.073621 0.005189 0.005033
3.553760 0.393483 0.675166 0.126702 -0.004828 -0.007680
1.196598 0.615002 0.609783 -0.000000 0.785368 0.000009
1.196598 0.437304 0.611276 0.000001 -0.768470 0.000018
2.369066 0.411910 0.532395 0.000000 -0.997869 -0.000000
3.829602 0.289544 0.782065 0.126703 -0.004828 -0.007680
2.165904 0.787547 0.284464 0.073622 0.012829 0.012290
1.724208 0.635445 0.569160 0.000000 0.962454 0.000006
1.548338 0.611438 0.464573 -0.000000 0.751835 -0.000038
3.664096 0.699208 0.360735 0.126703 0.004828 0.007680
1.033965 0.528724 0.425545 0.000000 0.026231 -0.000107
2.075949 0.412489 0.552713 0.000000 -0.993061 0.000010
2.049038 0.845376 0.873903 -0.028828 -0.018254 0.015777
3.776027 0.633329 0.502599 0.000000 0.946852 -0.000007
4.044178 0.574902 0.529515 1.000000 0.000000 -0.000000
3.947456 0.726254 0.319034 -0.000000 0.716963 0.000882
1.958702 0.545574 0.651418 0.000000 0.169312 0.000254
2.303618 0.782273 0.803356 0.046102 -0.010546 0.009996
0.103514 0.570213 0.461985 -0.412993 0.000051 -0.000083
3.002577 0.523509 0.425515 0.000000 -0.026239 -0.000027
0.404236 0.527980 0.425493 0.000000 0.013115 -0.000027
2.165295 0.682983 0.710395 0.046100 -0.031912 0.025529
2.486313 0.433854 0.471840 0.000000 -0.801245 -0.000016
1.886348 0.721361 0.746086 -0.028830 -0.018598 0.015987
1.308171 0.524254 0.425496 0.000000 -0.026231 -0.000054
1.943573 0.411699 0.538958 0.000000 -0.999660 -0.000000
2.171998 0.894029 0.904356 -0.046064 0.009669 -0.008484
2.720806 0.451964 0.452446 -0.000001 -0.618281 -0.000003
2.486313 0.614425 0.468146 -0.000000 0.785311 -0.000017
1.431091 0.570974 0.643740 0.000000 0.394408 0.000025
0.434494 0.441317 0.615933 -0.000000 -0.734439 0.000010
0.873224 0.526676 0.653184 0.000000 0.012795 0.000055
3.013923 0.477890 0.642730 -0.000000 -0.418613 0.000095
1.825677 0.272009 0.278561 -0.046064 -0.016828 0.014174
1.999460 0.801411 0.265688 -0.046063 0.013965 0.011984
0.099418 0.525558 0.626649 -0.436977 0.000001 0.000044
4.044178 0.503167 0.637430 0.142065 -0.000108 0.000445
3.102804 0.411772 0.542496 -0.000004 -0.176035 0.000000
3.461886 0.448907 0.604279 0.000000 -0.697111 0.001135
3.923502 0.708587 0.713687 -0.000002 -0.716959 0.000661
2.198809 0.313675 0.332512 0.073621 -0.003585 0.003482
0.668987 0.526303 0.425471 0.000000 0.013115 -0.000215
2.303618 0.826607 0.229708 0.046101 -0.018677 -0.016835
3.782900 0.415381 0.412130 0.000002 -0.716961 0.000610
1.444329 0.639382 0.537654 0.000000 0.999656 -0.000000
2.134572 0.570845 0.434865 0.000000 0.394701 -0.000051
2.015783 0.770567 0.777442 -0.046064 0.007700 -0.006809
3.810977 0.404801 0.677411 -0.000001 -0.716961 -0.000737
0.434494 0.610424 0.615243 -0.000000 0.751363 0.000010
0.962104 0.433195 0.472742 -0.000000 -0.816612 -0.000008
0.668987 0.614050 0.610990 -0.000000 0.785652 0.000004
3.248417 0.573395 0.436008 0.000000 0.418703 -0.000047
3.248417 0.579726 0.639486 0.000000 0.465154 0.000021
0.962104 0.618002 0.472856 0.000000 0.816643 -0.000031
2.055002 0.414101 0.408241 0.046100 0.015064 -0.013924
3.248417 0.447587 0.456353 0.000000 -0.678725 -0.000012
2.251819 0.571059 0.643703 0.000000 0.394408 0.000025
2.720806 0.577253 0.437873 0.000000 0.442344 -0.000044
1.665585 0.563568 0.646667 -0.000000 0.346061 0.000118
2.164219 0.002838 0.001725 -0.000000 -0.697111 -0.000142
2.164219 0.002838 1.076935 -0.000002 -0.697073 0.000142
2.004905 0.129507 0.132001 -0.046063 -0.009669 0.008485
1.667476 0.524813 0.425481 -0.000000 -0.025920 -0.000054
2.838053 0.627489 0.590064 0.000001 0.891039 0.000005
2.165295 0.694881 0.379834 0.073622 0.019994 0.018765
2.603559 0.627881 0.489389 -0.000002 0.717597 -0.000002
1.746021 0.715772 0.343699 -0.028831 -0.025300 -0.019458
2.210996 0.078543 0.089394 0.073621 -0.013584 0.012990
2.955300 0.611131 0.614437 0.000000 0.751828 0.000038
0.258623 0.626668 0.486975 0.000001 0.884716 -0.000023
0.258623 0.426969 0.482356 0.000001 -0.832907 -0.000002
4.021108 0.502430 0.438002 0.138626 -0.000124 -0.000453
1.196598 0.424968 0.485986 -0.000000 -0.885007 -0.000011
1.196598 0.625757 0.485244 -0.000000 0.884898 -0.000011
1.372468 0.435797 0.609380 -0.000000 -0.785156 0.000017
0.668987 0.436835 0.610697 -0.000000 -0.777381 0.000002
0.786234 0.623933 0.596664 0.000001 0.857663 0.000007
1.431091 0.424039 0.487760 -0.000000 -0.896972 -0.000001
0.786234 0.427421 0.597065 0.000000 -0.859413 0.000013
0.137416 0.456924 0.463105 -0.280653 -0.000115 -0.000121
0.844857 0.621155 0.477470 0.000000 0.845723 -0.000014
0.844857 0.430448 0.476732 -0.000000 -0.831272 -0.000007
1.548338 0.508990 0.651977 -0.000001 -0.143285 0.000075
2.251819 0.412374 0.526919 -0.000000 -0.993066 -0.000005
3.951898 0.431716 0.603826 0.143499 -0.000398 0.000266
1.855530 0.640402 0.665685 -0.028824 -0.005275 0.005307
2.210996 0.964606 0.081648 0.046100 -0.022891 -0.019941
1.948702 0.270008 0.284827 -0.046064 -0.007700 0.006809
2.069017 0.617354 0.608896 0.000000 -0.697110 -0.000554
2.210996 0.972572 0.989266 -0.046063 0.013607 -0.011701
1.724208 0.435681 0.469426 0.000000 -0.785374 -0.000009
1.868931 0.431298 0.646100 -0.028829 0.005274 0.005306
2.303618 0.202341 0.871750 0.046101 0.018677 0.016835
3.588811 0.524068 0.425481 -0.000000 -0.013119 -0.000054
2.145057 0.140529 0.941536 -0.028829 0.027904 0.020519
3.916953 0.648955 0.398534 0.000001 0.716963 0.001902
2.150671 0.407856 0.644187 0.073622 -0.004717 -0.004577
2.076187 0.246177 0.835461 -0.028830 0.020398 0.017036
0.317247 0.426945 0.596264 0.000000 -0.872599 0.000003
0.317247 0.621354 0.600874 0.000000 0.845762 0.000014
2.896677 0.442392 0.461564 -0.000000 -0.734310 -0.000020
2.838053 0.621727 0.478376 0.000001 0.844717 -0.000014
0.780561 0.529469 0.425564 0.000000 0.026231 -0.000013
1.868931 0.418531 0.444973 -0.046062 -0.014068 0.012064
3.911130 0.279629 0.300283 0.000001 0.716962 -0.000882
2.251819 0.519785 0.425613 -0.000000 -0.026239 -0.000416
2.228058 0.188266 0.200435 0.073621 -0.004906 0.004760
1.900079 0.588504 0.444453 -0.000000 0.555570 -0.000065
0.493117 0.433938 0.471728 -0.000000 -0.801259 -0.000033
3.893274 0.435192 0.470049 -0.000000 -0.801456 -0.000002
3.541534 0.629094 0.586702 0.000000 0.908089 0.000005
0.493117 0.613097 0.466524 0.000000 0.768994 -0.000009
3.829602 0.761572 0.296595 0.126703 0.004828 0.007680
2.603559 0.431931 0.474530 0.000000 -0.816684 -0.000004
3.482910 0.547405 0.427586 0.000000 0.195191 -0.000055
4.009828 0.302024 0.769229 -0.263988 -0.003309 -0.003468
4.009828 0.749092 0.769229 -0.263988 0.003309 -0.003468
2.486313 0.553539 0.649697 -0.000000 0.246165 0.000086
0.200000 0.493218 0.648509 -0.072535 -0.000111 0.000357
3.658781 0.585566 0.636096 -0.000001 0.533466 0.000069
1.151212 0.526024 0.653192 -0.000000 0.012803 0.000014
2.896677 0.436604 0.610404 0.000000 -0.785304 0.000034
1.548338 0.508298 0.426783 0.000000 -0.143459 -0.000075
1.921476 0.743157 0.309847 -0.028829 -0.012619 -0.011824
2.303618 1.003944 0.047322 0.046102 -0.013256 -0.012389
2.779430 0.454922 0.628630 -0.000000 -0.619044 0.000055
1.020728 0.435109 0.608499 -0.000000 -0.801231 0.000008
2.123250 0.270780 0.265357 0.046101 0.020483 -0.018205
3.634049 0.618696 0.429655 -0.000000 0.716962 0.000710
0.631166 0.524999 0.653191 0.000000 -0.013115 0.000054
1.623981 0.639390 0.537933 0.000000 0.999656 -0.000000
1.020728 0.618647 0.604891 0.000000 0.816577 0.000004
3.415838 0.445453 0.456944 0.126702 -0.004743 0.007546
4.014735 0.326972 0.335089 -0.263986 -0.002781 0.002915
4.029457 0.401815 0.412064 -0.263988 -0.001655 0.001734
4.029457 0.401815 0.666596 -0.263989 -0.001655 -0.001734
1.313845 0.618271 0.605423 0.000000 0.816390 0.000008
2.262220 0.639414 0.539796 -0.000000 0.999656 0.000000
3.664948 0.433794 0.431068 0.000000 -0.716962 0.000710
2.220746 0.058907 1.010493 0.073623 -0.013584 -0.012989
1.759030 0.418374 0.641454 -0.046065 -0.008441 -0.007445
3.606847 0.464160 0.616361 0.063633 -0.003276 0.003365
1.965077 0.889942 0.914090 -0.028829 -0.018253 0.015777
3.307040 0.459617 0.632150 0.000000 -0.577147 0.000031
3.206813 0.411782 0.542868 0.000000 -0.999656 0.000000
3.046072 0.639363 0.541751 0.000000 0.999656 0.000000
2.603559 0.461604 0.633534 0.000000 -0.555438 0.000016
0.610364 0.448749 0.455278 -0.000000 -0.678358 -0.000012
1.980333 0.658866 0.389888 -0.028831 -0.018597 -0.015987
3.890179 0.629362 0.659975 0.000001 0.716963 -0.001902
0.071819 0.454250 0.543067 -0.537123 -0.000057 0.000004
1.665585 0.412664 0.554193 0.000000 -0.993064 0.000001
2.471184 0.524347 0.425493 -0.000004 -0.004803 -0.000147
3.365664 0.621056 0.477313 0.000000 0.831410 -0.000007
0.071819 0.595403 0.554176 -0.537124 0.000056 0.000010
3.189793 0.632718 0.577821 -0.000000 0.934599 0.000002
0.610364 0.602024 0.454962 0.000000 0.678787 -0.000047
1.825677 0.779106 0.800099 -0.028830 -0.025224 0.019425
1.958702 0.626018 0.592921 0.000000 0.884963 0.000023
2.544936 0.412401 0.551973 0.000000 -0.993031 0.000005
2.251214 0.346676 0.717756 0.073621 -0.016224 -0.015407
1.782832 0.628251 0.490141 0.000000 0.896909 -0.000003
1.906540 0.319834 0.756600 -0.028829 0.006310 0.006305
3.808176 0.531052 0.653054 0.000000 0.026239 0.000003
2.208559 0.271872 0.790173 0.073622 -0.012829 -0.012290
0.317247 0.486237 0.432477 -0.000000 -0.346109 -0.000118
0.404236 0.525185 0.653193 0.000000 -0.013117 0.000215
3.977628 0.570475 0.599411 0.063633 0.003276 0.003365
3.541534 0.414014 0.562182 -0.000000 -0.980615 0.000002
3.553760 0.393483 0.403494 0.126703 -0.004828 0.007680
2.369066 0.447450 0.622180 0.000001 -0.678369 0.000024
3.798720 0.520157 0.425603 -0.000000 -0.026079 -0.000054
2.310442 0.445174 0.458683 -0.000000 -0.697753 -0.000011
3.661689 0.397381 0.657272 0.000002 0.716954 0.000465
3.854034 0.468207 0.598314 0.063632 -0.006553 0.006704
2.303618 0.981776 1.008540 0.046100 -0.018075 0.016365
2.303618 0.069339 0.070120 0.046100 0.018075 -0.016365
2.088516 0.656625 0.427309 0.073619 0.009434 0.009099
3.742664 0.694128 0.726586 0.000000 0.716963 -0.000610
1.960141 0.386544 0.415596 -0.046064 -0.012405 0.010741
3.365664 0.621901 0.600008 0.000000 0.845753 0.000028
3.912354 0.258362 0.814134 0.126705 -0.002372 -0.003775
3.912354 0.792753 0.814134 0.126705 0.002372 -0.003775
3.553760 0.657632 0.675166 0.126702 0.004828 -0.007680
2.045691 0.525651 0.425464 0.000000 0.026239 -0.000007
3.834651 0.633404 0.575840 -0.000000 0.946915 0.000015
1.372468 0.588969 0.444764 0.000001 0.555452 -0.000033
3.461886 0.588329 0.617774 0.000000 0.716964 -0.000842
3.912354 0.792753 0.264526 0.126704 0.002372 0.003775
2.369066 0.602811 0.455689 0.000000 0.678447 -0.000012
2.094001 0.736942 0.734536 -0.046063 0.003850 -0.003440
3.973504 0.605321 0.471180 -0.000000 -0.716963 -0.000896
2.228058 0.834183 0.861746 0.046102 -0.009341 0.008902
2.779430 0.577253 0.640787 -0.000000 0.465417 0.000021
2.662183 0.620280 0.602509 -0.000000 0.831371 0.000015
1.666364 0.652438 0.669823 -0.028828 -0.016874 0.014897
2.251214 0.726606 0.740554 0.073621 0.008114 -0.007842
1.985886 0.231531 0.834180 -0.046063 -0.013965 -0.011984
2.056635 0.922631 0.134435 -0.046063 0.019334 0.015987
2.427689 0.612799 0.612494 0.000001 0.766610 0.000009
0.317247 0.577169 0.437831 0.000000 0.441084 -0.000011
3.013923 0.441443 0.462590 -0.000000 -0.733873 -0.000005
0.551740 0.449160 0.623761 0.000000 -0.678433 0.000006
1.805763 0.287843 0.783814 -0.046064 -0.016829 -0.014174
1.706192 0.367011 0.702392 -0.046064 -0.011255 -0.009803
1.805763 0.763273 0.294846 -0.028829 -0.025225 -0.019425
1.666364 0.398678 0.408837 -0.046063 -0.011255 0.009803
2.108366 0.133124 0.131364 -0.028830 0.013960 -0.012852
3.723924 0.626529 0.421599 -0.000001 0.716962 0.000965
3.854034 0.589848 0.487094 0.063632 0.003276 -0.003365
3.125497 0.526210 0.653190 -0.000000 0.012795 0.000055
3.072547 0.578613 0.438588 -0.000000 0.465609 -0.000083
2.045888 0.358530 0.724386 -0.028828 0.006176 0.006177
0.962104 0.490682 0.647722 -0.000001 -0.296401 0.000070
1.871712 0.524999 0.653184 0.000000 -0.026223 0.000013
2.204903 0.899341 0.165357 0.073621 0.008302 0.008022
2.169560 0.600501 0.625282 0.046100 -0.007533 0.007229
2.045691 0.525558 0.653198 0.000000 0.026239 0.000215
2.081062 0.815176 0.232993 -0.028829 -0.020399 -0.017036
0.551740 0.606725 0.619180 -0.000000 0.716324 0.000021
2.017325 0.424100 0.487635 0.000000 -0.896782 -0.000003
2.662183 0.512453 0.426228 0.000000 -0.117567 -0.000092
2.162938 0.411694 0.539144 0.000000 -0.999656 -0.000000
1.808816 0.385379 0.390088 -0.028830 0.016873 -0.014897
3.416723 0.411710 0.537746 0.000000 -0.999918 -0.000000
2.019374 0.242048 0.241454 -0.028829 0.010203 -0.009838
3.541534 0.632137 0.499266 -0.000001 0.937910 -0.000008
3.717404 0.629036 0.586829 0.000000 0.908130 0.000010
1.079351 0.457508 0.448045 -0.000000 -0.598295 -0.000029
2.218309 0.252236 0.267259 0.073622 -0.012829 0.012290
2.915587 0.527979 0.425525 0.000000 0.026239 -0.000013
2.942062 0.527979 0.653135 0.000000 0.026239 0.000013
1.372468 0.467983 0.441098 0.000000 -0.511317 -0.000073
3.717404 0.427040 0.596424 -0.000000 -0.859165 0.000007
1.759030 0.626153 0.647861 -0.028831 -0.025300 0.019458
0.172847 0.618588 0.478915 -0.142723 0.000316 -0.000194
1.555902 0.411731 0.540913 0.000000 -0.999656 0.000000
1.925248 0.192841 0.881521 -0.046064 -0.012533 -0.010844
2.131781 0.376628 0.404357 0.073622 -0.009434 0.009099
3.730441 0.455774 0.481444 0.063631 -0.003276 -0.003365
0.200000 0.579891 0.639399 -0.072540 0.000182 0.000326
1.431091 0.485669 0.645974 0.000000 -0.345911 0.000059
3.746849 0.730390 0.328665 0.126701 0.002372 0.003775
0.472315 0.639295 0.544358 0.000000 0.999664 0.000000
2.024819 0.113673 0.962943 -0.046063 -0.019334 -0.015987
2.310442 0.618324 0.605347 0.000000 0.816577 0.000008
2.237808 0.146464 0.922250 0.073623 -0.008302 -0.008022
1.637256 0.604303 0.457075 0.000001 -0.697106 0.000145
0.493117 0.414151 0.562868 -0.000001 -0.969251 0.000001
1.079351 0.594541 0.448741 0.000000 0.598335 -0.000029
2.075949 0.452752 0.626869 -0.000000 -0.637545 0.000007
1.978703 0.324886 0.348108 -0.046063 -0.004208 0.003757
0.962104 0.573564 0.642574 -0.000002 0.397871 0.000012
2.088452 0.907819 0.925507 -0.046063 0.009669 -0.008485
1.255221 0.585527 0.442540 0.000000 0.533595 -0.000069
3.974968 0.431947 0.480510 0.141862 -0.001644 -0.001167
3.890179 0.421754 0.659975 0.000000 -0.716962 -0.001902
1.255221 0.464013 0.443534 0.000000 -0.533591 -0.000017
3.893274 0.412181 0.549795 0.000000 -0.995795 0.000008
0.653859 0.639309 0.534860 0.000000 0.999656 -0.000000
3.600157 0.428088 0.480474 0.000000 -0.859393 -0.000026
3.829466 0.628385 0.419690 0.000000 0.716962 0.000737
2.193196 0.615896 0.470011 0.000000 0.785304 -0.000034
3.443423 0.616057 0.446254 0.126702 0.004743 0.007546
1.255221 0.413596 0.560081 0.000000 -0.985578 0.000002
3.847122 0.351408 0.732324 0.000000 -0.716963 -0.000331
0.056997 0.506763 0.481485 -0.595318 -0.000013 -0.000037
2.449437 0.411711 0.540168 0.000000 -0.999656 0.000000
0.668987 0.411831 0.533929 -0.000000 -0.999660 -0.000000
2.458892 0.639409 0.539982 -0.000000 0.999656 0.000000
1.817246 0.325400 0.337528 -0.046063 -0.005628 0.005009
2.561956 0.526861 0.653164 0.000000 0.026239 0.000027
2.075949 0.639173 0.531883 0.000000 0.997859 -0.000006
2.116171 0.981851 1.006164 -0.046063 0.013607 -0.011701
1.255221 0.638225 0.555760 -0.000001 0.982644 0.000001
1.489715 0.458932 0.446994 0.000000 -0.577160 -0.000031
3.742664 0.343108 0.365570 -0.000000 0.716963 -0.000610
3.770741 0.332528 0.723972 -0.000000 0.716963 0.001440
3.847122 0.699708 0.732324 0.000001 0.716963 -0.000661
3.847122 0.351408 0.346336 -0.000000 -0.716962 0.000661
2.735935 0.411724 0.538026 0.000000 -0.999660 -0.000000
3.441307 0.521275 0.653086 0.000000 -0.026239 0.000054
2.217699 0.374460 0.378241 0.046101 0.031911 -0.025529
3.072547 0.436547 0.610331 0.000000 -0.785303 0.000034
3.875200 0.724167 0.348950 -0.000000 -0.716962 -0.001323
1.926549 0.672772 0.674531 -0.046064 0.024801 -0.019585
1.001817 0.411763 0.536537 0.000000 -0.999656 -0.000000
2.185404 0.827734 0.220723 0.046100 -0.018075 -0.016365
1.230637 0.523137 0.653135 0.000000 -0.026239 0.000054
2.892894 0.411755 0.536816 -0.000000 -0.999656 -0.000000
2.214653 0.139792 0.136689 0.046101 0.013257 -0.012389
2.018091 0.854104 0.208204 -0.046064 0.012533 0.010844
1.943600 0.444913 0.619738 -0.000002 0.697105 -0.000362
2.098266 0.676261 0.672579 0.073616 0.004718 -0.004578
1.521863 0.639392 0.538026 0.000000 0.999656 -0.000000
2.122640 0.741976 0.335914 0.073622 0.007170 0.006939
2.303618 0.202341 0.206910 0.046101 0.018677 -0.016835
4.044178 0.576682 0.452662 0.142066 0.000238 -0.000391
1.892956 0.370143 0.685997 -0.046063 -0.024801 -0.019585
3.998038 0.632129 0.551338 0.141864 0.001928 0.000328
1.936308 0.768282 0.780384 -0.046064 0.008237 -0.007270
2.310442 0.489841 0.647446 0.000001 -0.318570 0.000016
1.933844 0.836142 0.222419 -0.046063 0.013965 0.011984
2.193196 0.471884 0.639746 0.000000 -0.465578 0.000083
2.105643 0.187562 0.874948 -0.046062 -0.011102 -0.009677
2.075240 0.303386 0.779487 -0.028829 0.022544 0.018170
3.705216 0.663628 0.667447 -0.000000 -0.716963 0.000482
1.724208 0.486149 0.646151 0.000000 -0.345439 0.000007
2.227449 0.735923 0.317932 0.046101 -0.011450 -0.010805
0.962104 0.496087 0.429342 0.000000 -0.271466 -0.000077
3.187902 0.527979 0.425525 0.000000 0.026239 -0.000027
2.427689 0.490726 0.647736 0.000000 -0.296580 0.000070
2.891003 0.639360 0.536816 0.000000 0.999656 -0.000000
1.814939 0.633119 0.421733 -0.028829 -0.016874 -0.014897
1.372468 0.637265 0.561360 0.000001 0.980410 0.000004
2.092406 0.777281 0.809073 -0.028828 -0.010203 0.009838
0.982906 0.639338 0.542682 -0.000000 0.999656 0.000000
0.844857 0.459883 0.632339 0.000000 -0.577142 0.000062
2.007057 0.179788 0.188231 -0.046063 -0.012533 0.010844
1.137974 0.635913 0.567357 0.000000 0.969240 0.000011
3.307040 0.487857 0.431888 0.000000 -0.321407 -0.000032
3.013923 0.552862 0.649869 -0.000001 0.237376 0.000011
2.236589 0.420464 0.438342 0.073623 -0.005189 0.005033
2.603559 0.586669 0.635400 -0.000000 0.533629 0.000035
2.154806 0.938295 0.123745 -0.046063 0.008237 0.007270
0.844857 0.592637 0.631340 -0.000001 0.593195 0.000015
2.310442 0.418672 0.578564 0.000000 -0.936214 0.000002
1.137974 0.415772 0.569519 0.000000 -0.962452 0.000012
2.720806 0.496448 0.649410 0.000000 -0.246035 0.000043
0.154984 0.525558 0.431955 -0.220833 0.000003 -0.000113
1.900079 0.590776 0.632661 -0.000000 0.577157 0.000031
0.786234 0.412717 0.524098 0.000000 -0.989666 -0.000001
2.236589 0.652819 0.663116 0.073622 0.019994 -0.018765
3.388254 0.455847 0.611026 0.000000 -0.697112 0.000367
3.733294 0.390787 0.691823 0.000000 -0.716963 -0.000593
4.044178 0.604228 0.602067 0.142067 0.000362 0.000281
1.380032 0.411704 0.539889 0.000000 -0.999660 0.000000
2.310442 0.564442 0.432315 0.000000 0.346094 -0.000118
2.427689 0.466942 0.441717 0.000000 -0.511293 -0.000018
0.786234 0.638452 0.524467 0.000000 0.989634 -0.000002
1.737446 0.411714 0.538399 0.000000 -0.999656 -0.000000
0.258623 0.637567 0.559805 -0.000001 0.985222 0.000004
0.258623 0.412684 0.554331 0.000000 -0.989493 0.000002
3.248417 0.507378 0.651733 0.000001 -0.169332 0.000127
3.776027 0.456129 0.629581 -0.000000 -0.619281 0.000014
3.619068 0.526303 0.653189 0.000000 0.013115 0.000215
3.248417 0.429463 0.600402 0.000000 -0.845570 0.000014
2.017325 0.425488 0.593663 0.000000 -0.884890 0.000003
0.258623 0.455069 0.628745 -0.000000 -0.619081 0.000111
1.958702 0.637882 0.520691 -0.000001 0.985114 -0.000004
2.142749 0.821284 0.854128 0.046101 -0.018075 0.016365
1.489715 0.577748 0.438133 -0.000000 0.465551 -0.000042
1.079351 0.466742 0.636824 -0.000001 -0.505344 0.000009
0.786234 0.460301 0.446026 0.000000 -0.577136 -0.000062
1.079351 0.588272 0.634362 -0.000001 0.555509 0.000065
4.019642 0.699196 0.360747 -0.263988 0.003309 0.003468
4.004921 0.774039 0.283773 -0.263988 0.003309 0.003468
4.019642 0.351920 0.717913 -0.263989 -0.003309 -0.003468
4.019642 0.699196 0.717913 -0.263989 0.003309 -0.003468
4.004921 0.277076 0.283773 -0.263987 -0.003309 0.003468
1.983682 0.730188 0.344037 -0.046062 0.004208 0.003757
1.724208 0.568528 0.433888 0.000000 0.370482 -0.000055
1.606962 0.425671 0.593988 0.000000 -0.872476 0.000012
3.951898 0.481982 0.434129 0.145966 -0.000175 -0.000438
2.303618 0.671438 0.389296 0.046100 -0.008287 -0.007930
0.434494 0.465116 0.442838 -0.000000 -0.533622 -0.000035
0.190916 0.417891 0.504347 -0.072534 -0.000357 -0.000111
3.823136 0.459894 0.485681 0.063631 -0.006553 -0.006704
2.896677 0.593757 0.448156 -0.000000 0.598309 -0.000059
1.990864 0.823543 0.838251 -0.046063 0.006984 -0.006191
3.884933 0.574595 0.603649 0.063632 0.006553 0.006704
3.915254 0.314475 0.770309 0.000000 -0.716963 -0.000882
2.098266 0.392518 0.689753 0.046099 0.007534 0.007229
3.974968 0.489043 0.643683 0.145967 -0.000175 0.000438
0.137416 0.465268 0.622312 -0.280653 -0.000102 0.000133
4.044178 0.489982 0.503754 1.000000 -0.000000 0.000000
2.544936 0.462611 0.444453 0.000000 -0.555549 -0.000065
3.013923 0.610179 0.463137 0.000000 0.734386 -0.000005
2.154806 0.931061 0.961948 -0.028830 -0.013960 0.012852
1.431091 0.617317 0.471915 0.000000 0.801176 -0.000008
3.541534 0.584133 0.441694 -0.000000 0.511283 -0.000073
0.903481 0.414836 0.512748 0.000000 -0.975356 -0.000002
4.021108 0.444299 0.604132 0.135195 -0.001622 0.001151
2.102532 0.435536 0.468039 0.073621 -0.009434 0.009099
2.896677 0.581110 0.638717 0.000000 0.488662 0.000078
1.103935 0.523137 0.425525 0.000000 -0.026071 -0.000027
1.782832 0.464171 0.443434 0.000000 -0.533539 -0.000035
1.255221 0.586393 0.635574 0.000000 0.533560 0.000017
1.841455 0.622249 0.599456 0.000000 0.845717 0.000028
1.665585 0.619292 0.603978 -0.000001 0.815401 0.000008
0.786234 0.595169 0.449223 -0.000000 0.619110 -0.000055
3.699542 0.596715 0.480031 0.063631 0.006553 -0.006704
3.776027 0.584293 0.441789 -0.000000 0.511283 -0.000147
3.541534 0.472131 0.639877 -0.000000 -0.465578 0.000083
1.999301 0.617490 0.649083 -0.028829 -0.010740 0.010294
2.240245 1.031480 1.052948 -0.046062 0.020049 -0.016486
2.240245 0.019636 0.025712 0.073622 -0.010566 0.010170
2.544936 0.585999 0.442838 0.000000 0.533560 -0.000017
0.903481 0.460149 0.446133 -0.000000 -0.577119 -0.000031
2.603559 0.637811 0.558382 -0.000000 0.984955 0.000002
2.260963 0.790576 0.271282 0.073621 0.006415 0.006214
2.260963 0.238372 0.830176 0.073621 -0.013207 -0.012640
1.943600 0.435029 0.468532 -0.046064 -0.007163 0.006346
3.189793 0.604373 0.457155 -0.000000 0.697768 -0.000022
1.882905 0.296327 0.309637 -0.046063 -0.008416 0.007423
3.761339 0.580089 0.609299 0.063632 0.006553 0.006704
2.779430 0.427707 0.481115 0.000000 -0.859574 -0.000002
0.903481 0.636005 0.511665 -0.000000 0.968286 -0.000003
0.903481 0.591575 0.446563 0.000000 0.576877 -0.000015
2.955300 0.471925 0.438892 0.000000 -0.465616 -0.000166
1.817246 0.725716 0.741132 -0.046068 0.005627 -0.005008
2.046730 0.769177 0.304906 -0.046065 0.003760 0.003360
0.727611 0.637247 0.561451 -0.000000 0.980729 0.000009
2.247558 0.924288 0.943478 0.073621 0.008302 -0.008022
2.015783 0.291818 0.290261 -0.028830 0.005639 -0.005660
2.662183 0.606790 0.459547 -0.000000 0.716227 -0.000021
1.879277 0.524999 0.425476 0.000000 -0.026071 -0.000027
0.727611 0.586866 0.635275 0.000000 0.533560 0.000004
1.983682 0.717871 0.746600 -0.028828 -0.012619 0.011824
1.489715 0.412985 0.522255 -0.000000 -0.989650 -0.000002
3.131170 0.427278 0.481835 0.000000 -0.859407 -0.000003
2.720806 0.430707 0.602315 -0.000000 -0.831132 0.000007
2.310442 0.629114 0.492000 -0.000001 0.900588 -0.000003
3.482910 0.413281 0.520415 0.000000 -0.985477 -0.000002
1.548338 0.447381 0.622117 -0.000000 -0.678727 0.000012
2.662183 0.638278 0.523269 0.000001 0.987713 -0.000002
2.544936 0.638292 0.523361 -0.000000 0.988290 -0.000000
0.434494 0.586945 0.443434 0.000000 0.533704 -0.000017
2.796449 0.639373 0.537281 0.000000 0.999656 -0.000000
0.472315 0.520716 0.425588 -0.000000 -0.026231 -0.000054
2.303618 0.379678 0.689364 0.046098 0.008287 0.007931
1.313845 0.461062 0.633172 0.000000 -0.577160 0.000031
1.376250 0.527420 0.653150 0.000000 0.026239 0.000027
1.606962 0.475868 0.641776 0.000000 -0.442308 0.000044
2.134572 0.503025 0.427723 0.000001 -0.194996 -0.000110
3.740097 0.411826 0.534116 -0.000000 -0.999660 -0.000000
3.072547 0.511481 0.426343 -0.000000 -0.117291 -0.000046
2.760519 0.523509 0.425515 0.000000 -0.026239 -0.000027
3.189793 0.547634 0.651028 -0.000001 0.194840 0.000055
1.665585 0.460301 0.446026 0.000000 -0.576404 -0.000008
2.427689 0.574997 0.436760 0.000000 0.442193 -0.000022
1.953349 0.635722 0.447304 -0.046063 0.024801 0.019585
1.606962 0.593384 0.630783 0.000001 0.598220 0.000059
0.200000 0.468624 0.440717 -0.072538 -0.000191 -0.000321
0.375870 0.584173 0.636943 0.000000 0.511297 0.000147
0.426929 0.411826 0.544545 0.000000 -0.999660 0.000000
0.049876 0.500523 0.588463 -0.623317 -0.000017 0.000032
3.600157 0.610854 0.614752 -0.000001 0.751769 0.000038
0.727611 0.415019 0.566634 0.000000 -0.969194 0.000001
1.958702 0.558610 0.430372 0.000000 0.296462 -0.000070
0.375870 0.466582 0.636728 0.000000 -0.510884 0.000018
1.483096 0.527327 0.653152 0.000000 0.026239 0.000027
3.131170 0.617624 0.606335 0.000000 0.801456 0.000004
1.927608 0.259349 0.816589 -0.028829 0.011545 0.010962
3.307040 0.427469 0.481515 0.000000 -0.859391 -0.000013
0.962104 0.562995 0.431798 -0.000000 0.321423 -0.000032
2.144305 1.032444 0.018010 -0.028829 -0.032188 -0.021982
0.727611 0.488871 0.431544 -0.000001 -0.321406 -0.000129
2.020717 0.372409 0.368859 -0.028829 0.037157 -0.023322
2.265838 0.866895 0.192273 0.073621 0.004906 0.004760
3.974968 0.550159 0.431545 0.148496 0.000078 -0.000456
3.307040 0.600175 0.453327 0.000001 0.658601 -0.000012
1.431091 0.621603 0.600480 0.000001 0.844721 0.000007
0.727611 0.459655 0.632177 -0.000000 -0.577132 0.000124
1.606962 0.552140 0.428608 -0.000000 0.246125 -0.000172
1.966933 0.357694 0.694773 -0.046063 -0.012405 -0.010741
2.017325 0.636938 0.563005 -0.000000 0.980777 0.000002
0.375870 0.634433 0.572649 -0.000000 0.955026 0.000027
3.346753 0.639421 0.538957 0.000000 0.999914 -0.000000
0.727611 0.568441 0.433853 0.000000 0.370398 -0.000014
0.807036 0.524161 0.653180 -0.000008 -0.000965 0.000728
3.965255 0.417741 0.414558 -0.000001 -0.716961 0.000448
3.965255 0.647254 0.650607 0.000002 -0.716953 0.000448
1.877386 0.411704 0.538771 0.000000 -0.999656 -0.000000
1.372468 0.597218 0.627822 -0.000000 0.639523 0.000026
0.120231 0.590155 0.611073 -0.347685 0.000088 0.000093
3.424287 0.504213 0.427487 -0.000000 -0.195020 -0.000110
2.779430 0.602161 0.455089 0.000000 0.678779 -0.000024
1.724208 0.491527 0.430676 0.000000 -0.296514 -0.000035
3.248417 0.623123 0.480635 0.000001 0.859104 -0.000013
0.844857 0.412642 0.554008 0.000000 -0.993007 0.000003
1.489715 0.596413 0.628457 -0.000000 0.617021 0.000007
0.493117 0.473327 0.640505 0.000000 -0.465638 0.000083
2.075949 0.596047 0.449915 -0.000000 0.619098 -0.000111
2.427689 0.428966 0.599614 0.000000 -0.845762 0.000003
3.307040 0.603427 0.622401 0.000000 0.678832 0.000012
2.720806 0.601155 0.624473 0.000000 0.659208 0.000012
0.844857 0.638572 0.553175 0.000001 0.992976 0.000005
2.662183 0.418705 0.500009 -0.000000 -0.938175 -0.000008
1.891578 0.253804 0.258103 -0.028829 0.005773 -0.005790
0.610364 0.584494 0.636752 0.000000 0.511293 0.000009
0.258623 0.602777 0.623002 -0.000001 0.678763 0.000095
3.915831 0.573222 0.476424 0.063631 0.003276 -0.003365
0.493117 0.585054 0.636419 -0.000000 0.533632 0.000035
3.013923 0.422158 0.586998 0.000000 -0.908136 0.000020
1.241984 0.524627 0.425486 -0.000000 -0.026239 -0.000107
3.591563 0.661474 0.406486 0.126702 -0.007818 -0.004602
3.189793 0.636414 0.513339 -0.000000 0.975242 -0.000005
1.886165 0.652123 0.424371 -0.046064 0.012405 0.010741
0.120231 0.619988 0.519258 -0.347688 0.000126 -0.000023
0.317247 0.412324 0.527335 0.000000 -0.993092 -0.000001
2.147779 0.072358 1.000531 -0.046062 -0.013608 -0.011702
2.147779 0.072358 0.078129 -0.046063 -0.013608 0.011701
3.705216 0.387488 0.411213 0.000001 0.716961 -0.000482
2.193196 0.425853 0.594314 0.000000 -0.872507 0.000024
0.317247 0.639246 0.532999 0.000000 0.997847 -0.000001
1.933341 0.701622 0.372421 -0.046063 0.012406 0.010741
2.838053 0.462805 0.444324 0.000000 -0.555552 -0.000033
0.604691 0.529655 0.425569 0.000000 0.026231 -0.000054
0.610364 0.628251 0.588519 0.000000 0.896106 0.000005
2.193196 0.545482 0.651434 0.000000 0.169239 0.000127
0.844857 0.483453 0.433543 -0.000000 -0.370523 -0.000055
3.943332 0.761100 0.767695 -0.000000 -0.716963 0.000882
0.844857 0.568658 0.433940 -0.000000 0.370554 -0.000055
2.955300 0.455617 0.629178 -0.000000 -0.619107 0.000111
1.606962 0.483021 0.433715 0.000000 -0.369738 -0.000007
2.193196 0.545574 0.427242 0.000000 0.169312 -0.000254
2.017325 0.467943 0.441122 -0.000000 -0.511290 -0.000073
4.044178 0.542175 0.586818 1.000000 0.000000 0.000000
3.955704 0.698201 0.375656 0.000000 -0.716963 -0.000882
1.137974 0.438972 0.465378 0.000000 -0.768903 -0.000005
1.313845 0.420707 0.583719 0.000000 -0.918795 0.000019
2.303618 1.048278 0.001725 0.000001 0.697114 -0.000355
2.303618 0.335344 0.343699 0.046101 0.025899 -0.021963
2.303618 0.069339 1.008540 0.046101 0.018075 0.016365
2.303618 0.848774 0.871750 0.046101 -0.018677 0.016834
2.303618 0.959609 0.092918 0.046100 -0.018075 -0.016365
2.303618 0.158007 0.917347 0.046100 0.016269 0.014919
3.841876 0.392295 0.416157 0.000000 0.716963 -0.001475
2.151280 0.733906 0.763696 0.046101 -0.011450 0.010805
3.630353 0.385428 0.409094 -0.000000 0.716963 -0.000710
1.137974 0.612144 0.465378 0.000000 0.751347 -0.000002
3.131170 0.555836 0.429569 0.000000 0.271470 -0.000039
3.832506 0.611142 0.641236 -0.000001 0.716962 -0.001475
3.965255 0.417741 0.664102 -0.000001 -0.716960 -0.000448
3.013923 0.625263 0.594314 0.000000 0.872462 0.000003
0.049876 0.566537 0.502432 -0.623317 0.000026 -0.000025
0.128770 0.428029 0.518600 -0.314365 -0.000141 -0.000026
1.020728 0.629582 0.493016 0.000000 0.908240 -0.000003
3.482910 0.481982 0.434129 0.000000 -0.394769 -0.000051
3.248417 0.510326 0.426489 -0.000000 -0.143435 -0.000075
0.610364 0.467703 0.637395 0.000000 -0.511295 0.000073
2.720806 0.623337 0.480995 -0.000000 0.859280 -0.000013
1.832564 0.726223 0.338021 -0.046063 0.024801 0.019586
1.372468 0.528910 0.425549 0.000000 0.026239 -0.000416
0.551740 0.583773 0.441479 0.000000 0.511186 -0.000037
3.717404 0.638474 0.524652 0.000000 0.993045 -0.000001
2.150671 0.630104 0.421682 0.046101 -0.007533 -0.007229
2.427689 0.626668 0.486975 0.000000 0.884890 -0.000006
2.017325 0.471266 0.639421 0.000001 -0.441399 0.000005
3.498591 0.414271 0.653786 0.126702 -0.004828 -0.007680
3.498591 0.414271 0.424874 0.126703 -0.004828 0.007680
3.774433 0.740784 0.760685 0.126702 0.004828 -0.007680
3.939938 0.247969 0.253836 0.126702 -0.004828 0.007680
3.498591 0.636845 0.653786 0.126701 0.004828 -0.007680
2.369066 0.596888 0.628082 0.000000 0.619019 0.000028
3.636512 0.362302 0.707235 0.126703 -0.002372 -0.003775
2.955300 0.575206 0.436863 0.000001 0.436135 -0.000011
0.668987 0.466062 0.442241 0.000000 -0.533475 -0.000009
2.603559 0.421460 0.585473 -0.000000 -0.917999 0.000005
1.079351 0.423441 0.589688 0.000000 -0.896845 0.000003
2.662183 0.445041 0.619847 0.000000 -0.716324 0.000021
3.717404 0.558076 0.648454 -0.000000 0.296549 0.000141
2.122640 0.309140 0.335914 0.073622 -0.003585 0.003482
1.431091 0.417457 0.575091 -0.000000 -0.946679 0.000004
3.987906 0.363302 0.386338 0.000000 0.716963 -0.000882
1.079351 0.628997 0.586913 0.000000 0.905555 0.000003
2.115600 0.871470 0.883090 -0.046062 0.011102 -0.009677
3.131170 0.639087 0.548078 -0.000000 0.997863 0.000001
3.248417 0.624171 0.596264 -0.000000 0.872462 0.000003
2.251819 0.509450 0.652044 0.000001 -0.143350 0.000151
2.201247 0.106985 0.976600 0.046100 0.026501 0.022349
0.551740 0.464644 0.443136 -0.000000 -0.533614 -0.000069
3.668644 0.466907 0.613536 0.063631 -0.003276 0.003365
2.369066 0.432334 0.473959 0.000000 -0.816231 -0.000008
2.147779 0.974774 0.074256 -0.028829 -0.011814 -0.011181
2.779430 0.515882 0.652779 0.000000 -0.091502 0.000475
0.668987 0.586314 0.443037 0.000000 0.533560 -0.000017
3.600157 0.623647 0.481515 0.000000 0.859392 -0.000026
2.955300 0.637890 0.557923 0.000000 0.985548 0.000015
0.610364 0.424990 0.592715 -0.000000 -0.884944 0.000023
2.230496 1.011844 0.046940 -0.046063 0.021480 0.017459
2.838053 0.425807 0.594232 -0.000000 -0.869014 0.000003
0.375870 0.418688 0.578607 -0.000000 -0.938174 0.000008
1.137974 0.451046 0.625425 0.000000 -0.659184 0.000003
3.131170 0.449855 0.624381 -0.000000 -0.659340 0.000025
2.544936 0.435681 0.609234 0.000000 -0.785310 0.000034
2.240245 0.025087 1.058248 0.046101 0.016871 0.015407
1.548338 0.444423 0.459447 0.000000 -0.716311 -0.000003
2.081062 0.235940 0.232993 -0.028830 0.020399 -0.017036
3.647650 0.648445 0.651832 -0.000000 -0.716963 0.000710
3.747333 0.679498 0.394891 0.000003 -0.716955 -0.000610
1.952397 0.233278 0.235581 -0.028829 0.020935 -0.017331
1.782832 0.638845 0.550769 0.000000 0.995797 0.000001
1.724208 0.634889 0.507528 0.000001 0.961899 -0.000006
3.189793 0.462108 0.444789 0.000000 -0.555576 -0.000065
2.237808 0.882485 0.899452 0.073622 0.009811 -0.009457
3.072547 0.495280 0.649091 0.000001 -0.271412 0.000155
2.544936 0.422314 0.491324 0.000000 -0.908143 -0.000020
2.045888 0.709829 0.707619 -0.046064 0.004208 -0.003757
1.782832 0.584894 0.442146 0.000000 0.511293 -0.000009
0.375870 0.601471 0.454464 0.000000 0.659365 -0.000006
3.072547 0.454776 0.450146 0.000001 -0.618814 -0.000028
1.489715 0.626842 0.487305 0.000000 0.884890 -0.000003
1.727633 0.396651 0.410808 -0.046062 -0.011255 0.009803
1.137974 0.602845 0.622939 0.000000 0.678725 0.000047
0.434494 0.628004 0.489640 0.000000 0.896940 -0.000005
1.665585 0.421313 0.493529 -0.000000 -0.918781 -0.000005
2.955300 0.427636 0.481235 0.000000 -0.859312 -0.000006
0.200000 0.579891 0.439261 -0.072540 0.000182 -0.000326
0.200000 0.639075 0.530396 -0.114461 0.000118 -0.000008
1.841455 0.424534 0.591850 0.000000 -0.885026 0.000006
1.020728 0.444391 0.459480 0.000000 -0.716324 -0.000021
3.951898 0.625627 0.593663 0.147587 0.000407 0.000228
1.841455 0.619607 0.475144 0.000000 0.831085 -0.000007
2.838053 0.469274 0.638307 0.000000 -0.488818 0.000019
0.903481 0.474698 0.641199 -0.000001 -0.441848 0.000044
3.307040 0.524533 0.653185 0.000000 -0.013443 0.000052
1.606962 0.536347 0.652677 0.000001 0.085408 0.000032
2.256088 0.307696 0.312118 0.046101 0.011751 -0.011072
2.017325 0.578572 0.438567 0.000000 0.466063 -0.000005
1.665585 0.502569 0.650846 -0.000000 -0.194932 0.000110
0.317247 0.436720 0.468109 0.000000 -0.785264 -0.000017
1.489715 0.468624 0.637943 0.000000 -0.511257 0.000037
2.134572 0.625263 0.484347 0.000000 0.872507 -0.000024
3.947456 0.324861 0.319034 0.000000 -0.716963 0.000882
2.310442 0.555388 0.649217 -0.000000 0.271363 0.000039
3.267328 0.411782 0.535792 0.000000 -0.999656 -0.000000
2.310442 0.498615 0.428700 -0.000000 -0.246086 -0.000043
1.841455 0.576585 0.641117 -0.000000 0.442306 0.000089
0.551740 0.423730 0.488387 -0.000000 -0.896854 -0.000011
3.951898 0.411846 0.533371 0.153994 -0.000446 -0.000018
3.365664 0.420219 0.496101 -0.000000 -0.928799 -0.000017
1.313845 0.451046 0.453235 -0.000000 -0.659325 -0.000025
1.255221 0.448339 0.623002 -0.000001 -0.678736 0.000047
2.303618 0.937442 0.962943 0.046101 -0.022891 0.019941
2.123250 0.255266 0.798219 0.073621 -0.012830 -0.012290
2.310442 0.415157 0.511484 -0.000000 -0.967037 -0.000001
3.600157 0.418191 0.577252 0.000000 -0.946679 0.000004
1.548338 0.569305 0.644457 -0.000001 0.393063 0.000026
3.365664 0.473698 0.437959 0.000000 -0.459604 -0.000005
1.196598 0.411841 0.545103 0.000000 -0.999656 0.000000
2.108016 0.679072 0.368495 0.046100 -0.015064 -0.013924
0.962104 0.426899 0.596183 -0.000001 -0.859951 0.000003
1.724208 0.577253 0.640787 -0.000000 0.465608 0.000042
1.900079 0.470127 0.439875 -0.000000 -0.488598 -0.000039
0.375870 0.453254 0.451374 0.000000 -0.639433 -0.000053
1.706192 0.684105 0.376268 -0.028829 -0.016873 -0.014897
1.746021 0.335344 0.734961 -0.046064 -0.016880 -0.014212
2.124390 0.034505 0.034294 -0.046063 -0.021480 0.017459
2.124390 0.034505 1.044366 -0.046063 -0.021480 -0.017459
2.004905 0.921609 0.946659 -0.028828 -0.016107 0.014384
2.044734 0.097840 0.099432 -0.046063 -0.008237 0.007270
1.782832 0.473698 0.640701 0.000001 -0.462983 0.000021
2.427689 0.425228 0.485491 -0.000000 -0.884980 -0.000011
1.782832 0.423874 0.488094 0.000000 -0.896850 -0.000011
3.776027 0.636965 0.562868 -0.000000 0.978165 0.000001
3.834651 0.569047 0.434095 0.000000 0.370398 -0.000014
1.313845 0.599509 0.452744 0.000000 0.659365 -0.000025
1.372468 0.628334 0.490308 0.000000 0.896940 -0.000005
2.162248 0.188882 0.183708 0.046100 0.015667 -0.014425
2.142749 0.229831 0.224532 0.046101 0.018075 -0.016365
0.154984 0.536782 0.646117 -0.212213 0.000031 0.000238
2.603559 0.575206 0.436863 0.000000 0.442267 -0.000044
1.196598 0.639314 0.543613 -0.000000 0.999656 0.000000
2.779430 0.621553 0.600559 0.000000 0.845762 0.000007
1.927608 0.791767 0.262071 -0.028829 -0.011545 -0.010962
3.776027 0.466902 0.441741 -0.000000 -0.511251 -0.000073
1.020728 0.584654 0.442003 -0.000000 0.511148 -0.000018
2.074502 0.353445 0.386579 0.073622 -0.009434 0.009099
3.501821 0.639324 0.543241 -0.000000 0.999656 0.000000
2.486313 0.619659 0.603438 -0.000000 0.831271 0.000015
0.903481 0.583453 0.637371 -0.000000 0.511141 0.000037
4.044178 0.481524 0.563667 1.000000 0.000000 0.000000
3.581246 0.639319 0.543427 -0.000000 0.999656 0.000000
2.427689 0.563743 0.646603 0.000000 0.346106 0.000030
2.251819 0.624099 0.596384 -0.000000 0.859855 0.000002
0.551740 0.625263 0.484347 0.000001 0.871384 -0.000006
0.962104 0.624075 0.596424 0.000000 0.859407 0.000006
0.245386 0.531331 0.653047 0.000000 0.026231 0.000027
1.255221 0.420762 0.494813 0.000000 -0.918781 -0.000005
0.786234 0.469843 0.638626 0.000000 -0.488578 0.000078
2.208559 0.748900 0.775325 0.046102 -0.011751 0.011072
0.786234 0.578737 0.640007 0.000000 0.465631 0.000083
3.043235 0.411765 0.536443 0.000000 -0.999656 -0.000000
3.072547 0.622174 0.479086 0.000000 0.845713 -0.000014
1.255221 0.629802 0.493529 0.000000 0.918801 -0.000019
0.258623 0.476621 0.436515 0.000000 -0.417305 -0.000006
1.872764 0.390763 0.392773 -0.028828 0.018599 -0.015988
2.034117 0.677021 0.406821 -0.046063 0.024801 0.019586
1.196598 0.471307 0.439217 -0.000000 -0.463976 -0.000010
2.838053 0.588156 0.634440 0.000001 0.552348 0.000016
1.841455 0.477213 0.436242 -0.000000 -0.418647 -0.000095
2.896677 0.484751 0.645635 0.000000 -0.370549 0.000110
2.896677 0.623742 0.596985 -0.000001 0.859290 0.000026
1.778181 0.671312 0.395509 -0.046064 0.008441 0.007445
3.307040 0.546811 0.427468 0.000000 0.195059 -0.000110
2.251819 0.421534 0.585644 0.000000 -0.918810 0.000009
0.258623 0.586314 0.443037 0.000001 0.533607 -0.000138
1.724208 0.425807 0.594232 -0.000000 -0.872511 0.000012
1.196598 0.579190 0.438892 -0.000000 0.465436 -0.000021
0.434494 0.424274 0.487305 0.000000 -0.884534 -0.000006
3.541534 0.488651 0.431619 0.000000 -0.321423 -0.000032
2.662183 0.457359 0.448156 0.000000 -0.598335 -0.000029
2.055002 0.392717 0.649626 0.073622 -0.009434 -0.009099
0.464751 0.523509 0.653171 -0.000004 -0.004041 0.000349
3.482910 0.627510 0.488637 -0.000000 0.896703 -0.000005
0.200000 0.440937 0.615523 -0.072535 -0.000281 0.000246
3.834651 0.637210 0.517026 -0.000001 0.980681 -0.000009
2.544936 0.581517 0.638489 -0.000001 0.487302 0.000020
2.088452 0.143297 0.925507 -0.046063 -0.019334 -0.015987
2.134572 0.423359 0.589521 0.000000 -0.896829 0.000011
1.372468 0.426581 0.483046 -0.000000 -0.872494 -0.000024
1.431091 0.463541 0.443832 0.000000 -0.555577 -0.000065
1.841455 0.574914 0.436719 0.000000 0.441964 -0.000022
0.317247 0.620952 0.477158 0.000000 0.831558 -0.000004
2.134572 0.463541 0.634828 0.000000 -0.555659 0.000016
3.915831 0.477894 0.602236 0.063632 -0.003276 0.003365
3.424287 0.562642 0.431679 0.000000 0.321429 -0.000129
2.779430 0.470087 0.439898 -0.000000 -0.488583 -0.000078
3.658781 0.491928 0.430551 -0.000000 -0.296544 -0.000281
2.055002 0.637014 0.670419 0.046101 -0.015064 0.013924
1.939949 0.396868 0.652943 -0.046063 -0.024801 -0.019586
1.900079 0.627345 0.488303 0.000000 0.896909 -0.000005
3.675728 0.659025 0.415947 0.000002 -0.716957 -0.000465
4.021108 0.559885 0.637432 0.135197 0.000551 0.001911
1.859364 0.689173 0.697464 -0.046064 0.012405 -0.010741
2.251214 0.704439 0.360904 0.073622 0.016224 0.015407
2.257307 0.107192 0.113955 0.073622 -0.016601 0.015748
2.049038 0.205740 0.873903 -0.028830 0.036469 0.023156
2.112281 0.618758 0.647851 0.046101 -0.015064 0.013924
2.603559 0.476202 0.436719 0.000000 -0.442280 -0.000044
3.868650 0.372701 0.682654 0.000000 0.716963 0.001902
3.868650 0.678414 0.682654 -0.000001 -0.716963 0.001902
0.317247 0.578407 0.640180 0.000001 0.465443 0.000083
2.198809 0.313675 0.746148 0.073621 -0.014338 -0.013686
2.075949 0.476536 0.436554 -0.000000 -0.442285 -0.000177
3.189793 0.423606 0.488637 0.000000 -0.896877 -0.000022
3.189793 0.599860 0.625609 0.000000 0.658867 0.000003
2.218309 0.791542 0.818536 0.046100 -0.010546 0.009996
2.838053 0.579232 0.438914 0.000000 0.465674 -0.000021
2.260963 0.227289 0.237084 0.073622 -0.005661 0.005488
3.887177 0.739941 0.745933 0.000001 -0.716962 0.000882
3.776027 0.420762 0.583847 0.000000 -0.918787 0.000038
1.782832 0.423132 0.589062 -0.000000 -0.896876 0.000022
1.196598 0.569047 0.644565 0.000001 0.368968 0.000014
3.790860 0.375604 0.371221 0.000001 -0.716963 0.000720
3.790860 0.689391 0.693944 0.000000 -0.716962 0.000720
3.600157 0.469355 0.440307 0.000000 -0.488656 -0.000039
2.603559 0.412203 0.528633 -0.000000 -0.995804 -0.000002
0.317247 0.468544 0.637895 0.000001 -0.486481 0.000005
1.665585 0.631960 0.498785 -0.000000 0.938184 -0.000008
2.779430 0.420288 0.582732 0.000000 -0.927897 0.000002
2.838053 0.424382 0.487099 0.000000 -0.884882 -0.000006
1.925248 0.858274 0.881521 -0.028830 -0.020398 0.017036
2.027970 0.256004 0.803976 -0.046063 -0.013965 -0.011984
3.658781 0.567014 0.433284 0.000000 0.370549 -0.000110
2.193196 0.630758 0.582906 -0.000000 0.928653 0.000002
0.668987 0.567057 0.645359 -0.000000 0.370453 0.000027
0.668987 0.483021 0.644945 0.000000 -0.370673 0.000027
1.706192 0.684105 0.702392 -0.028830 -0.016873 0.014897
1.814939 0.408937 0.648118 -0.046065 -0.011254 -0.009803
3.776027 0.422724 0.490435 -0.000000 -0.908123 -0.000020
0.493117 0.624671 0.595370 -0.000000 0.872160 0.000006
1.900079 0.423441 0.589688 0.000000 -0.896718 0.000001
2.247558 0.924288 0.135182 0.073621 0.008302 0.008022
3.482910 0.482675 0.644807 0.000000 -0.370615 0.000055
3.893274 0.479928 0.435012 0.000000 -0.394731 -0.000102
2.134572 0.627633 0.589772 0.000001 0.850973 0.000001
3.967286 0.272348 0.813635 0.000000 -0.716962 -0.000882
0.064315 0.558680 0.596699 -0.566570 0.000024 0.000039
1.900079 0.627736 0.589563 0.000001 0.896750 0.000022
1.548338 0.564660 0.432396 -0.000000 0.346094 -0.000030
3.868650 0.678414 0.396006 -0.000000 -0.716962 -0.001902
3.965255 0.647254 0.428053 0.000001 -0.716961 -0.000448
3.424287 0.624467 0.595736 -0.000000 0.872263 0.000012
3.189793 0.426353 0.595208 0.000000 -0.872498 0.000024
2.251819 0.575457 0.436987 -0.000000 0.442320 -0.000044
3.893274 0.629858 0.493657 -0.000000 0.918764 -0.000019
1.808816 0.665737 0.688572 -0.028831 -0.016873 0.014896
3.541534 0.593346 0.630810 -0.000000 0.598306 0.000059
1.489715 0.630464 0.583590 -0.000000 0.918781 0.000005
2.303618 0.737939 0.757759 0.046100 -0.011751 0.011072
