2.245120 0.621586 0.714901 -0.000000 0.880386 0.000009
2.952401 0.387181 0.485204 0.013059 -0.051853 0.010903
0.443467 0.429320 0.641958 0.000000 -0.976045 -0.000002
1.926189 0.296238 0.391746 0.075948 -0.003055 0.002429
1.464430 0.529960 0.769029 0.000005 -0.005731 0.000183
0.166643 0.447782 0.722799 -0.139713 -0.000247 0.000181
3.429680 0.660193 0.828306 -0.038777 0.006742 -0.005189
1.899041 0.104398 0.129823 -0.078747 -0.012756 0.009130
0.784320 0.615348 0.605568 -0.000001 0.808206 -0.000006
1.827036 0.293609 0.975394 -0.081723 0.009586 0.008327
0.191628 0.623309 0.710806 -0.042697 0.000466 0.000221
1.855573 0.427158 0.655249 0.000000 -0.996075 -0.000001
0.784320 0.439242 0.615759 -0.000000 -0.880386 -0.000009
3.024213 0.575120 0.571587 -0.000000 0.428973 -0.000067
2.042846 0.452628 0.769874 0.078825 0.003532 0.002808
1.622626 0.652903 0.819145 -0.081725 -0.008295 0.007218
2.965143 0.528810 0.769021 0.000000 -0.012336 0.000085
2.683360 0.445964 0.725516 -0.000001 -0.810761 0.000006
1.068497 0.426715 0.663451 -0.000000 -0.999678 -0.000000
2.234743 0.533574 0.561553 0.000000 0.025391 -0.000315
1.694327 0.532588 0.561528 0.000000 0.025391 -0.000315
1.977590 0.238015 1.047871 0.078826 0.009889 0.007808
2.096481 0.677688 0.850291 0.078828 -0.007417 0.005876
1.074883 0.634234 0.665011 0.000000 0.999924 -0.000000
1.847350 0.808694 0.326738 -0.078748 0.005247 0.003796
3.131179 0.525854 0.768925 0.000000 -0.025391 0.000021
1.928424 0.820987 1.009821 -0.078749 0.004835 -0.003499
0.638240 0.428855 0.686430 -0.000000 -0.976848 0.000001
0.638240 0.633331 0.678899 -0.000000 0.990297 0.000002
1.727927 0.292344 0.366020 -0.078747 -0.005658 0.004092
1.912204 0.089941 1.218861 -0.078747 -0.011110 -0.007977
2.342507 0.434640 0.625393 0.000000 -0.923853 -0.000013
3.302067 0.311575 0.390187 0.013058 -0.038932 0.010649
2.896493 0.426687 0.666655 0.000000 -0.999924 0.000000
2.537280 0.628659 0.631690 0.000000 0.950339 -0.000001
3.267680 0.547385 0.562873 -0.000000 0.163943 -0.000385
3.286040 0.534971 0.768935 -0.000068 0.010748 0.001854
1.652817 0.634145 0.668872 0.000000 0.999678 0.000000
1.622626 0.408003 0.511371 -0.078747 -0.006173 0.004462
2.096481 0.350173 0.438695 0.078825 0.006946 -0.005506
0.920821 0.634154 0.668543 -0.000000 0.999678 0.000000
1.219367 0.426786 0.660658 0.000000 -0.999678 -0.000000
1.904267 0.523392 0.768794 0.000000 -0.063485 0.000126
1.855573 0.633303 0.679102 0.000000 0.990011 0.000002
1.955689 0.690210 0.481711 0.075951 0.003849 0.003059
1.622626 0.652903 0.511371 -0.081724 -0.008295 -0.007219
1.991893 0.189765 0.223824 0.078826 0.004592 -0.003648
0.297387 0.426896 0.658525 0.000000 -0.997931 -0.000002
0.921619 0.426727 0.667558 0.000000 -0.999678 0.000000
3.005937 0.399496 0.827401 0.013056 0.031023 0.008864
1.956071 0.965087 1.217604 -0.081724 -0.010323 0.008958
1.811502 0.680962 0.832426 -0.078750 0.003446 -0.002496
3.140373 0.442834 0.546220 0.013055 -0.031247 0.010357
1.738952 0.420360 0.786446 -0.078747 -0.008333 -0.006008
1.514720 0.475836 0.577012 0.000001 -0.516406 -0.000027
3.277091 0.316975 0.933542 0.013058 -0.019484 -0.009321
1.612107 0.522245 0.768713 0.000000 -0.088508 0.000045
2.537280 0.496885 0.763463 0.000000 -0.335095 0.000011
2.891703 0.530946 0.561480 0.000000 0.012699 -0.000041
0.364440 0.526018 0.561586 -0.000000 -0.025391 -0.000021
2.153321 0.534560 0.768938 -0.000000 0.025391 0.000315
3.115072 0.665098 0.830008 0.013060 -0.037892 0.009098
3.277091 0.743931 0.396974 0.013060 0.019482 0.009322
1.984741 0.860589 0.264036 0.075948 0.009287 0.007335
3.024213 0.629170 0.697264 -0.000001 0.949658 0.000005
3.217827 0.421710 0.810438 0.013059 -0.029213 -0.010249
1.995468 0.879072 1.116205 0.078827 -0.004003 0.003181
0.110233 0.592132 0.606628 -0.359398 0.000069 -0.000069
1.292008 0.528975 0.561511 0.000000 -0.025028 -0.000021
0.297387 0.626862 0.626836 0.000001 0.880614 -0.000001
3.327044 0.754732 0.947115 0.013057 0.038933 -0.010649
2.439893 0.616787 0.722846 0.000001 0.793620 0.000003
1.835962 0.706023 0.424067 -0.081723 -0.005530 -0.004826
3.394265 0.441377 0.665258 0.163958 -0.000292 0.000004
1.780578 0.826392 1.037172 -0.081722 -0.004424 0.003864
1.925367 0.985422 0.093485 -0.081723 -0.009954 -0.008643
1.319947 0.473273 0.751869 0.000000 -0.560667 0.000012
2.634667 0.488399 0.570385 -0.000000 -0.405970 -0.000036
1.989211 0.588437 0.578766 0.078826 -0.007064 -0.005599
2.096481 0.991619 0.085699 0.078825 -0.008948 -0.007075
2.096481 0.069288 1.244817 0.078827 0.008948 0.007075
3.002353 0.684526 0.471630 0.013058 0.058301 0.010978
2.125382 0.634208 0.664108 0.000000 0.999678 -0.000000
2.780746 0.521549 0.768651 0.000000 -0.088492 0.000180
2.498166 0.527168 0.561557 0.000000 -0.025391 -0.000315
0.125966 0.464592 0.602653 -0.298036 -0.000092 -0.000083
1.945409 0.334186 0.931097 0.078826 0.006358 0.005043
0.443467 0.598517 0.743598 0.000001 0.660683 0.000036
2.099040 0.524622 0.561644 0.000001 -0.063194 -0.000253
3.235364 0.659254 0.511098 0.013056 -0.031024 -0.008863
1.980899 0.426694 0.664272 -0.000000 -0.999678 -0.000000
1.900713 0.408550 0.487197 0.078826 0.008830 -0.006983
1.198612 0.634193 0.666983 0.000000 0.999678 0.000000
1.417333 0.550417 0.563420 0.000001 0.182109 -0.000022
0.094908 0.546219 0.741975 -0.419246 0.000016 0.000070
0.490563 0.526182 0.561582 -0.000000 -0.025391 -0.000041
1.904267 0.501982 0.565457 0.000000 -0.262626 -0.000015
3.244133 0.395774 0.503306 0.013057 0.031020 -0.008864
0.443467 0.476679 0.754015 0.000000 -0.518278 0.000013
1.734239 0.426677 0.664929 0.000000 -0.999678 -0.000000
2.926826 0.626581 0.626152 0.000000 0.923830 -0.000007
2.096481 0.826392 0.293344 0.078826 -0.010125 -0.007991
3.289233 0.634205 0.667805 0.000000 0.999915 0.000000
2.096481 0.234514 1.037172 0.078826 0.010125 0.007991
1.971332 0.149949 1.128138 0.075951 -0.004155 -0.003301
1.417333 0.623130 0.711953 -0.000001 0.890026 0.000004
2.096481 0.036242 0.044170 0.078827 0.007064 -0.005599
2.096481 1.024664 1.286346 0.078826 -0.007064 0.005599
1.466027 0.433218 0.701533 0.000000 -0.911476 0.000001
3.447388 0.353110 0.888130 -0.038780 -0.013482 -0.009948
1.758187 0.620544 0.613750 0.000000 0.868064 -0.000001
2.717685 0.634158 0.668379 -0.000000 0.999678 0.000000
1.930212 0.651248 0.796724 0.075951 0.005132 -0.004074
2.852496 0.652123 0.818164 0.013060 0.038926 -0.010650
2.780746 0.562693 0.566617 -0.000001 0.311142 -0.000049
2.096481 0.727256 0.417931 0.078826 -0.006475 -0.005135
0.881707 0.575342 0.758823 -0.000000 0.428963 0.000034
0.664582 0.533903 0.768954 0.000000 0.025028 0.000021
2.099040 0.432868 0.629949 -0.000001 -0.927916 -0.000001
1.752931 0.676428 0.496461 -0.078748 0.006893 0.004979
2.281041 0.527825 0.768975 0.000000 -0.025391 0.000315
0.728442 0.527003 0.561561 0.000000 -0.025028 -0.000010
3.374792 0.509813 0.574830 0.182800 -0.000068 -0.000253
2.047316 0.737982 0.932309 0.078826 -0.006475 0.005135
3.012705 0.450012 0.557134 0.013056 -0.025977 0.010027
2.780746 0.426904 0.672114 -0.000000 -0.997668 0.000001
1.319947 0.585524 0.753223 0.000000 0.538680 0.000013
3.127885 0.615372 0.549613 0.013058 0.016239 0.008744
2.439893 0.430306 0.692461 -0.000000 -0.964816 0.000009
1.819839 0.323038 0.420723 -0.078747 -0.003035 0.002199
3.411972 0.612590 0.562034 -0.038778 0.009477 0.007192
1.563413 0.612523 0.728785 0.000000 0.782952 0.000013
0.784320 0.621586 0.714901 -0.000000 0.880081 0.000009
2.007089 0.085834 0.095141 0.078826 0.012243 -0.009628
3.394265 0.508586 0.751608 0.182794 -0.000068 0.000253
1.856846 0.762896 0.939332 -0.078748 0.005658 -0.004092
0.836206 0.525854 0.561591 0.000000 -0.025028 -0.000320
2.012006 0.380662 0.843170 0.075949 -0.003849 -0.003059
0.225544 0.533000 0.769010 0.000000 0.012336 0.000021
0.833013 0.445343 0.724647 0.000000 -0.813538 0.000001
1.801028 0.369728 0.885126 -0.081722 0.005807 0.005066
2.293813 0.623772 0.619849 -0.000001 0.901196 -0.000008
1.622626 0.408003 0.819145 -0.078747 -0.006173 -0.004462
1.675276 0.350173 0.438695 -0.078747 -0.003241 0.002348
3.207528 0.620920 0.788957 0.013059 0.031237 -0.010359
3.068775 0.388564 0.489646 0.013058 0.034459 -0.008995
1.898044 0.246650 0.292589 -0.081723 0.004056 -0.003543
1.978484 0.911618 0.171253 0.078825 -0.008006 -0.006338
2.727616 0.625121 0.784230 0.013056 0.038936 -0.010648
3.376996 0.295373 0.960689 0.013057 -0.058306 -0.010978
3.376996 0.765533 0.369827 0.013059 0.058297 0.010979
3.111017 0.411284 0.809070 0.013059 0.017240 0.007664
1.049339 0.532753 0.561532 0.000000 0.025391 -0.000041
1.095638 0.528564 0.768994 0.000000 -0.025391 0.000041
2.096481 0.003197 1.327875 0.078826 0.007064 0.005599
2.096481 1.057709 0.002641 0.078824 -0.007064 -0.005599
3.447388 0.707796 0.442386 -0.038781 0.013481 0.009948
0.540853 0.445271 0.605969 0.000000 -0.828011 -0.000005
3.406750 0.323957 0.402503 -0.038778 -0.013482 0.009948
2.096481 0.184946 0.231050 0.078826 0.009183 -0.007258
3.453290 0.723664 0.908072 -0.038778 0.013482 -0.009948
3.170293 0.442101 0.719699 -0.000000 -0.855255 0.000005
1.802472 0.480766 0.572164 -0.081722 0.005899 -0.005146
0.540853 0.622151 0.713852 -0.000000 0.880420 0.000017
0.540853 0.442555 0.720433 0.000000 -0.842166 0.000001
2.050347 0.556227 0.765788 -0.000001 0.217210 0.000009
1.990999 0.361106 0.439039 0.078827 0.001737 -0.001382
0.346080 0.620156 0.717443 -0.000001 0.864490 0.000005
1.714104 0.686305 0.868727 -0.081723 -0.003088 0.002699
2.096481 0.875960 1.099466 0.078826 -0.009183 0.007258
2.293813 0.440791 0.717515 0.000000 -0.868064 0.000002
3.336787 0.632107 0.798207 -0.038778 0.018718 -0.013170
0.540853 0.607516 0.595744 0.000000 0.749526 -0.000007
1.835456 0.434853 0.753470 0.075948 -0.006843 -0.005423
2.926826 0.612523 0.728785 0.000000 0.783132 0.000002
2.342507 0.601716 0.740703 0.000000 0.679755 0.000017
2.439893 0.453667 0.595442 0.000000 -0.733439 -0.000015
1.727927 0.292344 0.964496 -0.078748 -0.011316 -0.008121
2.342507 0.512468 0.563048 0.000000 -0.163955 -0.000096
0.735627 0.435163 0.706373 0.000000 -0.913842 0.000001
2.878133 0.482805 0.757452 -0.000001 -0.439494 0.000008
1.595343 0.532260 0.561520 0.000000 0.025391 -0.000315
2.245120 0.445605 0.605502 0.000000 -0.813436 -0.000011
0.686933 0.447493 0.602912 -0.000001 -0.798335 -0.000024
2.882251 0.434204 0.547545 0.013057 0.020690 -0.008130
0.072826 0.467173 0.685112 -0.505617 -0.000046 0.000013
0.686933 0.608603 0.596978 0.000001 0.744180 -0.000004
2.975520 0.443597 0.722058 0.000001 -0.830484 0.000003
3.296337 0.447335 0.567951 -0.038779 0.014653 -0.011111
1.780578 0.234514 1.037172 -0.078747 -0.009670 -0.006959
2.585973 0.572057 0.570185 0.000001 0.405854 -0.000072
2.196427 0.612820 0.602125 0.000000 0.798241 -0.000012
2.005301 0.279810 0.338689 0.078826 0.012008 -0.009447
2.752592 0.430385 0.791016 0.013058 -0.051853 -0.010903
1.705968 0.436953 0.562517 -0.078747 -0.004630 0.003351
2.537280 0.614106 0.726685 0.000000 0.798255 0.000002
1.877341 0.167276 0.204416 -0.081723 0.003595 -0.003141
3.316373 0.451706 0.732860 0.186490 -0.000211 0.000176
2.634667 0.428685 0.644931 -0.000000 -0.979234 -0.000001
1.222560 0.594655 0.583725 -0.000000 0.622079 -0.000020
3.121600 0.612114 0.729299 0.000000 0.782882 0.000006
3.172688 0.532261 0.561497 0.000000 0.012694 -0.000165
1.946303 0.433749 0.768417 0.075948 -0.005132 -0.004075
0.200000 0.621196 0.614891 -0.042697 0.000454 -0.000244
3.152210 0.716929 0.899607 0.013058 0.034074 -0.010485
2.685755 0.529549 0.769030 0.000000 -0.012336 0.000021
0.979093 0.609622 0.598160 0.000000 0.764459 -0.000002
1.754252 0.797477 0.329682 -0.081723 -0.004793 -0.004185
2.623491 0.634162 0.668215 0.000000 0.999678 0.000000
0.979093 0.451706 0.597656 0.000000 -0.767210 -0.000003
0.881707 0.602074 0.590151 0.000000 0.697121 -0.000008
2.024074 0.110118 1.202700 0.078826 0.006358 0.005043
1.806903 0.855306 0.257006 -0.081721 -0.004056 -0.003543
1.417333 0.623666 0.619626 0.000001 0.895703 -0.000002
1.919038 0.745542 0.416656 0.075949 0.006599 0.005231
1.904267 0.613710 0.603306 0.000000 0.798539 -0.000012
1.891463 0.238568 1.016659 -0.078749 -0.004835 -0.003499
1.125173 0.450414 0.731316 0.000001 -0.765268 0.000007
3.313875 0.625327 0.552366 -0.038778 -0.014653 -0.011111
1.222560 0.470362 0.580649 -0.000000 -0.579396 -0.000006
2.958771 0.632630 0.541177 0.013058 -0.024133 -0.008457
1.125173 0.452222 0.597070 -0.000000 -0.750377 -0.000014
1.686470 0.615925 0.759550 -0.078749 0.003086 -0.002236
0.930400 0.467845 0.748020 0.000001 -0.593804 0.000011
2.829440 0.621586 0.615615 -0.000000 0.880389 -0.000017
1.027787 0.457067 0.738644 0.000000 -0.698072 0.000033
3.072906 0.461279 0.742620 0.000000 -0.660873 0.000036
1.125173 0.607183 0.735134 -0.000000 0.733461 0.000015
1.758187 0.626832 0.703757 0.000000 0.933346 0.000002
1.125173 0.607239 0.595442 0.000000 0.733439 -0.000007
1.563413 0.454226 0.735677 0.000000 -0.729505 0.000004
3.170293 0.432647 0.630568 -0.000000 -0.942071 -0.000006
0.200000 0.429982 0.639244 -0.042694 -0.000501 -0.000123
1.660800 0.454784 0.736280 0.000000 -0.733394 0.000015
0.881707 0.455862 0.593107 0.000000 -0.715885 -0.000016
0.346080 0.449201 0.729814 0.000000 -0.782952 0.000013
1.027787 0.606820 0.735526 -0.000001 0.732539 0.000015
3.336599 0.693089 0.863156 -0.038779 -0.013291 0.010191
0.297387 0.470229 0.580745 0.000001 -0.581409 -0.000045
2.372840 0.634200 0.663779 0.000000 0.999678 -0.000000
1.800801 0.263358 0.323803 -0.081724 0.004701 -0.004105
3.072906 0.625793 0.624255 0.000001 0.902989 -0.000002
3.417875 0.432448 0.788423 -0.038779 -0.008427 -0.006433
2.096481 0.399741 0.829527 0.078827 0.003532 0.002808
2.585973 0.440668 0.717301 -0.000000 -0.865754 0.000002
3.406070 0.596723 0.748541 -0.038776 0.009477 -0.007192
2.013347 0.646107 0.821161 0.078828 -0.008830 0.006983
2.019604 0.838684 1.043216 0.075950 0.010264 -0.008094
1.647474 0.599869 0.587862 -0.000000 -0.622646 0.000135
1.835456 0.594345 0.778701 0.078824 -0.006593 0.005228
3.211990 0.357314 0.885280 0.013057 -0.058304 -0.010978
3.050966 0.613330 0.776985 0.013058 0.058301 -0.010978
2.050347 0.625952 0.624634 0.000000 0.923906 -0.000007
2.040164 0.680812 0.469146 0.078825 -0.003709 -0.002948
2.096481 0.416264 0.521753 0.078825 0.003532 -0.002808
2.975520 0.432372 0.631342 -0.000001 -0.927916 -0.000001
0.110233 0.611649 0.690733 -0.359398 0.000090 0.000026
1.928424 0.800572 0.304450 0.078825 -0.005534 -0.004392
3.312953 0.366124 0.453467 0.013060 -0.019482 0.009322
0.248693 0.457537 0.739103 0.000000 -0.698027 0.000033
3.213835 0.610799 0.576456 -0.038780 -0.012097 -0.009360
3.072906 0.507595 0.564029 0.000000 -0.213732 -0.000146
2.005301 0.285257 0.962248 0.075949 -0.006110 -0.004846
1.379815 0.529960 0.769029 0.000000 -0.025028 0.000010
1.222560 0.456665 0.738232 0.000000 -0.715965 0.000016
1.874815 0.843803 1.068816 -0.081721 -0.008111 0.007060
2.014241 0.990936 0.076112 0.078826 -0.010831 -0.008539
3.211990 0.703592 0.445236 0.013058 0.058302 0.010978
0.065739 0.521087 0.604120 -0.533385 -0.000008 -0.000044
2.703316 0.533410 0.561549 0.000000 0.025391 -0.000083
3.441485 0.368977 0.462327 -0.038778 -0.020220 0.014008
1.417333 0.469861 0.581008 0.000001 -0.580253 -0.000022
2.932999 0.432230 0.792484 0.013056 -0.022733 -0.009730
1.887978 0.858260 0.243531 -0.081724 -0.007374 -0.006423
2.099040 0.437739 0.711880 -0.000000 -0.892122 0.000008
1.856017 0.420657 0.556691 0.075948 -0.003422 0.002720
1.877471 0.658629 0.476363 0.078826 -0.003297 -0.002621
1.222560 0.603722 0.738759 -0.000001 0.693827 0.000008
1.894080 0.144887 1.153782 -0.081724 0.003226 0.002819
2.001653 0.509401 0.563634 -0.000000 -0.213475 -0.000037
1.612107 0.458155 0.590810 0.000000 -0.698056 -0.000016
0.718863 0.634158 0.668379 0.000000 0.999678 0.000000
0.686933 0.605159 0.737291 -0.000000 0.716024 0.000031
2.488587 0.561522 0.764282 -0.000000 0.311218 0.000024
1.952560 0.768328 0.946596 0.075949 0.006110 -0.004846
2.777568 0.635922 0.532713 0.013056 0.051861 0.010902
0.297387 0.570242 0.569413 0.000000 0.382725 -0.000077
2.021392 0.054106 1.273432 0.078825 0.010360 0.008174
3.218987 0.490816 0.761166 0.000000 -0.382725 0.000077
3.046564 0.532178 0.769020 -0.000005 0.003125 0.000336
1.885879 0.942050 1.182524 -0.081723 -0.005899 0.005146
1.662114 0.696276 0.456864 -0.081723 -0.006176 -0.005386
3.351748 0.340651 0.899731 0.013059 0.031017 0.008865
1.904267 0.606122 0.736280 0.000000 0.733439 0.000007
2.147733 0.606792 0.735556 0.000001 0.716877 0.000004
2.096481 0.776824 0.355637 0.078827 -0.012008 -0.009447
2.096481 0.300605 0.376402 0.078826 0.006005 -0.004764
2.083072 0.628919 0.787362 0.075947 0.003666 -0.002914
3.052306 0.695327 0.872459 0.013058 0.064733 -0.011036
3.252115 0.738531 0.926755 0.013058 0.048628 -0.010856
3.401972 0.770933 0.967476 0.013057 0.038934 -0.010648
3.227139 0.327776 0.410548 0.013058 -0.024351 0.009891
2.013347 0.123814 0.164394 0.075949 -0.003666 0.002914
3.218987 0.470028 0.580888 -0.000000 -0.581588 -0.000045
2.878133 0.561522 0.764282 -0.000000 0.311382 0.000049
0.841794 0.634162 0.662301 0.000000 0.999678 -0.000000
3.267680 0.604757 0.737703 0.000001 0.715937 0.000062
1.764947 0.639199 0.781090 -0.078748 0.008333 -0.006008
2.702640 0.441186 0.553073 0.013058 -0.038931 0.010649
2.013347 0.937092 1.166122 0.075951 0.003666 -0.002914
2.021392 1.006800 1.273432 0.078825 -0.010360 0.008174
1.514720 0.429737 0.640242 0.000000 -0.969715 -0.000002
1.951692 0.046569 0.057148 -0.078748 -0.009464 0.006813
1.918928 0.194121 1.074267 -0.078747 -0.004115 -0.002980
1.296797 0.426682 0.665751 0.000000 -0.999678 0.000000
1.784063 0.775158 0.979030 -0.081723 -0.005070 0.004426
1.793559 0.722519 0.920028 -0.081723 -0.005530 0.004826
0.394773 0.460155 0.588919 -0.000000 -0.679696 -0.000017
2.419139 0.528318 0.561528 0.000000 -0.025409 -0.000010
2.607526 0.528975 0.769004 0.000000 -0.025028 0.000021
1.990999 0.716323 0.418275 0.078826 -0.001737 -0.001382
2.026756 0.190704 1.083700 0.075950 -0.004643 -0.003688
2.147733 0.468501 0.582001 -0.000000 -0.602048 -0.000021
1.977590 0.223573 0.294137 0.075949 -0.010264 0.008094
0.146104 0.530453 0.568635 -0.227508 0.000002 -0.000089
1.952960 0.451815 0.597533 0.000001 -0.748048 -0.000007
2.975520 0.516731 0.562391 -0.000000 -0.138913 -0.000228
3.034496 0.643694 0.527813 0.013058 -0.061899 -0.009432
3.429680 0.660193 0.502210 -0.038777 0.006742 0.005189
2.196427 0.473757 0.752181 0.000000 -0.539630 0.000012
1.687940 0.529632 0.769021 0.000000 -0.025391 0.000315
1.910099 0.360879 0.428481 0.078828 0.001707 -0.001358
2.884639 0.606547 0.564760 0.013058 0.019485 0.009321
0.998251 0.634183 0.667393 0.000000 0.999678 0.000000
2.048210 0.942368 0.141463 0.078824 -0.006358 -0.005043
1.514720 0.550417 0.563420 0.000001 0.187104 -0.000042
3.144631 0.388753 0.491574 0.013056 0.033174 -0.008950
1.847350 0.808694 1.003777 -0.078747 0.010493 -0.007542
1.319947 0.462851 0.586511 0.000000 -0.660890 -0.000018
1.417333 0.467746 0.747946 0.000000 -0.602018 0.000011
3.274159 0.387643 0.851222 0.013058 -0.048626 -0.010856
1.476404 0.634218 0.665997 0.000000 0.999678 0.000000
1.979302 0.530864 0.769031 -0.000005 0.005741 0.000183
1.813873 0.764785 0.382796 -0.078747 0.011316 0.008121
1.937793 0.634183 0.667393 0.000000 0.999678 0.000000
1.806880 0.503211 0.765394 -0.000001 -0.261368 0.000030
1.563413 0.633923 0.657214 0.000000 0.996075 -0.000001
2.829440 0.438658 0.616845 -0.000000 -0.880422 -0.000009
2.439893 0.628659 0.631690 0.000000 0.950258 -0.000010
1.924849 0.619152 0.531991 0.078829 -0.002472 -0.001966
3.355319 0.612103 0.613954 0.185262 0.000995 -0.000550
0.372422 0.426690 0.663615 -0.000000 -0.999919 -0.000000
2.488587 0.596795 0.585456 0.000000 0.641664 -0.000019
1.145130 0.426702 0.663944 -0.000000 -0.999678 -0.000000
2.015582 0.694437 0.881615 0.078825 -0.003415 0.002714
0.052018 0.581615 0.654744 -0.587198 0.000033 -0.000006
1.806880 0.553913 0.564160 0.000000 0.238267 -0.000033
1.275245 0.529221 0.769011 0.000000 -0.025391 0.000041
0.995058 0.426671 0.665094 0.000000 -0.999919 -0.000000
1.537869 0.530617 0.769038 -0.000000 0.025391 0.000010
0.638240 0.468632 0.748614 -0.000001 -0.601949 0.000042
2.958771 0.628413 0.792694 0.013055 0.022736 -0.009730
1.871213 0.673663 0.873841 0.078825 -0.001854 0.001475
1.319947 0.593094 0.582520 0.000001 0.600502 -0.000011
3.052306 0.365579 0.872459 0.013058 -0.064732 -0.011036
3.411972 0.448316 0.562034 -0.038779 -0.009477 0.007191
1.904267 0.436288 0.708886 0.000000 -0.903311 0.000008
1.844933 0.362414 0.478410 -0.078748 -0.003292 0.002385
2.732053 0.437350 0.619405 0.000000 -0.891649 -0.000004
2.780746 0.591011 0.749532 -0.000000 0.581352 0.000011
2.099040 0.593455 0.582792 0.000000 0.602145 -0.000011
0.394773 0.588789 0.579431 -0.000001 0.560209 -0.000024
1.885516 0.329889 0.891505 0.075950 -0.006598 -0.005231
1.736808 0.372288 0.853039 -0.078747 -0.006893 -0.004979
2.829440 0.443663 0.722162 0.000000 -0.841670 0.000005
1.758625 0.707675 0.431811 -0.081723 -0.005807 -0.005066
0.404352 0.534888 0.768930 0.000000 0.025028 0.000021
0.248693 0.596511 0.745297 -0.000000 0.641705 0.000038
1.368640 0.435213 0.706486 0.000000 -0.913758 0.000007
3.335846 0.615216 0.718518 0.185262 0.000962 0.000683
2.537280 0.470630 0.580458 0.000000 -0.581540 -0.000011
2.293813 0.572395 0.570335 0.000000 0.405972 -0.000036
0.158388 0.510467 0.762510 -0.171808 -0.000055 0.000235
2.829440 0.497041 0.567001 0.000000 -0.311599 -0.000024
0.386791 0.634125 0.660823 0.000000 0.999678 -0.000000
1.949969 0.153578 0.179709 -0.081723 0.005899 -0.005146
2.005301 0.781096 0.991826 0.078826 -0.012008 0.009447
3.351748 0.720255 0.430785 0.013056 -0.031023 -0.008864
3.115072 0.660750 0.497048 0.013058 0.035696 0.010546
3.290162 0.433042 0.795715 -0.038779 -0.014864 -0.010843
1.271253 0.629831 0.695146 0.000000 0.957726 0.000005
2.061618 0.868846 0.235563 0.078826 -0.009183 -0.007258
1.870579 0.292835 0.348814 -0.081723 0.009586 -0.008327
2.040164 0.381514 0.484972 0.075949 -0.003849 0.003059
1.951692 1.014337 1.273368 -0.081723 -0.008480 0.007377
1.951692 0.046569 1.273368 -0.078748 -0.009464 -0.006813
1.712957 0.628483 0.528041 -0.081723 -0.007466 -0.006503
2.488587 0.454756 0.736249 -0.000000 -0.733457 0.000059
2.050347 0.460757 0.588361 0.000000 -0.679860 -0.000009
0.479388 0.534560 0.768938 0.000000 0.025391 0.000083
0.191628 0.471369 0.580370 -0.042696 -0.000300 -0.000419
2.732053 0.613809 0.603437 -0.000000 0.797673 -0.000006
0.589547 0.588381 0.751362 -0.000000 0.560221 0.000012
2.022733 0.312732 0.400664 0.075949 -0.003360 0.002671
1.744005 0.337755 0.914579 -0.081722 0.005531 0.004826
1.744005 0.337755 0.415937 -0.081722 0.005531 -0.004826
2.099040 0.492108 0.761696 -0.000001 -0.356993 0.000021
0.158388 0.578636 0.752067 -0.171811 0.000124 0.000211
2.194032 0.634116 0.670022 0.000000 0.999687 0.000000
0.496950 0.634141 0.661480 0.000000 0.999678 -0.000000
1.967757 0.598675 0.767342 0.078827 -0.004945 0.003927
1.583138 0.609531 0.565878 -0.081722 -0.005531 -0.004826
1.926079 0.881780 1.093986 -0.078746 0.004012 -0.002905
0.248693 0.633817 0.674489 -0.000001 0.995865 0.000006
2.990118 0.588501 0.746863 0.000000 0.622649 0.000349
1.758187 0.446800 0.726685 0.000000 -0.798255 0.000002
2.166891 0.530453 0.561474 0.000000 0.025391 -0.000165
3.072906 0.449891 0.599833 -0.000000 -0.782760 -0.000006
3.316373 0.432248 0.631690 0.186107 -0.000261 -0.000086
2.488587 0.633360 0.678695 -0.000000 0.990246 0.000002
0.575178 0.426756 0.661808 0.000000 -0.999678 -0.000000
3.218987 0.558369 0.765210 0.000000 0.262964 0.000059
3.218987 0.629068 0.697576 0.000000 0.950258 0.000010
0.852970 0.426731 0.662794 0.000000 -0.999678 -0.000000
1.693951 0.408248 0.502768 -0.081724 0.007466 -0.006503
1.797931 0.428190 0.817899 -0.081723 0.007466 0.006503
1.863168 0.655244 0.793544 0.075954 0.003421 -0.002720
1.918928 0.194121 0.256249 -0.078747 -0.004115 0.002980
0.506528 0.426673 0.664929 -0.000000 -0.999922 -0.000000
1.466027 0.593717 0.747526 0.000000 0.601942 0.000021
0.133964 0.437087 0.665258 -0.274692 -0.000069 0.000002
2.926826 0.473618 0.578424 0.000000 -0.539253 -0.000006
3.121600 0.427220 0.675921 -0.000000 -0.993087 0.000001
0.930400 0.611066 0.730618 0.000001 0.782249 0.000013
2.683360 0.616810 0.722812 -0.000001 0.823263 0.000005
2.096481 0.284082 0.974879 0.078826 0.012008 0.009447
1.938704 0.265866 0.978470 0.075950 -0.005621 -0.004461
0.881707 0.509080 0.766812 0.000000 -0.213129 0.000018
3.335846 0.563516 0.570769 0.190127 0.000077 -0.000258
1.764947 0.442394 0.532966 -0.081723 0.007466 -0.006503
1.758187 0.445271 0.605969 -0.000001 -0.827923 -0.000043
0.589547 0.629572 0.634504 -0.000000 0.957838 -0.000005
2.017369 0.350111 0.901945 0.078827 0.003473 0.002761
1.986529 0.641282 0.539427 0.075949 0.009164 0.007240
1.828305 0.611058 0.596766 0.000001 -0.622647 0.000541
0.735627 0.478874 0.755308 0.000000 -0.496128 0.000014
0.784320 0.487122 0.570952 0.000000 -0.428765 -0.000017
2.391200 0.564446 0.763312 -0.000000 0.335183 0.000022
3.266448 0.646066 0.800815 -0.038780 -0.012097 0.009360
2.055361 0.979750 1.224871 0.075949 0.012707 -0.009973
1.621641 0.591755 0.749110 -0.000000 -0.622653 -0.000270
2.783141 0.634150 0.661808 0.000000 0.999678 -0.000000
3.282928 0.679536 0.471816 0.013060 0.024348 0.009891
1.949969 0.918730 1.141734 -0.078745 0.003601 -0.002608
2.827520 0.414183 0.519139 0.013057 -0.032457 0.010416
2.012453 0.813482 0.298897 0.078825 -0.005534 -0.004392
1.224156 0.532178 0.561518 0.000000 0.025391 -0.000021
2.045557 0.426686 0.665915 0.000000 -0.999682 0.000000
1.957477 0.375572 0.877554 0.078827 0.003414 0.002714
3.179304 0.661507 0.835637 0.013058 0.031241 -0.010358
1.936236 0.896507 0.217586 -0.078748 0.003704 0.002682
2.732053 0.481099 0.756547 -0.000000 -0.473998 0.000030
2.256295 0.426690 0.666079 0.000000 -0.999678 0.000000
1.924849 0.420905 0.548581 0.075952 -0.005132 0.004074
0.784320 0.563552 0.566899 -0.000000 0.311340 -0.000024
3.389212 0.728356 0.909911 -0.038780 -0.019932 0.014371
1.368640 0.508598 0.563809 0.000000 -0.213628 -0.000146
2.634667 0.616603 0.607398 -0.000001 0.826329 -0.000011
3.394265 0.497685 0.635093 1.000000 0.000000 -0.000000
2.873344 0.634129 0.660987 0.000000 0.999678 -0.000000
1.815078 0.688459 0.488230 -0.078748 0.003292 0.002385
0.045399 0.518649 0.710846 -0.613189 -0.000007 0.000025
3.012705 0.450012 0.773382 0.013059 -0.051852 -0.010904
0.443467 0.434954 0.705882 0.000001 -0.923610 0.000013
2.001653 0.443641 0.722127 -0.000000 -0.839104 0.000003
1.660800 0.434986 0.624558 0.000001 -0.919892 -0.000003
1.837283 0.219283 1.061649 -0.081723 0.004056 0.003543
3.415179 0.386611 0.844811 -0.038778 0.006646 0.005309
3.267680 0.618484 0.610291 -0.000002 0.586201 -0.000002
0.735627 0.571944 0.760381 -0.000000 0.405282 0.000018
2.293813 0.474829 0.577648 0.000000 -0.539597 -0.000012
2.217979 0.531767 0.769009 -0.000000 0.025028 0.000084
1.709493 0.590744 0.580793 -0.000000 0.575744 -0.000003
0.426703 0.534888 0.561586 0.000000 0.025391 -0.000010
1.955689 0.686079 0.843614 0.075950 0.007698 -0.006094
2.391200 0.447715 0.727899 -0.000001 -0.797268 0.000012
2.634667 0.474932 0.752935 0.000000 -0.539601 0.000012
1.889092 0.463243 0.776060 0.078824 0.003297 0.002621
0.110233 0.481839 0.735104 -0.359392 -0.000056 0.000076
2.028543 0.038243 0.038056 0.078826 0.008948 -0.007075
1.790942 0.637851 0.554783 -0.078746 0.008333 0.006008
1.466027 0.511821 0.563164 0.000000 -0.188787 -0.000083
1.466027 0.586250 0.577759 0.000000 0.539597 -0.000012
3.355319 0.562302 0.756277 0.185264 0.000303 0.001051
2.693737 0.426731 0.667722 0.000000 -0.999678 0.000000
1.957030 0.394734 0.818760 0.075948 -0.009164 -0.007240
1.904267 0.563708 0.566950 0.000001 0.310562 -0.000049
2.975520 0.606178 0.594297 -0.000000 0.732618 -0.000007
2.062512 1.023664 0.041113 0.078826 -0.008948 -0.007075
1.137147 0.634200 0.663779 0.000000 0.999678 -0.000000
0.589547 0.472797 0.578970 -0.000000 -0.560667 -0.000012
1.806880 0.430339 0.692580 -0.000000 -0.964687 0.000002
1.693951 0.408248 0.827748 -0.081724 0.007466 0.006503
1.378219 0.634224 0.665751 -0.000000 0.999678 0.000000
0.443467 0.630881 0.691430 -0.000000 0.964898 0.000001
3.170666 0.649910 0.522368 0.013058 -0.066169 -0.009461
3.155459 0.385748 0.842786 0.013056 0.033173 0.008950
2.969932 0.634133 0.669365 0.000000 0.999678 0.000000
0.551231 0.534067 0.561566 0.000000 0.025028 -0.000042
2.070111 0.362095 0.873612 0.075949 -0.001772 -0.001410
1.955689 0.374827 0.486902 0.075949 -0.007698 0.006095
3.129876 0.459694 0.764460 0.013057 -0.032458 -0.010416
2.927425 0.392582 0.838525 0.013056 -0.022733 -0.009730
2.293813 0.633166 0.680079 -0.000001 0.990113 0.000004
2.585973 0.444925 0.606480 0.000001 -0.816218 -0.000003
2.050347 0.560892 0.566045 0.000000 0.287248 -0.000027
1.885516 0.731017 0.891505 -0.078748 0.006070 -0.004388
1.466027 0.444580 0.606990 0.000000 -0.827640 -0.000011
0.694916 0.426748 0.662137 -0.000000 -0.999682 -0.000000
2.058043 0.216515 0.265842 0.078827 0.010125 -0.007991
1.271253 0.618784 0.610782 -0.000000 0.837547 -0.000001
0.638240 0.580494 0.574339 -0.000000 0.474207 -0.000059
0.248693 0.444948 0.606446 0.000001 -0.827293 -0.000022
3.112021 0.634125 0.669693 0.000000 0.999678 0.000000
1.076480 0.480231 0.574437 0.000000 -0.474067 -0.000015
1.709493 0.632703 0.647516 0.000000 0.986470 -0.000005
2.958771 0.428276 0.541177 0.013057 0.048203 -0.009293
2.384814 0.426721 0.667311 0.000000 -0.999678 0.000000
2.340910 0.531931 0.769004 0.000000 0.025400 0.000021
2.029437 0.615593 0.764054 0.075951 0.007331 -0.005807
1.271253 0.440566 0.613393 0.000001 -0.835085 -0.000002
0.158388 0.629610 0.660229 -0.179795 0.000115 -0.000003
0.248693 0.599566 0.587842 0.000001 0.660823 -0.000036
0.492160 0.469427 0.581318 -0.000000 -0.572530 -0.000003
1.719947 0.659835 0.815608 -0.078749 0.008333 -0.006008
3.374792 0.457936 0.723089 0.178677 -0.000925 0.000656
3.316373 0.504439 0.564787 0.189363 -0.000071 -0.000261
2.069664 0.004856 0.001320 0.078826 0.007064 -0.005599
2.069664 1.056050 1.329195 0.078825 -0.007064 0.005599
1.758187 0.519953 0.562006 -0.000000 -0.113754 -0.000559
1.419728 0.426677 0.664929 0.000000 -0.999678 -0.000000
0.183272 0.580340 0.575378 -0.075117 0.000294 -0.000499
0.930400 0.542789 0.768299 -0.000000 0.113712 0.000140
0.784320 0.427027 0.673793 0.000000 -0.996053 0.000001
1.798897 0.634145 0.661644 0.000000 0.999678 -0.000000
1.660800 0.485341 0.571798 0.000000 -0.428987 -0.000067
2.042846 0.624801 0.539877 0.078825 -0.003532 -0.002808
1.867003 0.760139 0.358328 -0.081722 -0.009586 -0.008327
3.170293 0.588109 0.751546 0.000000 0.560829 0.000095
1.906523 0.692095 0.437995 0.078826 -0.006829 -0.005414
1.027787 0.584929 0.576927 0.000000 0.518012 -0.000013
0.833013 0.601957 0.740480 0.000000 0.679755 0.000017
2.391200 0.478767 0.575269 0.000001 -0.495648 -0.000028
1.612107 0.626471 0.625886 -0.000000 0.923830 -0.000007
2.096481 0.760301 0.954114 0.078827 -0.006004 0.004764
0.492160 0.582746 0.575616 -0.000001 0.493114 -0.000014
1.076480 0.582032 0.755308 0.000000 0.496352 0.000056
2.342507 0.470496 0.749962 -0.000000 -0.581531 0.000022
1.514720 0.479088 0.755430 0.000001 -0.495126 0.000028
1.904267 0.434986 0.624558 0.000000 -0.923882 -0.000007
3.121600 0.559948 0.565762 -0.000000 0.287231 -0.000053
0.346080 0.440485 0.613536 -0.000000 -0.867825 -0.000009
1.806880 0.610861 0.730875 0.000001 0.694639 0.000002
0.297387 0.483501 0.757805 0.000001 -0.451579 0.000063
0.607108 0.526675 0.768946 0.000000 -0.025391 0.000021
1.948920 0.949223 0.131940 -0.081723 -0.010323 -0.008958
2.439893 0.530699 0.769039 -0.000000 0.013052 0.000020
3.005937 0.401868 0.501228 0.013059 -0.029213 0.010249
1.173867 0.481533 0.756780 0.000000 -0.473904 0.000030
2.245120 0.580962 0.755920 0.000000 0.496139 0.000014
0.833013 0.545762 0.767902 -0.000000 0.138577 0.000029
2.732053 0.563552 0.763617 0.000000 0.311873 0.000012
2.144540 0.426677 0.664929 0.000000 -0.999678 -0.000000
0.346080 0.611373 0.600284 -0.000001 0.782885 -0.000051
3.201891 0.373053 0.471506 0.013061 0.015515 -0.007356
0.670968 0.527332 0.561553 -0.000000 -0.025391 -0.000041
0.248693 0.429395 0.688878 -0.000001 -0.968490 0.000002
2.196427 0.431953 0.632588 0.000000 -0.950339 -0.000001
1.709493 0.478410 0.755043 -0.000001 -0.495934 0.000056
1.942727 0.832299 1.064122 0.078826 -0.005063 0.004020
0.638240 0.433129 0.629213 0.000000 -0.942092 -0.000011
3.386176 0.358407 0.452695 -0.038778 0.006646 -0.005309
0.038951 0.492979 0.646876 -0.638534 -0.000019 -0.000009
1.173867 0.579807 0.756547 0.000000 0.474207 0.000059
2.099040 0.583664 0.754355 0.000000 0.518012 0.000007
3.447558 0.317262 0.932369 -0.038780 0.013290 0.010191
3.447558 0.743644 0.398147 -0.038780 -0.013290 -0.010191
3.335846 0.508177 0.762855 0.185261 -0.000327 0.001134
2.846379 0.608328 0.758798 0.013060 -0.034456 0.008996
2.068770 0.151413 0.185388 0.078827 0.003650 -0.002901
2.068770 0.909494 1.145128 0.078828 -0.003650 0.002901
0.784320 0.634073 0.659509 -0.000001 0.995113 -0.000001
1.760743 0.745541 0.388254 -0.081723 -0.010876 -0.009430
1.271253 0.439320 0.714901 -0.000000 -0.880316 0.000009
0.297387 0.571906 0.760397 0.000001 0.405261 0.000036
2.634667 0.544379 0.562420 0.000001 0.138794 -0.000114
1.914122 0.768845 0.988010 0.078827 -0.006004 0.004764
3.336787 0.428799 0.532309 -0.038778 -0.018718 0.013170
1.563413 0.440607 0.613322 0.000000 -0.868074 -0.000018
2.732053 0.485489 0.571728 -0.000000 -0.428908 -0.000034
1.914122 0.790997 0.360133 -0.078748 0.005247 0.003796
2.585973 0.516080 0.562482 -0.000000 -0.138909 -0.000228
2.245120 0.632547 0.646626 0.000000 0.982018 -0.000003
2.099040 0.622888 0.712430 -0.000001 0.891636 0.000008
1.368640 0.607015 0.735315 0.000001 0.733158 0.000030
2.831502 0.442503 0.778491 0.013057 -0.032457 -0.010416
0.930400 0.477734 0.575862 0.000001 -0.501669 -0.000007
2.831502 0.621038 0.554122 0.013058 -0.034459 -0.008996
2.041058 0.150924 1.149261 0.078825 0.007300 0.005784
1.849694 0.331791 0.934561 -0.081722 0.010323 0.008958
3.355319 0.462267 0.597072 0.185263 -0.000757 -0.000848
1.027787 0.436694 0.620777 -0.000000 -0.903149 -0.000004
1.863168 0.434004 0.816097 0.078826 0.006593 0.005228
1.876577 0.654444 0.536336 0.075949 0.003422 0.002720
1.956071 0.089955 0.117578 -0.078748 -0.011110 0.007977
1.173867 0.622814 0.617939 -0.000001 0.887602 -0.000004
3.394265 0.561686 0.581837 0.183122 0.000095 -0.000243
0.735627 0.588075 0.578947 0.000001 0.559888 -0.000024
1.952162 0.535545 0.561603 0.000000 0.025391 -0.000315
0.979093 0.440362 0.716766 0.000000 -0.868087 0.000002
0.881707 0.625326 0.707312 0.000000 0.913838 0.000007
0.686933 0.449099 0.729685 0.000000 -0.782897 0.000013
2.147733 0.453009 0.734340 -0.000002 -0.584252 0.000002
2.001653 0.633206 0.650722 0.000001 0.989062 -0.000002
0.979093 0.585904 0.752979 -0.000000 0.537720 0.000006
1.417333 0.570356 0.761056 0.000000 0.382601 0.000019
2.050347 0.633177 0.679997 0.000000 0.990302 0.000002
2.070111 0.711203 0.889186 0.075948 0.001802 -0.001434
2.485394 0.426786 0.660658 -0.000000 -0.999678 -0.000000
1.027787 0.624459 0.621296 0.000000 0.903308 -0.000030
1.514720 0.626125 0.705465 -0.000001 0.922843 0.000007
1.076480 0.478303 0.754982 -0.000000 -0.495938 0.000007
1.952560 0.750845 0.370008 0.078826 -0.005887 -0.004671
1.612107 0.626031 0.705692 -0.000000 0.923830 0.000007
2.926826 0.460878 0.742267 0.000000 -0.660890 0.000005
1.806880 0.433047 0.629445 0.000000 -0.942075 -0.000006
2.439893 0.475071 0.753023 0.000000 -0.539601 0.000012
1.844933 0.362414 0.852106 -0.078748 -0.006584 -0.004757
1.857170 0.530782 0.561482 0.000000 0.025391 -0.000021
1.832386 0.718180 0.880949 -0.078748 0.006173 -0.004462
1.830916 0.413985 0.492269 -0.081723 0.003088 -0.002699
2.245120 0.594623 0.583699 0.000002 0.571086 -0.000005
0.735627 0.465350 0.584440 0.000000 -0.622071 -0.000010
2.780746 0.460245 0.741681 -0.000000 -0.679732 0.000004
1.173867 0.437943 0.618233 -0.000000 -0.892092 -0.000002
1.173867 0.436711 0.709776 0.000000 -0.902968 0.000001
2.047316 0.752216 0.392577 0.075950 0.006721 0.005327
1.855573 0.469895 0.580984 -0.000000 -0.581734 -0.000011
1.173867 0.621898 0.714322 -0.000000 0.880411 0.000017
0.930400 0.581640 0.574984 -0.000001 0.496100 -0.000028
1.773245 0.705880 0.871944 -0.078748 0.003241 -0.002348
1.608971 0.453034 0.765958 -0.081722 0.005531 0.004826
2.926826 0.571982 0.570152 0.000001 0.404848 -0.000018
2.835826 0.527332 0.768963 0.000000 -0.025391 0.000021
2.537280 0.430862 0.694438 0.000000 -0.957864 0.000010
2.840616 0.426761 0.668872 0.000000 -0.999682 0.000000
1.740098 0.379587 0.464251 -0.081722 0.003088 -0.002699
2.905236 0.643100 0.808718 0.013057 0.022732 -0.009730
2.245120 0.455231 0.736762 0.000000 -0.716116 0.000016
1.368640 0.610676 0.599420 -0.000000 0.766619 -0.000013
0.492160 0.457537 0.739103 0.000000 -0.697979 0.000008
3.121600 0.613908 0.603568 -0.000000 0.797673 -0.000006
3.394265 0.541386 0.708433 1.000000 0.000000 0.000000
3.267680 0.438407 0.713200 -0.000000 -0.892038 0.000004
1.969234 0.081362 1.235773 -0.081722 0.008848 0.007695
1.995468 0.879072 0.214310 0.078827 -0.004003 -0.003181
1.563413 0.429074 0.687434 -0.000000 -0.975896 0.000002
2.585973 0.625809 0.706223 0.000000 0.913812 0.000001
0.833013 0.486974 0.759493 0.000000 -0.429060 0.000034
2.439893 0.577039 0.572526 -0.000001 0.450829 -0.000016
0.889689 0.533081 0.561541 0.000000 0.025391 -0.000165
0.540853 0.482112 0.757092 -0.000001 -0.474048 0.000059
2.054467 0.265753 1.003249 0.078827 0.005534 0.004392
2.054467 0.795153 0.327267 0.078825 -0.005534 -0.004392
2.732053 0.434514 0.704819 -0.000000 -0.923528 0.000007
2.041505 0.416361 0.815622 0.078825 0.008830 0.006983
1.921273 0.254914 0.340414 0.075949 -0.005621 0.004461
0.784320 0.460396 0.741820 0.000000 -0.679653 0.000017
2.683360 0.627157 0.627603 0.000000 0.933098 -0.000003
2.001653 0.438989 0.616230 0.000000 -0.880163 -0.000009
2.055361 0.064634 0.084880 0.075949 -0.010753 0.008472
1.673799 0.441895 0.786768 -0.081722 0.004148 0.003623
0.833013 0.584121 0.576437 -0.000001 0.516927 -0.000013
0.930400 0.622268 0.616881 -0.000000 0.880406 -0.000009
3.140373 0.626769 0.777376 0.013059 -0.066168 0.009461
0.930400 0.439047 0.616121 0.000000 -0.880529 -0.000002
0.297387 0.629452 0.696405 0.000000 0.950339 0.000001
2.878133 0.451152 0.598318 -0.000000 -0.766914 -0.000027
1.906970 0.307925 0.968982 0.078827 0.011773 0.009265
0.297387 0.437312 0.711037 0.000000 -0.892094 0.000002
2.585175 0.426670 0.665176 -0.000000 -0.999919 -0.000000
2.309778 0.426719 0.667229 0.000000 -0.999678 0.000000
2.342507 0.612012 0.601088 0.000000 0.782760 -0.000006
1.076480 0.620258 0.717265 -0.000001 0.867553 0.000018
0.200000 0.477804 0.754696 -0.042694 -0.000267 0.000441
0.065739 0.575282 0.707871 -0.533392 0.000033 0.000030
1.855573 0.545436 0.767948 0.000001 0.138547 0.000114
3.248911 0.436874 0.537107 -0.038779 -0.012271 0.009140
3.355319 0.626883 0.665258 0.185264 0.002270 0.000127
1.999938 0.970936 0.123501 -0.078748 0.011110 0.007977
1.648951 0.681818 0.855483 -0.081723 -0.006176 0.005386
1.688439 0.725190 0.909989 -0.081723 -0.011613 0.010057
1.754252 0.263429 1.000834 -0.078749 -0.010493 -0.007541
1.648951 0.379088 0.855483 -0.078747 -0.006893 -0.004979
1.648951 0.379088 0.475033 -0.078747 -0.001723 0.001249
1.833228 0.884221 0.220668 -0.081725 -0.003687 -0.003221
1.885879 0.942050 0.147992 -0.081723 -0.005899 -0.005146
1.820065 0.869764 1.091679 -0.081722 -0.007927 0.006901
1.964855 1.028795 0.038979 -0.081722 -0.007374 -0.006424
1.780578 0.826392 0.293344 -0.081723 -0.004424 -0.003864
3.121600 0.486974 0.571023 0.000001 -0.428831 -0.000067
2.196427 0.487122 0.570952 0.000000 -0.428913 -0.000067
1.935757 0.119408 1.175050 -0.078747 -0.012756 -0.009130
0.638240 0.621053 0.614642 -0.000000 0.865754 -0.000002
3.301524 0.661671 0.838277 -0.038779 0.008427 -0.006433
1.660800 0.429375 0.688798 0.000000 -0.971200 0.000001
1.952960 0.485638 0.758859 -0.000000 -0.427915 0.000008
1.971779 0.331453 0.399333 0.078826 0.003179 -0.002527
3.262318 0.612425 0.552811 -0.038779 0.024533 0.016201
3.218987 0.627942 0.629678 0.000000 0.941826 -0.000006
2.096481 0.432787 0.787998 0.078825 0.007064 0.005599
2.096481 0.694210 0.459460 0.078825 -0.006946 -0.005506
1.596300 0.623989 0.782807 -0.081721 -0.005531 0.004826
2.096481 0.102333 1.203288 0.078826 0.010831 0.008539
2.096481 0.383219 0.480224 0.078827 0.007417 -0.005876
2.096481 0.842914 1.057937 0.078826 -0.010125 0.007991
2.096481 0.036242 1.286346 0.078826 0.007064 0.005599
2.096481 0.184946 1.099466 0.078825 0.009183 0.007258
2.096481 0.449309 0.563282 0.078826 0.007064 -0.005599
1.647966 0.440236 0.545068 -0.081724 0.002765 -0.002417
2.634667 0.432017 0.698123 -0.000000 -0.950128 0.000003
3.024213 0.632077 0.644206 0.000000 0.976924 -0.000002
2.043740 0.355640 0.438867 0.078826 0.003473 -0.002761
3.349359 0.327612 0.407908 0.013056 -0.029220 0.010247
3.199502 0.700891 0.881887 0.013057 0.029218 -0.010248
1.714104 0.686305 0.461789 -0.081723 -0.003088 -0.002699
3.267680 0.441334 0.612082 0.000001 -0.855082 -0.000019
1.319947 0.621878 0.714359 0.000000 0.880353 0.000009
3.306845 0.715347 0.900865 0.013061 0.019480 -0.009322
3.072906 0.592864 0.582347 -0.000000 0.602019 -0.000085
0.881707 0.435247 0.706561 0.000000 -0.913388 0.000004
2.683360 0.448334 0.601797 0.000000 -0.798518 -0.000003
3.024213 0.434074 0.703757 0.000000 -0.933439 0.000001
3.301524 0.391329 0.498530 -0.038779 0.016612 -0.012378
3.426948 0.284572 0.356253 0.013058 -0.038930 0.010649
3.052306 0.695327 0.458057 0.013058 0.064733 0.011036
3.102258 0.354778 0.444483 0.013057 -0.071156 0.011081
3.327044 0.306174 0.947115 0.013057 -0.038934 -0.010648
2.902449 0.397982 0.498778 0.013059 -0.045395 0.010800
2.802544 0.641322 0.804590 0.013058 0.064733 -0.011036
3.426948 0.284572 0.974263 0.013058 -0.038932 -0.010649
2.927425 0.668325 0.491991 0.013055 0.022736 0.009730
3.426948 0.776334 0.356253 0.013058 0.038932 0.010649
3.102258 0.706128 0.886033 0.013060 0.071143 -0.011083
3.327044 0.754732 0.383400 0.013058 0.038931 0.010649
2.727616 0.625121 0.546286 0.013056 0.038935 0.010648
2.702640 0.441186 0.777443 0.013059 -0.038928 -0.010649
1.102024 0.528318 0.561528 -0.000000 -0.025391 -0.000021
2.096481 0.958573 0.127228 0.078827 -0.010831 -0.008539
1.042953 0.532753 0.768984 -0.000009 0.001263 0.000415
1.076480 0.438970 0.714250 0.000000 -0.880406 0.000009
3.335846 0.432856 0.687534 0.188023 -0.000267 0.000051
3.394265 0.491882 0.687527 1.000000 0.000000 0.000000
0.996655 0.528318 0.561528 0.000000 -0.025400 -0.000021
1.770874 0.462413 0.775400 -0.081724 0.002950 0.002578
1.148323 0.532096 0.769000 0.000000 0.025400 0.000041
1.514720 0.576672 0.758176 0.000000 0.451272 0.000008
3.376996 0.295373 0.369827 0.013057 -0.058306 0.010978
1.271253 0.576159 0.572080 0.000000 0.451778 -0.000032
1.758187 0.572582 0.570419 -0.000001 0.401625 -0.000009
3.459193 0.321374 0.402503 -0.038777 -0.006742 0.005189
3.377237 0.657611 0.828306 -0.038780 0.016851 -0.012074
1.173867 0.578065 0.573045 0.000001 0.396058 -0.000005
2.041058 0.916714 0.186613 0.075951 0.004155 0.003301
1.963287 0.799082 0.343958 0.075948 0.005621 0.004461
0.248693 0.486900 0.571058 0.000000 -0.428895 -0.000034
0.443467 0.486009 0.571481 -0.000000 -0.428983 -0.000135
1.514720 0.441590 0.718856 -0.000000 -0.854958 0.000010
0.833013 0.470429 0.580602 0.000001 -0.575612 -0.000011
0.589547 0.454338 0.735797 0.000000 -0.733439 0.000007
3.429680 0.400713 0.502210 -0.038777 -0.006742 0.005189
3.441485 0.691929 0.868189 -0.038778 0.020220 -0.014008
3.465095 0.755399 0.947954 -0.038778 0.013482 -0.009948
3.417875 0.628458 0.788423 -0.038777 0.008427 -0.006433
2.043740 0.713528 0.428485 0.078827 -0.003473 -0.002761
3.030913 0.664438 0.836075 0.013054 0.029223 -0.010247
2.488587 0.442186 0.610676 0.000000 -0.855228 -0.000010
1.709493 0.436993 0.710370 -0.000001 -0.903176 0.000015
3.365875 0.437102 0.785744 -0.038778 -0.018718 -0.013170
0.492160 0.583172 0.754653 -0.000000 0.517750 0.000013
2.147733 0.622888 0.618086 0.000000 0.892148 -0.000016
1.928606 0.926504 0.175185 -0.078746 0.003601 0.002608
3.267680 0.473376 0.751937 -0.000000 -0.532655 0.000003
2.147733 0.577625 0.572823 -0.000001 0.450802 -0.000016
1.327131 0.534231 0.768946 0.000000 0.025391 0.000315
1.867664 0.827939 0.280728 -0.081722 -0.008111 -0.007060
0.394773 0.461864 0.743136 0.000000 -0.660890 0.000018
1.368640 0.568031 0.568525 0.000000 0.358505 -0.000021
0.979093 0.621508 0.715046 0.000000 0.880378 0.000002
3.170293 0.582318 0.575371 0.000000 0.496318 -0.000112
3.072906 0.622053 0.714033 0.000001 0.880118 0.000017
0.589547 0.629375 0.696639 -0.000000 0.950128 0.000005
3.060269 0.422219 0.806687 0.013059 -0.058297 -0.010979
3.024213 0.439751 0.614820 0.000000 -0.868064 -0.000002
0.297387 0.518811 0.562137 -0.000000 -0.113794 -0.000279
1.563413 0.491954 0.568879 0.000000 -0.382683 -0.000019
1.952960 0.623185 0.618672 -0.000001 0.884226 -0.000002
0.979093 0.482988 0.757545 0.000001 -0.445525 0.000008
0.394773 0.584086 0.754100 -0.000000 0.518110 0.000026
2.042846 0.006515 1.330516 0.078826 0.007064 0.005599
2.042846 1.054391 0.000000 0.078825 -0.007064 -0.005599
3.121600 0.439955 0.614463 -0.000000 -0.867619 -0.000005
3.009520 0.638294 0.795916 0.013060 -0.055049 0.009374
2.048210 0.096151 0.125364 0.075949 -0.012707 0.009973
1.874154 0.268289 0.977996 -0.078748 -0.005247 -0.003796
1.612107 0.439934 0.716017 0.000001 -0.868009 0.000018
1.952960 0.617819 0.721263 0.000000 0.841670 0.000005
0.735627 0.624036 0.620406 0.000001 0.902249 -0.000008
2.882251 0.434204 0.782971 0.013057 0.041337 0.009176
3.203022 0.426790 0.670022 0.000000 -0.999682 0.000000
1.816775 0.449038 0.534108 -0.081723 0.002950 -0.002578
0.589547 0.595266 0.584210 -0.000000 0.621616 -0.000010
0.735627 0.432454 0.631110 0.000000 -0.941972 -0.000003
3.027329 0.370980 0.464843 0.013058 -0.029215 0.010248
3.170293 0.622443 0.713310 0.000000 0.880518 0.000002
0.784320 0.586596 0.752535 0.000000 0.539270 0.000025
2.926826 0.438931 0.616338 0.000000 -0.880329 -0.000004
1.872716 0.133313 0.166161 -0.078747 -0.007201 0.005200
2.196427 0.594816 0.746663 0.000001 0.619867 0.000020
2.293813 0.612671 0.728588 -0.000001 0.797977 0.000012
3.312953 0.360984 0.872960 0.013060 0.020684 0.008131
3.089226 0.445139 0.549928 0.013057 -0.032459 0.010415
2.732053 0.606792 0.735556 0.000000 0.733439 0.000007
2.391200 0.441973 0.611028 -0.000001 -0.854813 -0.000010
1.744005 0.729993 0.909135 -0.078746 0.006481 -0.004684
3.394265 0.612027 0.701039 0.180477 0.000244 0.000103
1.899819 0.737117 0.949954 0.078827 -0.006475 0.005135
1.986529 0.432981 0.801717 0.078825 0.008830 0.006983
1.899372 0.384675 0.873493 0.078826 0.001854 0.001475
0.548038 0.634222 0.664108 0.000000 0.999924 -0.000000
3.165757 0.691985 0.465096 0.013056 -0.036183 -0.009048
1.985635 0.133425 1.178291 0.078826 0.003650 0.002901
1.793559 0.325574 0.909832 -0.078748 -0.012139 -0.008699
3.267680 0.489639 0.569838 -0.000000 -0.382206 -0.000019
1.076480 0.616833 0.607738 -0.000001 0.816218 -0.000003
0.335703 0.634116 0.660494 0.000000 0.999678 -0.000000
1.271253 0.483648 0.572637 0.000001 -0.439494 -0.000008
2.096481 0.085810 0.106463 0.078827 0.010831 -0.008539
2.780746 0.511780 0.563172 0.000002 -0.172575 -0.000023
2.829440 0.547952 0.562967 0.000000 0.163928 -0.000012
1.173867 0.483428 0.572748 0.000001 -0.451103 -0.000032
1.823926 0.627731 0.815436 -0.081724 -0.007466 0.006503
2.585973 0.574378 0.759282 0.000000 0.428987 0.000067
0.087419 0.461935 0.635855 -0.448516 -0.000060 -0.000028
2.683360 0.578939 0.757014 0.000000 0.474138 0.000059
0.638240 0.614512 0.726117 0.000001 0.811757 0.000011
2.391200 0.623948 0.710296 0.000000 0.903309 0.000008
1.896243 0.613527 0.795088 0.078826 -0.003297 0.002621
2.488587 0.604786 0.737674 -0.000001 0.713612 0.000008
2.488587 0.510812 0.767158 0.000000 -0.188806 0.000042
0.540853 0.485267 0.571833 0.000001 -0.420074 -0.000009
2.537280 0.584789 0.576842 0.000001 0.511323 -0.000007
2.537280 0.547466 0.767630 0.000000 0.163928 0.000024
3.218987 0.561365 0.566186 0.000000 0.287348 -0.000013
1.942727 0.832299 0.266394 0.078827 -0.005063 -0.004020
2.050347 0.505477 0.765983 0.000001 -0.237512 0.000033
