3.250695 0.702612 0.644735 0.000000 -0.772056 -0.000179
3.227979 0.486403 0.907381 -0.000001 -0.772057 -0.000890
2.996770 0.740426 0.875383 -0.000002 -0.772041 0.000297
1.262922 0.609888 0.645762 0.000000 0.026976 -0.000018
3.052439 0.558423 0.660571 -0.000000 -0.549975 -0.000046
2.363919 0.647127 0.654365 -0.000000 0.432181 -0.000032
0.347540 0.536365 0.793361 0.000000 -0.787887 0.000012
0.602959 0.516986 0.738173 0.000000 -0.999904 0.000000
3.364060 0.728185 0.860512 0.000000 -0.772056 0.000611
2.560639 0.630394 0.825761 -0.000000 0.254465 0.000116
1.968221 0.728321 0.855065 0.072755 0.003697 -0.003039
1.679976 0.766404 0.543441 -0.038528 -0.006017 -0.005132
2.952465 0.522716 0.863269 0.000000 -0.772055 -0.000297
1.177254 0.699663 0.738946 0.000000 0.999636 0.000000
2.167199 0.592038 0.647194 0.000001 -0.174505 -0.000043
1.940950 0.512061 0.599609 -0.038531 0.006724 -0.005719
2.071805 0.317172 1.074915 0.072756 -0.003099 -0.002548
2.096082 0.514711 0.860355 0.052966 0.013439 0.010724
0.495080 0.538703 0.677939 0.000000 -0.770805 -0.000006
0.937700 0.697507 0.757034 -0.000000 0.973458 0.000004
1.860405 0.875200 1.052207 -0.052939 0.006134 -0.004695
3.185456 0.424129 0.983029 -0.000000 -0.772056 -0.000306
3.185456 0.402382 0.509055 -0.000001 0.772055 -0.000306
2.462279 0.699346 0.745199 0.000000 0.995389 0.000003
3.326693 0.528180 0.661872 0.000000 0.772056 -0.000611
3.052439 0.679115 0.794872 -0.000000 0.770715 0.000013
1.907393 0.238030 1.182386 -0.052940 -0.004624 -0.003550
1.907393 0.978655 1.182386 -0.052942 0.009247 -0.007020
0.150276 0.555610 0.806460 -0.164904 -0.000150 0.000186
2.121574 0.767964 0.553357 0.072754 0.003968 0.003262
0.158492 0.658014 0.810350 -0.132973 0.000176 0.000245
1.844169 0.455685 0.905412 -0.052939 -0.010246 -0.007751
0.839340 0.660063 0.812408 0.000001 0.572050 0.000044
3.329810 0.720544 0.578630 0.000000 0.772056 0.000358
1.761758 0.376929 0.453645 -0.038527 0.008548 -0.007204
1.856047 0.271065 0.325449 -0.038527 0.003407 -0.002930
1.678999 0.503753 0.857377 -0.052941 -0.006875 -0.005254
1.085240 0.521857 0.766557 0.000000 -0.943271 0.000005
3.052439 0.624723 0.647208 -0.000001 0.175106 -0.000171
1.917324 0.408944 0.514464 -0.052941 -0.006700 0.005122
3.435912 0.564169 0.807393 0.092416 -0.000242 0.000374
2.019659 0.645755 0.653739 0.000001 0.404295 -0.000017
1.036060 0.682553 0.790396 -0.000000 0.820017 0.000042
3.187807 0.748663 0.885388 0.000000 -0.772056 0.000594
1.882459 0.318892 1.094888 -0.038527 0.007309 0.006199
2.904899 0.565272 0.817670 0.000002 -0.477418 0.000028
0.396720 0.696296 0.761832 -0.000000 0.959579 0.000002
1.880280 0.941327 1.136298 -0.052941 0.002689 -0.002070
2.329017 0.517018 0.738791 0.000000 -0.999636 0.000000
1.281960 0.654447 0.815967 -0.000000 0.503718 0.000026
2.110087 0.516984 0.736627 0.000000 -0.999636 -0.000000
2.087990 0.281689 1.144100 0.052966 0.015827 0.012485
0.691800 0.634865 0.824524 -0.000000 0.280622 0.000013
1.429500 0.661172 0.662548 -0.000000 0.572224 -0.000022
2.462279 0.638757 0.650939 -0.000001 0.332046 -0.000086
1.934567 0.325426 1.066606 -0.052940 -0.005756 -0.004410
1.429500 0.654013 0.816220 0.000001 0.494612 0.000007
1.281960 0.574812 0.822083 0.000000 -0.357790 0.000010
1.380319 0.524534 0.773479 0.000001 -0.911394 0.000007
1.085240 0.585843 0.825643 -0.000001 -0.254261 0.000116
3.109551 0.517085 0.741265 0.000000 -0.999626 0.000000
1.183600 0.682553 0.683785 0.000000 0.804280 -0.000006
3.031022 0.699611 0.740878 0.000000 0.999636 0.000000
1.965720 0.608188 0.645724 0.000000 -0.026986 -0.000036
2.454347 0.517026 0.735081 -0.000000 -0.991359 -0.000000
2.024059 0.523695 0.655627 0.072755 -0.007393 0.006055
0.790160 0.684480 0.787592 0.000000 0.835126 0.000010
2.658999 0.529739 0.690518 0.000000 -0.863737 -0.000009
0.888520 0.662892 0.663800 0.000000 0.594250 -0.000010
0.888520 0.525985 0.776642 0.000000 -0.901451 0.000007
2.182672 0.700150 0.845458 0.072755 0.003697 -0.003039
0.347540 0.653176 0.657478 0.000000 0.479608 -0.000003
0.347540 0.532524 0.686105 0.000000 -0.835166 -0.000010
2.210186 0.341059 0.412400 0.052967 0.008512 -0.006919
1.971391 0.274935 1.151055 -0.038530 0.006318 0.005382
2.511459 0.664643 0.665137 -0.000000 0.615889 -0.000039
0.445900 0.556305 0.812186 0.000000 -0.572308 0.000087
2.363919 0.571248 0.653598 -0.000000 -0.407539 -0.000068
0.715597 0.699626 0.740337 0.000000 0.999626 0.000000
2.183481 1.086344 1.314690 0.072755 0.003588 -0.002950
2.183481 0.130342 1.314690 0.072754 -0.003588 -0.002950
2.098105 0.681940 0.638332 0.052969 -0.013438 -0.010724
3.363815 0.799104 0.505358 -0.351699 0.002044 0.002099
3.379837 0.452520 0.547801 -0.351700 -0.002044 0.002098
3.339783 0.851512 1.032487 -0.351699 0.002044 -0.002098
3.323761 0.330235 0.399252 -0.351698 -0.001022 0.001049
3.339783 0.851512 0.441694 -0.351700 0.002044 0.002098
1.945027 1.022517 1.236041 -0.052940 0.016983 -0.012463
1.945027 0.194168 1.236041 -0.052940 -0.008493 -0.006462
1.931268 1.008118 0.255633 -0.052938 0.004247 0.003262
0.396720 0.655449 0.815383 -0.000000 0.527018 0.000006
1.834055 0.434834 0.957726 -0.038530 0.004522 0.003877
0.142109 0.564264 0.663831 -0.196674 -0.000104 -0.000162
1.700615 0.426771 0.518777 -0.052938 -0.004584 0.003519
1.872119 0.696361 0.761609 0.000000 0.959818 0.000001
2.038626 0.299804 0.347968 0.052967 0.007915 -0.006444
3.308322 0.737017 0.915562 -0.000002 0.772053 -0.000445
3.046755 0.463904 0.583791 -0.000001 0.772056 -0.000371
0.121960 0.688597 0.737091 -0.282866 0.000062 0.000002
2.025925 0.949708 0.310690 -0.038528 -0.006318 -0.005382
0.790160 0.664125 0.664732 -0.000000 0.615635 -0.000019
2.960425 0.517055 0.733999 -0.000000 -0.999636 -0.000000
3.301794 0.374461 1.043365 0.000001 -0.772056 -0.000612
3.101619 0.654547 0.815909 0.000000 0.503632 0.000013
1.770405 0.489633 0.867762 -0.052943 -0.002865 -0.002204
0.642620 0.697119 0.715491 0.000000 0.973621 -0.000007
0.495080 0.652362 0.817150 0.000000 0.480265 0.000056
3.233548 0.407657 0.471142 -0.000000 -0.772056 0.000306
2.560639 0.573951 0.652446 0.000001 -0.381727 -0.000018
1.880984 0.656756 0.658597 0.000000 -0.635554 0.000976
2.001445 0.323742 1.096291 -0.038527 0.003407 0.002930
3.435912 0.634226 0.704634 1.000000 0.000000 0.000000
2.090418 1.047748 0.193315 0.052967 -0.005526 -0.004524
0.298360 0.522991 0.769683 -0.000000 -0.933926 0.000012
1.822939 0.522590 0.705546 0.000000 -0.933901 -0.000001
1.675399 0.694340 0.767943 -0.000001 0.943062 0.000011
3.411880 0.522397 0.632686 -0.351701 -0.002044 0.002098
1.630979 0.608033 0.828453 0.000000 -0.026976 0.000018
3.249159 0.691741 0.699784 0.000001 0.912925 -0.000014
3.303098 0.699682 0.739410 0.000000 0.999909 0.000000
1.380319 0.570824 0.820395 0.000001 -0.406357 0.000017
0.298360 0.640285 0.822691 -0.000000 0.357301 0.000040
2.363919 0.698266 0.753243 0.000001 0.984276 0.000005
0.888520 0.698556 0.722615 0.000000 0.988931 -0.000002
0.593440 0.544177 0.672050 -0.000000 -0.697141 -0.000016
2.100129 0.661907 0.811344 0.052966 -0.010155 0.008210
0.191670 0.696349 0.712656 -0.004182 0.004767 -0.000827
0.040802 0.608343 0.698333 -0.615949 0.000001 -0.000012
1.380319 0.525164 0.699290 0.000002 -0.699190 -0.000001
3.085381 0.448588 0.953317 -0.000000 -0.772056 -0.000891
2.098510 0.431329 0.939305 0.072757 -0.001984 -0.001633
3.293314 0.800041 0.992122 -0.000002 0.772048 -0.000306
0.544260 0.556559 0.812363 0.000000 -0.572317 0.000044
0.986880 0.524408 0.773197 0.000000 -0.923862 0.000003
3.150799 0.550979 0.665974 0.000000 -0.636842 -0.000002
1.085240 0.688736 0.693681 -0.000001 0.875024 -0.000004
1.989517 0.607724 0.828445 0.000000 -0.026986 0.000009
1.943510 0.516976 0.737245 0.000000 -0.999625 0.000000
2.210033 0.607879 0.828449 0.000000 -0.027361 0.000036
1.724579 0.652464 0.657088 -0.000000 0.480282 -0.000028
2.183481 1.067653 0.176903 0.052964 -0.009856 -0.007977
1.822939 0.699354 0.729059 -0.000001 0.994732 -0.000003
2.153134 0.500305 0.873094 0.052968 0.013439 0.010724
3.135930 0.718679 0.893285 0.000003 0.772014 -0.000260
1.877344 0.727769 0.859404 -0.052940 0.010245 -0.007751
2.155157 1.216685 1.469775 -0.052940 0.014342 -0.010668
2.155157 0.000000 1.469775 0.072754 -0.009132 -0.007460
1.880280 0.279845 1.139992 -0.038526 0.006814 0.005792
2.413099 0.668281 0.668138 0.000001 0.656997 -0.000017
0.642620 0.654247 0.658098 -0.000001 0.503870 -0.000104
3.181391 0.808001 0.957471 0.000000 -0.772057 0.000890
3.122678 0.747506 0.545878 0.000000 0.772056 0.000520
2.413099 0.698205 0.720596 0.000000 0.984464 -0.000005
1.968902 1.051980 0.201978 -0.052940 0.007738 0.005900
2.170533 0.266405 1.147917 0.072755 -0.010654 -0.008678
0.445900 0.655182 0.658643 0.000000 0.504255 -0.000003
3.298339 0.658553 0.660762 0.000000 0.549920 -0.000092
3.400555 0.527590 0.706465 0.093793 -0.001840 -0.000573
1.478680 0.560842 0.815138 0.000001 -0.525698 0.000025
0.691800 0.680606 0.792995 -0.000001 0.703830 0.000002
1.856405 0.304821 0.374046 -0.052940 -0.002878 0.002215
1.948842 0.416809 0.946772 -0.052940 -0.013399 -0.010010
1.975505 0.711818 0.638328 0.072755 0.003697 0.003039
0.345953 0.517089 0.741419 0.000000 -0.999636 0.000000
2.099775 0.609193 0.828439 -0.000000 0.024013 0.000020
1.921299 0.699255 0.728020 -0.000000 0.995225 -0.000001
1.380319 0.639851 0.651325 -0.000000 0.357545 -0.000079
0.491907 0.516995 0.738792 0.000000 -0.999904 0.000000
1.851496 0.608497 0.645724 0.000000 0.026976 -0.000009
1.970332 0.894523 0.377896 -0.038530 -0.003654 -0.003141
2.019659 0.679041 0.794962 0.000000 0.770995 0.000003
3.269269 0.791805 0.492065 -0.000001 0.772055 0.000306
1.852607 0.944263 0.331669 -0.052939 0.002690 0.002070
3.101619 0.695700 0.710308 -0.000000 0.958860 -0.000001
1.183600 0.528655 0.781789 0.000001 -0.765481 0.000001
3.041639 0.681615 0.848261 0.000000 0.772056 -0.000371
0.790160 0.529193 0.782728 -0.000000 -0.863376 0.000009
0.249180 0.544620 0.802563 -0.000001 -0.697384 0.000063
0.298360 0.690667 0.776712 0.000000 0.901734 0.000015
1.478680 0.521755 0.766266 0.000000 -0.951796 0.000001
2.086776 0.842409 1.031729 0.052967 -0.004555 0.003736
1.981169 0.737502 0.913104 0.052962 -0.002539 0.002088
0.544260 0.688030 0.692393 0.000000 0.877068 -0.000017
2.757359 0.665945 0.666171 -0.000001 0.634385 -0.000009
3.134087 0.448588 0.520864 0.000001 -0.772054 0.000520
3.419891 0.676819 0.653908 -0.351702 0.001986 0.002039
1.999782 0.839197 0.480805 -0.052940 0.003067 0.002359
2.157585 0.806169 0.971369 0.072755 0.003751 -0.003084
2.904899 0.619641 0.827752 -0.000001 0.121536 0.000497
2.090418 0.168937 0.193315 0.052967 0.005526 -0.004524
1.713396 0.748930 0.901106 -0.052940 0.004584 -0.003519
1.844169 0.455685 0.568770 -0.052939 -0.010245 0.007751
0.249180 0.643877 0.652920 -0.000002 0.382093 -0.000074
1.429500 0.545174 0.671080 -0.000000 -0.697210 -0.000008
1.577039 0.569977 0.820017 0.000000 -0.431728 0.000008
0.472870 0.604478 0.828357 0.000000 -0.026996 0.000018
2.081516 0.923107 0.369491 0.072755 0.006197 0.005083
3.364060 0.510248 0.878415 -0.000000 -0.772056 -0.000611
2.139782 0.110589 0.126555 0.052967 0.008661 -0.007037
3.219944 0.843413 1.011569 0.173798 -0.005579 0.002068
2.658999 0.666839 0.666910 -0.000000 0.636996 -0.000018
3.053662 0.509204 0.638820 0.000000 0.772057 -0.000445
2.363919 0.561904 0.815772 0.000001 -0.479536 0.000003
2.363919 0.653713 0.816396 0.000000 0.503880 0.000026
0.986880 0.655449 0.658799 0.000000 0.504254 -0.000003
1.724579 0.699596 0.732762 0.000000 0.999626 -0.000000
0.642620 0.552773 0.809616 -0.000000 -0.615624 0.000019
0.593440 0.581820 0.824524 0.000000 -0.280341 0.000013
2.560639 0.696855 0.759740 0.000000 0.966332 0.000001
3.003259 0.648207 0.819298 0.000000 0.431972 0.000032
1.885806 0.414814 0.983970 -0.038529 0.004398 0.003772
2.163250 1.119670 0.121330 0.072756 0.012610 0.010229
2.043574 0.178331 0.226148 -0.052940 -0.007738 0.005900
3.135930 0.498006 0.580897 0.000003 -0.772032 0.000260
2.757359 0.528581 0.692528 -0.000001 -0.868714 -0.000002
1.979019 1.067044 1.290875 -0.052938 0.006984 -0.005335
1.979019 0.149641 1.290875 -0.052939 -0.006983 -0.005335
1.134420 0.661897 0.811117 0.000001 0.593677 0.000021
2.855719 0.679701 0.680029 -0.000000 0.786266 -0.000006
0.445900 0.570224 0.654055 -0.000001 -0.383429 -0.000009
3.268150 0.755397 0.580613 0.000002 -0.772054 -0.000445
0.691800 0.560907 0.659003 0.000000 -0.526956 -0.000025
0.691800 0.520497 0.711978 -0.000000 -0.958860 -0.000001
1.626219 0.699519 0.731257 -0.000001 0.996578 -0.000001
2.068839 0.606797 0.645762 -0.000000 -0.027361 -0.000278
0.986880 0.558616 0.813738 0.000000 -0.549942 0.000012
2.265559 0.531823 0.787011 -0.000001 -0.834158 0.000010
2.511459 0.698957 0.725408 0.000000 0.992578 -0.000007
1.776778 0.896802 0.386677 -0.038529 -0.003902 -0.003352
1.969404 0.118293 0.141790 -0.052940 -0.006228 0.004766
1.584152 0.695212 0.842618 -0.038531 -0.012032 0.009916
2.051958 1.184787 1.437343 -0.038528 -0.022785 0.016936
2.051958 0.031898 1.437343 -0.052939 -0.015851 -0.011703
1.639188 0.752809 0.912586 -0.038526 -0.018048 0.014111
1.873091 0.219088 0.264234 -0.052940 -0.009248 0.007020
1.652947 0.449477 0.930078 -0.052939 -0.006875 -0.005254
1.983163 1.112791 0.124298 -0.038527 -0.016350 -0.012994
1.597911 0.709611 0.614072 -0.038530 -0.012033 -0.009916
1.721742 0.839205 0.456644 -0.038525 -0.004398 -0.003772
3.037290 0.751624 0.933306 -0.000001 0.772056 -0.000742
1.281960 0.522687 0.705293 0.000000 -0.933940 -0.000006
1.331140 0.540229 0.676191 -0.000001 -0.749187 -0.000007
3.289423 0.408157 1.002432 -0.000001 -0.772053 -0.000306
0.158492 0.520998 0.751410 -0.132973 -0.000295 0.000040
0.642620 0.659263 0.812951 -0.000002 0.476503 0.000007
0.790160 0.531355 0.687881 -0.000000 -0.835180 -0.000005
2.265559 0.683748 0.788684 -0.000001 0.726511 0.000002
2.511459 0.556623 0.661774 -0.000001 -0.572212 -0.000044
1.822939 0.688606 0.780738 0.000000 0.876776 0.000008
3.199979 0.687472 0.782761 0.000000 0.863761 0.000018
1.818055 0.276685 1.139980 -0.052939 -0.010757 -0.008124
1.981979 0.489139 0.855703 0.072757 -0.007393 -0.006055
2.210186 0.875627 0.412400 0.052967 -0.017021 -0.013342
2.075042 0.322453 0.378520 0.052968 0.008512 -0.006918
1.735501 0.853604 1.035029 -0.038527 -0.017093 0.013490
1.232780 0.651616 0.656623 -0.000001 0.479692 -0.000028
2.196429 0.517310 0.846096 0.072755 -0.003697 -0.003039
2.196429 0.501217 0.608536 0.072755 -0.003697 0.003039
1.928031 0.220289 0.262382 -0.038529 0.011644 -0.009623
0.937700 0.643091 0.821588 -0.000001 0.382209 0.000037
2.692314 0.699710 0.737323 -0.000000 0.999904 0.000000
1.944031 0.838248 0.444637 -0.038526 -0.003903 -0.003352
2.413099 0.555513 0.662548 -0.000001 -0.567933 -0.000011
2.076851 0.065741 1.399607 -0.038527 0.006690 0.005690
2.076851 1.150944 1.399607 -0.038525 -0.013379 0.010911
2.122787 1.138042 1.370526 -0.052943 0.010191 -0.007711
2.122787 0.078643 1.370526 0.072757 -0.012610 -0.010229
2.609819 0.686771 0.690218 0.000000 0.863587 -0.000009
0.888520 0.561104 0.815301 0.000000 -0.526726 0.000012
2.954079 0.681634 0.682542 0.000001 0.801202 -0.000006
3.199979 0.575895 0.822498 0.000000 -0.357516 0.000040
3.324622 0.469748 0.927612 0.000001 -0.772056 -0.000890
0.986880 0.579756 0.650313 0.000001 -0.306347 -0.000095
2.848709 0.677497 0.843258 0.000000 0.772056 -0.000594
2.848709 0.539188 0.630923 0.000000 -0.772056 0.000594
3.037290 0.751624 0.540875 0.000001 0.772057 0.000742
2.996770 0.740426 0.598799 -0.000002 -0.772049 -0.000297
3.278527 0.535821 0.626833 0.000000 -0.772057 0.000358
3.275723 0.738924 0.873558 0.000001 -0.772056 0.000445
3.349268 0.678111 0.844004 -0.000000 0.772056 -0.000611
2.314739 0.681565 0.682448 0.000001 0.803833 -0.000022
3.128787 0.801315 0.982590 0.173795 0.001551 -0.002539
1.847814 0.807743 0.965757 -0.052940 0.013776 -0.010274
2.658999 0.675254 0.799301 0.000000 0.735153 0.000014
1.977212 0.314962 0.369150 -0.038529 0.003407 -0.002930
3.283295 0.700704 0.602732 0.000003 0.771966 0.000179
1.577039 0.691773 0.699855 0.000001 0.911131 -0.000003
1.971906 0.388196 1.019885 -0.038527 0.003903 0.003352
0.593440 0.684990 0.786817 0.000000 0.835113 0.000010
3.199979 0.528154 0.693308 0.000000 -0.876715 -0.000008
2.462279 0.586818 0.648297 -0.000000 -0.228029 -0.000016
0.986880 0.692277 0.773197 -0.000000 0.924054 0.000002
1.900972 0.543973 0.638934 -0.038525 0.006726 -0.005719
2.068839 0.698659 0.723303 0.000001 0.987535 -0.000002
2.160822 0.362418 0.444014 0.072755 -0.003316 0.002727
3.052439 0.520302 0.712646 -0.000000 -0.966985 -0.000008
2.314739 0.537373 0.679548 0.000001 -0.691925 -0.000002
2.167296 0.902182 1.089118 0.072755 0.006197 -0.005083
2.110649 0.198659 1.223340 0.072756 -0.004892 -0.004018
2.110649 1.018026 1.223340 0.072753 0.004893 -0.004019
1.675399 0.577490 0.823088 0.000001 -0.332000 0.000043
0.888520 0.577928 0.650939 -0.000001 -0.332000 -0.000043
1.232780 0.543302 0.672925 -0.000000 -0.716580 -0.000015
1.724579 0.581192 0.649851 -0.000000 -0.306376 -0.000047
2.080302 0.390634 0.461784 0.052967 0.002427 -0.001996
2.019659 0.541195 0.799045 0.000000 -0.735062 0.000007
2.848709 0.539188 0.843258 0.000000 -0.772057 -0.000594
1.331140 0.677779 0.677706 0.000000 0.753293 -0.000003
1.232780 0.686206 0.784887 0.000000 0.849681 0.000009
3.165077 0.612516 0.645833 0.000000 0.026976 -0.000036
3.233548 0.830776 0.489044 -0.000001 -0.772052 -0.000306
1.085240 0.690199 0.777688 -0.000000 0.901798 0.000015
1.584152 0.521473 0.631563 -0.052939 -0.009167 0.006960
2.216379 0.696361 0.761609 -0.000000 0.956002 0.000001
2.093345 0.092802 0.104948 -0.038528 0.006690 -0.005690
2.708179 0.538087 0.678684 -0.000000 -0.770783 -0.000025
2.118019 0.696403 0.761460 -0.000000 0.963906 0.000001
2.413099 0.522687 0.705293 0.000000 -0.933980 -0.000003
3.382876 0.666720 0.802985 0.093795 0.001236 0.001577
2.094059 0.733304 0.875562 0.072756 0.009784 -0.007983
1.970479 0.527403 0.779477 0.000001 -0.889426 0.000016
2.154348 0.447952 0.936590 0.052968 0.002576 0.002118
3.298339 0.523005 0.704463 0.000001 -0.933737 -0.000023
3.003259 0.526252 0.777200 -0.000000 -0.901772 0.000007
0.691800 0.583750 0.825088 -0.000001 -0.257343 0.000007
2.216379 0.520790 0.763205 -0.000000 -0.944922 0.000001
2.796832 0.525677 0.658831 0.000000 0.772057 -0.000594
0.977361 0.609888 0.828420 0.000000 0.026986 0.000018
1.150284 0.610043 0.645766 0.000000 0.026797 -0.000037
3.249159 0.653379 0.816591 0.000001 0.503852 0.000104
1.727400 0.439510 0.936546 -0.052938 -0.005730 -0.004390
2.898718 0.475824 0.898071 0.173798 -0.002886 -0.004723
2.831606 0.717873 0.604035 0.173795 0.003102 0.005077
2.988201 0.445174 0.935305 0.173798 -0.002886 -0.004723
2.954079 0.687725 0.782327 0.000000 0.863555 0.000002
0.298360 0.558746 0.660358 -0.000001 -0.549142 -0.000023
2.900587 0.685733 0.853264 0.000000 0.772057 -0.000891
2.987869 0.517441 0.648826 0.000000 0.772057 -0.000297
2.900587 0.530952 0.620918 0.000000 -0.772057 0.000891
2.560639 0.636929 0.650313 -0.000001 0.306347 -0.000095
2.210186 0.147939 0.177803 0.052967 0.009856 -0.007977
2.210186 0.437618 0.529699 0.052968 0.010304 -0.008326
2.210186 1.133119 0.099604 0.052965 -0.014932 -0.011832
2.210186 0.083566 0.099604 0.052967 0.014932 -0.011832
2.210186 0.907813 0.373301 0.052967 -0.015827 -0.012485
0.544260 0.524424 0.773232 0.000000 -0.883960 0.000001
1.331140 0.685160 0.786559 -0.000000 0.835022 0.000010
1.955453 0.250287 0.295515 -0.038527 0.012635 -0.010365
0.445900 0.524290 0.772911 0.000000 -0.923754 0.000013
1.380319 0.635751 0.824247 -0.000002 0.213902 0.000008
1.868047 0.378814 0.471083 -0.052939 -0.003161 0.002432
2.111458 0.839397 0.448172 0.052965 -0.009110 -0.007391
0.396720 0.547326 0.805103 0.000000 -0.656866 0.000002
2.989198 0.459786 0.578788 0.000001 0.772056 -0.000594
0.740980 0.680225 0.680699 -0.000000 0.787650 -0.000012
2.511459 0.545479 0.803399 -0.000000 -0.693374 0.000004
2.065331 0.340947 0.428891 0.072755 -0.006632 0.005437
0.495080 0.688104 0.781653 0.000000 0.877074 0.000008
2.511459 0.644554 0.820978 0.000001 0.403033 0.000017
2.462279 0.605405 0.828382 0.000000 -0.026986 0.000282
1.927599 0.484877 0.905275 -0.038526 0.004646 0.003982
2.999892 0.703363 0.643823 0.000000 -0.772056 -0.000371
0.191670 0.553068 0.664379 -0.004177 -0.003039 -0.003144
3.249159 0.583824 0.649072 0.000000 -0.280569 -0.000208
2.849373 0.516982 0.737864 0.000000 -0.999909 0.000000
0.249180 0.683261 0.684800 0.000002 0.819717 -0.000042
1.877344 0.508207 0.875284 -0.038530 0.013448 0.010962
3.003259 0.690617 0.697365 -0.000001 0.896660 -0.000004
1.970479 0.560053 0.659533 -0.000000 -0.525171 -0.000006
1.822939 0.640357 0.822663 0.000001 0.357264 0.000080
2.071805 0.891467 1.065140 0.072756 0.006632 -0.005437
2.034984 0.744678 0.591584 0.072756 0.009784 0.007983
0.937700 0.536365 0.793361 0.000000 -0.787814 0.000003
1.527859 0.677855 0.677793 0.000000 0.752577 -0.000002
2.167296 0.926322 0.355739 0.072755 0.005762 0.004729
0.642620 0.522409 0.768126 0.000000 -0.943247 0.000005
2.560639 0.580345 0.824058 -0.000000 -0.306346 0.000095
2.021227 0.394789 0.499360 0.072756 -0.007502 0.006143
1.773759 0.645578 0.653661 -0.000000 0.407565 -0.000136
2.167199 0.527051 0.695393 -0.000000 -0.889707 -0.000008
0.740980 0.589571 0.647677 0.000000 -0.201647 -0.000074
1.753207 0.519102 0.618842 -0.038528 0.007521 -0.006373
2.314739 0.696609 0.760675 -0.000000 0.963906 0.000001
2.130880 0.256125 0.318328 0.072755 -0.005327 0.004374
2.806539 0.521896 0.766667 0.000001 -0.924232 0.000001
1.281960 0.698456 0.722004 0.000000 0.984565 -0.000001
1.478680 0.568024 0.655100 0.000000 -0.432199 -0.000032
1.658360 0.685598 0.638322 -0.038530 -0.018046 -0.014110
0.740980 0.532959 0.788716 0.000001 -0.816779 0.000011
1.675399 0.574523 0.652209 0.000000 -0.382726 -0.000018
0.790160 0.565137 0.817595 0.000001 -0.475579 0.000007
1.085240 0.557066 0.661464 0.000000 -0.572013 -0.000003
1.183600 0.563780 0.816852 -0.000001 -0.419736 0.000004
1.134420 0.528154 0.693308 -0.000000 -0.876831 -0.000008
3.100032 0.606564 0.828438 0.000000 -0.013106 0.000037
0.642620 0.566576 0.655834 0.000001 -0.456075 -0.000059
2.167199 0.690868 0.697888 0.000001 0.781684 -0.000001
1.577039 0.528655 0.781789 0.000000 -0.877158 0.000004
2.210186 0.843440 1.022682 0.052968 -0.009109 0.007391
0.986880 0.692751 0.702128 0.000000 0.923782 -0.000002
3.347519 0.588700 0.647856 0.093827 -0.000106 -0.000454
1.478680 0.649215 0.818806 0.000000 0.456516 0.000030
2.084753 0.926816 1.134434 0.052967 -0.007915 0.006444
2.039435 0.444611 0.523943 0.052968 0.005451 -0.004464
0.691800 0.650453 0.656011 0.000000 0.456210 -0.000030
0.396720 0.523129 0.704138 0.000000 -0.933412 -0.000006
3.202951 0.522716 0.610913 0.000000 -0.772056 0.000148
2.363919 0.524349 0.773054 0.000000 -0.922345 0.000002
3.096740 0.451550 0.905399 -0.000001 0.772056 0.000445
3.096740 0.473297 0.550880 -0.000001 -0.772055 0.000445
0.937700 0.525617 0.698307 0.000000 -0.901703 -0.000004
2.413099 0.558616 0.813738 0.000000 -0.549977 0.000023
1.577039 0.677270 0.797059 0.000000 0.753277 0.000013
2.609819 0.599118 0.646193 0.000001 -0.093445 -0.000040
1.872119 0.531355 0.786300 0.000000 -0.849640 0.000002
3.225417 0.398514 0.969825 -0.000000 0.772056 0.000612
2.658999 0.578147 0.823319 -0.000000 -0.331999 0.000043
2.806539 0.649731 0.818542 0.000001 0.455751 0.000030
2.413099 0.656271 0.814873 0.000000 0.527074 0.000012
3.149181 0.689851 0.615915 0.000003 0.772014 0.000260
1.724579 0.641585 0.822193 0.000000 0.357541 0.000079
1.875579 0.897796 0.393968 -0.052940 0.005757 0.004410
1.796823 0.693545 0.821982 -0.052940 0.005730 -0.004389
3.003259 0.689051 0.779924 -0.000001 0.765479 0.000001
1.727400 0.777175 0.537636 -0.052938 0.005730 0.004390
2.068839 0.559856 0.659655 -0.000001 -0.525209 -0.000012
3.167167 0.832812 0.464410 0.173800 0.002886 0.004723
1.773759 0.600927 0.828160 0.000000 -0.094665 0.000640
3.107433 0.505086 0.633818 0.000000 0.772056 -0.000520
2.609819 0.692617 0.772375 -0.000000 0.923808 0.000006
2.757359 0.568024 0.819081 0.000000 -0.432042 0.000032
1.659093 0.483814 0.589200 -0.052941 -0.006875 0.005254
3.003259 0.600234 0.828094 -0.000001 -0.093745 0.000081
3.269095 0.417922 0.527933 -0.000000 0.772058 -0.000229
2.068839 0.678622 0.678713 -0.000000 0.770877 -0.000013
2.904899 0.695917 0.763131 -0.000001 0.959183 0.000009
2.609819 0.521960 0.707332 0.000000 -0.943473 -0.000001
1.970479 0.525884 0.697749 0.000001 -0.892540 -0.000002
0.094602 0.641235 0.675049 -0.381811 0.000038 -0.000067
3.278527 0.514073 0.829446 0.000000 0.772056 0.000358
2.070996 0.218012 0.251310 0.052967 0.013439 -0.010724
1.843841 0.505752 0.633716 -0.052940 -0.010245 0.007751
1.955143 0.182331 0.216813 -0.038528 0.010653 -0.008864
2.560639 0.672952 0.801700 -0.000000 0.716624 0.000030
2.560639 0.517992 0.750649 -0.000000 -0.988850 0.000005
1.776778 0.896802 1.087505 -0.038527 -0.003903 0.003352
2.068839 0.568024 0.819081 0.000000 -0.432042 0.000032
1.085240 0.655449 0.658799 0.000000 0.503943 -0.000026
2.150302 1.034107 0.214884 0.052964 -0.011051 -0.008906
1.671875 0.524798 0.643499 -0.052940 -0.013749 0.010255
1.917324 0.807741 0.514464 -0.052940 0.006700 0.005122
3.101619 0.650144 0.655852 -0.000001 0.456394 -0.000119
1.527859 0.536079 0.681186 0.000000 -0.787814 -0.000003
2.898718 0.740861 0.898071 0.173798 0.002886 -0.004723
0.740980 0.618759 0.827860 0.000000 0.121573 0.000124
0.445900 0.643806 0.821292 0.000001 0.382640 0.000073
1.827090 0.702516 0.643186 -0.052940 0.010245 0.007751
3.212835 0.784975 0.929500 -0.000003 -0.772044 0.000445
3.260578 0.444815 0.913580 -0.000001 0.772056 0.000890
3.259423 0.509428 0.879410 0.000000 -0.772057 -0.000445
2.164059 0.330414 1.069418 0.072757 -0.012393 -0.010058
2.058048 0.235930 0.302155 0.072755 -0.010654 0.008678
2.511459 0.525667 0.698202 0.000001 -0.866886 -0.000002
2.118019 0.528882 0.782194 -0.000001 -0.855750 0.000004
1.675399 0.528729 0.781924 0.000000 -0.877158 0.000004
2.169724 1.131462 1.375942 0.052967 -0.014931 0.011832
2.169724 0.085223 1.375942 0.052967 0.014932 0.011832
2.048215 0.516993 0.737864 0.000000 -0.999636 0.000000
1.675399 0.528804 0.692122 0.000000 -0.876907 -0.000004
2.050048 0.162602 1.267884 -0.052941 -0.014719 -0.010929
2.050048 1.054083 1.267884 -0.052942 0.007360 -0.005618
1.527859 0.567539 0.818842 -0.000000 -0.456319 0.000015
1.478680 0.647127 0.654365 -0.000000 0.432129 -0.000032
3.435912 0.572586 0.758183 1.000000 0.000000 0.000000
2.216379 0.564933 0.656698 -0.000000 -0.480256 -0.000028
1.429500 0.687511 0.782695 0.000001 0.844276 0.000002
3.347519 0.574523 0.821972 0.095779 -0.000175 0.000422
3.298339 0.571177 0.820553 0.000001 -0.407548 0.000136
0.347540 0.686946 0.690518 -0.000000 0.863738 -0.000035
3.418234 0.638376 0.816284 0.089791 0.000181 0.000421
1.970479 0.693888 0.705004 0.000000 0.933904 -0.000012
1.921299 0.682597 0.683849 -0.000001 0.793573 -0.000003
2.904899 0.530805 0.785413 0.000000 -0.849810 0.000038
1.719298 0.691188 0.845931 -0.038531 -0.003008 0.002589
1.943987 0.448560 0.525870 -0.038525 0.004398 -0.003772
2.170533 0.958326 1.157692 0.072753 0.005327 -0.004374
2.170533 0.958326 0.316490 0.072754 0.005327 0.004374
1.638211 0.693603 0.843943 -0.038527 -0.012034 0.009917
1.997039 0.941639 1.152440 -0.038529 -0.006318 0.005382
1.771019 0.413357 0.495296 -0.038527 0.009043 -0.007600
3.150799 0.525550 0.775735 -0.000000 -0.901272 0.000004
2.009493 0.706475 0.873049 0.052966 -0.007616 0.006206
2.708179 0.527280 0.779236 0.000000 -0.889753 0.000002
2.131284 0.392570 1.005792 0.052967 0.002427 0.001996
1.976762 0.375927 0.439798 -0.038528 0.007804 -0.006603
2.124406 0.904300 0.370409 0.052968 -0.015827 -0.012485
2.117932 0.319769 0.397128 0.072755 -0.003099 0.002548
2.609819 0.618951 0.827837 0.000001 0.121514 0.000124
2.904899 0.650419 0.655993 0.000000 0.456352 -0.000059
0.200000 0.563373 0.816630 -0.004182 -0.002484 0.003661
2.757359 0.689564 0.778926 -0.000000 0.889711 0.000008
1.810338 0.539314 0.835296 -0.038528 0.026884 0.019041
1.907750 0.274030 0.338545 -0.052941 -0.005190 0.003980
1.232780 0.652667 0.816982 0.000001 0.475579 0.000007
2.096892 0.152578 1.300198 0.052964 0.011051 0.008906
2.096892 1.064107 1.300198 0.052965 -0.011051 0.008906
2.117932 0.335863 1.057504 0.072755 -0.006632 -0.005437
2.124406 0.296291 0.350859 0.052968 0.015827 -0.012485
2.062094 0.845422 0.436733 0.052968 -0.004555 -0.003736
2.904899 0.572166 0.653188 -0.000000 -0.404244 -0.000009
0.064954 0.659494 0.757472 -0.497716 0.000043 0.000018
2.183886 0.802130 0.499488 0.052965 -0.004854 -0.003979
3.378457 0.696633 0.739744 0.093794 0.002500 0.000151
2.708179 0.645826 0.653771 0.000000 0.407549 -0.000068
1.894260 0.473649 0.557866 -0.038531 0.004645 -0.003981
1.967412 0.479747 0.560614 0.052966 0.005078 -0.004161
1.640497 0.516976 0.737245 0.000000 -0.999636 0.000000
1.383492 0.699688 0.738018 -0.000000 0.999626 0.000000
1.069375 0.699667 0.735390 0.000000 0.999636 -0.000000
1.134420 0.526892 0.778479 -0.000001 -0.887639 0.000004
2.167199 0.638393 0.650811 0.000001 0.331201 -0.000022
0.200000 0.674677 0.799927 -0.004176 0.003629 0.002525
1.776778 0.319883 1.087505 -0.052940 -0.011512 -0.008669
3.298339 0.689335 0.694808 0.000000 0.889693 -0.000016
0.790160 0.650316 0.818242 0.000002 0.302858 0.000006
1.724579 0.685982 0.688933 0.000000 0.849640 -0.000001
1.948842 0.780394 0.962810 -0.038528 -0.017587 0.013814
1.973886 0.776282 0.560204 -0.052941 0.003444 0.002649
1.935220 0.943984 0.339207 -0.052940 0.010003 0.007574
1.824591 0.831005 0.997963 -0.052941 0.003256 -0.002504
2.216379 0.652328 0.657013 -0.000001 0.479909 -0.000028
2.019659 0.698246 0.753358 0.000001 0.963082 0.000001
1.960374 0.393548 0.498224 -0.052940 -0.006323 0.004838
1.638211 0.523082 0.843943 -0.038525 0.006018 0.005133
1.989445 0.205131 1.232982 -0.038528 0.021300 0.016096
1.989445 1.011555 1.232982 -0.038527 -0.010654 0.008865
1.134420 0.690366 0.696842 0.000001 0.901272 -0.000007
2.757359 0.570683 0.653850 0.000000 -0.407562 -0.000034
0.856791 0.517043 0.739719 0.000000 -0.999636 0.000000
1.919392 0.360499 0.425311 -0.038528 0.007804 -0.006603
1.886850 1.011996 0.246742 -0.038528 -0.011644 -0.009623
3.121349 0.526834 0.858266 0.000000 -0.772056 -0.000520
1.793914 0.723158 0.586815 -0.038528 -0.013448 -0.010962
3.382876 0.520951 0.747702 0.093792 -0.001971 0.000361
1.183600 0.647824 0.654699 0.000000 0.432982 -0.000004
1.773759 0.525951 0.776572 0.000000 -0.902004 0.000002
2.273491 0.606874 0.645760 0.000009 -0.001277 -0.000384
2.118019 0.528080 0.693444 0.000000 -0.877094 -0.000017
1.983236 0.873923 1.039880 -0.052939 0.002878 -0.002215
2.097084 1.185008 1.433709 -0.052940 0.015851 -0.011702
2.097084 0.031678 1.433709 -0.052941 -0.015851 -0.011702
2.118019 0.568757 0.819432 0.000001 -0.429554 0.000016
3.150799 0.637663 0.823627 0.000001 0.332055 0.000086
3.276878 0.760042 0.943533 -0.000002 0.772053 -0.000445
3.180235 0.451550 0.905399 0.000000 0.772056 0.000297
3.268150 0.461288 0.580613 -0.000000 0.772056 -0.000890
3.196535 0.463377 0.538830 -0.000001 -0.772055 0.000445
2.027296 0.533621 0.843124 0.052965 0.007617 0.006206
1.123314 0.609888 0.828420 -0.000000 0.026976 0.000009
3.233294 0.606178 0.828432 0.000000 -0.013106 0.000019
2.708179 0.653074 0.816760 -0.000000 0.480424 0.000028
1.085240 0.546360 0.804212 0.000001 -0.642867 0.000004
1.921299 0.525259 0.699078 0.000000 -0.912482 -0.000003
3.214257 0.516999 0.735080 -0.000000 -0.999909 -0.000000
2.167296 0.298410 1.108667 0.072756 -0.011523 -0.009370
2.210186 0.308872 0.373301 0.052967 0.015827 -0.012485
2.070591 0.789443 0.505443 0.052969 -0.002576 -0.002118
1.331140 0.522728 0.768997 -0.000000 -0.933757 0.000003
2.265559 0.564798 0.817410 0.000001 -0.462473 0.000007
2.776397 0.611434 0.645804 0.000000 0.026986 -0.000036
3.301098 0.804815 0.520581 -0.000001 -0.772052 -0.000306
3.435912 0.564169 0.666789 0.092415 -0.000242 -0.000374
1.960938 0.744825 0.599904 -0.052940 0.014154 0.010537
3.382876 0.674237 0.678714 0.093795 0.001390 -0.001390
1.894260 0.761220 0.901347 -0.052940 0.007078 -0.005406
1.894260 0.455465 0.901347 -0.052940 -0.007078 -0.005406
3.256649 0.353222 1.047005 0.173806 -0.001443 -0.002362
3.400555 0.587674 0.820946 0.093794 -0.000585 0.001877
1.183600 0.567195 0.655517 0.000001 -0.456237 -0.000059
1.868047 0.378814 1.003099 -0.052940 -0.003161 -0.002432
3.201371 0.788187 0.496459 0.000001 0.772050 0.000153
1.897497 0.751216 0.548201 -0.038527 -0.009291 -0.007798
2.836682 0.611589 0.645808 0.000000 0.027371 -0.000036
3.158133 0.418604 0.945420 0.000000 0.772056 0.000148
3.134087 0.789844 0.538767 -0.000002 -0.772052 -0.000520
1.874521 0.843367 0.442809 -0.038528 -0.004026 -0.003457
2.210186 0.972186 0.295102 0.052967 -0.013439 -0.010724
2.210186 0.244499 0.295102 0.052967 0.013439 -0.010724
2.210186 0.212312 0.256002 0.052967 0.012245 -0.009821
2.210186 1.004373 0.256002 0.052965 -0.012245 -0.009822
1.905836 0.849999 1.015556 -0.052941 0.006134 -0.004695
2.167199 0.566094 0.818100 0.000000 -0.456440 0.000059
1.827581 0.765493 0.535787 -0.038528 -0.018577 -0.014448
1.867394 0.770623 0.946686 -0.038528 -0.004646 0.003982
2.151111 0.736414 0.897600 0.052970 -0.002725 0.002241
2.943460 0.756186 0.557493 0.173799 0.002886 0.004723
2.941106 0.476259 0.875383 0.000001 0.772056 0.000445
2.943460 0.756186 0.916688 0.173800 0.002886 -0.004723
2.026983 0.219751 0.255921 -0.038528 0.010653 -0.008864
1.970479 0.680606 0.792995 0.000000 0.786267 0.000006
0.740980 0.691202 0.775596 -0.000002 0.881915 0.000004
1.036060 0.648870 0.818981 -0.000001 0.414920 0.000008
3.182692 0.539188 0.843258 0.000000 -0.772057 -0.000297
2.098510 0.442192 0.525934 0.052967 0.002576 -0.002118
2.070996 0.998673 1.222872 0.052967 -0.013439 0.010724
2.070996 0.218012 1.222872 0.052967 0.013439 0.010724
3.249159 0.529505 0.783262 -0.000001 -0.863568 0.000018
1.134420 0.690333 0.777409 -0.000001 0.901149 0.000007
1.872119 0.586291 0.825761 0.000000 -0.254493 0.000014
3.322135 0.610198 0.828437 0.000000 0.013489 0.000582
1.980360 0.447030 0.952230 0.052966 0.010901 0.008790
2.265559 0.650866 0.817959 -0.000000 0.456129 0.000007
2.153134 0.500305 0.601087 0.052968 0.013439 -0.010724
3.053662 0.707481 0.638820 0.000000 -0.772056 -0.000445
2.973953 0.517441 0.825356 0.000000 0.772055 0.000297
2.952465 0.715717 0.845367 0.000000 -0.772057 0.000297
0.249180 0.691269 0.775456 -0.000000 0.913430 0.000002
0.031045 0.639115 0.733744 -0.622570 0.000009 -0.000001
2.019659 0.525259 0.699078 -0.000001 -0.912998 -0.000014
0.347540 0.571001 0.820474 -0.000000 -0.407504 0.000034
3.279020 0.871125 0.417868 0.173798 0.003102 0.005077
3.279020 0.871125 1.056313 0.173796 0.003102 -0.005077
2.648687 0.517045 0.734386 0.000000 -0.999636 -0.000000
2.019659 0.644127 0.821158 -0.000000 0.382645 0.000037
2.609819 0.537792 0.795140 -0.000001 -0.765238 0.000006
1.473127 0.699690 0.737941 -0.000009 0.052173 0.000000
3.122425 0.817487 0.483027 0.173797 0.002886 0.004723
3.435912 0.648816 0.746329 1.000000 0.000000 0.000000
1.822939 0.685330 0.687881 0.000000 0.835216 -0.000040
1.527859 0.690058 0.777963 0.000002 0.884760 0.000008
1.577039 0.571530 0.653471 -0.000001 -0.407381 -0.000068
3.253702 0.369186 0.468730 0.000000 0.772055 -0.000306
1.626219 0.641765 0.652057 0.000000 0.357447 -0.000079
2.462279 0.526085 0.776851 -0.000001 -0.892683 0.000004
0.839340 0.651684 0.656661 0.000000 0.480202 -0.000014
1.494544 0.607647 0.645739 0.000000 -0.026976 -0.000018
1.822939 0.575750 0.651739 0.000000 -0.357533 -0.000005
2.855719 0.639851 0.822857 -0.000000 0.357662 0.000020
2.130880 0.944466 0.337878 0.072754 0.005762 0.004729
2.210186 0.714694 0.607898 0.052968 -0.005077 -0.004161
2.868969 0.500968 0.628815 0.000000 0.772055 -0.000594
2.806539 0.567711 0.818930 -0.000001 -0.438262 0.000004
0.234902 0.603550 0.645850 -0.000000 -0.026976 -0.000018
0.937700 0.678031 0.796183 -0.000001 0.748388 0.000003
2.462279 0.685452 0.786103 -0.000002 0.777991 0.000003
0.495080 0.568373 0.819248 -0.000000 -0.431972 0.000032
3.101619 0.564730 0.656809 0.000000 -0.480332 -0.000111
3.210524 0.677497 0.630923 0.000000 0.772057 0.000148
3.364060 0.728185 0.613669 0.000001 -0.772056 -0.000611
1.727564 0.802209 0.969019 -0.052941 0.007077 -0.005406
1.991531 0.889319 0.415041 -0.052940 0.002784 0.002142
1.947990 0.528822 0.855573 0.052963 0.005078 0.004161
1.950505 0.362078 1.048876 -0.038529 0.007804 0.006603
1.429500 0.689493 0.695118 0.000001 0.889263 -0.000008
2.820877 0.699244 0.648826 -0.000001 -0.772056 -0.000594
3.101619 0.528729 0.781924 0.000001 -0.868559 0.000004
1.921299 0.567505 0.818824 0.000002 -0.444416 0.000015
3.017537 0.516978 0.737555 0.000000 -0.999909 0.000000
2.314739 0.648382 0.654967 0.000000 0.432199 -0.000032
0.445900 0.685819 0.688670 0.000001 0.849760 -0.000038
2.167199 0.533778 0.789889 -0.000001 -0.770613 0.000001
2.382957 0.517022 0.735236 0.000000 -0.999636 -0.000000
1.724579 0.519249 0.716846 0.000000 -0.973624 -0.000007
0.520463 0.604942 0.645812 0.000000 -0.026986 -0.000018
1.872119 0.525851 0.697819 -0.000000 -0.901272 -0.000004
2.063401 0.139674 0.177702 -0.052940 -0.006606 0.005051
1.773759 0.529427 0.691053 -0.000001 -0.863584 -0.000036
0.790160 0.624952 0.647249 0.000000 0.175233 -0.000043
2.034984 0.472007 0.591584 0.072756 -0.009784 0.007983
2.062499 0.744856 0.915249 0.052967 -0.005451 0.004464
1.407289 0.607260 0.645749 0.000000 -0.026976 -0.000009
1.749260 0.348682 0.421661 -0.052940 -0.003067 0.002359
2.064522 0.491863 0.890744 0.052967 0.013439 0.010724
0.087010 0.553059 0.699607 -0.411458 -0.000059 -0.000038
2.069875 1.092740 1.316330 -0.052936 0.006229 -0.004767
2.069875 0.123945 1.316330 -0.052939 -0.006228 -0.004767
2.989198 0.459786 0.895393 -0.000001 0.772056 0.000594
2.154348 0.776780 0.527817 0.052969 -0.005152 -0.004221
1.988452 0.473410 0.598628 0.072754 -0.003697 0.003039
1.975505 0.504867 0.638328 0.072755 -0.003697 0.003039
2.176198 1.183313 1.431651 0.072754 0.009132 -0.007460
2.176198 0.033372 1.431651 0.072754 -0.009132 -0.007460
3.199979 0.636818 0.650278 0.000001 0.306414 -0.000189
3.220407 0.768503 0.564693 -0.000001 -0.772056 -0.000890
3.235551 0.713810 0.887370 -0.000002 0.772054 -0.000445
3.333702 0.482880 0.867339 0.000000 0.772056 0.000305
3.349268 0.678111 0.630177 -0.000000 0.772056 0.000611
3.349268 0.516827 0.826102 0.000001 0.772056 0.000611
1.232780 0.579315 0.650455 0.000000 -0.306383 -0.000024
0.839340 0.579425 0.823762 0.000000 -0.306235 0.000047
2.156776 0.128838 0.160729 0.072755 -0.003588 0.002950
2.137354 0.969204 0.292646 0.052967 -0.013439 -0.010724
1.813152 0.318353 0.382758 -0.038528 0.007557 -0.006402
1.818055 0.940000 1.139980 -0.038531 -0.014120 0.011446
1.699759 0.475231 0.581594 -0.052940 -0.009167 0.006960
2.130880 0.279933 1.142654 0.052968 0.014633 0.011612
2.764494 0.521799 0.842221 0.173800 -0.001443 -0.002362
3.052439 0.586067 0.825702 0.000000 -0.254251 0.000029
2.006256 0.835089 1.029557 0.052966 -0.009707 0.007860
0.057868 0.575530 0.775720 -0.525473 -0.000027 0.000030
2.009678 1.042312 1.269805 -0.038526 -0.009663 0.008091
2.009678 0.174373 1.269805 -0.038528 0.019320 0.014912
1.978380 0.862126 0.449189 -0.052941 0.011889 0.008939
3.340710 0.459328 0.533910 0.000002 -0.772051 0.000459
3.340710 0.779105 0.551813 -0.000001 -0.772055 -0.000459
1.331140 0.574812 0.652099 0.000000 -0.357348 -0.000040
2.019659 0.576075 0.822567 0.000001 -0.357220 0.000040
1.993308 0.414313 0.990893 0.052968 0.010304 0.008326
2.070377 1.139151 0.097664 -0.052939 0.005474 0.004195
0.544260 0.533911 0.684103 0.000000 -0.820000 -0.000011
0.888520 0.624343 0.647140 0.000000 0.175017 -0.000043
2.009493 0.706475 0.601132 0.052968 -0.007616 -0.006206
2.855719 0.574739 0.652126 -0.000001 -0.306007 -0.000006
3.109427 0.798081 0.945420 0.000000 -0.772056 0.000520
1.736061 0.810467 0.489089 -0.038528 -0.009043 -0.007600
1.808654 0.369179 0.441900 -0.038530 0.004150 -0.003562
0.495080 0.572451 0.653068 -0.000000 -0.371165 -0.000005
3.003259 0.553203 0.664236 -0.000000 -0.593766 -0.000010
3.340710 0.757357 0.940271 -0.351698 0.000993 -0.001019
2.177007 0.194350 0.237991 0.072754 -0.004458 0.003663
2.141400 0.686381 0.650187 0.072755 0.003697 0.003039
1.921299 0.647336 0.819716 -0.000001 0.431848 0.000064
1.921299 0.646813 0.654215 0.000001 0.431416 -0.000032
1.847814 0.807743 0.508424 -0.052942 0.003444 0.002649
1.847814 0.408942 0.508424 -0.052939 -0.013776 0.010274
3.371826 0.435051 0.947602 -0.351698 -0.002044 -0.002099
3.292443 0.702612 0.829446 0.000000 -0.772057 0.000358
0.790160 0.690734 0.697609 -0.000001 0.901272 -0.000007
2.170533 0.282499 0.345814 0.072755 -0.005762 0.004729
0.087010 0.626212 0.801449 -0.411461 0.000021 0.000067
3.214257 0.699592 0.732608 0.000000 0.999636 -0.000000
1.675399 0.675516 0.675165 0.000000 0.735040 -0.000004
1.885806 0.801871 0.983970 -0.038531 -0.004398 0.003772
0.102300 0.673195 0.702708 -0.351758 0.000082 -0.000041
2.019204 0.348879 1.068220 0.052966 0.018215 0.014182
3.391716 0.608343 0.649891 0.093795 0.000076 -0.001250
3.148848 0.675438 0.840757 0.000001 0.772056 -0.000260
3.435912 0.608343 0.737091 1.000000 0.000000 0.000000
2.180649 0.464118 0.908901 0.072755 -0.007937 -0.006495
2.091227 0.962793 1.154015 0.072757 0.005327 -0.004374
3.325144 0.403633 0.510575 -0.000001 0.772056 -0.000612
0.544260 0.695523 0.764426 -0.000001 0.910828 0.000001
2.593955 0.699651 0.734772 0.000000 0.999636 -0.000000
1.797479 0.793678 0.951875 -0.052940 0.007078 -0.005406
0.434795 0.609270 0.645732 0.000000 0.013486 -0.000073
2.005042 0.438134 0.920309 0.072755 -0.003968 -0.003262
3.257594 0.839012 0.995143 0.000000 -0.772057 0.000306
2.855719 0.525884 0.697749 -0.000000 -0.901633 -0.000007
1.995919 1.027913 0.221868 -0.038528 -0.010653 -0.008865
2.022688 0.261184 0.331858 -0.052939 -0.004813 0.003693
2.169724 0.069129 0.078690 0.052967 0.014932 -0.011832
2.169724 1.147556 0.078690 0.052968 -0.014931 -0.011832
2.042672 0.788300 0.969680 0.052966 -0.005152 0.004221
2.855719 0.647336 0.654466 0.000000 0.432042 -0.000032
1.942660 0.910920 1.091419 -0.052942 0.005379 -0.004124
3.055313 0.422186 0.510952 0.173798 -0.002886 0.004723
2.020104 0.989735 1.209515 -0.038527 -0.011644 0.009623
2.020104 0.226950 1.209515 -0.038530 0.011644 0.009622
2.183886 0.407974 0.496706 0.072754 -0.003534 0.002905
3.309577 0.369687 0.469338 0.000000 0.772056 -0.000612
3.309577 0.846998 1.004844 -0.000001 -0.772056 0.000612
2.097701 0.978522 0.300317 0.072755 0.005327 0.004374
1.954464 0.704221 0.599277 0.052969 -0.005077 -0.004161
3.314203 0.517101 0.741883 0.000000 -0.999626 0.000000
3.032942 0.786837 0.953921 0.173797 0.002886 -0.004723
3.032942 0.786837 0.520260 0.173797 0.002886 0.004723
3.037290 0.443313 0.915404 0.000002 0.772055 0.000742
1.794078 0.455905 0.564705 -0.052941 -0.020485 0.014724
1.827417 0.752582 0.895942 -0.052940 0.020485 -0.014725
1.827253 0.727549 0.610713 -0.052939 0.010245 0.007751
1.860757 0.727483 0.577861 -0.038528 -0.026884 -0.019041
1.793914 0.735747 0.877003 -0.052940 0.010245 -0.007751
2.708179 0.570930 0.653739 0.000001 -0.407530 -0.000068
3.203566 0.699244 0.825356 0.000000 -0.772056 0.000297
3.174505 0.710442 0.590902 0.000000 0.772056 0.000297
1.281960 0.615295 0.828192 -0.000001 0.064311 0.000059
3.141327 0.758958 0.897895 0.000000 -0.772056 0.000520
1.036060 0.525935 0.697644 0.000001 -0.901452 -0.000015
1.626219 0.647650 0.819566 -0.000000 0.432186 0.000032
2.023533 1.118107 0.120906 -0.052940 0.006228 0.004767
2.009774 0.112978 0.138398 -0.052941 -0.006228 0.004766
2.314739 0.698076 0.719872 0.000000 0.979438 -0.000003
3.131762 0.699705 0.737709 -0.000000 0.999906 0.000000
2.068568 0.518155 0.830393 0.072756 -0.009784 -0.007983
3.329810 0.742292 0.877649 0.000000 -0.772057 0.000358
2.032961 0.772955 0.916716 0.072756 0.001984 -0.001633
3.296858 0.432961 0.927979 -0.000000 0.772057 0.000459
1.916248 0.947529 1.154496 -0.038530 -0.003283 0.002824
2.083944 1.031390 1.261535 0.052966 -0.012245 0.009822
2.083944 0.185295 1.261535 0.052966 0.012245 0.009822
2.066545 0.704788 0.607943 0.052968 -0.013439 -0.010724
1.983686 0.285773 1.113801 -0.052939 -0.005190 -0.003980
3.135315 0.459786 0.895393 0.000004 0.772003 0.000260
2.658999 0.691552 0.699361 -0.000000 0.913037 -0.000003
1.867394 0.431539 0.934731 -0.052940 -0.003539 -0.002721
2.104175 0.991985 0.262203 0.052968 -0.006720 -0.005488
2.071805 0.886053 0.388186 0.052967 -0.008512 -0.006919
3.071476 0.699711 0.737245 0.000000 0.999909 0.000000
1.665973 0.476615 0.893727 -0.052940 -0.013749 -0.010255
2.658999 0.557648 0.661081 0.000000 -0.549942 -0.000012
2.019608 0.799426 0.489062 0.052966 -0.002576 -0.002118
1.331140 0.583898 0.825131 0.000000 -0.280481 0.000104
3.187807 0.489770 0.570891 0.000000 -0.772057 0.000148
3.084052 0.710442 0.590902 -0.000000 0.772056 0.000891
3.056220 0.484495 0.865377 0.000000 0.772056 0.000891
2.560639 0.672508 0.672050 0.000001 0.697351 -0.000031
2.068839 0.646426 0.654039 0.000000 0.407550 -0.000034
1.860757 0.727483 0.896321 -0.038529 -0.013448 0.010962
1.558002 0.607724 0.645737 0.000000 -0.026986 -0.000009
1.113003 0.516972 0.737129 0.000000 -0.999904 0.000000
0.125955 0.534436 0.771284 -0.259552 -0.000126 0.000054
0.888520 0.543734 0.672482 0.000000 -0.716486 -0.000007
3.081494 0.685733 0.853264 0.000000 0.772057 -0.000445
3.334476 0.649784 0.809594 0.279652 0.001943 0.002361
3.150799 0.525951 0.697609 0.000000 -0.901779 -0.000007
1.765198 0.846071 0.451508 -0.052941 0.013021 0.009744
1.765198 0.370614 1.022674 -0.052939 -0.013022 -0.009744
1.811891 0.860802 0.436447 -0.052940 0.003067 0.002359
1.904218 0.383567 1.021253 -0.038527 0.004150 0.003562
1.980360 0.792011 0.933827 -0.052940 0.013399 -0.010010
3.349268 0.538574 0.630177 -0.000000 -0.772056 0.000611
2.029320 0.827987 0.455178 0.052967 -0.004854 -0.003979
2.069875 1.092740 0.157852 -0.052938 0.006229 0.004767
1.885806 0.414814 0.490212 -0.038529 0.004398 -0.003772
0.195835 0.516955 0.737091 0.003892 -0.002648 0.000030
0.674349 0.699634 0.740028 0.000000 0.999636 0.000000
3.241353 0.545741 0.638883 0.000000 -0.772056 0.000358
2.954079 0.527051 0.695393 0.000000 -0.889753 -0.000004
2.757359 0.690801 0.697749 0.000001 0.901115 -0.000007
3.052439 0.541536 0.799415 0.000001 -0.734620 0.000014
2.005447 0.466321 0.886116 0.072755 -0.009785 -0.007983
0.986880 0.517064 0.733690 0.000000 -0.999636 -0.000000
0.288841 0.699693 0.738637 0.000000 0.999906 0.000000
1.927441 0.806511 0.991802 -0.038529 -0.004150 0.003562
1.822939 0.517361 0.745430 0.000000 -0.995514 0.000001
2.137354 0.976288 1.175703 0.072754 0.010654 -0.008678
2.137354 0.240397 1.175703 0.072754 -0.005327 -0.004374
3.034732 0.748663 0.588794 0.000001 -0.772055 -0.000371
1.478680 0.517611 0.726368 0.000000 -0.991832 -0.000001
2.972724 0.484495 0.608804 0.000000 0.772056 -0.000297
1.626219 0.580235 0.650159 -0.000000 -0.306355 -0.000024
1.773759 0.681818 0.791391 0.000000 0.797117 0.000001
3.150799 0.648800 0.655167 0.000000 0.432355 -0.000016
2.012730 0.346031 0.441105 0.072755 -0.003316 0.002727
3.037290 0.465061 0.540875 0.000001 -0.772056 0.000742
1.922629 0.876527 1.048525 -0.052942 0.002973 -0.002287
1.859642 0.919728 0.364121 -0.052938 0.002690 0.002070
1.626219 0.524660 0.700420 0.000000 -0.913183 -0.000007
1.999782 0.397955 0.463957 0.052966 0.002427 -0.001996
2.931869 0.699626 0.733845 0.000000 0.999625 -0.000000
2.013630 0.984633 0.293264 -0.052940 0.008870 0.006741
3.027723 0.513322 0.830359 0.000000 0.772056 0.000371
1.897452 0.703566 0.647934 -0.052934 0.002562 0.001972
0.566470 0.611589 0.828374 0.000000 0.026976 0.000073
2.097084 0.034984 0.037751 -0.038527 0.022785 -0.016936
2.097084 1.181701 0.037751 -0.038527 -0.022786 -0.016936
0.298360 0.643877 0.652920 0.000000 0.382726 -0.000037
1.626219 0.524707 0.773868 -0.000000 -0.911558 0.000003
3.085381 0.789844 0.538767 0.000002 -0.772054 -0.000891
3.077684 0.414523 0.972538 0.173799 -0.002886 -0.004723
1.927435 0.727989 0.855339 -0.052940 0.020485 -0.014725
3.298339 0.557066 0.661464 -0.000000 -0.572345 -0.000174
2.126429 0.779660 0.952194 0.052969 -0.005152 0.004221
2.143828 1.008110 0.259079 0.072757 0.004892 0.004018
2.143828 0.208575 0.259079 0.072755 -0.009784 0.007983
