-1.520592 -0.089236 -0.034193 -0.262437 -0.915024 -0.303517
1.442040 -0.174822 0.174717 0.171881 -0.753129 -0.635023
0.041852 0.111253 -0.116443 -0.064120 0.765874 0.639786
1.548990 0.034504 0.020786 1.000000 -0.000000 0.000000
-0.782417 0.084377 0.063461 0.000141 0.769978 0.636896
-1.297613 0.104866 -0.012242 -0.000752 0.991772 -0.121974
-0.592554 -0.094565 0.046948 0.000066 -0.872489 0.487187
-0.949612 0.044057 0.095946 -0.000173 0.462720 0.885675
0.922509 -0.030020 0.101220 0.000090 -0.289471 0.956444
-0.395021 -0.101640 0.028565 0.000218 -0.947998 0.315988
0.461343 -0.146432 -0.165918 0.064181 0.737179 -0.672643
0.461157 0.238644 0.256424 0.060226 0.737361 -0.672809
-0.042888 0.044998 -0.095508 -0.001125 0.377941 -0.924901
0.125549 -0.088468 0.112575 -0.068318 0.704854 0.706055
0.195289 -0.000000 0.105578 0.001460 -0.049889 0.997864
1.330523 -0.088660 -0.057324 0.000472 -0.862979 -0.503748
-0.093598 0.101793 0.028017 0.000071 0.947681 0.316884
0.334677 0.221097 -0.225872 0.060226 0.737361 0.672809
0.333155 0.388305 0.418900 -0.064120 0.765874 -0.639786
0.571207 -0.041690 0.096998 0.000017 -0.439567 0.897396
-1.231651 -0.008365 0.105246 -0.000658 -0.051465 0.997929
0.749953 -0.089613 0.055823 -0.000106 -0.844139 0.534732
0.791364 0.082839 -0.065455 -0.000002 0.781365 -0.622876
-0.820447 0.027177 -0.102020 0.000123 0.291880 -0.955715
0.962356 0.070405 0.071132 -0.082724 0.831974 -0.548613
0.478992 0.414595 -0.458124 0.064181 -0.737179 -0.672643
-0.082888 0.009909 0.105112 0.000833 0.128052 0.990828
0.273185 0.160618 -0.154086 0.060226 0.737361 0.672809
0.069252 -0.023065 -0.103027 0.000187 -0.169233 -0.984995
-0.007130 0.089750 0.101016 -0.068318 -0.704854 0.706055
0.356304 0.318779 -0.364822 -0.024155 -0.716818 -0.696054
1.378656 -0.193344 -0.194796 -0.082724 -0.831974 0.548613
-1.077078 0.027161 -0.102024 0.000081 0.294764 -0.954780
0.110463 0.006733 0.105363 -0.000916 0.095898 0.994751
0.415339 -0.485596 -0.527129 -0.064120 -0.765874 0.639786
1.408329 -0.134986 -0.128647 -0.000000 -0.738702 0.674033
1.476472 -0.089107 -0.111675 0.171881 0.701173 -0.691964
1.286902 0.000000 -0.105578 -0.001412 -0.041802 -0.998372
0.399507 -0.403808 -0.453887 0.020011 0.727593 -0.684917
0.459326 0.521541 0.577207 -0.016778 -0.718551 0.694131
0.290963 -0.150265 -0.186375 0.064181 0.737179 -0.672643
-1.158661 0.063121 0.084631 0.000282 0.636319 0.770393
0.768156 -0.092386 -0.051102 0.000076 -0.861943 -0.505710
0.407388 0.271906 -0.288064 0.060226 0.737361 0.672809
0.336416 -0.402200 0.435208 -0.064120 -0.765874 -0.639786
-1.095662 -0.067014 -0.081583 -0.001358 -0.643054 -0.765179
-1.045928 -0.091371 -0.052896 -0.000050 -0.867432 -0.496087
1.087501 -0.081064 0.103230 -0.082724 0.622328 0.778373
-1.346990 -0.000000 0.105578 -0.002003 -0.030070 0.998873
-0.842817 -0.076110 -0.073171 0.000083 -0.753465 -0.656359
1.260470 -0.085783 -0.113303 0.000000 0.738702 -0.674033
0.229724 0.264005 0.297893 -0.068318 -0.704854 0.706055
0.180532 -0.073239 0.076044 0.000161 -0.687608 0.725009
-1.466645 -0.076848 -0.071699 -0.079540 -0.760475 -0.643116
0.069833 -0.121045 -0.139705 -0.068318 0.704854 -0.706055
0.278326 -0.185958 0.224681 -0.068318 0.704854 0.706055
0.879055 0.097344 0.040876 -0.000091 0.918374 0.393798
-0.471419 0.018309 0.103978 -0.000055 0.201470 0.978718
0.258348 0.111713 0.099160 0.060226 0.737361 -0.672809
-1.224737 -0.099470 0.035389 0.000054 -0.946119 0.321526
-1.289941 -0.047979 0.094046 -0.000197 -0.495100 0.867955
0.933497 -0.098904 0.036943 0.000677 -0.920612 0.388463
1.201567 0.082125 -0.109294 0.000000 -0.738702 -0.674033
0.377858 -0.103818 -0.019195 -0.001374 -0.988836 -0.143286
0.474523 -0.043647 0.096133 0.000254 -0.356416 0.933221
-1.096002 0.097409 0.040721 0.000051 0.922086 0.385063
0.181907 -0.103963 -0.018392 0.000208 -0.980961 -0.190227
1.212616 -0.067403 0.073870 0.000000 0.674033 -0.738702
-0.153754 -0.096741 -0.042282 -0.000087 -0.908822 -0.415420
1.482525 -0.096149 -0.031596 0.170254 -0.919048 -0.353293
1.548990 -0.059711 0.038179 1.000000 0.000000 0.000000
1.278063 -0.197932 0.216922 -0.082724 -0.831974 -0.548613
0.357330 0.421664 0.456411 -0.064120 0.765874 -0.639786
0.567861 -0.100614 -0.031991 0.000043 -0.934460 -0.353976
0.173688 0.163810 -0.192446 -0.068318 -0.704854 -0.706055
1.405836 -0.018561 0.103933 0.000824 -0.220240 0.974662
-0.953523 -0.074494 -0.074816 0.000591 -0.703532 -0.709617
0.181264 -0.123194 -0.116764 -0.064120 -0.765874 0.639786
0.802484 -0.009413 0.105157 0.001816 -0.143397 0.988831
0.251123 -0.105317 -0.007416 -0.000835 -0.991819 -0.122391
-0.334543 -0.092159 -0.051511 -0.000008 -0.844463 -0.534346
-0.064740 -0.105146 0.009538 0.001365 -0.995071 0.093679
-1.250197 0.091928 -0.051923 -0.000755 0.891035 -0.452411
0.507203 0.290890 -0.319859 0.064181 -0.737179 -0.672643
1.518758 0.131656 0.144287 0.171881 0.753129 -0.635023
0.731006 0.076113 -0.073167 -0.000190 0.684895 -0.727539
1.000824 -0.100083 0.033615 -0.000246 -0.932102 0.360323
0.370944 -0.340830 -0.360339 0.060226 -0.737361 0.672809
0.221266 0.153966 0.149592 -0.064120 0.765874 -0.639786
0.419859 0.096668 -0.042449 0.000322 0.891843 -0.450730
1.421640 0.105581 0.096422 -0.000000 0.738702 -0.674033
0.010443 -0.029843 0.101272 0.000027 -0.283906 0.958080
0.458631 -0.285656 -0.318758 0.064181 0.737179 -0.672643
-1.379828 -0.059507 -0.087210 0.000048 -0.562623 -0.825819
0.591280 -0.103554 0.020575 0.000273 -0.969420 0.242447
0.816206 0.000000 -0.105578 -0.001294 -0.059994 -0.997300
0.290993 -0.167144 0.162831 0.060226 -0.737361 -0.672809
0.252311 -0.070290 -0.102415 0.064181 0.737179 -0.672643
1.199661 0.028788 -0.101577 0.000016 0.315785 -0.948036
-1.406008 -0.070720 0.078392 0.000267 -0.704159 0.709023
0.227683 -0.122305 0.111049 -0.064120 -0.765874 -0.639786
0.518315 -0.321427 0.352265 0.064181 0.737179 0.672643
1.122637 0.107269 -0.102868 -0.082724 0.831974 0.548613
-0.601012 -0.105459 -0.005008 -0.000292 -0.995605 -0.088248
1.548990 -0.061977 -0.038334 1.000000 0.000000 0.000000
0.298778 -0.324500 0.364967 -0.068318 0.704854 0.706055
1.018461 -0.094338 -0.047403 0.000109 -0.915734 -0.399980
1.287390 -0.108869 0.100024 0.000000 -0.738702 -0.674033
-0.999787 -0.008981 -0.105195 0.000377 -0.140788 -0.989138
1.454540 -0.110470 0.101779 0.057519 -0.745466 -0.662745
0.442176 -0.361475 0.389340 0.060226 -0.737361 -0.672809
-0.673791 -0.103797 -0.019308 0.000214 -0.971060 -0.235689
1.113552 -0.042050 -0.096843 0.002310 -0.360131 -0.932252
-0.538463 -0.031315 0.100827 -0.000086 -0.339175 0.939977
0.168144 0.093571 -0.121790 -0.068318 -0.704854 -0.706055
-0.360251 0.101381 0.029472 -0.000004 0.942821 0.331169
0.241020 -0.297679 0.319648 -0.064120 -0.765874 -0.639786
-0.435711 0.083016 0.065230 0.000588 0.770136 0.636834
0.488075 -0.180263 -0.200443 0.064181 0.737179 -0.672643
0.187338 -0.220821 0.250681 -0.068318 0.704854 0.706055
0.316967 0.383658 -0.414960 -0.064120 0.765874 0.639786
0.389300 0.209716 0.218288 0.060226 0.737361 -0.672809
0.508179 0.175856 -0.191820 0.060226 0.737361 0.672809
0.343267 0.095615 0.089120 0.060226 0.737361 -0.672809
1.423907 0.148183 0.143111 0.000000 0.738702 -0.674033
-1.250179 0.053447 -0.091050 0.001138 0.552224 -0.832768
0.749540 -0.031545 0.100755 -0.000066 -0.346604 0.937253
0.413484 0.184478 -0.212180 0.064181 -0.737179 -0.672643
-1.422665 0.098547 -0.037883 0.000090 0.914340 -0.403163
0.314628 0.314892 -0.332876 -0.064120 0.765874 0.639786
0.511820 0.487439 -0.534826 0.064181 -0.737179 -0.672643
0.423928 0.421674 0.453681 0.060226 0.737361 -0.672809
-1.472195 0.104028 0.011489 -0.108672 0.980999 0.150085
1.530851 0.050563 -0.077914 0.170440 0.577419 -0.797335
-0.683230 0.059559 0.087175 0.000015 0.599663 0.799318
-0.259542 -0.032369 -0.100493 -0.000105 -0.342738 -0.938653
-0.631784 0.014359 -0.104597 -0.000575 0.158543 -0.986676
0.107568 0.092623 -0.050672 -0.000052 0.871779 -0.488383
1.421640 -0.086372 -0.113949 0.000000 0.738702 -0.674033
-0.171395 0.080621 0.068168 -0.000025 0.748176 0.662460
0.436584 0.084082 0.084833 0.060226 0.737361 -0.672809
1.135993 0.146994 -0.161097 -0.082724 0.831974 0.548613
0.427378 0.310929 0.349438 0.064181 -0.737179 0.672643
0.005248 -0.058131 -0.088133 0.000522 -0.590017 -0.806680
0.518315 -0.470232 -0.515348 0.060226 -0.737361 0.672809
1.443466 0.189854 -0.221962 0.171881 -0.701173 -0.691964
1.443466 0.189854 0.221962 0.171881 -0.701173 0.691964
0.157220 0.134720 0.132971 -0.064120 0.765874 -0.639786
0.058160 -0.171005 0.186336 -0.064120 -0.765874 -0.639786
-0.571196 -0.078615 -0.070472 -0.000039 -0.712986 -0.700136
0.372236 -0.212116 0.219390 0.060226 -0.737361 -0.672809
1.364092 0.152157 -0.147466 -0.000000 0.738702 0.674033
0.309778 0.246411 0.251385 -0.022674 0.757461 -0.651747
0.648946 0.080825 0.067927 -0.000032 0.760689 0.647972
-0.596251 -0.005643 0.105427 0.000070 -0.096787 0.994747
0.356862 -0.386276 -0.414096 -0.064120 -0.765874 0.639786
-0.253575 0.083958 -0.064014 0.000363 0.786661 -0.616234
1.167030 -0.093874 0.048315 0.000737 -0.889081 0.456017
0.662464 -0.081896 0.066631 0.000011 -0.746184 0.664653
0.984264 0.050226 -0.092866 -0.000708 0.425808 -0.903946
0.559886 -0.087752 0.058704 0.000064 -0.833901 0.550573
-1.148815 -0.100109 -0.033538 0.000238 -0.927391 -0.371805
0.399444 -0.096251 -0.116827 0.064181 0.737179 -0.672643
0.486963 0.358466 -0.390052 0.060226 0.737361 0.672809
-1.380293 0.092566 0.050775 -0.000183 0.875022 0.482664
0.204751 -0.214230 -0.245786 -0.068318 0.704854 -0.706055
1.548990 0.029819 -0.030700 1.000000 0.000000 0.000000
1.213699 -0.064251 -0.089705 -0.000000 0.738702 -0.674033
1.516330 0.055077 0.067293 -0.627674 -0.524719 -0.575062
1.515014 -0.028685 0.091206 0.170228 -0.294568 0.939449
0.267734 0.366410 0.403802 -0.068318 -0.704854 0.706055
1.267196 0.077008 0.065107 -0.000000 0.738702 -0.674033
0.918498 -0.101993 -0.027280 -0.001419 -0.963086 -0.266453
-0.787404 -0.019815 -0.103702 0.000075 -0.232654 -0.971826
-0.488663 -0.103804 0.019272 -0.001172 -0.971783 0.232305
0.331762 0.068675 -0.080190 -0.000024 0.608143 -0.792941
0.303132 -0.233941 -0.237124 0.018775 -0.747956 0.662754
-1.478826 -0.023814 -0.101210 -0.123825 -0.164860 -0.977188
1.020561 -0.105607 0.115739 -0.082724 -0.831974 -0.548613
0.530869 0.101794 -0.028012 -0.000388 0.950470 -0.308512
1.111608 -0.109364 -0.107708 -0.082724 -0.831974 0.548613
-1.414094 -0.104630 -0.014113 -0.000402 -0.982658 -0.181743
1.391243 -0.067403 -0.073870 0.000000 0.674033 0.738702
-1.457153 -0.101561 0.028846 -0.039224 -0.974491 0.216464
0.342646 -0.066023 0.082387 0.000247 -0.596370 0.801809
0.927714 0.029943 -0.101243 0.000320 0.253887 -0.966440
1.254912 -0.124556 -0.155796 -0.055258 0.662903 -0.745497
1.380883 0.191413 0.222638 -0.082724 -0.622328 0.778373
0.626384 0.099876 -0.034227 -0.000235 0.942558 -0.331839
1.406067 0.105299 -0.007671 -0.000393 0.991301 -0.125192
-0.990011 -0.104148 0.017315 0.000688 -0.976743 0.211026
-1.448493 0.074675 -0.074634 -0.014966 0.706442 -0.706545
0.518315 -0.463468 0.507935 0.064181 0.737179 0.672643
-1.414309 0.024526 0.102690 -0.000107 0.229757 0.972540
0.518315 0.422885 0.463458 0.060226 0.737361 -0.672809
-0.428993 0.083118 -0.065100 -0.000089 0.753262 -0.656597
1.337496 -0.110544 -0.140440 0.000000 0.738702 -0.674033
1.354899 0.101886 0.092372 -0.000000 0.738702 -0.674033
1.227819 -0.150605 0.152727 -0.082724 -0.831974 -0.548613
0.293943 -0.317533 -0.357544 -0.068318 0.704854 -0.706055
0.395859 -0.086488 0.060552 -0.000044 -0.844081 0.534919
-1.512056 0.066294 -0.072001 -0.262858 0.645848 -0.715353
-0.899063 -0.014493 -0.104578 0.000339 -0.188362 -0.981377
-1.448493 -0.033563 0.100101 -0.016135 -0.317389 0.947321
0.414205 -0.328117 0.350278 0.060226 -0.737361 -0.672809
-0.282413 0.102672 -0.024598 -0.000119 0.961849 -0.270850
1.094469 0.104622 0.014171 0.000446 0.983774 0.176028
-0.603568 0.075902 0.073386 -0.001045 0.746180 0.664853
0.960164 -0.054070 -0.090681 -0.000006 -0.557403 -0.829355
0.370391 -0.445896 -0.484110 -0.064120 -0.765874 0.639786
0.386214 -0.389809 0.415383 -0.018520 -0.756486 -0.652831
0.328737 0.234602 -0.275199 0.064181 -0.737179 -0.672643
1.224787 -0.178830 0.195987 -0.082724 -0.831974 -0.548613
0.391181 -0.246918 0.282738 0.064181 0.737179 0.672643
0.291069 0.412447 -0.452018 -0.068318 -0.704854 -0.706055
0.155568 -0.278171 0.304860 -0.068318 0.704854 0.706055
0.285423 -0.406852 -0.445887 -0.068318 0.704854 -0.706055
0.518315 0.104982 -0.115055 0.060226 0.737361 0.672809
0.518315 0.348482 0.381917 0.060226 0.737361 -0.672809
-1.292023 -0.035033 -0.099596 0.000032 -0.378387 -0.924847
1.026329 0.024781 -0.102628 0.000428 0.287543 -0.957032
-0.555597 0.017466 -0.104123 0.000236 0.195231 -0.980020
0.736088 -0.105578 0.000000 -0.000116 -0.999100 0.015407
1.368650 0.073145 -0.099452 -0.000000 -0.738702 -0.674033
0.430367 -0.073302 -0.075983 -0.000100 -0.714262 -0.698822
1.443176 -0.239904 -0.255676 -0.082724 -0.831974 0.548613
0.391874 0.098388 0.119892 0.064181 -0.737179 0.672643
1.173240 0.093815 -0.048430 -0.000178 0.880380 -0.472483
0.301173 0.007368 -0.105320 0.000244 0.103550 -0.993983
0.742537 0.069049 0.079868 -0.000000 0.648359 0.760370
-0.878840 -0.008531 0.105233 -0.001077 -0.119997 0.991913
-1.248470 -0.089837 -0.055461 -0.000128 -0.852854 -0.520788
1.279079 -0.141925 0.136252 -0.000000 -0.738702 -0.674033
-1.003032 0.091994 0.051804 0.000188 0.845908 0.532101
0.349030 0.106611 -0.132992 0.064181 -0.737179 -0.672643
-0.174444 0.051526 -0.092150 0.000346 0.524157 -0.850774
0.282573 -0.134556 0.126363 0.060226 -0.737361 -0.672809
0.073478 0.098475 0.038070 -0.000155 0.940593 0.337395
-0.549068 0.105148 0.009514 -0.000134 0.989085 0.142095
0.431296 -0.493862 0.535425 -0.064120 -0.765874 -0.639786
0.518315 -0.118510 0.129880 0.064181 0.737179 0.672643
0.401515 0.386200 -0.434398 0.064181 -0.737179 -0.672643
1.198317 0.027000 0.102067 0.000017 0.261088 0.964549
1.383362 0.208612 -0.217240 -0.082724 0.831974 0.548613
0.888793 0.058664 -0.087779 0.000138 0.597552 -0.800986
-0.332222 -0.053101 0.091252 -0.000104 -0.543963 0.838279
0.443119 0.448614 -0.498830 0.064181 -0.737179 -0.672643
0.095141 -0.105578 0.000000 -0.000450 -0.999416 0.020109
1.038320 0.111974 -0.122717 -0.082724 0.831974 0.548613
1.181586 -0.123572 -0.147216 -0.082724 0.622328 -0.778373
0.114443 0.162643 0.185549 -0.068318 -0.704854 0.706055
0.128163 -0.218669 0.236378 -0.064120 -0.765874 -0.639786
0.488511 0.124650 0.139454 0.064181 -0.737179 0.672643
1.191940 -0.118247 0.144059 -0.082724 0.622328 0.778373
0.967058 -0.089811 -0.055504 -0.000334 -0.831263 -0.554556
-1.566392 -0.064740 0.042463 -0.440785 -0.744587 0.499068
0.055608 0.144091 0.154374 -0.064120 0.765874 -0.639786
0.390365 0.019400 0.103780 -0.000324 0.235543 0.971092
-0.344479 0.104054 -0.017870 0.000743 0.979224 -0.199058
0.020735 -0.115362 -0.123477 -0.064120 -0.765874 0.639786
0.474581 -0.452395 -0.491884 0.060226 -0.737361 0.672809
-1.323637 0.049394 0.093311 0.000053 0.507619 0.860740
1.358371 0.020609 -0.103547 0.000836 0.197348 -0.979610
-1.303653 -0.101535 -0.028938 0.000478 -0.961073 -0.273720
1.218511 -0.099136 0.036315 -0.000194 -0.952739 0.302096
-0.860351 0.076641 -0.072614 -0.000121 0.707201 -0.706062
-1.570483 -0.050453 -0.055876 -0.461204 -0.632461 -0.619835
-0.008162 -0.115921 0.127043 -0.068318 0.704854 0.706055
0.207927 0.118510 -0.108485 -0.064120 0.765874 0.639786
-0.002516 0.121516 -0.133175 -0.068318 -0.704854 -0.706055
0.585879 0.105458 -0.005018 -0.000072 0.995499 -0.090340
1.333339 0.176628 0.205763 -0.082724 -0.622328 0.778373
-0.278309 0.049402 -0.093306 0.000127 0.500677 -0.864872
-0.912925 0.081147 -0.067542 -0.000098 0.732355 -0.679838
0.405342 0.027307 -0.101985 -0.000470 0.294504 -0.955228
-0.936384 0.105578 -0.000000 0.000249 0.999089 -0.021323
0.914288 0.020196 0.103628 0.000598 0.154275 0.987277
-0.803638 -0.101158 0.030229 -0.000009 -0.956001 0.290828
0.821558 0.051861 -0.091962 0.000050 0.485482 -0.873394
0.050434 -0.071243 0.077917 0.000000 0.674033 -0.738702
0.136259 -0.124027 0.149109 -0.068318 0.704854 0.706055
-0.295324 0.033154 0.100237 -0.000104 0.287215 0.957120
1.053013 0.088546 0.105547 -0.082724 -0.622328 0.778373
1.463106 0.150570 0.177277 0.171881 -0.701173 0.691964
0.432327 -0.425633 0.474674 0.064181 0.737179 0.672643
0.015220 -0.092359 -0.051152 0.000313 -0.897034 -0.440500
0.219697 0.151464 -0.146755 -0.064120 0.765874 0.639786
1.505811 -0.087670 0.041966 0.169642 -0.865938 0.468915
0.479683 -0.193407 0.215649 0.064181 0.737179 0.672643
-1.111251 -0.020939 -0.103481 0.000484 -0.229397 -0.972441
1.414276 -0.123277 0.154394 -0.000000 0.738702 0.674033
0.014599 0.042541 -0.096628 0.000830 0.444729 -0.894739
-0.529486 -0.042458 -0.096664 0.000115 -0.443829 -0.895374
0.471581 -0.515397 -0.569305 0.064181 0.737179 -0.672643
0.258348 0.111713 -0.099160 0.060226 0.737361 0.672809
0.077125 -0.092847 -0.050260 -0.000449 -0.869665 -0.492359
-0.686014 0.000000 -0.105578 -0.000555 -0.015311 -0.999465
0.381463 0.140640 0.141883 0.060226 0.737361 -0.672809
1.451804 0.157843 -0.187454 0.171881 -0.701173 -0.691964
1.305856 -0.096064 0.043800 -0.000658 -0.906232 0.420915
0.211720 -0.180494 -0.212782 -0.068318 0.704854 -0.706055
0.347927 -0.033213 -0.100217 -0.000099 -0.343007 -0.938569
0.156669 0.032714 -0.100381 0.000164 0.296522 -0.954351
0.993923 0.096056 -0.105272 -0.082724 0.831974 0.548613
0.286515 0.181424 0.220948 -0.024155 -0.716818 0.696054
0.468246 -0.295956 0.319869 0.060226 -0.737361 -0.672809
0.228964 -0.350904 -0.384571 -0.068318 0.704854 -0.706055
1.440573 -0.240549 0.257046 -0.082724 -0.831974 -0.548613
1.413261 0.150919 -0.146109 0.000000 0.738702 0.674033
0.708435 -0.061189 -0.086038 -0.000201 -0.624905 -0.779772
-0.600279 0.100293 0.032985 -0.000150 0.963746 0.264097
0.297630 0.131704 0.124586 0.060226 0.737361 -0.672809
0.299808 -0.227707 0.229994 -0.022674 -0.757461 -0.651747
1.115062 0.030780 -0.100991 -0.000171 0.237127 -0.970709
0.338672 -0.099676 -0.093158 0.060226 -0.737361 0.672809
0.180678 0.088760 0.075603 -0.064120 0.765874 -0.639786
0.683744 -0.105027 -0.010772 -0.001252 -0.984457 -0.168810
0.277823 -0.085076 -0.062520 -0.000130 -0.816876 -0.575624
0.118607 -0.212737 -0.235960 -0.068318 0.704854 -0.706055
-0.666821 -0.075496 -0.073804 -0.000048 -0.705429 -0.707820
0.286349 -0.261953 -0.272338 -0.064120 -0.765874 0.639786
1.016760 0.092228 -0.051388 -0.000023 0.887673 -0.458967
0.415339 0.485596 0.527129 -0.064120 0.765874 -0.639786
1.148111 0.057799 0.082634 -0.000000 -0.738702 0.674033
1.133055 -0.094674 0.118954 -0.082724 0.622328 0.778373
0.409823 0.346750 -0.390370 0.064181 -0.737179 -0.672643
-0.261218 0.103887 0.018817 0.000301 0.972388 0.230064
0.154559 0.220868 0.247556 -0.068318 -0.704854 0.706055
0.441749 0.141878 -0.148636 0.060226 0.737361 0.672809
-1.618353 0.006833 0.041718 -0.649976 0.197993 0.731312
1.030043 0.074607 0.067297 -0.082724 0.831974 -0.548613
0.485718 -0.105578 0.000000 -0.001148 -0.998683 0.030503
-0.431984 0.103050 -0.022965 -0.001823 0.985197 -0.165995
-0.381149 0.009711 0.105130 -0.000462 0.156348 0.986680
-1.613291 -0.041612 -0.020909 -0.631473 -0.717637 -0.289640
1.286942 -0.201115 -0.220411 -0.082724 0.622328 -0.778373
0.170671 0.263486 0.285767 -0.064120 0.765874 -0.639786
1.366434 0.057799 0.082634 -0.000000 -0.738702 0.674033
-0.839661 0.069963 0.079069 -0.000056 0.664055 0.746719
0.641600 -0.102282 0.026172 0.000270 -0.956103 0.290547
0.524160 0.084168 0.063737 -0.000053 0.778676 0.626681
-0.738876 -0.087948 0.058410 -0.001111 -0.807570 0.588837
0.216454 -0.147936 -0.142856 -0.064120 -0.765874 0.639786
0.449470 -0.359152 -0.400179 0.064181 0.737179 -0.672643
0.991365 -0.062601 0.078252 -0.000000 0.674033 -0.738702
-1.576432 0.026208 0.067065 -0.515342 0.300059 0.800889
0.137400 -0.099222 -0.092464 -0.064120 -0.765874 0.639786
1.131374 -0.090675 -0.054080 -0.000257 -0.829345 -0.557481
1.327907 -0.153178 0.148584 -0.000000 -0.738702 -0.674033
0.716058 -0.000000 0.105578 0.001153 -0.024086 0.999123
0.518315 -0.341718 -0.374504 0.060226 -0.737361 0.672809
-0.967621 -0.046102 0.094980 -0.000543 -0.403963 0.914291
1.484711 0.087266 0.107764 0.171881 -0.701173 0.691964
0.405016 0.092179 0.051476 0.001113 0.871547 0.488976
1.548990 -0.010919 0.045161 1.000000 0.000000 0.000000
0.124630 -0.188416 0.200516 -0.064120 -0.765874 -0.639786
0.059578 -0.170376 -0.187960 -0.068318 0.704854 -0.706055
-0.203238 0.104411 0.015655 -0.001772 0.994213 0.102681
-1.231964 0.080657 0.068125 0.000333 0.791576 0.609967
-0.645955 0.105578 -0.000000 -0.000575 0.998569 -0.033554
0.504648 0.105142 0.009583 0.000283 0.990584 0.130772
0.501698 -0.399033 -0.438903 0.064181 0.737179 -0.672643
0.224667 0.220254 0.228604 -0.064120 0.765874 -0.639786
1.505764 0.140997 -0.151848 0.171881 0.753129 0.635023
1.303705 0.096356 0.043152 -0.000396 0.914256 0.403604
0.409557 0.294637 -0.333282 0.064181 -0.737179 -0.672643
0.522430 -0.098602 -0.037741 -0.000003 -0.924151 -0.380096
-0.101329 -0.054560 0.090388 -0.000048 -0.516035 0.855700
0.347410 0.325142 0.370314 -0.068318 -0.704854 0.706055
-0.534775 0.059861 0.086967 -0.000131 0.587784 0.808088
0.324944 -0.446016 -0.488808 -0.068318 0.704854 -0.706055
0.216492 0.104490 -0.015115 0.000149 0.979768 -0.196521
-0.108396 -0.100321 0.032899 -0.000032 -0.933435 0.356682
0.590177 -0.078836 -0.070225 0.000053 -0.761582 -0.646917
0.862594 0.057144 0.088776 0.000018 0.498050 0.866291
-0.434877 -0.059023 0.087538 -0.000044 -0.590992 0.805895
0.430274 0.351576 0.393708 0.064181 -0.737179 0.672643
-0.186677 -0.064558 -0.083540 0.000033 -0.640259 -0.767189
1.363373 -0.041691 0.096998 -0.000029 -0.396125 0.917413
0.252553 0.093237 0.049533 -0.000611 0.865328 0.499826
0.217877 -0.290583 -0.323279 -0.068318 0.704854 -0.706055
1.203050 0.098483 0.038051 0.000095 0.931856 0.360805
1.290236 0.083627 -0.110940 -0.000000 -0.738702 -0.674033
-1.184177 0.009925 0.105110 -0.001311 0.135934 0.990102
-0.496807 -0.102452 -0.025501 0.000242 -0.969655 -0.241503
0.109238 0.055289 -0.089943 0.000182 0.557021 -0.829635
1.292798 -0.099796 -0.034459 -0.000026 -0.947056 -0.318754
1.239236 0.045663 0.095192 -0.000468 0.476722 0.878257
0.409861 0.111155 -0.112112 0.060226 0.737361 0.672809
0.807381 0.036284 0.099147 -0.000003 0.349494 0.936144
-0.898368 -0.100230 0.033175 -0.000282 -0.949435 0.311572
-0.246154 -0.073197 -0.076085 0.000022 -0.653850 -0.755643
-0.640036 -0.026430 0.102216 -0.000139 -0.294224 0.954975
-1.138904 0.090542 0.054303 0.000204 0.856721 0.514398
0.240916 0.027479 -0.101939 0.000462 0.299033 -0.953585
0.786162 0.105578 -0.000000 -0.001209 0.997147 -0.063399
-1.203580 -0.105289 -0.007799 -0.000840 -0.990519 -0.131164
-0.125807 0.088587 0.057438 -0.000051 0.821369 0.569095
0.106461 -0.053494 0.091022 0.000268 -0.507435 0.860902
0.203080 0.198958 -0.205274 -0.064120 0.765874 0.639786
0.443544 0.105192 0.009022 -0.001306 0.998067 0.048926
-1.111153 0.008351 0.105247 0.000227 0.112566 0.993002
-0.215318 -0.000000 0.105578 -0.000059 -0.023833 0.999203
0.284390 0.091304 -0.053011 -0.000117 0.889737 -0.454843
1.286749 0.119589 0.150352 0.000000 -0.738702 0.674033
-0.033565 -0.072102 0.077134 -0.064120 -0.765874 -0.639786
0.342471 0.144974 0.175662 0.064181 -0.737179 0.672643
-1.414460 -0.080989 -0.067731 -0.000111 -0.767014 -0.640525
-0.390729 0.087144 0.059603 -0.000275 0.840923 0.539820
0.836959 -0.039269 0.098003 -0.000174 -0.412210 0.910275
0.473965 -0.092754 0.105884 0.064181 0.737179 0.672643
1.260918 0.169745 -0.176762 -0.082724 0.831974 0.548613
1.486502 0.076172 -0.096078 0.171881 -0.701173 -0.691964
0.507798 0.277839 0.305500 0.064181 -0.737179 0.672643
0.418056 -0.097663 -0.040107 -0.000022 -0.911948 -0.408550
-0.918465 0.071204 0.077953 0.001543 0.632051 0.773672
0.415505 0.267693 0.303186 0.064181 -0.737179 0.672643
0.595066 0.064606 -0.083503 0.000021 0.601984 -0.797581
-1.559685 0.069394 0.041256 -0.416234 0.802796 0.424084
0.269553 -0.102033 0.089555 0.060226 -0.737361 -0.672809
0.887956 -0.090510 0.054356 0.000037 -0.854720 0.517737
0.487864 0.173110 0.192624 0.064181 -0.737179 0.672643
-1.388970 -0.018827 -0.103886 0.000718 -0.182897 -0.982613
-0.607474 -0.058635 -0.087799 -0.000396 -0.512566 -0.857872
0.433136 -0.118051 0.121752 0.060226 -0.737361 -0.672809
1.315265 0.188337 -0.196762 -0.082724 0.831974 0.548613
0.470278 0.306191 -0.340152 0.064181 -0.737179 -0.672643
1.361407 0.105423 0.005707 0.001187 0.995166 0.092574
0.133876 0.116547 -0.141412 -0.068318 -0.704854 -0.706055
1.185940 0.085275 0.112746 -0.000000 -0.738702 0.674033
1.355978 0.140753 0.134968 0.000000 0.738702 -0.674033
-0.242639 0.008855 -0.105206 -0.000324 0.101863 -0.994325
-0.555481 -0.099852 -0.034296 0.000603 -0.943370 -0.329520
0.301964 -0.377687 -0.409317 -0.064120 -0.765874 0.639786
-0.169951 -0.054752 0.090271 0.000422 -0.478665 0.877204
1.439833 -0.103779 -0.019407 0.000132 -0.982649 -0.180888
0.310513 0.423588 0.463406 -0.064120 0.765874 -0.639786
0.635274 0.047401 0.094339 0.000215 0.487818 0.872136
1.054230 -0.096886 -0.097438 -0.082724 -0.831974 0.548613
0.378084 -0.181927 -0.212762 0.064181 0.737179 -0.672643
0.365309 0.358804 0.405650 -0.068318 -0.704854 0.706055
1.323674 -0.106681 -0.097626 0.000000 -0.738702 0.674033
0.475703 -0.000000 0.105578 0.000024 -0.052678 0.997751
0.063980 -0.136619 0.154686 -0.068318 0.704854 0.706055
-0.559342 0.075108 -0.074198 -0.000268 0.701026 -0.712197
0.358693 -0.300863 -0.344959 0.064181 0.737179 -0.672643
-0.701773 0.081948 -0.066567 -0.000130 0.758307 -0.650814
1.435901 -0.077008 0.065107 -0.000000 -0.738702 -0.674033
0.212132 -0.040410 -0.097538 0.000160 -0.405630 -0.913243
0.268176 0.333434 0.370924 -0.068318 -0.704854 0.706055
0.230892 0.105965 0.140235 -0.068318 -0.704854 0.706055
-1.484634 0.059217 0.084557 -0.129599 0.526357 0.838967
0.199856 -0.086187 0.117487 -0.068318 0.704854 0.706055
1.489289 -0.072687 -0.068739 0.170062 -0.745919 -0.642778
1.173716 -0.034800 0.099677 -0.000134 -0.332190 0.942496
1.066466 0.090628 -0.054159 0.000389 0.828830 -0.558192
0.347185 0.175664 0.208846 0.064181 -0.737179 0.672643
-0.188283 -0.105314 -0.007452 0.000362 -0.995100 -0.092381
0.366191 0.256816 -0.295971 0.064181 -0.737179 -0.672643
0.967657 -0.032286 0.100520 0.000077 -0.346417 0.937277
1.501209 -0.102271 0.104687 0.171881 -0.753129 -0.635023
0.836236 -0.105578 0.000000 0.000392 -0.998555 0.027575
-1.261178 0.040858 0.097351 -0.000496 0.379315 0.924377
0.082172 0.205438 0.225149 -0.064120 0.765874 -0.639786
0.195958 0.086365 -0.060727 0.000200 0.808121 -0.587739
1.104321 0.099760 0.094242 -0.082724 0.831974 -0.548613
-1.009551 -0.087751 0.058706 0.000241 -0.824534 0.564539
0.309124 0.087657 0.116028 0.064181 -0.737179 0.672643
1.354899 -0.101886 0.092372 -0.000000 -0.738702 -0.674033
0.415339 0.485596 -0.527129 -0.064120 0.765874 0.639786
-0.993504 0.055458 0.089839 0.000396 0.483027 0.874772
0.270863 0.196345 -0.234329 -0.068318 -0.704854 -0.706055
0.262723 0.050691 0.092612 -0.000027 0.500567 0.864878
0.036293 0.064630 0.083484 0.000249 0.568869 0.821539
-1.191395 -0.059920 -0.086926 0.000728 -0.574021 -0.817956
0.134433 -0.080083 0.069851 -0.064120 -0.765874 -0.639786
0.168144 0.093571 0.121790 -0.068318 -0.704854 0.706055
-0.756666 -0.096829 -0.042080 0.000176 -0.921257 -0.386663
0.605895 0.000000 -0.105578 -0.002004 -0.050922 -0.997706
0.382268 0.214365 -0.222753 0.060226 0.737361 0.672809
0.273763 -0.346085 -0.384095 -0.068318 0.704854 -0.706055
1.431173 0.096599 -0.042606 -0.000038 0.914282 -0.403303
1.401971 0.100285 -0.090617 -0.000000 0.738702 0.674033
0.217857 -0.107814 -0.094687 -0.064120 -0.765874 0.639786
0.310513 -0.423588 0.463406 -0.064120 -0.765874 -0.639786
0.509822 0.494946 0.543243 0.064181 -0.737179 0.672643
1.295629 0.116998 -0.147513 0.000000 -0.738702 -0.674033
0.473965 0.092754 0.105884 0.064181 -0.737179 0.672643
1.235926 0.097732 0.087819 -0.000000 0.738702 -0.674033
1.222539 0.067403 -0.073870 0.000000 -0.674033 0.738702
1.333538 0.097621 -0.040210 0.000081 0.923213 -0.382471
0.479826 0.201210 -0.217069 0.060226 0.737361 0.672809
-1.138694 0.060653 -0.086417 -0.000752 0.603305 -0.796699
-1.339244 -0.071870 -0.077340 -0.000249 -0.711110 -0.702209
-0.030427 -0.081062 -0.067643 -0.000782 -0.800661 -0.597976
0.210189 -0.040143 0.097648 -0.000737 -0.423126 0.905379
0.164077 0.101853 0.027797 0.000023 0.957562 0.285647
0.293752 -0.092642 -0.122957 0.064181 0.737179 -0.672643
-0.341600 -0.062479 -0.085106 0.000091 -0.635834 -0.770789
0.550035 0.069555 -0.079428 0.000040 0.618603 -0.784755
1.272751 0.105168 -0.009295 0.000566 0.994059 -0.102656
-0.298575 -0.101242 0.029945 -0.000188 -0.944060 0.327440
0.253696 -0.134308 -0.170736 -0.068318 0.704854 -0.706055
0.047140 -0.099139 0.036305 -0.000005 -0.938823 0.342255
1.217664 -0.153343 -0.158410 -0.082724 -0.831974 0.548613
1.221100 -0.102232 -0.026367 -0.000019 -0.956283 -0.289852
0.482256 0.235877 -0.261948 0.064181 -0.737179 -0.672643
-0.787072 -0.040748 0.097398 -0.000099 -0.431195 0.901460
1.067036 -0.098670 0.037563 0.000060 -0.933417 0.356017
0.396917 -0.054569 0.090382 0.000058 -0.544203 0.838147
-0.685540 -0.089118 0.056610 0.000049 -0.866884 0.497058
0.161298 -0.224871 -0.240481 -0.064120 -0.765874 0.639786
-0.161495 -0.030613 -0.101042 -0.000016 -0.304429 -0.951751
0.387049 -0.507559 -0.556255 -0.068318 0.704854 -0.706055
0.476361 0.080896 -0.067842 0.000230 0.731681 -0.680571
1.376960 -0.208987 -0.236272 -0.082724 0.622328 -0.778373
1.219447 0.131049 -0.124333 -0.055258 0.802942 0.592022
-0.210612 0.086718 -0.060221 0.000018 0.815191 -0.577899
1.074947 0.101261 -0.100948 -0.082724 0.831974 0.548613
0.134243 0.161914 -0.167828 -0.064120 0.765874 0.639786
-0.216604 0.063196 0.084575 0.000383 0.616501 0.786440
1.506790 0.016324 0.095644 0.170729 0.216109 0.960385
-0.144156 0.104036 -0.017977 -0.000412 0.974803 -0.219698
-0.596896 0.088729 -0.057218 -0.000773 0.853761 -0.519702
0.283192 -0.196533 -0.194342 0.018775 -0.747956 0.662754
-0.833582 -0.074508 0.074801 0.000134 -0.701676 0.711470
0.117012 0.105052 -0.010528 0.000548 0.988038 -0.148815
-0.742543 -0.063849 -0.084083 -0.000179 -0.604501 -0.795748
-0.484242 0.026331 -0.102242 -0.000000 0.274153 -0.960945
-1.531842 -0.056825 0.072390 -0.337331 -0.601295 0.722509
-0.475651 0.068440 -0.080391 0.000448 0.655788 -0.754072
1.346587 -0.057799 -0.082634 -0.000000 0.738702 -0.674033
1.431252 0.096489 0.042856 -0.000066 0.931782 0.361023
0.200735 -0.322930 -0.353913 -0.068318 0.704854 -0.706055
-0.589433 0.039049 0.098091 -0.000261 0.341368 0.939162
0.449784 0.455670 0.505927 0.064181 -0.737179 0.672643
-0.348099 0.079134 -0.069889 -0.000626 0.756560 -0.652909
1.489648 0.089174 0.045210 0.169637 0.857556 0.484311
1.223500 -0.103621 0.094273 0.000000 -0.738702 -0.674033
-0.229777 -0.076475 0.072789 0.000071 -0.756017 0.653431
-1.371908 0.105111 0.009912 0.000353 0.994439 0.100201
0.374928 0.100245 -0.033131 0.000330 0.940270 -0.338316
1.044623 0.101864 0.027754 0.000228 0.974618 0.220800
0.418570 -0.342335 -0.366251 0.060226 -0.737361 0.672809
-0.030014 -0.036597 -0.099032 -0.000139 -0.368896 -0.928690
0.568851 -0.024795 -0.102625 0.000369 -0.268973 -0.962327
0.517339 -0.092517 0.050866 -0.000013 -0.850701 0.524234
0.145619 -0.162906 0.167876 -0.064120 -0.765874 -0.639786
1.464372 0.236143 0.263674 0.171881 -0.701173 0.691964
0.813269 0.100204 -0.033255 -0.000142 0.933014 -0.357793
-1.348045 0.075750 -0.073543 -0.000073 0.745902 -0.665118
1.457115 -0.171057 -0.199524 0.171881 0.701173 -0.691964
0.225866 -0.328146 0.357639 -0.064120 -0.765874 -0.639786
-1.288547 0.101185 0.030136 -0.000045 0.958657 0.282011
0.409066 -0.189787 0.218419 0.064181 0.737179 0.672643
0.341870 -0.220490 -0.225850 0.060226 -0.737361 0.672809
-1.380496 0.023394 -0.102953 0.001082 0.219866 -0.974766
0.333041 0.290054 0.301298 -0.022674 0.757461 -0.651747
-0.321960 0.053027 -0.091295 -0.000145 0.493607 -0.868872
0.149922 0.272576 -0.298728 -0.068318 -0.704854 -0.706055
1.473560 0.117200 -0.114910 0.171881 0.753129 0.635023
-0.107968 -0.027967 -0.101806 -0.000173 -0.225262 -0.973579
1.463477 0.235245 -0.262987 0.171881 -0.701173 -0.691964
0.457102 -0.225220 0.252669 0.064181 0.737179 0.672643
1.360121 -0.127865 0.159422 0.000000 0.738702 0.674033
1.329039 -0.020432 -0.103582 -0.001256 -0.200403 -0.978935
0.710736 -0.007529 -0.105309 -0.000235 -0.106102 -0.993663
-0.930558 -0.095108 -0.045838 0.000303 -0.877108 -0.478726
0.315758 -0.259064 0.301285 -0.068318 0.704854 0.706055
0.371935 -0.455487 0.502810 -0.068318 0.704854 0.706055
1.075247 -0.101027 -0.030664 0.000183 -0.949852 -0.310396
-1.116848 -0.052386 0.091664 0.000115 -0.502605 0.863706
-1.367020 -0.105578 0.000000 -0.001195 -0.998088 0.049735
0.459846 -0.239489 -0.268046 0.064181 0.737179 -0.672643
0.089208 -0.100294 -0.098577 -0.064120 -0.765874 0.639786
0.282669 0.115366 -0.148919 0.064181 -0.737179 -0.672643
0.218066 -0.194525 0.227403 -0.068318 0.704854 0.706055
-1.237770 0.012181 -0.104873 -0.000245 0.164270 -0.985614
0.374942 -0.250565 -0.261771 0.060226 -0.737361 0.672809
0.115234 0.073491 0.075800 0.000024 0.716925 0.696160
0.346469 0.052877 0.091382 -0.000460 0.520683 0.852948
0.497649 -0.255186 0.281641 0.064181 0.737179 0.672643
0.487194 -0.348317 0.384706 0.064181 0.737179 0.672643
0.472273 -0.519979 0.565746 0.060226 -0.737361 -0.672809
0.321802 -0.090387 0.054560 -0.000044 -0.854972 0.517286
1.339505 -0.175774 -0.205736 -0.082724 0.622328 -0.778373
-0.642782 0.058341 -0.087994 0.000079 0.531424 -0.846345
-1.030185 -0.020769 0.103515 0.000038 -0.232739 0.971829
0.809417 0.096684 0.042413 0.000007 0.912240 0.407850
0.313116 -0.154627 -0.151094 0.060226 -0.737361 0.672809
-0.701707 -0.056244 -0.089349 -0.000059 -0.537586 -0.842297
0.325289 0.177129 -0.212541 0.064181 -0.737179 -0.672643
1.341992 0.115470 -0.145838 0.000000 -0.738702 -0.674033
0.991697 0.050050 0.092960 -0.001114 0.433688 0.900277
1.255010 -0.049475 -0.093268 -0.000680 -0.507634 -0.860780
0.470378 -0.419356 0.455299 0.060226 -0.737361 -0.672809
0.339152 -0.331685 0.376046 -0.068318 0.704854 0.706055
0.706721 0.095437 -0.045150 -0.000562 0.902261 -0.429653
-0.719487 0.024851 -0.102611 -0.000176 0.181957 -0.982575
-0.858596 0.010447 -0.105060 0.001099 0.156993 -0.986697
0.475221 -0.156340 0.175452 0.064181 0.737179 0.672643
0.337346 -0.092026 -0.051749 -0.000124 -0.856050 -0.515471
1.252205 -0.071551 0.097705 -0.000000 0.738702 0.674033
0.761664 -0.065419 -0.082868 0.000586 -0.598372 -0.800330
-1.026432 -0.104374 -0.015900 -0.000200 -0.987458 -0.152932
1.286213 -0.089642 -0.078953 -0.000000 -0.738702 0.674033
0.489444 0.403809 0.439967 0.060226 0.737361 -0.672809
0.419343 -0.285296 -0.303808 0.060226 -0.737361 0.672809
-1.194756 -0.086134 0.061053 -0.000059 -0.784677 0.618760
1.345594 0.096357 0.043152 0.000105 0.891546 0.451332
1.254568 0.131354 0.124667 -0.000000 0.738702 -0.674033
1.165205 0.116236 0.139609 -0.082724 -0.622328 0.778373
0.206976 0.318007 0.347395 -0.064120 0.765874 -0.639786
-1.356868 -0.094102 0.047869 -0.000405 -0.891863 0.450731
1.375736 0.232952 0.255302 -0.082724 0.831974 -0.548613
0.502883 -0.079264 -0.085488 0.060226 -0.737361 0.672809
1.375736 0.232952 -0.255302 -0.082724 0.831974 0.548613
0.246611 0.198785 -0.200704 -0.064120 0.765874 0.639786
0.366760 -0.240376 0.249872 0.060226 -0.737361 -0.672809
-0.137707 0.020623 0.103544 0.000064 0.211722 0.976589
1.372120 -0.093867 -0.048328 0.000421 -0.868290 -0.494747
1.328504 0.091387 -0.080865 -0.000000 0.738702 0.674033
0.174442 -0.087230 -0.059478 -0.000089 -0.845228 -0.533020
1.497970 0.098547 -0.000000 0.168862 0.984452 -0.037333
0.217877 0.290583 -0.323279 -0.068318 -0.704854 -0.706055
1.298720 -0.132551 -0.164558 -0.000000 0.738702 -0.674033
1.178585 -0.042660 -0.096575 0.000329 -0.359989 -0.932215
0.255371 -0.097362 0.131792 0.064181 0.737179 0.672643
-0.121171 0.086317 -0.060795 -0.000138 0.808689 -0.587070
1.120524 0.123752 0.128183 -0.082724 0.831974 -0.548613
0.245131 0.244931 -0.256092 -0.064120 0.765874 0.639786
0.242959 -0.084705 0.063022 0.000080 -0.800333 0.598530
0.315758 -0.259064 -0.301285 -0.068318 0.704854 -0.706055
0.039246 0.105067 0.010371 0.000084 0.991005 0.127050
-0.725165 0.016668 0.104254 -0.001470 0.199611 0.979360
0.379273 0.423727 -0.471814 -0.068318 -0.704854 -0.706055
0.485194 0.367237 0.399506 0.060226 0.737361 -0.672809
0.493128 -0.392927 0.433029 0.064181 0.737179 0.672643
-0.809963 -0.006489 0.105378 -0.000810 -0.098276 0.994569
0.283879 0.156237 -0.193595 0.064181 -0.737179 -0.672643
0.219697 -0.151464 0.146755 -0.064120 -0.765874 -0.639786
-1.585114 0.066200 -0.009220 -0.525505 0.828825 -0.183858
1.421015 0.067403 -0.073870 -0.000000 -0.674033 0.738702
0.425999 0.039120 0.098063 -0.000008 0.398587 0.916397
0.331045 -0.197483 0.234299 0.064181 0.737179 0.672643
0.238838 -0.261378 0.296152 -0.068318 0.704854 0.706055
0.883246 -0.092062 -0.051683 -0.000102 -0.880032 -0.473393
1.064202 0.039805 -0.097786 -0.000073 0.403118 -0.914384
-0.192345 0.016665 -0.104254 0.000469 0.194183 -0.980269
-1.477042 0.087772 0.056113 -0.119367 0.803195 0.581637
0.262714 -0.157184 0.194445 -0.068318 0.704854 0.706055
0.262714 0.157184 0.194445 -0.068318 -0.704854 0.706055
-0.073211 0.053249 0.091166 -0.000077 0.454370 0.889911
0.094500 0.204650 -0.222970 -0.064120 0.765874 0.639786
1.403413 -0.218149 0.228680 -0.082724 -0.831974 -0.548613
0.360720 0.148255 -0.148372 0.060226 0.737361 0.672809
1.421015 0.067403 0.073870 0.000000 -0.674033 -0.738702
0.936738 0.097401 -0.040741 -0.000848 0.933594 -0.356304
-0.508389 0.105027 -0.010770 0.000045 0.991315 -0.124411
0.316772 -0.104976 0.011260 -0.000628 -0.984125 0.170900
-0.428788 -0.048513 -0.093772 -0.000068 -0.421955 -0.905756
-1.051428 -0.087296 0.059381 0.000317 -0.822624 0.567636
-0.516609 0.082696 -0.065635 -0.000000 0.807672 -0.588675
0.406488 0.165034 -0.170858 0.060226 0.737361 0.672809
0.735585 0.105145 0.009550 -0.000528 0.990659 0.130530
0.142828 -0.146547 -0.148573 -0.064120 -0.765874 0.639786
1.299399 0.100663 0.091031 0.000000 0.738702 -0.674033
0.668220 0.009047 -0.105189 0.000208 0.140441 -0.989221
-1.126665 -0.105578 0.000000 -0.002407 -0.999248 0.024945
0.415903 0.183009 0.191401 0.060226 0.737361 -0.672809
1.021773 -0.017807 -0.104065 0.000728 -0.182280 -0.982837
-0.373629 -0.029935 0.101245 -0.000268 -0.279412 0.959371
0.434968 0.250708 -0.267301 0.060226 0.737361 0.672809
1.321547 -0.037159 0.098822 -0.000215 -0.305151 0.951592
0.419689 -0.199095 -0.227607 0.064181 0.737179 -0.672643
0.476661 0.505683 -0.558174 0.064181 -0.737179 -0.672643
1.497735 -0.148292 -0.166367 0.171881 0.701173 -0.691964
0.378539 0.305504 0.348152 0.064181 -0.737179 0.672643
1.497924 -0.152093 0.162887 0.171881 -0.753129 -0.635023
0.479183 -0.122899 -0.138425 0.064181 0.737179 -0.672643
1.370173 0.185091 0.183559 -0.055258 0.802942 -0.592022
-0.856265 -0.105578 0.000000 0.000465 -0.998862 0.024616
-0.861359 0.105307 0.007552 -0.000152 0.993917 0.105599
-0.109015 0.020154 -0.103636 0.000409 0.187765 -0.981541
0.249173 0.252345 0.264563 -0.064120 0.765874 -0.639786
0.712933 -0.080220 0.068640 0.000186 -0.729234 0.683184
1.411601 -0.163623 0.198611 -0.000000 0.738702 0.674033
0.467375 0.048756 -0.093646 0.000175 0.496774 -0.867062
0.279517 -0.368023 0.406552 -0.068318 0.704854 0.706055
-1.340800 0.078171 0.070965 0.000067 0.741827 0.669676
1.295822 0.204299 0.223900 -0.082724 0.831974 -0.548613
1.215907 -0.175646 -0.192498 -0.082724 0.622328 -0.778373
0.372921 -0.351482 -0.399078 0.020011 0.727593 -0.684917
0.294813 0.098527 0.037936 -0.000667 0.912056 0.408308
1.147093 -0.122087 -0.121651 -0.082724 -0.831974 0.548613
0.070424 0.079459 -0.098247 -0.068318 -0.704854 -0.706055
0.149922 -0.272576 -0.298728 -0.068318 0.704854 -0.706055
0.341882 0.462800 -0.507203 -0.068318 -0.704854 -0.706055
0.104755 0.227818 0.249675 -0.064120 0.765874 -0.639786
0.200735 0.322930 -0.353913 -0.068318 -0.704854 -0.706055
0.392694 -0.513153 0.562387 -0.068318 0.704854 0.706055
0.296485 0.221472 0.222864 -0.022674 0.757461 -0.651747
0.518315 0.422885 -0.463458 0.060226 0.737361 0.672809
0.518315 -0.497288 -0.544999 0.060226 -0.737361 0.672809
0.518315 -0.145566 0.159532 0.064181 0.737179 0.672643
-0.882315 -0.047006 0.094536 0.000315 -0.440384 0.897025
1.326148 0.125804 0.157163 0.000000 -0.738702 0.674033
1.169861 0.099253 -0.089486 -0.000000 0.738702 0.674033
1.136680 0.105578 -0.000000 -0.002274 0.997116 -0.062992
-0.720115 -0.104411 -0.015651 -0.000361 -0.988796 -0.143627
-1.630299 -0.006656 -0.030463 -0.702488 -0.237962 -0.667098
0.305451 0.105578 -0.000000 0.001549 0.999154 -0.023923
0.678694 -0.014312 0.104603 0.000564 -0.169068 0.985072
1.199196 0.137977 -0.160605 -0.082724 -0.622328 -0.778373
0.433949 -0.144337 0.166235 0.064181 0.737179 0.672643
1.548990 0.069812 0.000000 1.000000 -0.000000 0.000000
0.366981 0.239731 0.249185 0.060226 0.737361 -0.672809
0.149161 0.181889 0.190245 -0.064120 0.765874 -0.639786
-0.302638 -0.038521 -0.098300 -0.000014 -0.352009 -0.935203
0.164551 -0.025349 -0.102490 0.000302 -0.291744 -0.955747
0.518315 -0.280843 -0.307788 0.060226 -0.737361 0.672809
-1.188122 0.105089 0.010151 -0.000947 0.993716 0.106350
-1.045979 0.102594 -0.024924 0.000084 0.962239 -0.269528
0.855843 0.101296 -0.029761 0.000287 0.951333 -0.305900
0.518315 -0.497288 0.544999 0.064181 0.737179 0.672643
0.914008 -0.067403 0.073870 -0.082724 -0.831974 -0.548613
-0.486668 -0.063267 -0.084522 -0.000009 -0.599198 -0.799709
-0.039524 -0.096164 0.043580 -0.000007 -0.910768 0.411127
0.095054 0.092720 0.113868 -0.068318 -0.704854 0.706055
-0.511333 0.019854 0.103694 -0.000145 0.211161 0.976644
1.423164 0.107685 0.137307 0.000000 -0.738702 0.674033
-1.184333 -0.032972 0.100297 -0.000647 -0.301753 0.952605
0.671029 0.099349 0.035729 0.000051 0.938076 0.344291
1.457153 0.038097 0.098465 0.056828 0.316378 0.945327
0.786256 -0.026893 -0.102095 -0.000499 -0.308113 -0.950613
1.439833 0.019407 -0.103779 0.000267 0.178615 -0.983031
0.101646 -0.143145 -0.148627 -0.064120 -0.765874 0.639786
0.484514 0.215949 0.233642 0.060226 0.737361 -0.672809
0.275176 0.248134 -0.286447 -0.068318 -0.704854 -0.706055
-0.765847 0.030970 0.100933 0.000022 0.267328 0.962986
0.071281 0.015869 0.104378 0.002052 0.154086 0.987100
1.292006 -0.067403 0.073870 0.000000 0.674033 -0.738702
0.515857 0.023695 -0.102885 -0.000050 0.274284 -0.960900
-0.508622 0.089152 0.056557 -0.000050 0.813241 0.580644
-0.338243 0.016407 -0.104295 0.000565 0.193722 -0.980290
0.200800 -0.172212 -0.173486 -0.064120 -0.765874 0.639786
-0.168955 -0.090746 0.053962 0.000082 -0.881576 0.470536
-1.056220 -0.062553 -0.085052 -0.000059 -0.629425 -0.776114
0.697987 0.061633 0.085720 0.000071 0.618714 0.784699
0.031005 -0.110211 0.125133 -0.068318 0.704854 0.706055
1.439833 -0.038152 0.098443 -0.000015 -0.360948 0.931823
-0.794432 0.098144 -0.038915 -0.000047 0.917106 -0.396787
1.428167 0.100793 -0.129753 -0.000000 -0.738702 -0.674033
0.265614 0.335593 -0.362569 -0.064120 0.765874 0.639786
-0.982271 0.055257 -0.089963 -0.000143 0.475197 -0.879089
1.322250 0.036862 0.098934 0.000054 0.391704 0.919308
0.477835 -0.422221 -0.466593 0.064181 0.737179 -0.672643
0.969393 0.104638 0.014055 0.000607 0.990026 0.135730
0.204173 -0.113765 0.145436 -0.068318 0.704854 0.706055
-0.852147 0.022658 0.103118 -0.000157 0.262738 0.964040
-1.158472 -0.010930 -0.105011 0.000699 -0.123930 -0.991485
0.391418 -0.153032 -0.179823 0.064181 0.737179 -0.672643
1.129979 0.083928 -0.064053 0.000478 0.779711 -0.624960
0.518315 -0.240260 -0.263311 0.060226 -0.737361 0.672809
0.075317 0.126191 -0.130970 -0.064120 0.765874 0.639786
0.149802 0.008825 0.105208 -0.000153 0.137405 0.989751
0.366590 0.049196 -0.093415 0.000076 0.494852 -0.868229
-1.053975 0.059747 -0.087046 0.000025 0.571812 -0.819503
0.209975 0.164614 0.196760 -0.068318 -0.704854 0.706055
1.366055 -0.141123 -0.135374 0.000000 -0.738702 0.674033
1.138921 -0.090838 0.080264 -0.000000 -0.738702 -0.674033
0.229692 -0.270163 -0.287845 -0.064120 -0.765874 0.639786
0.364116 -0.133513 0.132520 0.060226 -0.737361 -0.672809
-0.921498 0.017835 0.104060 -0.000042 0.158603 0.986316
1.216798 0.105578 -0.000000 0.002138 0.999329 -0.019482
1.548990 -0.040199 -0.071013 1.000000 0.000000 0.000000
0.518315 -0.199677 0.218834 0.064181 0.737179 0.672643
-0.280673 -0.094009 -0.048051 -0.000069 -0.864033 -0.502040
-1.034601 0.022620 0.103126 -0.000115 0.257365 0.965518
-1.371930 -0.055134 0.090038 0.000177 -0.521546 0.852363
0.886191 -0.014764 0.104540 0.000040 -0.145966 0.988553
-0.308470 -0.103719 -0.019725 -0.000430 -0.976736 -0.210598
-0.687973 0.102580 0.024978 0.000313 0.970549 0.237927
-1.123999 -0.086452 -0.060603 -0.000150 -0.791276 -0.610225
0.201437 -0.169992 0.201303 -0.068318 0.704854 0.706055
0.390167 0.326150 -0.345971 0.060226 0.737361 0.672809
0.483102 0.459643 -0.507102 0.064181 -0.737179 -0.672643
-1.520592 0.089237 -0.034191 -0.262438 0.915035 -0.303480
-0.798512 0.102178 0.026578 0.000051 0.968543 0.245914
0.430799 -0.095258 0.045526 0.000363 -0.904459 0.424733
-0.019949 0.097342 0.040881 -0.000227 0.898451 0.437372
-0.326497 0.091045 0.053455 -0.000085 0.833109 0.551873
0.089354 -0.093920 0.090933 -0.064120 -0.765874 -0.639786
0.106110 -0.121221 0.121935 -0.064120 -0.765874 -0.639786
-1.076591 -0.105578 0.000000 0.001959 -0.997434 0.061340
1.408329 -0.171337 -0.207065 0.000000 0.738702 -0.674033
-1.061822 0.088766 0.057159 -0.000102 0.812980 0.581052
-0.810592 -0.052011 -0.091878 0.000167 -0.494269 -0.868573
0.272973 -0.221493 0.259638 -0.068318 0.704854 0.706055
1.383485 -0.105361 -0.134759 0.000000 0.738702 -0.674033
0.985043 -0.092872 0.101783 -0.082724 -0.831974 -0.548613
0.978212 0.084579 -0.063190 -0.000003 0.815013 -0.578260
0.256350 -0.111213 -0.098433 0.060226 -0.737361 0.672809
-0.227064 -0.105246 -0.008362 -0.000680 -0.990325 -0.133307
0.257854 -0.028833 0.101564 -0.000192 -0.325032 0.944744
1.167879 0.085063 0.062537 -0.000168 0.803141 0.594655
0.478566 0.143144 -0.160671 0.064181 -0.737179 -0.672643
0.642589 0.009135 0.105182 0.000680 0.140960 0.989261
1.396778 0.076153 0.102749 -0.000000 -0.738702 0.674033
0.671216 -0.095008 -0.046045 -0.000075 -0.887653 -0.458978
-1.492141 -0.101470 0.011044 -0.185459 -0.973010 0.129355
-0.171337 -0.008662 0.105222 -0.000425 -0.119740 0.992049
-1.573919 0.018249 -0.071110 -0.484608 0.143524 -0.861151
1.055256 -0.052231 0.091753 0.000639 -0.532385 0.845592
0.408912 0.144466 0.168765 0.064181 -0.737179 0.672643
-1.330106 -0.034224 0.099877 -0.000058 -0.364599 0.930472
0.280727 0.085279 -0.116130 0.064181 -0.737179 -0.672643
-1.069466 0.040354 0.097561 -0.000276 0.382807 0.923068
0.378352 -0.318640 0.362566 0.064181 0.737179 0.672643
0.471808 0.308825 0.334292 0.060226 0.737361 -0.672809
1.195160 -0.087017 -0.114655 -0.000000 0.738702 -0.674033
0.338592 -0.104735 0.131932 0.064181 0.737179 0.672643
-0.484990 -0.077616 0.071572 0.000223 -0.702868 0.710394
0.488821 0.072477 0.076791 0.000000 -0.674033 -0.738702
-0.933179 0.097904 -0.039514 0.000352 0.917552 -0.395914
0.474109 0.392701 -0.426421 0.060226 0.737361 0.672809
0.789517 -0.097067 0.041529 -0.000044 -0.922330 0.383773
1.006487 0.105578 -0.000000 -0.001223 0.997331 -0.061235
0.188225 0.118870 0.148989 -0.068318 -0.704854 0.706055
-1.283338 -0.102344 0.025929 -0.000498 -0.968251 0.246802
-1.563719 -0.018895 -0.076470 -0.444172 -0.146951 -0.881924
0.329135 -0.330904 -0.350590 -0.064120 -0.765874 0.639786
0.376033 -0.292778 0.334444 0.064181 0.737179 0.672643
-0.726073 0.105578 -0.000000 -0.000525 0.994857 -0.087350
-0.080870 0.087712 -0.058764 0.000498 0.801892 -0.596343
1.533874 0.086217 -0.094489 0.171881 -0.701173 -0.691964
0.305022 0.138330 0.171953 0.064181 -0.737179 0.672643
0.191603 0.276574 -0.299336 -0.064120 0.765874 0.639786
-0.265392 -0.000000 0.105578 -0.000070 -0.033302 0.998479
1.548990 -0.040199 0.071013 1.000000 0.000000 -0.000000
1.229990 0.099144 0.127946 0.000000 -0.738702 0.674033
1.548990 -0.059839 0.000000 1.000000 -0.000000 -0.000000
-0.381795 0.105224 -0.008636 0.001251 0.991872 -0.121215
-0.871042 0.085308 0.062202 0.000035 0.811313 0.583164
0.435885 -0.124976 -0.144831 0.064181 0.737179 -0.672643
