0.198843 0.676857 -0.641596 -0.086162 0.711860 0.697016
0.591188 0.089708 -0.000000 0.002628 0.987420 -0.124532
0.451936 0.063696 0.063169 -0.000176 0.659651 0.746112
1.443539 0.244370 0.220988 0.184267 0.710637 -0.679000
1.334929 -0.150626 0.127122 -0.000000 -0.689525 -0.724262
-0.780179 0.063284 -0.063582 -0.000183 0.657259 -0.748246
0.459030 -0.088499 0.014676 0.003169 -0.964321 0.252247
0.753706 0.046222 -0.076883 0.000102 0.530902 -0.842763
0.551108 0.000000 -0.089708 0.001487 0.060628 -0.993954
0.150302 0.089708 -0.000000 -0.001827 0.989619 -0.116788
1.544536 0.059566 -0.089453 -0.178315 0.612424 -0.766034
0.227060 -0.323439 0.298193 0.082527 -0.687173 -0.721792
0.111278 0.560959 -0.534054 -0.086162 0.711860 0.697016
0.178872 -0.681604 0.648913 -0.090004 0.659813 0.746020
0.096257 -0.534149 -0.508530 -0.086162 -0.711860 0.697016
0.242229 0.422804 0.394527 0.082527 0.687173 -0.721792
0.937332 0.088693 -0.013458 -0.000007 0.971955 -0.221427
0.025937 0.262002 0.259347 -0.090004 -0.659813 0.746020
-0.562619 -0.056612 -0.069588 -0.000021 -0.650651 -0.753966
0.312183 0.734084 -0.698875 0.086215 -0.686957 -0.721565
0.788766 -0.083100 0.033792 0.000389 -0.944671 0.315287
1.415462 0.121009 0.098926 0.000000 0.689525 -0.724262
0.140917 0.331123 -0.295659 -0.029937 0.705370 0.707039
1.365751 -0.064296 -0.077492 -0.000000 0.689525 -0.724262
-0.217311 0.075006 -0.049210 0.000048 0.867990 -0.488414
1.513569 0.096391 0.097843 0.184267 -0.643280 0.743126
1.231451 -0.195419 0.186046 -0.107166 -0.790628 -0.602845
1.297771 0.228217 -0.217271 -0.107166 -0.563289 -0.819281
0.521343 -0.047709 0.075970 0.000165 -0.584506 0.806489
0.965504 -0.042275 0.079122 -0.001639 -0.576366 0.812450
1.025573 -0.014449 -0.088537 -0.000110 -0.276304 -0.957532
0.312183 -0.690446 -0.657331 0.082527 -0.687173 0.721792
0.239354 -0.021335 -0.087134 0.000362 -0.286800 -0.953272
0.232040 -0.578372 -0.560208 0.086215 0.686957 -0.721565
-0.151589 -0.091782 -0.087380 -0.086162 -0.711860 0.697016
0.111360 -0.111601 -0.083287 0.082527 -0.687173 0.721792
1.463959 -0.064296 0.077492 0.000000 0.724262 -0.689525
-1.402644 -0.046901 -0.076471 -0.000135 -0.516418 -0.851604
0.312183 0.544987 0.518848 0.082527 0.687173 -0.721792
-0.334795 0.077317 -0.045492 0.000085 0.821640 -0.563586
-0.016539 0.188039 -0.168992 -0.086162 0.711860 0.697016
0.091706 -0.366666 0.338043 -0.086162 -0.711860 -0.697016
-0.531067 0.089708 -0.000000 -0.001971 0.995410 -0.051544
0.403947 0.061235 -0.065558 0.000099 0.586714 -0.804764
0.312183 -0.559533 0.532696 0.082527 -0.687173 -0.721792
0.831671 0.000000 -0.089708 0.001701 0.060644 -0.994660
0.079625 0.325508 0.297502 -0.086162 0.711860 -0.697016
-0.851712 -0.089708 0.000000 -0.002751 -0.982770 -0.154433
0.205115 -0.022638 0.086804 -0.001217 -0.277917 0.956317
1.143787 0.056612 0.069588 0.000021 0.650651 0.753966
0.630473 -0.052643 -0.072638 0.000452 -0.638120 -0.764607
0.620798 -0.049159 0.075040 0.000145 -0.489734 0.867195
-0.038331 0.087427 -0.020100 0.000184 0.935242 -0.341312
0.302102 0.075696 -0.048141 -0.000023 0.785560 -0.612130
-0.055499 -0.099863 -0.083755 -0.086162 -0.711860 0.697016
0.149219 0.435644 0.401380 -0.086162 0.711860 -0.697016
1.400199 0.175078 0.182961 -0.000000 -0.689525 0.724262
-0.378104 0.060493 0.066243 -0.000045 0.717001 0.691221
-0.867830 0.087476 -0.019888 -0.000168 0.932563 -0.347694
-0.711430 0.089708 -0.000000 -0.001396 0.984979 -0.146381
-0.005734 -0.201345 0.181247 -0.086162 -0.711860 -0.697016
1.107523 0.088842 -0.068301 -0.041855 0.731003 0.678933
1.403270 -0.260900 0.253542 -0.107166 0.563289 0.819281
1.403718 0.083864 -0.031849 0.000333 0.935706 -0.337562
0.021152 -0.400098 -0.380909 -0.086162 -0.711860 0.697016
0.123933 -0.456255 0.425556 -0.086162 -0.711860 -0.697016
-1.583728 -0.000000 -0.056683 -0.462850 0.101421 -0.869733
0.200599 -0.249473 0.250840 0.086215 0.686957 0.721565
1.530248 -0.118844 -0.113144 0.184267 -0.710637 0.679000
-1.374897 -0.038118 0.081207 0.000657 -0.424270 0.901082
-0.099427 0.050329 -0.074260 -0.000029 0.658481 -0.747214
1.210768 0.038630 -0.080964 0.004042 0.442293 -0.892103
-1.236458 -0.039708 0.080441 0.000159 -0.536360 0.838962
0.049701 -0.033886 -0.083062 0.000278 -0.434364 -0.896174
-0.240874 -0.049571 -0.074768 -0.001238 -0.470634 -0.877770
-0.026710 0.163977 0.166299 -0.090004 -0.659813 0.746020
-0.100793 0.076873 0.080322 -0.090004 -0.659813 0.746020
0.312183 0.384982 -0.366517 0.086215 -0.686957 -0.721565
0.144995 -0.345133 -0.309464 -0.029937 -0.705370 0.707039
0.869835 -0.073203 -0.051853 0.000107 -0.773793 -0.627032
0.044792 -0.271784 -0.246940 -0.086162 -0.711860 0.697016
0.145304 0.463429 -0.430241 -0.086162 0.711860 0.697016
1.130051 -0.064296 0.077492 -0.000000 0.724262 -0.689525
0.040242 0.039284 0.080649 0.000403 0.491099 0.866021
1.463959 -0.064296 -0.077492 0.067557 0.674540 -0.733247
-0.384883 -0.056825 -0.069415 -0.000052 -0.609192 -0.787875
0.220264 -0.285492 -0.261290 0.082527 -0.687173 0.721792
-0.404017 0.043572 -0.078416 -0.000195 0.377793 -0.922116
1.380670 0.269214 -0.256302 -0.107166 -0.563289 -0.819281
1.433402 -0.259061 -0.233612 -0.019540 -0.772725 0.630838
1.262017 0.087095 0.021494 0.001262 0.916783 0.383524
-0.971953 0.000000 0.089708 0.001003 -0.058157 0.995102
0.794769 0.079524 0.041513 0.000316 0.823114 0.560345
0.383819 -0.067657 -0.058907 0.000600 -0.794479 -0.601046
0.218395 -0.597313 0.557941 0.022262 -0.697714 -0.714687
-1.432103 0.040968 -0.079807 0.000956 0.516775 -0.851357
0.008986 -0.054023 0.073357 -0.000000 0.724262 -0.689525
-1.107719 -0.045684 -0.077204 0.001094 -0.402049 -0.910230
0.027397 -0.186394 -0.192653 -0.090004 0.659813 -0.746020
1.004355 0.074052 0.067245 -0.000000 -0.724262 -0.689525
0.127856 0.220658 0.188999 0.082527 0.687173 -0.721792
0.230373 0.286451 -0.263358 0.082527 0.687173 0.721792
0.197847 0.247027 0.222106 0.082527 0.687173 -0.721792
0.075673 -0.106962 0.074790 0.026293 -0.697141 -0.715298
0.246014 -0.082555 -0.035103 0.000441 -0.943584 -0.318670
1.378402 -0.208430 0.182154 0.000000 -0.689525 -0.724262
0.312183 -0.544987 -0.518848 0.082527 -0.687173 0.721792
0.312183 -0.428620 0.408062 0.082527 -0.687173 -0.721792
0.312183 -0.341344 -0.324973 0.082527 -0.687173 0.721792
0.312183 0.123156 -0.117249 0.086215 -0.686957 -0.721565
1.032491 -0.097025 0.092371 -0.107166 -0.790628 -0.602845
1.165131 -0.162621 0.154821 -0.107166 -0.790628 -0.602845
1.264611 0.211818 0.201658 -0.107166 -0.563289 0.819281
-0.971953 0.000000 -0.089708 -0.000993 0.113217 -0.990047
0.028496 0.052806 -0.074635 -0.090004 -0.659813 -0.746020
1.385349 -0.092606 0.104444 -0.000000 0.689525 0.724262
1.420828 -0.194947 -0.169317 -0.000000 -0.689525 0.724262
0.066297 -0.252329 0.224412 -0.086162 -0.711860 -0.697016
0.251862 0.652009 0.627945 0.086215 -0.686957 0.721565
0.088746 0.520744 0.495768 -0.086162 0.711860 -0.697016
0.111278 -0.560959 0.534054 -0.090004 0.659813 0.746020
0.372344 0.036489 0.081951 -0.000143 0.463957 0.881288
-0.476671 0.058216 0.068253 -0.000014 0.737705 0.669037
-1.099223 -0.081819 0.036786 0.000057 -0.858786 0.504000
-0.739640 0.043722 0.078332 0.000092 0.453517 0.886776
-1.124574 0.045763 0.077157 -0.000237 0.448432 0.889517
-0.482225 0.067823 -0.058716 0.000307 0.714048 -0.694032
-1.538288 -0.066957 -0.037478 -0.349371 -0.871270 -0.322429
-0.511493 -0.055292 0.070642 -0.001293 -0.612451 0.785284
-0.666351 -0.070948 0.054899 0.000023 -0.714815 0.693354
-0.189172 0.074210 0.050403 0.000186 0.746933 0.658816
0.650332 0.031951 0.083825 0.000065 0.418325 0.903884
0.969316 -0.071554 -0.054107 0.000278 -0.834857 -0.542562
1.333292 0.163998 -0.172412 0.000000 -0.689525 -0.724262
0.140688 -0.477874 -0.445564 -0.086162 -0.711860 0.697016
0.245678 0.222961 -0.220214 0.086215 -0.686957 -0.721565
-0.038932 0.292858 -0.278812 -0.086162 0.711860 0.697016
1.511197 -0.173520 0.165198 0.184267 -0.710637 -0.679000
-0.038932 -0.292858 -0.278812 -0.086162 -0.711860 0.697016
-1.452920 0.070057 0.056031 -0.027604 0.699183 0.708062
1.194505 0.113766 -0.092030 0.000000 0.689525 0.724262
-1.594026 0.017175 0.047571 -0.552476 0.383585 0.720152
1.103650 -0.069358 -0.056894 0.001034 -0.688055 -0.720217
-1.510136 0.065731 -0.052778 -0.164287 0.778943 -0.595494
-0.660884 0.065134 -0.061686 -0.000023 0.767453 -0.634798
1.208618 -0.080556 0.060413 0.000000 -0.689525 -0.724262
1.281191 -0.220017 -0.209464 -0.107166 -0.790628 0.602845
1.241906 -0.142995 -0.119857 0.000000 -0.689525 0.724262
1.544536 0.042988 -0.000000 1.000000 0.000000 0.000000
0.132015 -0.212834 0.224153 0.086215 0.686957 0.721565
0.312183 0.094064 0.089552 0.082527 0.687173 -0.721792
0.253272 0.511943 0.480653 0.082527 0.687173 -0.721792
1.458009 0.104352 -0.083067 0.000000 0.689525 0.724262
-1.352038 -0.087127 -0.021364 0.000823 -0.935609 -0.341186
-1.212437 0.089708 -0.000000 -0.004766 0.986144 -0.127745
-0.285130 -0.081930 0.036538 -0.002064 -0.919458 0.382441
0.167982 0.057180 0.069123 0.000408 0.538829 0.838092
0.312183 -0.123156 0.117249 0.082527 -0.687173 -0.721792
0.312183 0.399528 0.380366 0.082527 0.687173 -0.721792
-1.232477 -0.089708 0.000000 -0.004942 -0.992799 -0.081160
0.235225 0.088232 -0.016206 0.002022 0.960143 -0.263604
0.149745 -0.146987 -0.159346 0.086215 0.686957 -0.721565
0.094624 0.287355 -0.256682 -0.086162 0.711860 0.697016
0.167816 0.122812 -0.134171 0.086215 -0.686957 -0.721565
0.880326 -0.020665 0.087295 0.000867 -0.290440 0.951979
0.891821 0.055374 -0.070578 0.000362 0.706010 -0.702746
0.245174 -0.636135 -0.613631 0.086215 0.686957 -0.721565
0.188237 0.127879 0.107574 0.082527 0.687173 -0.721792
0.244464 -0.166575 -0.166677 0.086215 0.686957 -0.721565
0.868371 0.081916 0.036568 -0.000516 0.854441 0.511406
1.275825 -0.078106 0.090639 0.000000 0.689525 0.724262
-0.001323 0.223179 0.203000 -0.086162 0.711860 -0.697016
0.036290 -0.308848 0.285844 -0.086162 -0.711860 -0.697016
0.707015 -0.019023 -0.087668 -0.000215 -0.337918 -0.936305
-0.745972 -0.079105 -0.042307 -0.000174 -0.891977 -0.444324
1.332678 0.000000 -0.089708 -0.000381 0.055767 -0.996685
-0.075499 -0.085660 0.071722 -0.086162 -0.711860 -0.697016
0.177447 -0.375288 -0.373387 0.086215 0.686957 -0.721565
0.259847 0.534158 -0.514792 0.086215 -0.686957 -0.721565
-1.530574 0.000000 0.079148 -0.249871 0.085202 0.956703
0.252997 -0.664620 0.639814 0.086215 0.686957 0.721565
1.194736 -0.036410 -0.081987 0.000007 -0.472399 -0.876043
0.261570 0.626751 -0.590903 0.082527 0.687173 0.721792
-0.362240 -0.057791 0.068612 0.000218 -0.653558 0.751929
1.287015 0.092157 0.104016 -0.000000 -0.689525 0.724262
-1.488890 -0.063754 0.060394 -0.075213 -0.670889 0.730972
0.065346 0.443220 -0.419486 -0.086162 0.711860 0.697016
1.154737 0.116448 0.121716 -0.107166 -0.563289 0.819281
0.295224 0.291603 0.275678 0.082527 0.687173 -0.721792
0.055233 0.128130 -0.098936 -0.086162 0.711860 0.697016
-0.751677 -0.029708 0.084646 0.000015 -0.433505 0.896717
0.279066 -0.075696 0.048141 0.000023 -0.785560 0.612130
-1.304473 -0.017583 0.087968 -0.000437 -0.227317 0.970463
-1.361252 0.075833 -0.047926 -0.000718 0.883146 -0.460450
0.255420 0.182427 0.180460 0.086215 -0.686957 0.721565
0.056333 -0.133684 0.149525 -0.090004 0.659813 0.746020
0.548020 0.066517 -0.060191 0.000090 0.672567 -0.734492
0.466874 0.032288 -0.083696 -0.001086 0.465609 -0.880351
0.522133 0.073922 0.050824 -0.000143 0.781189 0.617741
1.397250 0.277413 0.264108 -0.107166 -0.563289 0.819281
0.267328 -0.445424 -0.418932 0.082527 -0.687173 0.721792
0.312183 -0.312252 0.297276 0.082527 -0.687173 -0.721792
0.236566 0.351862 0.326340 0.082527 0.687173 -0.721792
0.049675 0.117559 0.088826 -0.086162 0.711860 -0.697016
0.196732 0.378335 -0.346989 0.082527 0.687173 0.721792
0.143767 0.189630 -0.200658 0.086215 -0.686957 -0.721565
1.445107 0.174774 -0.182671 0.061704 -0.676148 -0.732794
0.169385 0.047433 -0.076142 -0.000144 0.554701 -0.826701
-0.108324 -0.033719 -0.083130 -0.000738 -0.308454 -0.947181
0.745973 0.030106 0.084505 0.000416 0.448732 0.889358
-0.675125 0.068313 0.058145 -0.000064 0.782714 0.615807
-1.262433 0.054701 -0.071101 -0.000074 0.700189 -0.708287
1.489566 0.000000 -0.096813 -0.193173 0.060813 -0.975492
-0.624566 -0.021931 -0.086986 -0.001249 -0.287470 -0.952622
1.230672 -0.080775 -0.039024 0.001300 -0.880460 -0.465036
0.355397 -0.059974 0.066713 -0.001147 -0.593710 0.799775
0.098643 -0.087774 -0.018525 -0.000123 -0.959757 -0.265306
0.500614 0.018362 0.087809 -0.000118 0.325042 0.941218
-1.047903 0.088758 0.013022 -0.000046 0.964235 0.253498
-0.025982 -0.154546 -0.135954 -0.086162 -0.711860 0.697016
-0.302102 -0.075696 -0.048141 0.000023 -0.785560 -0.612130
-0.257904 0.033570 0.083190 0.000001 0.433546 0.896657
0.248295 -0.412399 0.385315 0.082527 -0.687173 -0.721792
-0.091505 -0.199023 -0.189477 -0.086162 -0.711860 0.697016
1.198291 0.179020 -0.170433 -0.107166 -0.563289 -0.819281
1.544536 -0.068747 0.055415 1.000000 -0.000000 0.000000
-0.225883 -0.060960 0.065813 0.000364 -0.602378 0.793379
-0.239354 0.021335 -0.087134 -0.000362 0.286800 -0.953272
0.069151 0.368242 -0.342440 -0.086162 0.711860 0.697016
0.156840 -0.503734 0.469978 -0.086162 -0.711860 -0.697016
-0.905219 -0.018240 0.087834 0.001320 -0.295742 0.951188
-0.981290 0.071588 0.054062 -0.000151 0.766208 0.636318
-1.131204 0.059130 -0.067462 0.001117 0.558889 -0.824895
1.115391 -0.138022 -0.131402 -0.107166 -0.790628 0.602845
1.084253 -0.084553 0.029971 0.000047 -0.917752 0.387429
-0.613568 0.036410 0.081987 -0.000007 0.472399 0.876043
-0.871314 -0.032893 -0.083460 -0.002265 -0.398433 -0.913051
0.160796 0.302197 0.305791 0.086215 -0.686957 0.721565
-1.080255 -0.013846 0.088633 0.000740 -0.248456 0.964682
-1.176352 -0.041628 -0.079464 -0.000407 -0.557495 -0.825230
-0.595184 -0.041628 0.079464 -0.000407 -0.557495 0.825230
0.194191 -0.150949 0.130218 0.082527 -0.687173 -0.721792
0.129449 0.162607 0.133915 0.082527 0.687173 -0.721792
0.959533 0.048677 -0.075353 -0.000241 0.550014 -0.830307
-0.844302 0.055270 0.070659 -0.000291 0.641606 0.761839
0.222428 0.459641 0.448320 0.086215 -0.686957 0.721565
0.178637 -0.086967 0.067526 0.082527 -0.687173 -0.721792
0.178637 -0.086967 -0.067526 0.082527 -0.687173 0.721792
-0.083924 0.189302 -0.178613 -0.086162 0.711860 0.697016
-0.151589 0.091782 -0.087380 -0.086162 0.711860 0.697016
0.144995 -0.325611 0.329969 0.027470 0.679738 0.731710
0.695963 0.080758 -0.039060 -0.000260 0.855567 -0.509221
-0.030089 0.076183 0.047367 0.000227 0.773054 0.627973
-1.185488 -0.076500 0.046853 0.000032 -0.850242 0.518642
0.180054 0.617502 0.592360 -0.090004 -0.659813 0.746020
-0.826083 0.017260 -0.088032 0.000277 0.315897 -0.944439
-0.971953 -0.089708 0.000000 -0.002705 -0.985254 -0.138220
1.432308 0.078487 0.043443 0.000279 0.887371 0.452949
-0.150793 -0.084171 0.031027 0.002506 -0.947633 0.306855
0.251017 0.702251 -0.675878 0.027470 -0.679738 -0.731710
0.252908 -0.220735 0.217230 0.086215 0.686957 0.721565
-0.495335 -0.068020 -0.058488 -0.000052 -0.735265 -0.671771
1.325246 0.108907 -0.119963 0.000000 -0.689525 -0.724262
-1.359201 0.087377 0.020317 -0.002184 0.957986 0.271340
0.229659 0.698661 0.670126 -0.090004 -0.659813 0.746020
1.356550 -0.168215 -0.176426 0.000000 0.689525 -0.724262
0.767529 0.087759 -0.018599 -0.001294 0.952782 -0.289904
0.276912 -0.244467 -0.228709 0.082527 -0.687173 0.721792
-0.414712 -0.082854 0.034390 0.000251 -0.876105 0.473609
0.068336 0.201650 0.211085 -0.090004 -0.659813 0.746020
-0.134857 -0.035431 0.082415 0.001262 -0.413376 0.906272
1.278308 0.029425 0.084745 -0.002889 0.335199 0.936573
0.254949 0.131821 0.118954 0.082527 0.687173 -0.721792
0.264217 -0.524786 0.494132 0.082527 -0.687173 -0.721792
-0.561681 0.069960 0.056153 0.000778 0.742349 0.664131
1.331755 -0.074688 0.049691 0.000393 -0.792397 0.603317
1.069165 0.065922 0.075784 -0.000000 -0.724262 -0.689525
-0.856289 -0.061625 0.065191 0.000056 -0.760920 0.642546
0.241964 -0.403116 -0.375753 0.082527 -0.687173 0.721792
0.255944 -0.152729 0.152123 0.086215 0.686957 0.721565
0.246939 -0.687765 -0.662574 0.027470 0.679738 -0.731710
0.249887 0.476329 -0.446360 0.082527 0.687173 0.721792
1.342087 0.204844 0.178740 -0.071608 0.759191 -0.645347
0.296597 -0.053081 -0.072318 0.000744 -0.531402 -0.842162
-0.008890 0.346478 -0.329860 -0.086162 0.711860 0.697016
1.366906 0.039151 0.080714 0.000103 0.457351 0.884742
1.492375 -0.164732 -0.162257 0.184267 0.643280 -0.743126
-1.296697 0.077310 0.045504 0.001245 0.832096 0.546714
-0.070076 -0.144967 0.131621 -0.086162 -0.711860 -0.697016
0.148108 -0.247630 -0.216994 0.082527 -0.687173 0.721792
-1.474522 -0.075320 -0.047746 -0.085545 -0.757846 -0.638065
1.291823 -0.163727 -0.172153 -0.035886 0.649362 -0.758295
0.230628 -0.475876 -0.462796 0.086215 0.686957 -0.721565
1.544536 0.099264 0.041190 1.000000 0.000000 0.000000
0.139643 -0.160002 0.172943 0.086215 0.686957 0.721565
-0.028314 -0.085477 0.027224 -0.003982 -0.955207 0.283559
1.072551 0.029618 -0.084677 0.000606 0.429870 -0.898599
1.544536 -0.021494 -0.000000 1.000000 -0.000000 0.000000
1.258314 0.163415 0.139297 -0.071608 0.759191 -0.645347
-0.531067 0.000000 -0.089708 -0.000086 0.078536 -0.991084
1.386588 -0.146389 -0.123089 0.000000 -0.689525 0.724262
-0.933012 0.088522 0.014539 0.000954 0.977131 0.197488
1.400493 -0.034383 0.082857 -0.000299 -0.438722 0.894030
0.312183 0.326798 -0.311124 0.086215 -0.686957 -0.721565
-0.083925 0.189338 0.178649 -0.086162 0.711860 -0.697016
1.291823 -0.163727 0.172153 -0.071608 0.607283 0.789968
-1.095796 -0.085688 -0.026553 -0.000576 -0.950738 -0.299589
0.410826 0.000000 -0.089708 0.001155 0.104090 -0.991518
0.156341 0.641389 -0.610627 -0.086162 0.711860 0.697016
1.496909 0.214528 0.204238 0.184267 -0.643280 0.743126
-1.040654 -0.031924 -0.083835 0.001200 -0.346983 -0.932245
0.279561 0.746683 0.714768 0.056842 -0.683348 0.726638
0.279561 -0.746683 0.714768 0.066668 0.684759 0.725163
1.450064 -0.127481 0.105087 -0.000000 -0.689525 -0.724262
0.993204 0.015825 0.088301 0.000420 0.210928 0.974100
-0.035037 0.066967 -0.079494 -0.090004 -0.659813 -0.746020
0.249823 0.145459 -0.145934 0.086215 -0.686957 -0.721565
1.435484 -0.202394 0.208966 0.123126 0.660733 0.739082
0.430866 0.089708 -0.000000 0.006289 0.980233 -0.164612
-1.077069 0.078781 -0.042908 0.001169 0.851212 -0.516072
-1.596207 0.046347 -0.016507 -0.554790 0.721677 -0.379168
0.087906 0.077778 0.048405 0.016890 0.698420 -0.713818
0.156472 -0.550000 -0.529814 -0.090004 0.659813 -0.746020
1.296320 -0.093998 -0.073210 0.000000 -0.689525 0.724262
0.002712 -0.087838 -0.064278 -0.086162 -0.711860 0.697016
1.365751 0.064296 -0.077492 0.000000 -0.689525 -0.724262
1.544536 0.099264 -0.041190 -0.187292 0.900761 -0.385377
1.489566 0.000000 0.096813 -0.193173 -0.060813 0.975492
-1.606763 -0.039549 -0.014381 -0.556702 -0.714744 -0.387867
-0.346461 0.087464 0.019941 -0.000724 0.952138 0.288945
0.042064 0.175758 -0.185015 -0.090004 -0.659813 -0.746020
1.174541 -0.105726 0.116934 -0.071608 0.607283 0.789968
1.255471 0.121294 -0.099197 -0.000000 0.689525 0.724262
0.070464 -0.146318 -0.162404 -0.090004 0.659813 -0.746020
0.255665 0.037856 -0.081329 0.000454 0.445589 -0.890705
0.091868 -0.404128 0.393004 -0.090004 0.659813 0.746020
0.087978 -0.329981 -0.326956 -0.090004 0.659813 -0.746020
0.530937 -0.054983 -0.070883 0.000485 -0.704421 -0.704051
0.183668 0.562308 -0.526484 -0.086162 0.711860 0.697016
1.352739 0.124148 0.101914 0.000000 0.689525 -0.724262
0.080291 -0.224041 -0.232331 -0.090004 0.659813 -0.746020
1.335409 -0.085456 -0.027290 -0.003029 -0.905913 -0.412244
1.440944 0.271849 -0.249042 0.087440 0.743489 0.658899
0.133515 0.496850 -0.480036 -0.090004 -0.659813 -0.746020
1.413392 -0.078779 -0.042912 -0.000269 -0.857913 -0.504909
0.117377 0.480666 0.451297 -0.086162 0.711860 -0.697016
-0.582337 0.083997 -0.031495 -0.000124 0.910132 -0.404731
0.997667 0.088174 -0.016517 -0.000444 0.960403 -0.264499
0.957059 -0.088567 0.014259 -0.000464 -0.971229 0.223049
0.295695 0.083629 0.032460 -0.000175 0.900427 0.425709
0.120092 -0.073044 0.052077 0.000062 -0.752657 0.652199
0.312183 0.428620 -0.408062 0.086215 -0.686957 -0.721565
0.312183 0.661354 0.629634 0.082527 0.687173 -0.721792
0.312183 0.224977 -0.214187 0.086215 -0.686957 -0.721565
0.312183 -0.152247 -0.144945 0.082527 -0.687173 0.721792
1.082231 0.121623 -0.115790 -0.107166 -0.563289 -0.819281
1.165131 -0.162621 -0.154821 -0.107166 -0.790628 0.602845
1.248031 0.203618 -0.193852 -0.107166 -0.563289 -0.819281
0.202296 -0.644289 0.607907 -0.086162 -0.711860 -0.697016
1.152316 0.000000 0.089708 0.000417 -0.157316 0.982530
0.731470 -0.089708 0.000000 0.000425 -0.994065 -0.059035
-0.751510 0.000000 -0.089708 -0.000492 0.139162 -0.986214
0.390785 -0.089708 0.000000 0.001450 -0.991003 -0.110203
0.145576 0.535013 0.515244 -0.090004 -0.659813 0.746020
-0.082785 0.108871 -0.110795 -0.090004 -0.659813 -0.746020
0.651309 0.089708 -0.000000 0.002254 0.995709 -0.044914
0.111834 -0.431921 -0.419995 -0.090004 0.659813 -0.746020
-0.001527 0.262479 -0.243162 -0.086162 0.711860 0.697016
0.201404 -0.721820 -0.687199 -0.086162 -0.711860 0.697016
0.036173 0.426908 0.406433 -0.086162 0.711860 -0.697016
-0.046442 0.279453 0.266050 -0.086162 0.711860 -0.697016
-0.076484 -0.225833 0.215001 -0.090004 0.659813 0.746020
0.013642 -0.386693 0.368146 -0.090004 0.659813 0.746020
0.058705 -0.467124 0.444719 -0.090004 0.659813 0.746020
0.006131 0.373288 0.355384 -0.086162 0.711860 -0.697016
-0.031421 -0.306263 0.291574 -0.090004 0.659813 0.746020
0.133809 0.601174 -0.572340 -0.086162 0.711860 0.697016
0.156341 -0.641389 -0.610627 -0.086162 -0.711860 0.697016
1.247157 0.081684 -0.037083 -0.000088 0.906475 -0.410934
1.452920 -0.087515 0.019714 -0.120470 -0.983834 0.063218
0.244226 0.022584 0.086819 -0.000864 0.381847 0.918297
1.028961 -0.071018 -0.054808 0.000107 -0.747489 -0.658166
0.128308 0.354057 0.320641 -0.086162 0.711860 -0.697016
0.254075 -0.360344 0.336418 0.082527 -0.687173 -0.721792
0.770059 -0.036689 0.081862 -0.000180 -0.518371 0.850437
-0.720625 0.064455 -0.062394 -0.000049 0.758004 -0.645998
-0.959272 0.060493 -0.066243 -0.000045 0.717001 -0.691221
0.116451 0.247063 -0.212834 -0.029937 0.705370 0.707039
0.169462 -0.412528 0.409795 0.027470 0.679738 0.731710
0.256914 -0.522865 -0.491468 0.082527 -0.687173 0.721792
0.621730 0.072913 0.052261 0.000044 0.846094 0.525375
1.462688 -0.263005 0.254688 0.184267 0.643280 0.743126
-1.333313 -0.047573 -0.076055 -0.000011 -0.530354 -0.842945
-0.159157 -0.084763 -0.029372 -0.001428 -0.940483 -0.324485
0.184626 0.432489 -0.397161 0.082527 0.687173 0.721792
0.590366 -0.081832 0.036757 0.000081 -0.849523 0.519829
-1.272557 0.000000 -0.089708 0.003666 0.072318 -0.993759
-0.276224 0.075782 -0.048006 -0.001456 0.801508 -0.591301
1.124602 0.088403 0.015245 -0.003408 0.965103 0.246942
-1.182960 0.016303 0.088214 0.000980 0.116166 0.989599
0.611228 0.000000 -0.089708 0.001157 0.147673 -0.983350
-1.375662 -0.080086 0.040419 -0.000019 -0.834513 0.543541
0.615026 -0.088284 -0.015922 0.000393 -0.967620 -0.237097
1.506434 0.187190 -0.178211 0.184267 0.710637 0.679000
1.380670 -0.269214 -0.256302 -0.107166 -0.790628 0.602845
-1.425670 -0.061676 0.065143 0.001219 -0.688279 0.719864
0.091128 0.080281 -0.040032 0.000688 0.827038 -0.554236
1.464354 0.119535 0.130082 0.123126 -0.660733 0.739082
1.440588 0.152936 -0.129322 0.000000 0.689525 0.724262
-0.071791 0.128464 0.114978 -0.086162 0.711860 -0.697016
1.318835 0.087848 -0.018174 -0.000249 0.970496 -0.227296
0.078801 0.015244 -0.088403 -0.000140 0.239365 -0.967007
0.246939 0.612654 0.575810 0.082527 0.687173 -0.721792
-1.507892 0.055960 0.063656 -0.175115 0.719262 0.666649
-0.543434 -0.088403 -0.015245 0.003408 -0.965103 -0.246942
0.135516 0.350022 -0.350416 -0.090004 -0.659813 -0.746020
1.205754 0.079665 0.041243 0.002289 0.901293 0.421304
-1.173176 0.080281 0.040030 -0.000034 0.863924 0.495726
0.149998 -0.192251 -0.202409 0.086215 0.686957 -0.721565
0.808057 -0.087592 -0.019369 0.001063 -0.954406 -0.285361
1.385782 0.230709 0.230497 -0.107166 -0.563289 0.819281
0.178637 -0.305256 0.275346 0.082527 -0.687173 -0.721792
-1.407807 0.044215 0.078055 0.001349 0.390535 0.917113
0.018747 0.159459 -0.135442 -0.086162 0.711860 0.697016
0.001152 -0.149963 0.157265 -0.090004 0.659813 0.746020
0.312719 0.038374 0.081086 0.000422 0.473385 0.876311
1.481748 0.052885 -0.079276 -0.190156 0.422675 -0.880552
-1.256466 0.013709 0.088654 -0.002042 0.216893 0.972914
-0.808057 0.087592 -0.019369 -0.001063 0.954406 -0.285361
-0.060161 0.155275 -0.140924 -0.086162 0.711860 0.697016
0.269146 -0.458373 0.441530 0.086215 0.686957 0.721565
-0.370745 0.000000 0.089708 0.003112 -0.128946 0.987285
-0.370745 0.000000 -0.089708 0.004373 0.045314 -0.996542
1.021611 -0.043994 0.078180 -0.000011 -0.539803 0.837623
0.197587 0.084726 0.029479 -0.000435 0.916685 0.390200
0.110235 0.135504 -0.105915 0.082527 0.687173 0.721792
1.396436 0.154822 -0.163676 0.000000 -0.689525 -0.724262
0.312183 0.195885 0.186490 0.082527 0.687173 -0.721792
-1.045753 -0.086999 0.021880 -0.002389 -0.920069 0.376000
0.257058 -0.560458 0.540164 0.086215 0.686957 0.721565
0.195278 -0.616143 -0.580029 -0.086162 -0.711860 0.697016
-0.138683 0.036243 0.082061 0.000208 0.513989 0.852907
-0.029738 -0.192136 -0.190838 -0.090004 0.659813 -0.746020
-0.800148 -0.087398 -0.020227 -0.002282 -0.969049 -0.234812
1.287024 -0.123675 0.134023 0.000000 0.689525 0.724262
-0.144078 0.105187 0.100142 -0.086162 0.711860 -0.697016
0.176342 0.288785 -0.291165 0.086215 -0.686957 -0.721565
1.169335 -0.080556 -0.060413 0.000000 -0.689525 0.724262
-0.911833 -0.089708 0.000000 0.002297 -0.986217 -0.127483
-1.484547 0.087191 0.014041 -0.131745 0.956188 0.247046
0.221326 -0.083590 0.032560 -0.003571 -0.925423 0.363306
1.481743 0.052835 0.079308 -0.190175 0.422025 0.880857
1.477858 0.269204 0.256292 0.184267 -0.643280 0.743126
1.544536 -0.099264 -0.041190 1.000000 -0.000000 -0.000000
0.087906 0.122804 0.143711 -0.027057 -0.671320 0.739256
0.230582 -0.083145 -0.088907 0.086215 0.686957 -0.721565
0.472137 -0.078430 -0.043545 0.000431 -0.835887 -0.541614
0.265586 -0.313994 -0.293607 0.082527 -0.687173 0.721792
0.167423 0.101976 -0.080534 0.082527 0.687173 0.721792
0.100140 0.166262 0.183624 -0.031270 -0.670689 0.739861
0.288308 0.579200 0.554273 0.086215 -0.686957 0.721565
1.405129 -0.091788 -0.103665 -0.000000 0.689525 -0.724262
0.212278 -0.487660 0.476208 0.086215 0.686957 0.721565
0.838107 -0.052271 0.072906 -0.000322 -0.677092 0.730547
1.281307 0.018523 -0.087775 -0.000259 0.237052 -0.967966
0.195691 0.458990 -0.450894 0.086215 -0.686957 -0.721565
0.202084 0.528417 0.516228 -0.031270 -0.670689 0.739861
0.690790 -0.075216 -0.048889 -0.000199 -0.760177 -0.643492
0.047036 -0.016666 0.088146 0.001010 -0.222972 0.971310
1.159514 0.072426 -0.068952 -0.000000 -0.724262 0.689525
-0.993423 -0.060847 -0.065918 -0.001570 -0.752569 -0.652402
0.289692 -0.582146 -0.551653 0.082527 -0.687173 0.721792
0.248629 0.386801 -0.360982 0.082527 0.687173 0.721792
0.312183 -0.661354 0.629634 0.082527 -0.687173 -0.721792
0.164413 -0.576334 0.554063 -0.090004 0.659813 0.746020
0.217599 -0.710757 0.673899 -0.086162 -0.711860 -0.697016
0.095357 0.429535 0.401799 -0.086162 0.711860 -0.697016
0.075580 0.283246 0.254839 -0.086162 0.711860 -0.697016
-1.385980 0.014035 -0.088603 0.000804 0.281599 -0.955715
0.312183 -0.224977 0.214187 0.082527 -0.687173 -0.721792
0.822744 0.051531 -0.073431 -0.000726 0.585187 -0.806122
0.531067 0.089708 -0.000000 -0.003243 0.995088 -0.048352
0.153949 -0.100234 -0.114333 0.086215 0.686957 -0.721565
0.420719 -0.074527 0.049932 -0.000339 -0.889651 0.444314
0.144740 -0.276452 0.244048 0.082527 -0.687173 -0.721792
0.245643 0.578008 -0.542677 0.082527 0.687173 0.721792
1.371708 0.141966 0.151437 0.000000 -0.689525 0.724262
1.544536 0.040939 0.099368 1.000000 0.000000 0.000000
0.102895 -0.155596 0.124204 0.082527 -0.687173 -0.721792
0.259124 0.663145 -0.637679 0.086215 -0.686957 -0.721565
1.243507 -0.091825 -0.103700 -0.000000 0.689525 -0.724262
-0.701541 -0.088045 0.017191 0.000063 -0.942653 0.318539
-0.609482 -0.085477 -0.027224 -0.003982 -0.955207 -0.283559
0.190383 0.000000 -0.089708 0.000782 0.147233 -0.983878
1.048809 0.078277 -0.043821 0.002204 0.870227 -0.482593
0.060673 -0.376717 -0.352144 -0.086162 -0.711860 0.697016
0.312183 0.530441 -0.505000 0.086215 -0.686957 -0.721565
-1.132276 0.000000 -0.089708 -0.000732 0.047313 -0.994505
-0.442027 -0.069396 -0.056848 -0.000384 -0.788525 -0.608159
-0.400443 -0.087669 -0.019019 0.003519 -0.936279 -0.337089
-0.317710 0.032675 0.083545 0.000295 0.421522 0.902357
0.184201 -0.309202 -0.309664 0.086215 0.686957 -0.721565
0.680127 -0.074407 0.050111 -0.000084 -0.858744 0.504337
-1.282709 -0.088045 -0.017191 0.000063 -0.942653 -0.318539
0.312183 -0.734084 -0.698875 0.082527 -0.687173 0.721792
0.014976 0.143403 0.119511 -0.086162 0.711860 -0.697016
-0.230463 0.089708 -0.000000 -0.000609 0.987242 -0.128114
0.464575 -0.049712 0.074674 -0.002284 -0.486218 0.869231
-1.212732 -0.071326 -0.054407 -0.000346 -0.791584 -0.604324
0.350838 0.062690 -0.064168 -0.000040 0.625205 -0.775207
-0.977575 -0.066854 0.059817 0.000119 -0.665362 0.741005
-1.092803 0.080469 0.039652 -0.003117 0.917076 0.386409
-0.805032 -0.079992 0.040605 -0.000169 -0.834251 0.543577
0.073954 -0.308504 -0.280837 -0.086162 -0.711860 0.697016
-0.490987 0.000000 0.089708 -0.001557 -0.038847 0.996770
-0.792173 0.048807 0.075269 0.000452 0.510669 0.855017
1.068819 -0.087086 -0.021529 -0.001584 -0.945205 -0.308658
0.099427 -0.050329 -0.074260 0.000029 -0.658481 -0.747214
-1.314772 0.059375 -0.067247 -0.000194 0.629137 -0.772008
-1.217158 0.073324 -0.051683 -0.000096 0.791345 -0.604573
0.870639 0.031007 0.084179 -0.001310 0.368118 0.925054
-1.493262 -0.087242 0.000000 -0.184292 -0.972307 -0.081187
0.057137 -0.429115 -0.406095 -0.086162 -0.711860 0.697016
0.083886 0.212034 -0.181084 -0.086162 0.711860 0.697016
0.290171 0.435385 0.411986 0.082527 0.687173 -0.721792
0.020433 0.084728 0.058911 -0.086162 0.711860 -0.697016
0.080103 0.320799 -0.317885 -0.090004 -0.659813 -0.746020
0.596239 0.050089 -0.074422 0.000121 0.581059 -0.808824
0.819953 -0.062564 -0.064290 0.000025 -0.740942 -0.665533
-0.188514 -0.052214 -0.072947 0.000439 -0.499846 -0.861596
0.921197 0.081688 0.037075 0.001026 0.921062 0.374226
-0.717932 -0.063636 0.063230 -0.000022 -0.625623 0.774883
0.581406 -0.066375 -0.060348 0.000006 -0.780171 -0.619125
-0.010020 0.000000 0.089708 -0.004003 -0.123896 0.987697
-1.226250 -0.024319 -0.086349 -0.005817 -0.301557 -0.947961
1.075654 -0.029320 -0.084781 -0.000559 -0.436938 -0.895574
-1.008306 0.045691 -0.077200 -0.000352 0.452616 -0.887337
-0.859730 0.061972 -0.064861 -0.000179 0.641844 -0.761508
0.920323 -0.081082 -0.038383 0.000328 -0.839431 -0.535451
0.884021 0.088704 -0.013383 0.001951 0.968122 -0.237453
0.059035 -0.073922 -0.050824 0.000143 -0.781189 -0.617741
-0.541704 0.067049 -0.059598 -0.000316 0.787535 -0.609874
0.402779 0.075063 0.049122 -0.000313 0.795117 0.599889
0.739853 -0.074590 0.049839 -0.000324 -0.791577 0.604448
0.571007 -0.033469 0.083231 0.000024 -0.312532 0.945618
0.530545 -0.081562 0.037353 -0.000440 -0.876476 0.472951
1.544536 0.019814 -0.055670 1.000000 -0.000000 -0.000000
-0.013092 0.219083 -0.216679 -0.090004 -0.659813 -0.746020
-0.920323 0.081082 -0.038383 -0.000328 0.839431 -0.535451
0.259342 0.260449 0.254271 0.086215 -0.686957 0.721565
-0.427856 0.070985 0.054851 0.000175 0.705162 0.703341
1.229877 0.048607 0.075398 -0.000630 0.635971 0.766300
0.150302 0.000000 0.089708 -0.004081 -0.071082 0.994236
1.544536 -0.040939 0.099368 1.000000 0.000000 0.000000
0.046803 -0.197586 0.204893 -0.090004 0.659813 0.746020
1.386588 -0.146389 0.123089 0.000000 -0.689525 -0.724262
-1.254493 -0.075911 0.047802 0.000127 -0.844420 0.527716
-0.883583 0.081755 0.036926 -0.001334 0.940640 0.326631
0.042441 -0.338402 0.328910 -0.090004 0.659813 0.746020
1.072217 -0.054951 0.070908 0.000096 -0.561024 0.822367
-0.121547 -0.145402 0.138428 -0.090004 0.659813 0.746020
-0.059169 0.037910 0.081304 0.000187 0.531001 0.842363
0.278340 0.091737 -0.091381 0.086215 -0.686957 -0.721565
-0.383581 0.084726 -0.029479 -0.000435 0.916685 -0.390200
0.275711 0.375033 0.352876 0.082527 0.687173 -0.721792
0.766310 -0.017979 -0.087888 -0.000362 -0.265206 -0.959642
-0.001379 -0.359883 -0.342622 -0.086162 -0.711860 0.697016
0.127287 0.391313 0.385943 -0.090004 -0.659813 0.746020
-0.088519 0.082526 -0.035172 0.000076 0.938889 -0.331405
0.441269 0.019335 0.087599 -0.000307 0.271321 0.958106
-0.080639 0.083376 0.033105 -0.000131 0.902268 0.421802
0.661722 -0.018362 0.087809 0.000118 -0.325042 0.941218
-0.667927 -0.052995 -0.072381 0.000258 -0.612447 -0.785227
0.093599 -0.497976 -0.471915 -0.086162 -0.711860 0.697016
0.104182 -0.329769 0.298818 -0.086162 -0.711860 -0.697016
0.312183 0.617716 -0.588089 0.086215 -0.686957 -0.721565
0.697761 0.049712 0.074674 0.002284 0.486218 0.869231
0.083829 -0.108318 -0.130407 0.031682 0.680368 -0.731105
0.023657 -0.228333 -0.229295 -0.090004 0.659813 -0.746020
-0.740985 0.079831 0.040920 0.000586 0.823750 0.559431
0.255689 0.188688 -0.173178 0.082527 0.687173 0.721792
0.253552 -0.042188 0.079169 0.000490 -0.569481 0.816693
1.412322 -0.042324 -0.079096 0.001218 -0.540611 -0.836320
-0.167783 0.082845 -0.034413 -0.000224 0.864032 -0.495561
-0.040018 -0.048361 -0.075556 0.000079 -0.590126 -0.802303
-0.252997 -0.021645 0.087058 0.001741 -0.335711 0.937700
1.414517 0.078186 -0.090716 -0.000000 -0.689525 -0.724262
1.430672 0.216204 -0.222114 0.025866 -0.645003 -0.761219
1.514742 0.101219 -0.090490 0.184267 0.710637 0.679000
0.197956 -0.166408 -0.145366 0.082527 -0.687173 0.721792
-0.919542 -0.016496 -0.088178 -0.002712 -0.296594 -0.950836
-0.862751 -0.072715 -0.052536 0.000570 -0.751036 -0.654874
-1.452920 -0.038732 -0.080916 -0.024752 -0.333131 -0.937465
1.508135 -0.090003 -0.076958 0.184267 -0.710637 0.679000
0.010746 0.081899 -0.036606 0.000025 0.880615 -0.465225
0.109165 -0.166836 -0.135622 0.082527 -0.687173 0.721792
0.925515 -0.067123 0.059515 0.000639 -0.787934 0.609646
0.043051 0.351119 0.328179 -0.086162 0.711860 -0.697016
1.477858 -0.269204 -0.256292 0.184267 -0.710637 0.679000
0.611228 0.000000 0.089708 0.000142 -0.064206 0.993823
-0.514627 -0.085688 0.026553 -0.000576 -0.950738 0.299589
0.207468 0.208447 0.186477 0.082527 0.687173 -0.721792
1.445107 0.191034 0.165592 0.123126 0.705741 -0.696233
0.347247 -0.014901 0.088462 -0.001360 -0.279777 0.956334
-0.179077 0.051576 -0.073399 -0.000048 0.619079 -0.780150
-0.631426 -0.087807 0.018369 -0.002612 -0.972862 0.218132
-0.462089 -0.063632 0.063234 0.000876 -0.637712 0.764833
0.022722 0.306794 0.298576 -0.090004 -0.659813 0.746020
0.070052 0.134361 -0.151778 -0.090004 -0.659813 -0.746020
0.700899 0.047004 -0.076408 -0.001691 0.434904 -0.896197
1.007375 0.034241 -0.082916 0.000846 0.484593 -0.870104
0.071435 0.404752 -0.379446 -0.086162 0.711860 0.697016
-0.111083 -0.077936 -0.044424 -0.000336 -0.850795 -0.517682
0.151918 -0.506762 -0.491023 -0.090004 0.659813 -0.746020
1.354167 0.241011 -0.224025 -0.107166 0.790628 0.602845
-1.299943 0.040723 0.079932 -0.000184 0.492551 0.865950
-0.041252 -0.087120 -0.021392 -0.000328 -0.953003 -0.287595
1.421831 0.138987 0.148600 -0.000000 -0.689525 0.724262
0.296097 -0.651235 -0.621922 0.086215 0.686957 -0.721565
0.101166 0.040905 0.079839 -0.000517 0.502825 0.858744
0.878944 -0.032861 -0.083473 -0.000192 -0.479761 -0.872789
0.624586 0.079665 -0.041243 0.002289 0.901293 -0.421304
0.978436 -0.030955 -0.084198 -0.000283 -0.404198 -0.910340
0.190543 0.238251 -0.212916 0.082527 0.687173 0.721792
-1.405120 0.079125 0.042271 0.001682 0.916737 0.387341
0.083479 0.249192 0.219084 -0.086162 0.711860 -0.697016
0.274084 0.295413 -0.285796 0.086215 -0.686957 -0.721565
1.336005 -0.093297 -0.105102 0.000000 0.689525 -0.724262
-0.345345 0.041593 -0.079483 -0.000103 0.564790 -0.819936
0.130218 0.144093 -0.158923 0.086215 -0.686957 -0.721565
1.193744 0.146578 0.128695 -0.107166 0.790628 -0.602845
1.452920 0.080916 -0.038732 -0.064962 0.835815 -0.535422
0.252033 -0.290880 0.270052 0.082527 -0.687173 -0.721792
1.267740 -0.019091 0.087653 -0.000365 -0.278802 0.955467
0.047559 -0.074796 0.049529 -0.000028 -0.775745 0.624561
1.544536 -0.000000 -0.107471 1.000000 0.000000 -0.000000
-0.250831 -0.085129 -0.028294 -0.003977 -0.952664 -0.291311
0.148503 -0.540532 0.508590 -0.086162 -0.711860 -0.697016
0.275711 -0.375033 -0.352876 0.082527 -0.687173 0.721792
1.335776 0.076633 0.089237 0.000000 -0.689525 0.724262
0.931873 0.000000 0.089708 -0.004664 -0.176844 0.978471
-0.719812 -0.051295 -0.073596 0.000074 -0.593749 -0.799912
1.336005 -0.093297 0.105102 0.000000 0.689525 0.724262
1.181679 -0.038634 0.080963 -0.000261 -0.484184 0.870078
0.482525 0.087774 0.018525 0.000123 0.959757 0.265306
0.025937 -0.262002 0.259347 -0.090004 0.659813 0.746020
0.162578 0.282074 0.251440 0.082527 0.687173 -0.721792
1.418421 -0.209754 -0.215973 -0.000000 0.689525 -0.724262
0.200765 0.396925 0.391200 0.086215 -0.686957 0.721565
-1.537292 0.018838 -0.074721 -0.347769 0.314392 -0.876220
-0.436987 0.029417 0.084747 0.000176 0.280230 0.956317
0.206330 0.637489 -0.600464 -0.086162 0.711860 0.697016
0.185078 0.343768 0.312747 0.082527 0.687173 -0.721792
0.190105 -0.348296 0.317633 0.082527 -0.687173 -0.721792
1.342357 -0.175962 0.183802 0.000000 0.689525 0.724262
-0.487651 0.087086 0.021529 0.001584 0.945205 0.308658
1.249589 0.117092 0.127755 0.000000 -0.689525 0.724262
-1.599609 -0.033252 0.033199 -0.556702 -0.714744 0.387867
1.185425 0.131624 -0.136164 -0.107166 -0.563289 -0.819281
0.126305 -0.374504 0.370958 -0.090004 0.659813 0.746020
1.458009 0.104352 0.083067 -0.000000 0.689525 -0.724262
0.210481 0.068653 -0.057743 0.001753 0.702940 -0.705872
-0.052619 -0.192279 0.188204 -0.090004 0.659813 0.746020
-0.176204 -0.061568 0.065245 0.000376 -0.693747 0.715283
0.107786 -0.077764 0.098456 0.086215 0.686957 0.721565
1.469870 -0.086174 -0.034957 -0.192227 -0.930455 -0.299406
-1.479305 0.031796 -0.082929 -0.113798 0.287141 -0.946681
0.111609 0.429966 -0.418238 -0.090004 -0.659813 -0.746020
-0.647547 0.020297 -0.087382 0.000022 0.287222 -0.952813
1.291075 0.194713 -0.174521 -0.107166 0.790628 0.602845
1.464898 -0.186177 0.165879 0.184267 -0.710637 -0.679000
1.377404 -0.226566 0.226552 -0.107166 0.563289 0.819281
-0.112178 -0.113162 -0.104343 -0.086162 -0.711860 0.697016
0.028695 -0.171973 -0.146993 -0.086162 -0.711860 0.697016
0.838327 -0.087942 0.017713 -0.001013 -0.963091 0.253438
0.179878 -0.259922 -0.263264 0.086215 0.686957 -0.721565
1.395192 0.078451 0.090968 -0.000000 -0.689525 0.724262
1.118682 -0.109392 -0.093269 -0.107166 -0.790628 0.602845
0.033883 -0.083035 0.102020 -0.090004 0.659813 0.746020
0.226419 -0.555256 -0.518819 0.082527 -0.687173 0.721792
1.227137 -0.152253 0.155803 -0.107166 0.563289 0.819281
0.160123 0.452924 0.444396 -0.090004 -0.659813 0.746020
0.208583 0.335867 -0.307913 0.082527 0.687173 0.721792
1.525485 0.132513 0.126158 0.184267 -0.643280 0.743126
0.027397 0.186394 0.192653 -0.090004 -0.659813 0.746020
0.041004 0.273230 -0.271096 -0.090004 -0.659813 -0.746020
-1.032074 0.000000 0.089708 0.001759 -0.156840 0.983004
0.011956 0.103232 -0.078858 -0.086162 0.711860 0.697016
1.508135 -0.090003 0.076958 0.184267 -0.710637 -0.679000
0.334795 -0.077317 -0.045492 -0.000085 -0.821640 -0.563586
-1.555614 0.060244 -0.036254 -0.344365 0.760826 -0.537090
0.149587 0.222088 0.230864 0.086215 -0.686957 0.721565
0.274605 -0.126897 -0.125300 0.086215 0.686957 -0.721565
0.064600 -0.116930 -0.086340 -0.086162 -0.711860 0.697016
1.287615 -0.202678 0.198383 -0.107166 0.563289 0.819281
0.227568 0.150526 0.153416 0.086215 -0.686957 0.721565
0.169860 -0.235863 0.208278 0.082527 -0.687173 -0.721792
0.263250 0.745710 -0.715790 0.066668 -0.684759 -0.725163
1.141599 -0.046356 -0.076802 0.000042 -0.412649 -0.907237
0.145595 0.535012 -0.515246 -0.090004 -0.659813 -0.746020
-0.654680 0.088191 -0.016428 -0.000400 0.965958 -0.243289
1.477516 -0.144568 0.148487 0.184267 0.643280 0.743126
0.106024 -0.268283 -0.235794 -0.086162 -0.711860 0.697016
1.239946 0.074661 -0.087359 0.000000 -0.689525 -0.724262
0.237722 0.511551 -0.478502 0.082527 0.687173 0.721792
1.320808 -0.043722 -0.078332 -0.000092 -0.453517 -0.886776
1.196194 -0.088284 0.015922 0.000393 -0.967620 0.237097
-0.327616 -0.042188 -0.079169 0.000490 -0.569481 -0.816693
-0.754430 0.087885 -0.017994 -0.000148 0.941271 -0.324729
0.244900 -0.631786 0.593791 0.082527 -0.687173 -0.721792
0.022531 -0.238862 0.216068 -0.086162 -0.711860 -0.697016
0.198685 0.445353 0.411016 0.082527 0.687173 -0.721792
1.104140 -0.102304 0.086558 -0.107166 -0.790628 -0.602845
-0.017099 -0.098811 -0.109823 -0.090004 0.659813 -0.746020
0.208914 0.138629 -0.120173 0.082527 0.687173 0.721792
0.006222 0.088415 0.015176 -0.000400 0.969534 0.229756
1.301592 0.148207 -0.124819 0.000000 0.689525 0.724262
1.148551 0.154421 0.147015 -0.107166 -0.563289 0.819281
0.242680 0.228422 0.225771 0.086215 -0.686957 0.721565
1.424675 -0.080556 0.060413 0.000000 -0.689525 -0.724262
0.193893 0.708414 -0.674437 -0.086162 0.711860 0.697016
0.115610 0.296589 0.300756 -0.090004 -0.659813 0.746020
1.444336 -0.106633 -0.085239 -0.000000 -0.689525 0.724262
0.126973 -0.209996 0.178748 0.082527 -0.687173 -0.721792
0.185773 -0.485233 -0.447507 -0.029937 -0.705370 0.707039
0.212404 0.395380 -0.388338 0.086215 -0.686957 -0.721565
0.135948 0.089357 0.064921 0.082527 0.687173 -0.721792
1.138574 0.119446 -0.102918 -0.107166 0.790628 0.602845
1.351787 0.153518 -0.129875 0.000000 0.689525 0.724262
0.191723 -0.360948 -0.329863 0.082527 -0.687173 0.721792
1.124277 0.097128 0.076190 -0.075192 0.762530 -0.641241
-0.055499 0.099863 0.083755 -0.086162 0.711860 -0.697016
0.148159 -0.409545 -0.404586 -0.090004 0.659813 -0.746020
1.308578 0.172012 0.180042 -0.035886 -0.649362 0.758295
0.138780 -0.074545 -0.049905 -0.000237 -0.750492 -0.654781
1.175549 0.092989 0.072250 0.000000 0.689525 -0.724262
0.345345 -0.041593 -0.079483 0.000103 -0.564790 -0.819936
-0.035037 -0.066967 0.079494 -0.090004 0.659813 0.746020
1.232477 0.000000 -0.089708 -0.000036 0.103386 -0.987394
1.318996 -0.197681 -0.199053 -0.107166 0.563289 -0.819281
1.287184 0.080556 0.060413 -0.000000 -0.724262 -0.689525
0.269367 0.323789 0.313375 0.086215 -0.686957 0.721565
-1.173286 0.078777 -0.042915 0.001359 0.850872 -0.516023
0.292862 0.689647 -0.658878 0.086215 -0.686957 -0.721565
0.312183 -0.443166 -0.421910 0.082527 -0.687173 0.721792
1.379741 -0.157434 0.166162 -0.000000 0.689525 0.724262
0.269367 -0.323789 0.313375 0.086215 0.686957 0.721565
0.156343 -0.307017 -0.274473 0.082527 -0.687173 0.721792
-1.352719 -0.000000 0.089708 0.002087 -0.110580 0.990031
0.506492 -0.021027 -0.087209 0.000374 -0.303809 -0.947115
-0.287830 0.037768 -0.081370 -0.000944 0.473792 -0.876183
0.102695 0.463439 -0.446767 -0.090004 -0.659813 -0.746020
1.502474 0.086128 -0.049452 -0.191758 0.880712 -0.426041
1.502474 0.086128 0.049452 -0.191762 0.880705 0.426051
1.372759 0.089708 -0.000000 0.003566 0.988212 -0.122468
0.268687 -0.200563 -0.196140 0.086215 0.686957 -0.721565
0.037653 0.240812 0.216191 -0.086162 0.711860 -0.697016
1.202121 -0.139881 -0.144025 -0.107166 0.563289 -0.819281
0.193749 0.085259 0.095321 0.086215 -0.686957 0.721565
-0.489067 0.021418 -0.087114 -0.000253 0.316880 -0.943210
0.145950 0.175462 0.186909 0.086215 -0.686957 0.721565
0.153949 0.100234 0.114333 0.086215 -0.686957 0.721565
1.461572 -0.190327 -0.192052 0.184267 0.643280 -0.743126
-0.071791 -0.128464 -0.114978 -0.086162 -0.711860 0.697016
1.425860 -0.246273 0.218182 0.025866 -0.728624 -0.681610
0.096062 -0.151776 0.170319 0.027470 0.679738 0.731710
1.435484 0.202394 0.208966 0.123126 -0.660733 0.739082
-0.082829 -0.108222 0.110216 -0.090004 0.659813 0.746020
0.156236 0.179572 -0.153129 0.082527 0.687173 0.721792
0.255329 0.536481 0.517543 0.086215 -0.686957 0.721565
1.285607 -0.121164 -0.131632 0.000000 0.689525 -0.724262
0.075234 -0.283257 0.254894 -0.086162 -0.711860 -0.697016
0.278621 0.249426 -0.233625 0.082527 0.687173 0.721792
0.424221 -0.085013 -0.028641 -0.000653 -0.922156 -0.377630
0.013653 0.174660 0.151596 -0.086162 0.711860 -0.697016
0.022796 -0.291742 -0.285272 -0.090004 0.659813 -0.746020
-0.412036 -0.015825 -0.088301 -0.000420 -0.210928 -0.974100
1.032491 0.097025 0.092371 -0.107166 -0.563289 0.819281
0.128684 0.267666 -0.276753 0.027470 -0.679738 -0.731710
-0.878443 0.016855 0.088110 0.003040 0.264490 0.959760
-0.042175 0.206530 0.202069 -0.090004 -0.659813 0.746020
1.224805 0.146843 -0.123521 -0.035886 0.725489 0.685819
-1.420848 -0.079691 -0.041193 0.000120 -0.887273 -0.452151
0.161330 0.135073 0.146619 0.086215 -0.686957 0.721565
0.230881 -0.237351 -0.235681 0.086215 0.686957 -0.721565
0.219449 -0.662880 -0.637248 -0.090004 0.659813 -0.746020
1.060793 0.082298 -0.085948 -0.107166 -0.563289 -0.819281
0.166160 -0.467057 0.431368 -0.086162 -0.711860 -0.697016
0.178371 -0.098652 0.109908 0.086215 0.686957 0.721565
0.175216 0.591465 0.557306 -0.086162 0.711860 -0.697016
-0.432543 0.078974 -0.042551 -0.001015 0.840115 -0.535260
-0.446288 0.030864 -0.084231 -0.005820 0.239107 -0.968306
0.126098 -0.358257 -0.356563 -0.090004 0.659813 -0.746020
-1.557903 0.040241 0.056487 -0.358337 0.569667 0.733549
-0.110222 0.000000 0.089708 0.004764 -0.119388 0.988199
0.519668 0.029951 -0.084560 -0.002871 0.344344 -0.933023
1.365751 -0.064296 0.077492 -0.000000 0.724262 -0.689525
1.285981 0.137255 0.114392 0.000000 0.689525 -0.724262
0.000512 -0.262654 -0.243089 -0.086162 -0.711860 0.697016
0.187341 -0.578208 -0.542268 -0.086162 -0.711860 0.697016
1.432880 0.089708 -0.000000 -0.069423 0.989146 -0.070104
1.283168 -0.083390 -0.033071 0.000580 -0.953440 -0.288802
0.271369 -0.594988 0.571328 0.086215 0.686957 0.721565
1.095796 0.085688 -0.026553 0.000576 0.950738 -0.299589
0.158099 -0.451104 -0.416071 -0.086162 -0.711860 0.697016
0.110235 0.135504 0.105915 0.082527 0.687173 -0.721792
0.270544 -0.089708 0.000000 -0.002577 -0.993496 -0.061996
0.295302 0.516975 0.490250 0.082527 0.687173 -0.721792
0.308546 0.036492 -0.081950 0.003271 0.316042 -0.944214
0.043734 -0.182348 0.155730 -0.086162 -0.711860 -0.697016
0.269404 0.473886 0.456268 0.086215 -0.686957 0.721565
0.312183 -0.079518 0.075704 0.082527 -0.687173 -0.721792
0.056439 -0.392876 0.369171 -0.086162 -0.711860 -0.697016
-1.452920 0.070242 -0.055799 -0.023781 0.711565 -0.695634
0.167932 0.329366 -0.330804 0.086215 -0.686957 -0.721565
1.218155 -0.093297 0.105102 0.000000 0.689525 0.724262
-0.591188 0.000000 0.089708 0.001731 -0.061221 0.995228
1.544536 -0.064482 -0.000000 1.000000 -0.000000 0.000000
1.544536 0.085976 -0.000000 1.000000 0.000000 0.000000
0.092333 0.347766 0.343211 -0.090004 -0.659813 0.746020
0.511027 -0.089708 0.000000 0.000201 -0.995343 -0.041546
1.420828 -0.194947 0.169317 -0.000000 -0.689525 -0.724262
0.270584 -0.549581 -0.528192 0.086215 0.686957 -0.721565
0.222163 -0.071394 0.078725 0.086215 0.686957 0.721565
-1.622376 0.008685 -0.028782 -0.624648 0.288104 -0.719138
1.452920 -0.020003 0.087449 -0.125026 -0.079331 0.982533
1.012102 0.085612 0.026796 0.002060 0.915256 0.390714
0.106024 -0.248245 0.256842 -0.090004 0.659813 0.746020
0.053538 0.088467 -0.058638 -0.086162 0.711860 0.697016
-0.129557 0.075264 0.048814 -0.000106 0.798705 0.594981
0.122802 -0.308805 -0.312429 -0.090004 0.659813 -0.746020
0.077836 -0.086954 0.022058 0.000995 -0.952899 0.286973
1.197769 -0.079724 -0.092179 0.000000 0.689525 -0.724262
1.452920 -0.019714 -0.087515 -0.135295 -0.067080 -0.982906
-1.525395 -0.043130 0.068115 -0.236582 -0.403894 0.874845
1.396436 -0.154822 -0.163676 0.000000 0.689525 -0.724262
0.270726 -0.700743 0.662393 0.082527 -0.687173 -0.721792
0.249037 -0.613627 -0.576976 0.082527 -0.687173 0.721792
0.215166 0.379701 0.350397 0.082527 0.687173 -0.721792
-1.452920 -0.080916 0.038732 -0.004566 -0.911222 0.400281
1.544536 -0.105399 0.021000 1.000000 -0.000000 -0.000000
-0.582560 -0.015689 -0.088325 0.000085 -0.212856 -0.974069
0.273354 -0.195748 0.181920 0.082527 -0.687173 -0.721792
1.158930 0.032624 -0.083565 -0.001602 0.358201 -0.927457
-0.034468 -0.225513 0.209480 -0.086162 -0.711860 -0.697016
