0.688046 -0.079500 -0.039797 -0.000429 -0.907542 -0.404106
-1.215589 -0.088084 0.012052 -0.000743 -0.971260 0.224056
-0.395382 0.086793 0.019261 0.000798 0.969169 0.233188
0.200994 -0.364170 -0.420345 0.064278 0.750376 -0.657879
0.981119 0.088905 -0.000000 -0.001934 0.996040 -0.047154
1.147347 0.083642 -0.030133 -0.000485 0.936466 -0.338807
-1.506275 -0.030981 0.075929 -0.256318 -0.454293 0.844855
0.347099 0.034155 -0.082082 -0.001639 0.343213 -0.933840
-0.073960 -0.151079 -0.177996 -0.045836 0.736763 -0.674595
-0.600685 -0.000000 0.088905 0.003721 -0.139267 0.983869
1.528460 0.045785 0.052223 0.059865 -0.758775 0.648596
0.197802 0.378802 -0.437345 0.064278 -0.750376 -0.657879
0.898511 -0.034475 -0.081948 0.000962 -0.436738 -0.895025
1.473440 -0.137464 0.164554 0.059865 0.758775 0.648596
1.181691 0.011487 -0.088159 0.000452 0.229819 -0.969834
0.751304 0.040207 -0.079293 0.000040 0.449480 -0.888678
-0.008417 0.158231 -0.190261 -0.045836 -0.736763 -0.674595
0.467957 -0.084650 0.027173 0.000355 -0.919611 0.382796
-0.104470 0.064371 0.061799 -0.064249 0.769941 -0.634872
-0.725238 0.079303 0.040187 0.001318 0.887699 0.451838
0.076537 -0.325379 -0.378584 -0.045836 0.736763 -0.674595
-0.191665 0.079622 0.039552 0.001379 0.897027 0.432981
0.054052 -0.224525 0.266909 -0.045836 0.736763 0.674595
1.372652 -0.216007 0.249883 -0.024291 0.713520 0.700213
0.168600 0.261391 -0.306280 0.064278 -0.750376 -0.657879
0.187377 0.141666 -0.167887 0.064278 -0.750376 -0.657879
1.501522 -0.270923 0.307536 -0.024291 -0.787526 -0.615803
-1.047584 -0.087838 -0.013733 0.000227 -0.967386 -0.241086
0.193835 0.590676 -0.676301 0.000000 0.659242 -0.751931
1.132281 0.161744 -0.182477 -0.024291 0.787526 0.615803
1.293047 -0.142581 -0.151628 -0.024291 -0.787526 0.615803
-0.112120 -0.040917 -0.078929 -0.000053 -0.557576 -0.825009
1.461360 -0.185563 0.221938 0.003779 0.729330 0.683672
0.032148 0.356270 0.409307 -0.045836 -0.736763 0.674595
0.952022 0.082526 0.088279 -0.024291 0.787526 -0.615803
0.066812 -0.157413 -0.194479 -0.045836 0.736763 -0.674595
0.187734 -0.459163 -0.514923 0.090031 -0.748877 0.656565
0.073423 0.135783 0.130401 -0.012796 0.764491 -0.643440
1.135471 -0.113577 0.137279 -0.024291 0.713520 0.700213
0.227167 0.456270 -0.522836 0.064278 -0.750376 -0.657879
0.568618 0.087061 0.018010 -0.000749 0.937734 0.332086
0.108152 -0.233765 -0.280676 0.027583 0.746620 -0.664152
1.059710 0.127998 0.142183 -0.024291 0.787526 -0.615803
1.059710 -0.127998 -0.142183 -0.024291 -0.787526 0.615803
1.081377 -0.146830 0.165412 -0.024291 -0.787526 -0.615803
0.030817 -0.323764 0.362687 -0.064249 -0.769941 -0.634872
0.492069 -0.068820 0.056283 -0.000160 -0.736012 0.670926
0.207274 -0.139693 0.153215 0.090031 -0.748877 -0.656565
0.990059 -0.040336 0.079228 -0.000832 -0.526102 0.844287
-0.080091 -0.088905 -0.000000 -0.003549 -0.989497 0.113378
-0.138432 -0.101255 -0.119200 -0.045836 0.736763 -0.674595
-1.608242 -0.016581 -0.027566 -0.624168 -0.513236 -0.580988
-0.924956 -0.040489 0.079149 0.000874 -0.446783 0.890026
0.196501 -0.470569 0.542142 0.064278 0.750376 0.657879
0.144209 -0.246540 0.266437 0.090031 -0.748877 -0.656565
-0.791024 -0.038587 -0.080094 0.000881 -0.433929 -0.896692
0.741003 0.057092 0.068151 0.001282 0.592281 0.799934
0.197149 0.108650 0.129275 0.064278 -0.750376 0.657879
0.868610 0.090563 0.104570 -0.024291 -0.713520 0.700213
-1.165090 0.038704 0.080038 -0.000049 0.434989 0.895939
0.979412 0.039855 0.079471 -0.000398 0.376703 0.920577
1.311051 -0.080202 0.038362 0.000079 -0.876873 0.472767
0.062690 -0.188488 0.195406 -0.064249 -0.769941 -0.634872
1.325288 -0.095051 0.124986 -0.024291 0.713520 0.700213
0.221080 0.492033 0.564222 0.064278 -0.750376 0.657879
-0.874424 0.029803 0.083760 -0.000312 0.435873 0.895587
1.474898 0.243370 -0.273351 -0.024291 0.787526 0.615803
0.898511 0.034475 0.081948 0.000962 0.436738 0.895025
1.131277 0.142954 0.167069 -0.024291 -0.713520 0.700213
-1.500837 -0.067730 -0.048378 -0.155643 -0.796767 -0.568975
1.473157 -0.177551 -0.211476 0.059865 0.758775 -0.648596
-0.008417 0.158231 0.190261 -0.045836 -0.736763 0.674595
-1.541215 0.038262 -0.059871 -0.409289 0.409714 -0.806064
1.524417 -0.000000 -0.076015 0.150771 0.078469 -0.979101
1.523130 0.171981 -0.192092 0.059865 0.742271 0.667421
-1.470962 0.082377 -0.030445 -0.124735 0.902067 -0.401396
1.151759 0.114814 -0.121692 -0.024291 0.787526 0.615803
-0.525880 0.039101 0.079845 0.000992 0.448638 0.889105
1.409458 -0.175108 0.188634 -0.024291 -0.787526 -0.615803
0.230433 0.511926 -0.580960 0.090031 0.748877 0.656565
1.234641 -0.088813 -0.115485 -0.024291 0.713520 -0.700213
-1.482034 -0.000000 -0.086539 -0.184409 -0.055209 -0.976534
1.562928 0.222769 0.256089 0.059865 -0.758775 0.648596
-0.364310 -0.077628 -0.043335 -0.001115 -0.875355 -0.474769
1.497735 -0.091493 -0.100300 0.059865 -0.742271 0.667421
0.008657 -0.317484 -0.365350 -0.045836 0.736763 -0.674595
0.008287 -0.158017 -0.163957 -0.064249 -0.769941 0.634872
0.240274 -0.088905 -0.000000 -0.000031 -0.994906 0.055586
0.451169 0.069105 -0.055932 -0.000892 0.705380 -0.702320
0.104293 0.237751 -0.250939 -0.012796 0.764491 0.643440
0.280320 -0.000000 0.088905 0.004363 -0.158318 0.982503
1.219514 -0.093639 0.091940 -0.024291 -0.787526 -0.615803
1.059425 -0.155480 -0.177341 -0.024291 0.713520 -0.700213
1.207146 0.197625 -0.225410 -0.024291 0.787526 0.615803
0.911703 -0.113336 0.129271 -0.024291 -0.787526 -0.615803
1.576450 -0.302985 0.345584 -0.012263 -0.781431 -0.623485
1.576450 -0.302985 -0.345584 -0.012263 0.720339 -0.693167
0.819377 -0.086996 0.099228 -0.024291 -0.787526 -0.615803
0.819377 0.086996 -0.099228 -0.024291 0.787526 0.615803
1.225612 -0.202893 0.231419 -0.024291 -0.787526 -0.615803
1.151751 -0.181821 -0.207384 -0.024291 0.713520 -0.700213
1.428729 0.260841 0.297514 -0.024291 -0.713520 0.700213
1.502590 0.281913 0.321549 -0.024291 -0.713520 0.700213
1.484124 -0.276645 -0.315541 -0.024291 0.713520 -0.700213
1.317938 0.229233 0.261462 -0.024291 -0.713520 0.700213
1.354868 -0.239769 -0.273480 -0.024291 0.713520 -0.700213
1.317938 0.229233 -0.261462 -0.024291 0.787526 0.615803
1.410264 -0.255573 0.291506 -0.024291 -0.787526 -0.615803
1.391798 0.250305 0.285497 -0.024291 -0.713520 0.700213
1.410264 -0.255573 -0.291506 -0.024291 0.713520 -0.700213
1.336403 -0.234501 0.267471 -0.024291 -0.787526 -0.615803
1.576450 0.302985 0.345584 -0.012263 -0.720339 0.693167
0.763982 -0.071192 -0.081202 -0.024291 0.713520 -0.700213
1.281007 -0.218697 -0.249445 -0.024291 0.713520 -0.700213
1.576450 0.302985 -0.345584 -0.012263 0.781431 0.623485
1.281007 0.218697 -0.249445 -0.024291 0.787526 0.615803
0.300343 0.000000 -0.088905 0.004128 0.127706 -0.985312
-0.312527 0.063432 -0.062293 -0.000042 0.624999 -0.775292
0.104293 0.237751 0.250939 -0.012796 0.764491 -0.643440
0.189186 0.510866 0.588820 -0.027479 -0.739423 0.672160
0.092717 -0.180984 0.221982 -0.011748 0.741750 0.670115
0.107649 -0.126174 0.124134 0.090031 -0.748877 -0.656565
0.634862 0.065949 0.059621 -0.000039 0.656695 0.748634
1.381576 0.088905 -0.000000 -0.002222 0.989708 -0.115271
-1.121279 0.000000 -0.088905 -0.002456 0.116519 -0.989487
0.177943 -0.237546 -0.260804 0.090031 -0.748877 0.656565
1.315602 0.085254 0.114666 -0.024291 -0.713520 0.700213
-1.441644 -0.000000 0.088905 -0.035803 -0.054108 0.993861
-0.283557 -0.040798 0.078991 -0.000942 -0.528293 0.843821
-0.057188 0.201567 0.223399 -0.064249 0.769941 -0.634872
0.150325 0.468520 0.539930 -0.045836 -0.736763 0.674595
-0.470059 -0.076049 0.046049 0.000038 -0.854291 0.511746
1.289659 -0.087987 -0.116551 -0.024291 0.713520 -0.700213
-1.401598 0.000000 -0.088905 -0.005071 0.115149 -0.988933
-0.760868 0.088905 -0.000000 0.002393 0.988997 -0.112013
-0.700799 -0.000000 0.088905 0.003819 -0.137077 0.985658
0.820936 -0.000000 0.088905 0.000763 -0.117413 0.989472
-0.520594 -0.088905 0.000000 0.000076 -0.994882 0.049927
0.240274 0.088905 -0.000000 -0.001224 0.981883 -0.160840
-0.240274 0.088905 -0.000000 0.001436 0.994575 -0.051513
-0.540617 0.088905 -0.000000 -0.000919 0.993913 -0.050204
0.300343 0.088905 -0.000000 0.003666 0.994333 -0.060375
-0.780891 -0.088905 0.000000 -0.002268 -0.989507 0.116198
-1.060348 0.087094 -0.017851 0.003309 0.945632 -0.310790
0.438975 0.010869 -0.088238 -0.000172 0.223678 -0.971458
0.230788 -0.160046 0.179655 0.090031 -0.748877 -0.656565
1.454431 0.077480 0.096135 0.059865 -0.758775 0.648596
-0.586711 0.066083 -0.059473 0.000083 0.747843 -0.657926
0.213795 0.019584 0.086721 -0.000844 0.256481 0.962566
0.309275 0.080285 -0.038188 0.000080 0.882347 -0.461649
0.149395 0.019872 -0.086655 0.000597 0.281809 -0.954709
-0.047043 -0.074635 0.048307 0.000127 -0.816657 0.569855
0.651688 -0.086034 0.022411 -0.002754 -0.947918 0.303604
-1.355150 -0.075064 -0.047638 -0.000811 -0.895607 -0.435549
-0.436968 0.056732 0.068450 -0.000092 0.645255 0.758549
-1.234228 -0.055846 0.069175 0.000078 -0.624103 0.776036
0.168387 0.078383 0.041954 0.000187 0.818736 0.566521
1.348745 -0.185329 0.204100 -0.024291 -0.787526 -0.615803
0.099539 0.331780 0.387138 -0.045836 -0.736763 0.674595
1.251220 0.074991 -0.047752 0.000059 0.775184 -0.625151
1.370021 -0.206581 -0.230439 -0.024291 -0.787526 0.615803
1.134997 -0.026912 0.084733 0.002105 -0.391389 0.916236
0.528409 0.040125 0.079335 -0.000577 0.545777 0.832644
0.146016 -0.142508 -0.172889 0.064278 0.750376 -0.657879
1.062306 0.038344 0.080210 -0.000105 0.526791 0.845108
0.428203 -0.083011 -0.031832 0.000588 -0.933951 -0.342325
1.552723 -0.122281 0.139474 0.059865 -0.742271 -0.667421
0.453897 0.087334 -0.016639 -0.003690 0.948493 -0.301973
-1.062276 -0.055285 -0.069625 -0.000171 -0.620694 -0.778847
-1.303260 -0.086643 0.019925 -0.000418 -0.969006 0.232986
0.215959 0.439087 0.495895 0.090031 0.748877 -0.656565
-0.560639 -0.000000 0.088905 -0.002349 -0.071927 0.994134
-1.011368 -0.075733 0.046568 0.000255 -0.783860 0.614334
0.139929 -0.568249 -0.648144 -0.064249 -0.769941 0.634872
0.030079 0.414172 0.472404 -0.064249 0.769941 -0.634872
0.046979 -0.437876 0.499441 -0.045836 0.736763 0.674595
0.046979 0.437876 -0.499441 -0.064249 0.769941 0.634872
-0.096670 -0.236391 0.269627 -0.045836 0.736763 0.674595
-0.138920 0.177130 0.202035 -0.064249 0.769941 -0.634872
-0.206519 0.082314 -0.093887 -0.064249 0.769941 0.634872
-0.164269 -0.141574 -0.161479 -0.064249 -0.769941 0.634872
-0.045970 0.307503 0.350738 -0.064249 0.769941 -0.634872
-0.012170 0.354912 0.404812 -0.064249 0.769941 -0.634872
0.089229 -0.497137 0.567033 -0.045836 0.736763 0.674595
0.089229 0.497137 -0.567033 -0.064249 0.769941 0.634872
-0.045970 -0.307503 -0.350738 -0.064249 -0.769941 0.634872
0.123029 0.544545 0.621107 -0.064249 0.769941 -0.634872
0.072329 -0.473433 -0.539996 -0.064249 -0.769941 0.634872
-1.182636 -0.062891 -0.062839 0.000096 -0.621084 -0.778462
-0.677382 0.038790 -0.079996 -0.000477 0.537799 -0.838032
0.212338 -0.594642 -0.672824 0.047225 -0.756209 0.651804
0.939886 0.046440 -0.075811 0.000179 0.518642 -0.849936
-0.855697 -0.086838 -0.019056 -0.000836 -0.968602 -0.234666
-1.337796 -0.038511 -0.080131 -0.000872 -0.431361 -0.897649
-1.355119 0.075361 -0.047167 -0.000907 0.898296 -0.430070
0.287053 0.053527 0.070985 -0.000005 0.607616 0.788988
0.175616 0.083463 -0.030626 -0.000016 0.907652 -0.410726
-1.079640 0.047322 0.075264 -0.000222 0.621420 0.778267
-0.012170 -0.354912 -0.404812 -0.064249 -0.769941 0.634872
1.441644 -0.055530 0.069430 0.051895 -0.705344 0.699958
-1.441644 0.038650 -0.080064 -0.006180 0.312428 -0.945536
-0.234310 -0.086336 0.021215 -0.000942 -0.930351 0.355104
1.398368 0.154375 -0.187972 -0.024291 -0.713520 -0.700213
1.337815 0.019902 0.086648 0.000287 0.331095 0.939306
-0.300820 -0.079853 0.039082 0.001146 -0.834341 0.542975
1.505285 0.120928 0.142269 0.059865 -0.758775 0.648596
-1.406957 0.019645 0.086707 -0.000166 0.233438 0.969220
1.232437 -0.145326 0.172995 -0.024291 0.713520 0.700213
-1.461897 0.074715 0.047461 -0.108708 0.810858 0.559681
-0.102360 -0.031128 0.083277 -0.000755 -0.463703 0.881412
1.441644 -0.080064 -0.038650 0.104396 -0.842300 -0.519089
0.802377 0.030412 -0.083541 -0.000827 0.442963 -0.892098
-0.993324 -0.079893 -0.039002 -0.000025 -0.895215 -0.436299
1.251877 -0.075076 -0.047619 -0.000073 -0.843611 -0.528904
1.540592 0.084033 0.095848 0.059865 -0.758775 0.648596
1.568899 0.173278 0.197641 0.059865 -0.758775 0.648596
0.252542 -0.055578 -0.069391 -0.000043 -0.708212 -0.700073
1.532504 -0.058535 -0.066765 0.059865 0.758775 -0.648596
1.019063 0.120642 -0.134379 -0.024291 0.787526 0.615803
-0.044194 -0.121451 -0.147661 -0.045836 0.736763 -0.674595
0.251891 0.214710 0.244898 0.064278 -0.750376 0.657879
0.251891 -0.214710 0.244898 0.090031 -0.748877 -0.656565
0.251891 0.357803 -0.408109 0.090031 0.748877 0.656565
0.251891 0.396828 0.452621 0.064278 -0.750376 0.657879
0.251891 -0.396828 0.452621 0.090031 -0.748877 -0.656565
0.251891 0.253735 -0.289410 0.090031 0.748877 0.656565
0.251891 -0.552928 -0.630669 0.090031 -0.748877 0.656565
0.251891 0.448861 0.511970 0.064278 -0.750376 0.657879
0.251891 -0.448861 0.511970 0.090031 -0.748877 -0.656565
0.251891 -0.500895 -0.571320 0.090031 -0.748877 0.656565
0.251891 0.305769 -0.348760 0.090031 0.748877 0.656565
0.251891 0.409836 -0.467458 0.090031 0.748877 0.656565
0.251891 0.565937 -0.645507 0.090031 0.748877 0.656565
-0.243948 -0.077051 -0.044352 0.000189 -0.806027 -0.584877
1.199592 0.079807 0.039178 0.000745 0.894512 0.437757
-1.199561 -0.039263 0.079765 -0.000921 -0.438649 0.894079
1.389687 0.029469 -0.083878 0.003775 0.322862 -0.941495
-0.350257 0.058161 0.067241 0.000161 0.568013 0.817987
0.547683 -0.063176 -0.062553 0.000006 -0.701575 -0.706761
-1.337802 -0.080079 0.038617 -0.000765 -0.896969 0.432762
-1.165321 -0.080075 0.038627 0.000009 -0.897620 0.431570
-0.925475 -0.039454 -0.079671 0.001328 -0.435624 -0.895764
0.042512 -0.093228 -0.081922 -0.064249 -0.769941 0.634872
1.546260 -0.218757 0.252934 0.059865 0.758775 0.648596
0.288336 -0.067883 -0.057410 0.000013 -0.681563 -0.726050
0.340851 0.071692 0.052576 0.000185 0.809835 0.579219
-0.807052 -0.074551 -0.048438 0.000270 -0.838694 -0.537577
1.068092 0.083330 -0.084729 -0.024291 0.787526 0.615803
-0.700799 -0.088905 0.000000 0.000551 -0.995937 0.050374
-1.113577 0.083810 0.029664 -0.000153 0.896534 0.433624
0.321490 -0.051638 -0.072371 0.000034 -0.585789 -0.805329
1.199529 0.019755 0.086682 -0.000296 0.329897 0.939774
0.083656 -0.349750 0.388854 -0.064249 -0.769941 -0.634872
-1.217023 0.075405 -0.047097 -0.000109 0.781042 -0.617875
1.337796 0.069402 0.055565 0.000063 0.776643 0.623372
-1.044899 -0.030374 0.083555 0.001160 -0.443011 0.891969
-1.182285 0.063290 -0.062438 0.000061 0.707664 -0.700714
0.251891 -0.266744 0.304248 0.090031 -0.748877 -0.656565
1.399911 -0.112503 0.114892 0.059865 -0.742271 -0.667421
0.120367 0.336429 -0.393632 -0.045836 -0.736763 -0.674595
-0.673637 0.088229 -0.010939 -0.002277 0.973181 -0.214378
0.106388 -0.299635 0.352497 -0.045836 0.736763 0.674595
0.106388 -0.299635 -0.352497 -0.045836 0.736763 -0.674595
1.149284 0.012523 0.088018 0.000418 0.235217 0.968802
0.492137 -0.019921 -0.086644 0.000735 -0.352303 -0.929947
0.148677 -0.450305 -0.504222 -0.064249 -0.769941 0.634872
0.197616 -0.042069 0.078321 0.000598 -0.547639 0.831535
-0.070182 0.016495 -0.087361 0.002002 0.113982 -0.989195
1.448692 0.185946 0.200947 0.005785 0.772107 -0.634865
-0.449859 -0.085696 -0.023669 0.002068 -0.957768 -0.273839
0.092717 0.199513 -0.205738 -0.016480 0.764978 0.642908
1.395538 0.222211 -0.256999 -0.024291 -0.713520 -0.700213
0.152914 -0.327494 -0.359967 0.090031 -0.748877 0.656565
1.128343 -0.103964 -0.127236 -0.024291 0.713520 -0.700213
1.261438 0.088905 -0.000000 0.002190 0.989462 -0.116789
0.208480 -0.576843 0.662187 -0.005622 0.742464 0.669146
0.756933 -0.080155 0.038460 -0.000876 -0.837691 0.538508
0.093682 0.069364 0.057422 0.090031 0.748877 -0.656565
-0.109269 0.101961 0.107873 -0.064249 0.769941 -0.634872
-0.029670 0.016629 -0.087335 0.001480 0.122242 -0.988162
-1.045068 -0.083946 0.029277 0.000766 -0.940190 0.329064
0.199062 -0.228599 0.253495 0.090031 -0.748877 -0.656565
-0.008633 0.203965 -0.240195 -0.045836 -0.736763 -0.674595
1.078254 0.028681 -0.084151 -0.000350 0.418546 -0.902856
-0.608914 -0.080872 0.036928 -0.002988 -0.831496 0.543951
0.126205 -0.417852 0.467139 -0.064249 -0.769941 -0.634872
-0.011008 0.065274 -0.088561 -0.045836 -0.736763 -0.674595
1.113466 0.083395 0.030809 -0.000171 0.937564 0.332668
1.245558 0.111118 0.113265 -0.024291 0.787526 -0.615803
-0.891823 -0.056980 0.068244 0.000063 -0.631703 0.770047
0.112693 -0.134115 0.166571 0.064278 0.750376 0.657879
0.967962 -0.079821 0.039149 0.000850 -0.873906 0.477302
-0.265306 0.043937 0.077289 0.001085 0.496965 0.862798
1.098259 -0.079821 -0.039148 -0.000221 -0.840214 -0.534661
-0.206519 -0.082314 0.093887 -0.045836 0.736763 0.674595
1.246169 0.189373 0.218355 -0.024291 -0.713520 0.700213
-0.959161 0.038976 0.079906 -0.000889 0.438434 0.894240
0.880988 -0.072679 -0.051203 -0.000249 -0.737046 -0.669525
1.364886 0.129403 0.161364 -0.024291 -0.713520 0.700213
-1.564725 0.022529 0.056058 -0.413980 0.344236 0.835069
0.547927 -0.085692 0.023684 -0.000502 -0.972596 0.221630
-0.976681 -0.083933 0.029312 -0.000646 -0.943534 0.316276
1.274964 -0.018366 0.086987 -0.000682 -0.273563 0.957270
0.154336 0.185595 -0.221221 0.064278 -0.750376 -0.657879
0.025021 0.089395 0.079043 -0.064249 0.769941 -0.634872
-0.174620 0.073009 0.079374 -0.064249 0.769941 -0.634872
0.461677 -0.072686 -0.051193 0.000027 -0.818166 -0.567439
-0.348674 0.050295 -0.073311 -0.000069 0.569455 -0.816700
-0.103691 -0.136727 0.160301 -0.045836 0.736763 0.674595
0.143171 -0.402399 -0.467230 -0.045836 0.736763 -0.674595
-0.113260 -0.063051 0.062678 0.000280 -0.679716 0.727786
0.113083 0.146569 0.148143 0.090031 0.748877 -0.656565
1.524417 -0.000000 0.076015 1.000000 -0.000000 0.000000
1.524417 0.000000 -0.000000 1.000000 0.000000 0.000000
1.545339 0.222172 -0.249905 0.059865 0.742271 0.667421
1.471491 0.248375 0.279886 -0.024291 0.787526 -0.615803
-0.939431 0.030700 -0.083436 -0.001036 0.443940 -0.891411
0.215969 -0.439089 -0.495898 0.090031 -0.748877 0.656565
0.219448 -0.071068 -0.053416 0.000059 -0.803003 -0.588344
0.047969 -0.078754 -0.041252 0.001645 -0.884474 -0.458003
-0.206519 -0.082314 -0.093887 -0.064249 -0.769941 0.634872
1.230529 0.167995 0.186595 -0.024291 0.787526 -0.615803
1.289661 0.087987 -0.116551 -0.024291 -0.713520 -0.700213
0.791825 -0.030257 0.083597 0.002501 -0.426026 0.900478
1.210527 -0.170328 0.197712 -0.024291 0.713520 0.700213
0.106444 0.087242 0.017114 -0.004181 0.946168 0.309613
0.667630 0.031361 -0.083189 -0.000940 0.452570 -0.887545
-0.164269 -0.141574 0.161479 -0.045836 0.736763 0.674595
1.320502 0.029321 -0.083930 -0.000485 0.330607 -0.939481
0.710923 -0.017022 0.087260 -0.000035 -0.136811 0.987765
-1.424324 -0.075378 0.047140 -0.005050 -0.843838 0.528734
1.562707 0.270868 -0.312380 0.031831 -0.744415 -0.666466
-0.012214 -0.189301 -0.223936 -0.045836 0.736763 -0.674595
1.209842 -0.028272 0.084289 0.000220 -0.395485 0.914053
-0.818906 0.080919 -0.036825 -0.002443 0.914879 -0.387647
0.848740 0.046312 0.075889 -0.001555 0.569867 0.817017
1.170216 0.187089 0.213393 -0.024291 -0.713520 0.700213
1.060288 0.139884 -0.157361 -0.024291 0.787526 0.615803
0.024714 -0.062415 0.087866 -0.045836 0.736763 0.674595
0.172304 -0.187599 0.203062 0.090031 -0.748877 -0.656565
1.451467 0.199604 0.235903 -0.024291 -0.713520 0.700213
0.878080 0.075661 -0.089714 -0.024291 -0.713520 -0.700213
0.168071 0.081574 0.081550 0.090031 0.748877 -0.656565
0.067524 -0.411007 -0.471491 -0.045836 0.736763 -0.674595
-0.081179 0.085904 -0.106324 -0.045836 -0.736763 -0.674595
0.215956 -0.216222 -0.250133 0.064278 0.750376 -0.657879
0.652091 -0.046569 0.075732 0.000206 -0.467204 0.879700
1.313451 0.124642 0.154728 -0.024291 -0.713520 0.700213
0.115003 -0.211164 0.222083 0.090031 -0.748877 -0.656565
0.043135 -0.211133 -0.224847 -0.064249 -0.769941 0.634872
1.042453 0.011283 -0.088186 0.003604 0.223956 -0.971186
0.718775 0.055841 -0.069179 0.000523 0.630448 -0.771188
1.601249 0.275273 0.313976 0.059865 -0.758775 0.648596
-0.132037 -0.131140 -0.145563 -0.064249 -0.769941 0.634872
1.504528 0.073492 0.029286 0.163508 0.906575 0.374433
0.066735 0.174916 0.178537 -0.064249 0.769941 -0.634872
0.384470 0.033768 -0.082242 -0.001080 0.384474 -0.918211
-1.079735 -0.075634 0.046728 0.000185 -0.782818 0.615626
-0.825198 -0.080272 0.038215 0.000152 -0.898261 0.430575
1.322731 -0.164794 -0.195965 -0.024291 0.713520 -0.700213
0.873506 0.087144 0.017604 -0.001702 0.961526 0.258133
-0.002438 -0.090454 -0.083106 -0.064249 -0.769941 0.634872
0.251891 0.201702 -0.230061 0.090031 0.748877 0.656565
0.169892 -0.454435 0.507084 0.038631 -0.757470 -0.650670
-0.852496 0.019025 -0.086845 0.000068 0.241605 -0.966770
1.504682 0.073563 -0.029040 0.163719 0.907169 -0.372899
0.101266 -0.079586 0.070121 0.090031 -0.748877 -0.656565
-1.519886 0.068502 -0.038101 -0.244021 0.783901 -0.559202
1.355047 0.047263 -0.075301 0.000022 0.528222 -0.843998
0.156829 0.591954 0.675181 -0.000000 0.659242 0.751931
-0.001902 -0.092332 0.085329 -0.064249 -0.769941 -0.634872
0.028207 -0.125708 -0.122759 -0.064249 -0.769941 0.634872
-1.320411 0.029986 -0.083695 0.000137 0.439428 -0.893747
1.505285 -0.125229 0.138497 0.059865 -0.742271 -0.667421
0.078402 0.179994 0.219928 -0.045836 -0.736763 0.674595
0.811719 -0.046566 -0.075734 0.000807 -0.464063 -0.881567
-1.389742 -0.083895 0.029421 0.000704 -0.896926 0.432904
0.228777 -0.259603 -0.298360 0.064278 0.750376 -0.657879
0.843252 -0.070786 0.053789 -0.001712 -0.758149 0.646132
-0.440502 -0.000000 0.088905 -0.001618 -0.112493 0.988960
-1.147973 -0.075116 -0.047556 0.000114 -0.841884 -0.532017
0.620708 -0.088905 -0.000000 0.000466 -0.982191 0.164853
-1.251594 -0.075159 -0.047488 -0.000083 -0.777189 -0.622676
-0.055847 -0.151283 0.179449 -0.045836 0.736763 0.674595
-0.398329 0.073689 -0.049738 -0.000114 0.821170 -0.563423
1.464479 0.157437 -0.170657 0.059865 0.742271 0.667421
0.214615 -0.541098 -0.620817 0.064278 0.750376 -0.657879
1.229622 0.107914 -0.134775 -0.024291 -0.713520 -0.700213
-0.019466 -0.081251 -0.036088 -0.002137 -0.856936 -0.507244
1.170136 0.074913 0.099083 -0.024291 -0.713520 0.700213
-0.570879 -0.086248 -0.021571 0.001453 -0.958067 -0.271025
0.129234 0.130092 -0.131563 0.090031 0.748877 0.656565
0.251891 0.110643 -0.126199 0.090031 0.748877 0.656565
1.286338 -0.047364 -0.075237 0.000150 -0.531780 -0.842051
1.013224 -0.105334 0.115033 -0.024291 -0.787526 -0.615803
0.032148 0.359779 -0.406230 -0.064249 0.769941 0.634872
-0.271079 -0.087937 0.013080 -0.003748 -0.967355 0.240860
0.096576 -0.194180 -0.236656 0.027583 0.746620 -0.664152
1.462337 -0.000000 -0.085682 0.101072 0.067835 -0.987398
0.230185 0.573916 0.651632 0.090031 0.748877 -0.656565
0.162978 0.360000 -0.419303 0.064278 -0.750376 -0.657879
1.605293 -0.288022 0.328518 0.032633 -0.757655 -0.651320
1.605293 -0.288022 -0.328518 0.048657 0.753091 -0.655794
1.605293 0.288022 -0.328518 0.032633 0.757655 0.651320
-0.667959 -0.016313 0.087395 -0.001243 -0.244845 0.966749
-1.564701 -0.056083 0.022500 -0.419911 -0.829166 0.354012
-0.760868 0.000000 -0.088905 0.000227 0.057918 -0.995289
0.837999 0.075322 -0.047229 0.000143 0.777694 -0.622286
0.081141 -0.161275 -0.160536 0.043789 -0.756734 0.651369
1.441644 -0.038385 -0.080191 0.103420 -0.522894 -0.840308
1.564855 -0.160529 0.183099 0.059865 -0.742271 -0.667421
0.028207 -0.125708 0.122759 -0.064249 -0.769941 -0.634872
-1.589182 0.046087 -0.000000 -0.523355 0.839506 0.082195
-0.708202 -0.048695 -0.074383 0.000688 -0.541743 -0.836274
-0.449976 0.086863 -0.018943 0.000552 0.942195 -0.321036
0.163955 0.035611 0.081461 -0.002339 0.496732 0.862913
0.113458 -0.068019 -0.058600 0.090031 -0.748877 0.656565
-0.077788 -0.218841 -0.246433 -0.064249 -0.769941 0.634872
1.454431 -0.085174 0.089389 0.059865 -0.742271 -0.667421
-1.320494 0.083913 -0.029371 0.000143 0.897470 -0.431975
1.047531 -0.048865 -0.074271 -0.000409 -0.536827 -0.838717
-0.001677 0.218074 0.256076 -0.045836 -0.736763 0.674595
0.114508 0.371744 0.431803 -0.045836 -0.736763 0.674595
-0.615778 0.034456 0.081956 -0.003927 0.388448 0.914247
1.320901 0.088116 -0.011818 0.000223 0.968268 -0.235772
-0.469350 0.072485 0.051478 -0.000059 0.819017 0.566516
-1.269416 0.017205 0.087224 0.000163 0.319273 0.942339
-1.337817 0.019797 0.086672 0.000499 0.330308 0.939596
0.134137 0.385973 -0.448676 -0.045836 -0.736763 -0.674595
-0.085756 0.223648 0.256452 -0.045836 -0.736763 0.674595
-1.081233 -0.000000 0.088905 -0.003160 -0.119539 0.989034
1.462911 -0.091451 -0.111696 0.059865 0.758775 -0.648596
1.131277 -0.142954 -0.167069 -0.024291 0.713520 -0.700213
0.251891 -0.175685 -0.200386 0.090031 -0.748877 0.656565
-1.078469 0.075407 -0.047093 -0.000094 0.781133 -0.617546
0.185327 0.497671 -0.574146 0.030209 -0.746937 -0.663746
0.142181 0.422906 -0.471652 -0.064249 0.769941 0.634872
-1.215253 0.012720 -0.087990 -0.000248 0.240046 -0.967501
-0.595284 0.014381 -0.087734 0.000667 0.201247 -0.976484
0.922381 0.075946 0.046220 -0.000154 0.875462 0.474679
-0.489542 0.072062 -0.052068 0.000317 0.725410 -0.681244
-0.157020 0.094008 -0.110022 -0.045836 -0.736763 -0.674595
-0.691803 -0.018887 -0.086875 0.000898 -0.347933 -0.931695
0.876847 -0.031955 0.082963 -0.000056 -0.440694 0.893238
0.007978 -0.039115 -0.079837 -0.000757 -0.450135 -0.888405
-0.031021 0.296157 -0.335464 -0.064249 0.769941 0.634872
1.441644 -0.080191 0.038385 0.052269 -0.845407 0.521914
-1.215289 0.088085 -0.012041 -0.000532 0.971513 -0.222795
-0.028776 -0.014129 0.087775 0.004028 -0.250841 0.964611
0.533142 0.017152 -0.087234 -0.000154 0.270127 -0.958543
1.398368 0.154375 0.187972 -0.024291 -0.713520 0.700213
0.169963 0.559463 -0.640588 -0.045836 -0.736763 -0.674595
1.150325 -0.013387 -0.087891 -0.000173 -0.231270 -0.969493
1.040277 -0.124998 0.145615 -0.024291 0.713520 0.700213
1.374634 0.089362 0.086888 0.059865 0.742271 -0.667421
0.161080 -0.369468 0.408963 0.090031 -0.748877 -0.656565
-1.546938 -0.020339 0.065643 -0.341250 -0.272454 0.893941
1.338369 -0.074785 0.067424 0.031698 -0.751781 -0.658214
-0.665197 0.051610 0.072391 0.002242 0.605906 0.791683
0.216682 0.329907 -0.371463 0.090031 0.748877 0.656565
-0.974553 0.075737 -0.046561 -0.000045 0.848317 -0.521286
-1.112876 -0.087965 -0.012891 -0.000027 -0.970438 -0.227261
1.395101 -0.123160 -0.126313 0.059865 -0.742271 0.667421
0.168300 0.262484 0.287927 0.090031 0.748877 -0.656565
0.097894 0.372846 -0.431877 -0.045836 -0.736763 -0.674595
-0.807695 -0.049186 0.074059 0.000305 -0.637725 0.764991
0.993182 0.073396 0.091399 -0.024291 -0.713520 0.700213
-0.030781 0.257305 -0.288322 -0.064249 0.769941 0.634872
0.649206 0.020370 0.086539 -0.001199 0.256570 0.962290
1.429112 -0.085433 -0.087405 0.059865 -0.742271 0.667421
0.360308 -0.084515 -0.027590 -0.004362 -0.950712 -0.296080
-0.365656 0.087346 -0.016571 0.001365 0.956702 -0.277754
0.211171 -0.075431 0.080453 0.090031 -0.748877 -0.656565
0.196180 -0.093310 -0.111873 0.064278 0.750376 -0.657879
0.836510 -0.076872 -0.089506 -0.024291 0.713520 -0.700213
0.028769 -0.200983 0.213992 -0.064249 -0.769941 -0.634872
0.057988 -0.062227 -0.089921 0.021457 0.745819 -0.665043
0.215020 0.083736 -0.099112 0.064278 -0.750376 -0.657879
0.212003 0.280226 -0.314156 0.090031 0.748877 0.656565
-0.124236 -0.083239 0.031231 -0.003038 -0.926127 0.362324
1.532019 0.266023 0.300068 -0.024291 0.787526 -0.615803
-0.077788 0.218841 -0.246433 -0.064249 0.769941 0.634872
0.206359 0.408612 -0.470510 0.064278 -0.750376 -0.657879
1.322730 0.172727 -0.189011 -0.024291 0.787526 0.615803
-1.251532 -0.012676 -0.087996 0.000093 -0.224570 -0.971087
0.426670 0.023523 0.085736 -0.002904 0.384625 0.916406
-0.245873 -0.031740 0.083046 0.000169 -0.439618 0.893612
-0.098617 0.162891 -0.180688 -0.064249 0.769941 0.634872
1.372385 0.182131 -0.199079 -0.024291 0.787526 0.615803
1.320684 -0.063061 -0.062668 0.000147 -0.705601 -0.702825
0.251891 0.149668 -0.170711 0.090031 0.748877 0.656565
-0.032453 0.182836 -0.198180 -0.064249 0.769941 0.634872
0.136092 -0.087872 0.013510 -0.004172 -0.966633 0.245722
1.320334 0.075100 -0.047582 0.000003 0.776501 -0.623500
-0.144120 0.062450 0.063483 -0.064249 0.769941 -0.634872
-0.855697 0.086838 0.019056 -0.000836 0.968602 0.234666
1.446117 0.128813 -0.137176 0.059865 0.742271 0.667421
1.527890 -0.200279 0.223992 0.059865 -0.742271 -0.667421
1.471491 -0.244994 -0.282851 -0.024291 0.713520 -0.700213
-0.630536 -0.046414 -0.075827 0.001141 -0.535656 -0.838833
-0.891289 0.087051 0.018062 0.000555 0.969413 0.231568
0.037486 0.114693 -0.145829 -0.045836 -0.736763 -0.674595
-0.144120 -0.055873 -0.069249 -0.000000 0.659242 0.751931
0.059182 0.202194 0.242869 -0.045836 -0.736763 0.674595
-0.991219 0.017916 -0.087081 0.000941 0.327768 -0.939310
0.935821 -0.072674 0.051211 0.001359 -0.855709 0.509527
-0.030186 -0.277494 -0.312747 -0.064249 -0.769941 0.634872
-1.181347 -0.088905 0.000000 0.000429 -0.996823 0.045338
0.370919 0.018713 0.086913 -0.000896 0.329888 0.938545
0.955556 -0.069535 -0.055398 0.001276 -0.717654 -0.689896
1.271699 -0.188066 -0.217909 -0.024291 0.713520 -0.700213
1.271699 0.188066 -0.217909 -0.024291 -0.713520 -0.700213
1.167303 -0.087076 -0.017941 -0.001270 -0.940796 -0.323615
0.218770 0.385467 0.442899 0.064278 -0.750376 0.657879
0.086005 0.112522 0.105595 0.090031 0.748877 -0.656565
1.061975 -0.060133 0.080270 -0.024291 0.713520 0.700213
0.650497 0.080105 -0.038564 -0.000825 0.898114 -0.430559
1.181347 0.088905 -0.000000 -0.001946 0.996430 -0.038251
1.353981 -0.087996 -0.012680 -0.000247 -0.968189 -0.237560
0.065706 -0.088617 -0.119268 0.027583 0.746620 -0.664152
-0.115119 0.133357 0.155845 -0.045836 -0.736763 0.674595
-0.925364 -0.068752 -0.056367 0.000188 -0.774891 -0.625647
-1.131222 -0.087225 0.017199 0.000261 -0.971371 0.223626
0.811719 0.046566 0.075734 0.000807 0.464063 0.881567
0.320365 -0.088905 -0.000000 0.003298 -0.995032 0.051211
-1.269463 -0.017605 0.087144 0.000156 -0.323276 0.940933
1.134949 0.115066 0.138778 -0.024291 -0.713520 0.700213
1.589118 -0.237025 -0.270350 0.059865 0.758775 -0.648596
0.727734 -0.046665 0.075673 -0.000191 -0.583366 0.807406
1.399911 0.099189 -0.126564 0.059865 -0.758775 -0.648596
-0.661088 -0.060608 0.065044 0.000403 -0.672539 0.735187
0.251891 -0.214710 -0.244898 0.090031 -0.748877 0.656565
1.346625 -0.085750 -0.080359 0.059865 -0.742271 0.667421
-0.927272 -0.087124 0.017706 0.000410 -0.971103 0.225485
-0.101928 -0.089681 -0.109040 -0.045836 0.736763 -0.674595
0.803257 0.075356 -0.047175 -0.000285 0.844065 -0.528931
1.231850 0.078948 -0.105335 -0.024291 -0.713520 -0.700213
0.196539 -0.126443 -0.136630 0.090031 -0.748877 0.656565
-0.055539 0.257224 0.290730 -0.064249 0.769941 -0.634872
-0.055539 -0.257224 -0.290730 -0.064249 -0.769941 0.634872
1.407004 0.080191 -0.038385 0.000290 0.900336 -0.423709
-0.180206 -0.000000 0.088905 -0.002381 -0.124754 0.988495
1.401070 0.199058 -0.219594 -0.024291 0.787526 0.615803
-1.147973 0.075116 0.047556 0.000114 0.841884 0.532017
-0.310524 -0.087154 -0.017557 0.001373 -0.942939 -0.317539
-0.240455 0.082138 -0.034019 0.000460 0.917923 -0.385047
-0.386477 -0.044613 -0.076901 -0.000162 -0.597076 -0.797042
1.171317 -0.173539 0.196021 -0.024291 -0.787526 -0.615803
0.108836 0.074776 -0.048090 -0.000024 0.869355 -0.485672
-1.354994 0.047822 -0.074947 -0.000008 0.532940 -0.841045
0.207252 -0.322249 -0.361436 0.090031 -0.748877 0.656565
0.050021 0.017242 -0.087217 0.001482 0.131635 -0.987185
1.261170 -0.200833 0.227383 -0.024291 -0.787526 -0.615803
0.685939 -0.056150 -0.068929 -0.000738 -0.633847 -0.768111
-0.522517 -0.082005 0.034341 0.000864 -0.918961 0.382451
1.347996 0.133275 -0.137560 -0.024291 0.787526 0.615803
-0.315600 0.030430 -0.083535 -0.001622 0.336755 -0.935903
1.372414 0.069327 0.055658 0.000079 0.702403 0.705916
-0.574612 -0.066612 -0.058880 -0.000330 -0.752490 -0.651901
-0.159520 0.028203 -0.084312 0.001314 0.330395 -0.939572
0.637520 0.085203 0.025387 0.001005 0.916854 0.387576
-0.909082 0.013155 0.087926 0.000278 0.231431 0.969410
-1.113139 0.047701 -0.075024 0.000086 0.533326 -0.840738
-0.232202 0.020057 0.086612 -0.001597 0.252548 0.963410
1.400159 -0.190532 -0.224878 -0.024291 0.713520 -0.700213
0.091724 -0.119012 -0.151395 0.064278 0.750376 -0.657879
0.281892 0.063845 -0.061869 0.000121 0.795815 -0.598683
0.598816 0.053104 0.071302 0.000040 0.601774 0.793448
-0.507679 -0.046301 -0.075896 -0.000167 -0.527494 -0.844464
0.202881 0.077200 0.044092 0.000459 0.871576 0.481216
-0.278043 0.061608 -0.064098 0.000066 0.697019 -0.711233
-0.309650 0.084076 -0.028900 0.000849 0.898779 -0.429057
-1.182309 0.030144 -0.083638 0.000967 0.336564 -0.937291
1.251248 0.047021 -0.075452 -0.000068 0.525507 -0.845674
-0.016075 0.107580 0.134422 -0.045836 -0.736763 0.674595
-0.435760 0.047229 -0.075322 -0.000095 0.534133 -0.840277
1.234153 0.079973 0.038838 0.000164 0.895854 0.434901
-1.251421 0.047669 -0.075045 0.000152 0.534021 -0.840330
1.320387 -0.029784 -0.083767 -0.000630 -0.335401 -0.937739
1.435623 0.238694 -0.275186 -0.024291 -0.713520 -0.700213
-0.075877 0.138531 0.164162 -0.045836 -0.736763 0.674595
0.357255 -0.064397 -0.061294 0.000069 -0.729595 -0.677827
0.144943 -0.037772 0.080482 0.001944 -0.375750 0.920158
-0.790600 0.086949 0.018546 -0.000963 0.937514 0.332946
0.024090 0.028508 0.084210 -0.000034 0.417847 0.904204
1.368639 -0.150703 -0.183199 -0.024291 0.713520 -0.700213
-1.372053 0.017771 -0.087110 0.000338 0.228702 -0.970131
0.163476 -0.496052 -0.570893 -0.045836 0.736763 -0.674595
-1.473370 -0.013405 0.086553 -0.081206 -0.218272 0.968629
1.072090 0.072484 0.093206 -0.024291 -0.713520 0.700213
-1.061504 0.019811 -0.086669 0.002897 0.231718 -0.969497
-1.424324 -0.075222 -0.047389 -0.005044 -0.842137 -0.531437
1.389684 -0.075222 -0.047389 0.000544 -0.843276 -0.529265
-1.424324 0.083895 0.029423 -0.003192 0.938473 0.333570
0.197968 0.363947 0.420386 0.064278 -0.750376 0.657879
0.923524 -0.062667 -0.078049 -0.024291 0.713520 -0.700213
0.076271 0.424608 -0.486940 -0.045836 -0.736763 -0.674595
-0.742908 0.061691 0.064017 -0.000419 0.771160 0.630638
-0.470428 0.048995 -0.074185 0.000815 0.454801 -0.885997
1.303267 0.086544 0.020351 0.000344 0.968062 0.236559
1.182169 0.046852 -0.075557 0.000131 0.525464 -0.845966
-0.993874 -0.055215 -0.069680 -0.000240 -0.620541 -0.779012
-1.424324 -0.047389 0.075222 -0.004783 -0.530692 0.842662
0.319982 0.014266 0.087752 -0.002059 0.271254 0.958065
1.500000 -0.064353 -0.076571 0.059865 0.758775 -0.648596
0.108419 0.465012 -0.533252 -0.045836 -0.736763 -0.674595
-1.165297 -0.055992 0.069057 0.000018 -0.625488 0.774942
-1.217064 -0.062723 -0.063007 0.000082 -0.777159 -0.622701
1.159536 -0.118476 -0.126068 -0.024291 -0.787526 0.615803
0.031429 0.209660 -0.249136 -0.045836 -0.736763 -0.674595
0.670714 0.076337 0.045571 0.001924 0.860615 0.500806
0.579545 -0.027831 -0.084436 0.002058 -0.313101 -0.945024
-1.199659 0.038789 0.079996 -0.000834 0.433239 0.896734
0.702792 0.075927 -0.046250 0.000619 0.785269 -0.612759
-0.887921 0.070528 -0.054128 -0.000006 0.789059 -0.607520
-0.939786 0.063741 -0.061977 0.000062 0.787261 -0.609620
0.915776 -0.041155 0.078805 -0.000209 -0.481253 0.872333
-1.540666 0.071268 -0.000000 -0.397041 0.906382 0.084101
-0.623600 -0.083949 -0.029268 0.000614 -0.900824 -0.424648
0.163106 0.120752 -0.146404 0.064278 -0.750376 -0.657879
-0.453238 -0.065126 -0.060519 0.000306 -0.804953 -0.585991
0.252970 -0.080609 0.037498 -0.000297 -0.843994 0.528392
-0.208945 0.057541 -0.067772 -0.000195 0.558550 -0.824185
0.080091 0.000000 -0.088905 0.001871 0.136007 -0.986084
-0.453874 -0.056137 0.068940 0.000019 -0.632651 0.769051
0.888093 0.037469 -0.080623 -0.000383 0.422620 -0.901969
-0.541514 -0.033472 0.082363 0.000393 -0.376344 0.921605
0.186855 -0.070980 0.053534 0.001094 -0.846901 0.523293
-0.488483 -0.057169 0.068086 -0.000048 -0.551785 0.828740
-1.372418 0.069291 0.055702 -0.000007 0.776120 0.623974
0.944997 0.106900 0.123867 -0.024291 -0.713520 0.700213
-1.008953 0.063314 -0.062413 -0.000006 0.783066 -0.615234
0.009991 -0.238460 0.261342 -0.064249 -0.769941 -0.634872
-1.320625 0.083767 0.029785 0.000002 0.894951 0.437009
1.356974 0.077904 -0.105626 0.059865 -0.758775 -0.648596
1.249077 0.139257 0.167388 -0.024291 -0.713520 0.700213
-0.909317 0.075219 0.047393 -0.000531 0.777044 0.623115
0.406847 -0.037578 -0.080572 0.000758 -0.428688 -0.898837
0.233280 0.197005 0.222151 0.090031 0.748877 -0.656565
-0.506920 -0.032232 0.082856 0.000063 -0.364482 0.926530
0.168387 -0.078383 -0.041954 0.000187 -0.818736 -0.566521
-0.386477 0.044613 0.076901 -0.000162 0.597076 0.797042
-1.407004 0.069613 -0.055299 -0.000022 0.779739 -0.619359
-1.286065 -0.047202 -0.075339 -0.000060 -0.619524 -0.779695
-1.043542 0.063107 -0.062622 -0.000075 0.624272 -0.775788
-0.542126 -0.049141 -0.074089 -0.000006 -0.561445 -0.822500
-0.418361 -0.069099 0.055941 0.000001 -0.701222 0.707095
-0.540182 0.064255 0.061444 -0.000042 0.634255 0.767759
-0.734565 0.083358 -0.030911 0.001315 0.942662 -0.320940
-1.320625 -0.083767 -0.029785 0.000002 -0.894951 -0.437009
-0.108327 -0.070773 -0.053807 0.000329 -0.724644 -0.683179
-0.228535 0.033379 -0.082401 -0.000415 0.365243 -0.924736
-1.303334 -0.069608 0.055306 -0.000024 -0.779692 0.619532
1.315604 -0.102530 -0.099519 -0.024291 -0.787526 0.615803
-0.505714 0.061783 0.063929 0.000016 0.701760 0.706590
-1.303197 0.038460 0.080155 0.000093 0.432150 0.897311
0.426107 -0.061137 -0.064546 0.000025 -0.689290 -0.718948
0.053671 -0.359177 -0.413944 -0.045836 0.736763 -0.674595
0.215790 0.048203 -0.074703 0.001305 0.633924 -0.769046
0.601615 0.031573 -0.083109 -0.001050 0.454885 -0.886211
-0.643534 -0.070678 -0.053932 0.001017 -0.727984 -0.679360
-1.424324 0.083992 -0.029145 -0.003596 0.945306 -0.313409
-1.424324 -0.029145 -0.083992 -0.003203 -0.332531 -0.938969
-1.147912 0.084025 -0.029048 0.000267 0.940512 -0.327748
-0.592789 0.060879 0.064790 -0.000334 0.759638 0.643542
0.911681 0.082791 -0.090208 -0.024291 0.787526 0.615803
1.384662 -0.082040 0.107909 0.059865 0.758775 0.648596
1.409619 0.072803 -0.094799 0.059865 -0.758775 -0.648596
0.212835 -0.423055 0.486351 0.064278 0.750376 0.657879
-1.285970 0.047952 -0.074864 -0.000086 0.535536 -0.839605
-0.214886 -0.030876 -0.083371 -0.001508 -0.340577 -0.934550
-1.251562 0.062808 0.062922 0.000058 0.620227 0.779130
-0.438839 -0.040364 -0.079214 -0.000019 -0.462579 -0.881900
-1.320575 -0.029749 0.083780 0.000169 -0.436551 0.895164
1.389645 -0.029510 -0.083864 -0.000600 -0.432413 -0.897154
0.957124 0.068708 -0.056421 0.000083 0.770513 -0.630886
0.075653 -0.451956 0.513614 -0.064249 -0.769941 -0.634872
0.461677 0.072686 0.051193 0.000027 0.818166 0.567439
-1.286108 0.083980 -0.029178 0.000358 0.940058 -0.329192
1.142840 -0.056154 0.068926 -0.000129 -0.718802 0.689335
1.096355 -0.166016 0.189358 -0.024291 -0.787526 -0.615803
-1.113536 -0.047511 -0.075145 0.000206 -0.529792 -0.843093
1.261239 -0.074878 0.047931 0.000086 -0.879377 0.467775
-1.217064 0.062723 0.063007 0.000082 0.777159 0.622701
1.471916 0.072486 -0.088678 0.059865 -0.758775 -0.648596
0.028965 0.073628 -0.049829 0.000148 0.785049 -0.612712
1.026959 -0.079186 -0.081052 -0.024291 -0.787526 0.615803
0.163995 -0.267389 -0.313572 0.064278 0.750376 -0.657879
1.372399 -0.055460 -0.069485 0.000036 -0.704028 -0.704311
-0.000097 0.033595 -0.082313 0.000224 0.313810 -0.945135
0.008878 0.194584 0.231139 -0.045836 -0.736763 0.674595
0.573123 -0.045906 0.076136 0.000547 -0.568283 0.817778
-0.014213 -0.079180 0.040429 0.000227 -0.873571 0.477842
-0.225642 0.080688 0.037330 0.000069 0.911363 0.400093
-0.179741 -0.048642 0.074418 0.000184 -0.643718 0.759892
-0.959212 -0.039718 0.079539 -0.000403 -0.444903 0.891010
0.469993 0.047965 -0.074856 0.000048 0.541019 -0.835907
-0.237422 -0.060284 0.065344 0.000354 -0.646402 0.757584
0.056858 -0.079008 0.040764 -0.000514 -0.822303 0.561457
0.831327 -0.016613 -0.087339 0.000025 -0.115514 -0.988920
-1.372141 -0.016942 -0.087275 0.000770 -0.317938 -0.942805
-1.079250 -0.083760 -0.029803 -0.000924 -0.895952 -0.434785
0.701080 0.088174 -0.011377 -0.000787 0.969849 -0.229762
1.557495 -0.244674 0.282218 0.059865 0.758775 0.648596
-0.299778 -0.046194 -0.075961 -0.000194 -0.527645 -0.844641
1.153561 0.082532 -0.106272 -0.024291 -0.713520 -0.700213
-0.607256 0.079476 0.039844 0.000961 0.895885 0.435066
0.006848 0.061459 0.085608 -0.045836 -0.736763 0.674595
0.619307 -0.082430 -0.033307 0.000926 -0.926551 -0.364445
-1.199610 0.086560 0.020281 -0.000133 0.968102 0.237804
0.579545 0.027831 0.084436 0.002058 0.313101 0.945024
-0.993874 0.055215 0.069680 -0.000240 0.620541 0.779012
0.949156 -0.088052 -0.012282 0.002901 -0.972139 -0.224073
1.149621 -0.047245 -0.075312 0.000080 -0.530383 -0.842809
-1.044940 -0.029810 -0.083758 0.001057 -0.436913 -0.895027
1.166199 -0.127854 0.137798 -0.024291 -0.787526 -0.615803
-0.521780 0.061382 -0.064314 0.001658 0.680061 -0.728926
-0.364310 0.077628 0.043335 -0.001115 0.875355 0.474769
0.570004 0.083160 -0.031440 0.001699 0.893448 -0.441119
1.026297 0.068815 -0.056290 0.000018 0.771641 -0.629526
0.251891 0.084626 0.096525 0.064278 -0.750376 0.657879
0.683071 0.020907 0.086411 -0.001134 0.344529 0.934389
0.649206 -0.020370 -0.086539 -0.001199 -0.256570 -0.962290
1.477229 0.066107 -0.050786 0.153430 0.702336 -0.688156
0.081102 -0.243954 0.260809 -0.064249 -0.769941 -0.634872
-0.858170 -0.086500 0.020539 -0.000033 -0.969481 0.232825
1.096664 -0.151606 -0.174685 -0.024291 0.713520 -0.700213
1.114369 0.061848 0.063866 0.000259 0.696983 0.711480
0.795203 -0.060283 0.065345 0.002049 -0.630200 0.771349
-0.280242 -0.067635 -0.057702 -0.000114 -0.684368 -0.723535
0.715435 -0.037771 -0.080482 -0.001061 -0.336423 -0.937701
-1.165008 -0.020241 -0.086570 -0.000582 -0.234548 -0.968597
0.234637 -0.350857 0.401872 0.064278 0.750376 0.657879
-0.483593 0.085762 0.023429 0.000256 0.964119 0.251231
-0.025246 -0.094422 -0.119428 -0.045836 0.736763 -0.674595
-0.976530 -0.029928 -0.083716 -0.000773 -0.436146 -0.895352
0.427208 0.073467 0.050066 0.000301 0.830239 0.549746
0.810303 -0.071401 -0.052971 -0.000144 -0.756024 -0.648448
1.441644 0.086666 0.019824 0.101181 0.939768 0.309301
0.000000 0.088905 -0.000000 -0.000266 0.986668 -0.135285
0.226286 -0.308323 0.354174 0.064278 0.750376 0.657879
0.069564 0.101813 -0.133942 0.027583 -0.746620 -0.664152
1.092859 -0.067584 0.057761 0.000128 -0.709570 0.699055
0.789807 0.085569 0.024124 0.002530 0.918594 0.384026
0.761171 -0.079173 -0.040444 -0.000413 -0.820950 -0.563672
0.074860 0.449668 0.514214 -0.045836 -0.736763 0.674595
-0.019466 0.081251 0.036088 -0.002137 0.856936 0.507244
0.117384 -0.212957 0.256041 0.064278 0.750376 0.657879
1.251547 -0.087982 -0.012775 0.000028 -0.970686 -0.226214
-1.526420 0.045582 0.061262 -0.322521 0.661012 0.669735
1.507603 0.147123 0.163055 0.059865 0.742271 -0.667421
-0.209799 -0.075622 -0.046747 -0.000128 -0.786608 -0.610893
1.101256 0.000000 -0.088905 0.000691 0.040554 -0.996635
1.130108 0.068972 -0.056097 -0.000013 0.773033 -0.627811
-0.840684 0.047943 0.074870 0.000394 0.532163 0.841872
-0.373841 -0.015489 -0.087545 0.002690 -0.273897 -0.957525
0.028207 0.125708 0.122759 -0.064249 0.769941 -0.634872
-0.058082 0.061378 0.064318 -0.000309 0.606017 0.790487
-0.596035 -0.042586 -0.078041 -0.001516 -0.492715 -0.864606
0.871425 0.074770 -0.048098 0.000179 0.771520 -0.629827
0.752523 0.070371 -0.054332 0.000491 0.786277 -0.611421
-1.234240 -0.080082 0.038612 -0.000124 -0.898223 0.430065
1.009173 0.028813 -0.084106 -0.000306 0.324208 -0.941771
0.114944 0.062210 0.084337 0.064278 -0.750376 0.657879
-0.130470 0.188983 -0.215553 -0.064249 0.769941 0.634872
-1.010613 0.075026 0.047697 0.000410 0.842228 0.531264
-0.031826 -0.134834 0.163117 -0.045836 0.736763 0.674595
0.035202 0.393138 0.446377 -0.064249 0.769941 -0.634872
-0.138920 -0.177130 0.202035 -0.045836 0.736763 0.674595
1.214459 0.083601 0.079301 -0.024291 0.787526 -0.615803
0.015122 -0.086147 -0.021970 0.000260 -0.936280 -0.340017
1.215981 -0.012783 -0.087981 0.000399 -0.240448 -0.967461
0.128822 -0.251974 0.299426 0.064278 0.750376 0.657879
-0.229519 -0.056793 -0.068400 0.000064 -0.649128 -0.755300
1.045747 0.075245 0.047353 -0.000447 0.839969 0.535115
1.034540 -0.065833 0.059750 -0.001537 -0.699766 0.707964
-0.128930 0.058739 -0.066737 -0.001505 0.542930 -0.833750
1.398018 -0.146693 0.152746 0.005785 -0.772107 -0.634865
0.081784 0.079640 0.107457 0.064278 -0.750376 0.657879
-0.655290 0.059361 -0.066184 -0.000230 0.685301 -0.722809
1.556767 0.135031 0.154016 0.059865 -0.758775 0.648596
0.219450 0.234124 -0.262593 0.090031 0.748877 0.656565
1.328603 0.177205 0.208816 -0.024291 -0.713520 0.700213
0.680187 -0.080193 0.038381 0.000146 -0.871526 0.481905
-1.355108 0.083758 0.029811 -0.000840 0.940681 0.324016
0.062690 0.188488 -0.195406 -0.064249 0.769941 0.634872
0.168566 -0.399296 0.463578 0.064278 0.750376 0.657879
0.180614 -0.266453 0.310880 0.064278 0.750376 0.657879
1.032539 0.073752 -0.093127 -0.024291 -0.713520 -0.700213
0.907601 -0.081609 0.035271 -0.001167 -0.885288 0.456825
-1.490357 -0.082684 -0.020772 -0.132583 -0.940578 -0.289731
-0.909518 -0.075361 0.047167 0.000756 -0.899638 0.427289
0.790445 0.070821 0.053743 0.000025 0.709353 0.699176
1.524100 -0.081927 0.092026 0.059865 -0.742271 -0.667421
0.186523 0.457314 -0.512648 0.090031 0.748877 0.656565
0.385866 -0.074884 0.047920 0.000389 -0.900578 0.424920
-1.268710 0.079973 0.038837 0.000984 0.896060 0.434605
0.874206 -0.077749 0.091706 -0.024291 0.713520 0.700213
-0.096488 0.176653 0.204397 -0.045836 -0.736763 0.674595
1.589118 0.237025 0.270350 0.059865 -0.758775 0.648596
-0.366336 -0.057643 0.067685 0.000646 -0.576720 0.813452
1.322008 -0.068268 0.097580 0.007693 0.742323 0.669712
0.125513 0.428341 0.479929 -0.064249 0.769941 -0.634872
-0.942312 0.074931 0.047848 0.000333 0.840941 0.533730
0.372421 -0.040116 -0.079339 0.000766 -0.454867 -0.885966
1.012830 -0.083183 -0.031379 -0.000087 -0.938333 -0.330544
-1.618504 0.022472 0.006800 -0.652573 0.701787 0.270136
0.916331 -0.087611 -0.015109 -0.001330 -0.966407 -0.241455
0.231000 -0.050106 0.073439 -0.000815 -0.529892 0.842801
-1.010935 -0.013632 0.087853 0.000019 -0.235525 0.968349
1.194154 -0.073237 0.098208 -0.024291 0.713520 0.700213
-0.010123 -0.179977 -0.192453 -0.064249 -0.769941 0.634872
1.502138 0.206027 -0.242115 0.059865 -0.758775 -0.648596
-1.372458 -0.038823 0.079980 -0.000087 -0.530399 0.842609
0.521527 0.079213 -0.040365 0.001133 0.884161 -0.458070
0.943801 0.107859 -0.124803 -0.024291 -0.713520 -0.700213
0.871248 -0.079823 0.039145 0.001656 -0.866303 0.491501
-0.055991 -0.108498 0.132712 -0.045836 0.736763 0.674595
0.130586 -0.068084 0.089509 0.064278 0.750376 0.657879
0.069564 -0.123037 0.115334 0.038631 -0.757470 -0.650670
0.086910 0.205065 -0.247888 -0.045836 -0.736763 -0.674595
-0.977417 -0.063304 0.062423 -0.000398 -0.783606 0.614774
-0.676216 -0.073279 -0.050341 0.000826 -0.828499 -0.553020
0.213154 0.543657 -0.623878 0.064278 -0.750376 -0.657879
0.632352 -0.015084 0.087616 -0.002371 -0.113529 0.989579
0.181981 -0.043281 -0.077658 -0.001689 -0.491704 -0.865773
-0.420642 0.018744 -0.086906 0.002042 0.320014 -0.942849
1.060893 0.068855 -0.056240 0.000018 0.771915 -0.629169
0.398340 0.073724 -0.049687 0.002380 0.829261 -0.550234
-0.706775 0.060684 -0.064973 0.000042 0.693936 -0.714563
0.500571 0.088905 -0.000000 0.001211 0.995694 -0.051957
0.769107 0.014104 -0.087779 -0.000331 0.240046 -0.967138
1.011803 -0.016080 0.087438 -0.001976 -0.269090 0.957753
-0.726709 -0.070936 0.053591 -0.000198 -0.792618 0.603527
1.107392 0.137224 -0.160401 -0.024291 -0.713520 -0.700213
0.065706 -0.088617 0.119268 -0.009122 0.742083 0.669724
0.237995 -0.480695 -0.549637 0.064278 0.750376 -0.657879
-0.181169 0.117870 0.134442 -0.064249 0.769941 -0.634872
0.459299 0.024572 0.085441 -0.002160 0.384398 0.918172
-0.959043 0.086521 0.020446 -0.000284 0.967524 0.240140
-0.336409 -0.035972 0.081302 0.001746 -0.359385 0.927333
0.680776 -0.088905 -0.000000 0.003473 -0.986940 0.126484
-0.387258 0.017622 -0.087140 -0.002193 0.292667 -0.952240
