1.266562 -0.164984 -0.174923 -0.040518 -0.799233 0.599653
0.196204 0.217974 0.217535 -0.060458 0.776642 -0.627034
-1.015403 -0.032676 -0.076632 0.000961 -0.493417 -0.864369
-0.047177 -0.080123 0.022811 -0.000747 -0.916687 0.387077
0.565857 -0.020391 -0.080773 -0.003392 -0.344179 -0.934631
1.210413 -0.056738 -0.083322 -0.000000 0.748949 -0.662628
1.448524 -0.219361 0.258625 -0.040518 0.692571 0.720211
1.300177 0.222822 -0.249739 -0.040518 0.799233 0.599653
0.478597 0.072629 -0.040807 -0.000133 0.836921 -0.537649
0.126458 -0.322136 0.369406 -0.032126 0.732500 0.680008
0.190245 0.226583 -0.269491 -0.032126 -0.732500 -0.680008
1.047508 0.097134 -0.099292 -0.040518 0.799233 0.599653
-0.019637 -0.145207 0.171918 -0.032126 0.732500 0.680008
0.850277 -0.083307 0.000000 -0.001586 -0.995914 0.053450
1.124417 -0.068942 0.046766 0.001056 -0.883093 0.459551
1.357467 -0.123865 -0.159195 -0.000000 0.748949 -0.662628
0.433708 -0.030483 0.077530 -0.001655 -0.357467 0.927423
-0.359807 0.012594 0.082350 -0.000198 0.237869 0.967424
-1.378505 -0.044172 -0.070633 0.001977 -0.522843 -0.846891
-0.156295 0.095301 -0.099580 -0.060458 0.776642 0.627034
-1.430465 -0.083307 0.000000 -0.007014 -0.987370 0.126631
0.328510 0.520971 0.580069 -0.060458 0.776642 -0.627034
1.441056 0.104675 0.107726 0.088558 0.734877 -0.672394
1.072942 0.052125 0.064985 0.000073 0.632602 0.768367
0.322158 0.261751 0.282311 0.113593 0.744101 -0.658339
-0.052723 0.170848 -0.197974 -0.032126 -0.732500 -0.680008
-0.081060 -0.170631 -0.185630 -0.060458 -0.776642 0.627034
0.188846 0.080824 0.020191 -0.000983 0.965039 0.247292
0.896338 0.077866 0.029615 0.001463 0.923673 0.366894
0.329185 -0.164316 0.173395 0.113593 -0.744101 -0.658339
1.138676 0.179367 -0.202733 -0.040518 -0.692571 -0.720211
-0.810264 -0.083307 0.000000 0.000002 -0.996750 0.037601
0.075791 0.193619 0.198979 -0.060458 0.776642 -0.627034
-0.650212 0.083307 -0.000000 0.001958 0.993444 0.063823
0.330353 0.178444 -0.189565 0.113593 0.744101 0.658339
-0.058934 0.257066 0.290554 -0.060458 0.776642 -0.627034
-0.023125 0.288939 -0.326580 -0.060458 0.776642 0.627034
0.203668 0.490803 0.554741 -0.060458 0.776642 -0.627034
0.203668 -0.490803 -0.554741 -0.032126 0.732500 -0.680008
1.513420 -0.304376 -0.344028 -0.040518 -0.799233 0.599653
1.049451 0.149603 -0.169091 -0.040518 -0.692571 -0.720211
0.888846 -0.096027 0.108537 -0.040518 -0.799233 -0.599653
1.085141 -0.161508 -0.182548 -0.040518 -0.799233 0.599653
1.174366 0.191272 0.216190 -0.040518 0.799233 -0.599653
0.400620 0.094828 -0.107181 0.113593 0.744101 0.658339
0.400620 -0.372212 0.420700 0.060519 0.747576 0.661413
-0.514018 -0.069525 0.045895 0.001505 -0.896539 0.426263
1.129852 0.062616 -0.089966 -0.016897 -0.725883 -0.687035
-1.450412 0.028350 -0.078340 -0.081055 0.333238 -0.935238
0.313648 -0.090785 -0.110570 0.060519 0.747576 -0.661413
1.413145 0.070633 -0.044172 -0.031101 0.845718 -0.523965
0.095941 -0.202624 -0.239226 -0.032126 0.732500 -0.680008
-0.103943 0.070873 -0.043784 0.002853 0.851514 -0.515029
-0.217101 0.081428 -0.017595 -0.001904 0.944019 -0.314580
1.190114 -0.066661 0.094539 -0.005408 0.741669 0.670529
-0.564291 0.068337 -0.047647 -0.000239 0.811592 -0.575728
0.400620 -0.174081 -0.196758 0.060519 0.747576 -0.661413
0.122055 0.133407 -0.119940 -0.060458 0.776642 0.627034
0.400620 0.055202 0.062393 0.000000 -0.662628 -0.748949
0.450865 -0.070206 -0.044847 -0.002010 -0.796823 -0.596051
1.529003 0.131401 -0.148519 0.088558 0.734877 0.672394
-0.076873 0.068911 0.046813 -0.000804 0.814407 0.572201
0.984191 -0.073838 -0.038575 0.000124 -0.885231 -0.455214
1.139001 -0.078176 -0.028786 -0.000056 -0.889440 -0.447662
0.750244 0.083307 -0.000000 0.004339 0.986959 0.125043
0.180024 -0.128560 -0.163418 -0.032126 0.732500 -0.680008
0.351116 0.145956 0.169499 0.060519 -0.747576 0.661413
0.241518 -0.191397 -0.230889 0.060519 0.747576 -0.661413
1.201388 -0.127427 -0.129269 -0.040518 -0.799233 0.599653
1.464855 -0.067581 -0.054051 -0.093226 -0.776837 -0.615537
1.324911 0.081588 0.016836 0.000134 0.947646 0.305527
-1.169808 0.033059 -0.076467 0.000936 0.388417 -0.916125
1.326855 -0.111216 0.144898 0.000000 0.748949 0.662628
0.770251 0.000000 -0.083307 -0.001858 0.078754 -0.992037
0.380608 -0.087634 0.095598 0.113593 -0.744101 -0.658339
-0.185060 -0.083926 0.088264 -0.060458 -0.776642 -0.627034
0.004341 -0.070632 -0.044173 0.000156 -0.797861 -0.595510
0.962403 0.072937 -0.090471 -0.040518 -0.692571 -0.720211
0.400620 -0.332586 -0.375912 0.060519 0.747576 -0.661413
1.502964 0.019803 -0.087913 -0.090067 0.068940 -0.988700
0.650212 0.083307 -0.000000 -0.003276 0.993908 0.055569
0.065867 -0.223838 0.260657 -0.032126 0.732500 0.680008
0.335492 0.089211 0.089595 0.113593 0.744101 -0.658339
-1.450447 0.028222 0.078385 -0.081348 0.331957 0.935689
0.084778 -0.072026 -0.047508 -0.000000 0.662628 0.748949
0.095427 0.037693 -0.074293 -0.001918 0.478749 -0.872484
-0.590192 -0.083307 0.000000 -0.003168 -0.984060 0.154479
1.213125 -0.156782 0.185204 -0.040518 0.692571 0.720211
0.170393 0.272210 0.287200 -0.060458 0.776642 -0.627034
-1.103123 0.076406 -0.033200 -0.000580 0.916030 -0.384598
0.117969 -0.167039 0.161991 -0.060458 -0.776642 -0.627034
0.486883 -0.077002 0.031793 -0.001522 -0.924564 0.365643
0.195776 0.018488 0.081230 0.000319 0.272562 0.957278
0.334266 0.076142 -0.074612 0.113593 0.744101 0.658339
0.220424 -0.099371 -0.081224 0.113593 -0.744101 0.658339
-0.103745 0.148545 0.171539 -0.032126 -0.732500 0.680008
0.327741 -0.427618 0.489993 0.060519 0.747576 0.661413
0.321340 -0.061990 0.056387 -0.000000 0.662628 -0.748949
0.196088 -0.397469 0.453844 -0.032126 0.732500 0.680008
0.303549 0.299569 -0.347476 0.060519 -0.747576 -0.661413
0.325267 0.376873 0.412967 0.113593 0.744101 -0.658339
-0.140473 -0.074740 -0.090302 -0.032126 0.732500 -0.680008
0.238793 0.341309 0.395366 -0.032126 -0.732500 0.680008
1.401750 0.181880 -0.219950 -0.040518 -0.692571 -0.720211
0.200201 0.035584 -0.075325 -0.000912 0.444968 -0.890325
-0.008362 0.072850 -0.094508 -0.032126 -0.732500 -0.680008
1.304509 0.129673 -0.127372 0.000000 0.748949 0.662628
0.955926 0.071025 0.070681 -0.040518 0.799233 -0.599653
0.310101 0.083307 -0.000000 -0.000220 0.993306 0.068495
1.547602 0.196997 -0.222660 0.088558 0.734877 0.672394
0.644761 -0.020016 0.080867 -0.003965 -0.288487 0.952077
0.978071 0.125791 0.142178 -0.040518 0.799233 -0.599653
1.547602 -0.196997 0.222660 0.088558 0.756927 0.647471
-1.136396 0.067425 0.048928 -0.000163 0.729547 0.677049
-0.804845 0.082120 0.014013 -0.000242 0.962128 0.257394
0.903132 0.071487 -0.042776 -0.005066 0.890609 -0.441594
0.215263 -0.417860 -0.476715 -0.032126 0.732500 -0.680008
0.400620 -0.477882 0.540136 0.060519 0.747576 0.661413
-0.659763 -0.081539 0.017076 0.002909 -0.968471 0.235050
0.261514 -0.137245 0.167852 0.060519 0.747576 0.661413
0.267930 -0.319261 -0.372992 -0.001233 0.738091 -0.674322
0.139735 0.356962 -0.407548 -0.032126 -0.732500 -0.680008
-0.689773 -0.018892 -0.081137 -0.003122 -0.238293 -0.967261
0.898863 -0.054975 -0.062593 0.000278 -0.658231 -0.746809
1.260823 0.090373 -0.082952 -0.000000 0.748949 0.662628
1.191320 0.074105 0.038060 -0.000482 0.826400 0.554939
0.026018 -0.076119 0.099653 -0.032126 0.732500 0.680008
0.975464 -0.060905 0.079635 -0.040518 0.692571 0.720211
0.217858 -0.212324 0.208449 -0.002369 -0.767857 -0.639211
-1.293814 -0.052286 0.064856 -0.000144 -0.618767 0.779566
0.093910 0.178644 -0.213300 -0.032126 -0.732500 -0.680008
1.528408 0.298375 -0.335017 -0.001757 0.781576 0.622830
-0.189814 -0.076802 -0.032274 -0.000452 -0.960747 -0.261134
-0.602011 0.015056 0.081936 -0.000595 0.280479 0.955115
-1.261402 -0.082394 -0.012301 -0.000600 -0.966548 -0.241622
0.209143 0.403690 -0.461162 -0.032126 -0.732500 -0.680008
1.418001 -0.189633 0.197543 0.002560 -0.779457 -0.625290
0.782981 -0.081143 0.018866 0.000230 -0.956186 0.275442
-0.409644 0.078249 -0.028587 -0.000288 0.930220 -0.354123
0.263938 -0.482724 0.538923 -0.060458 -0.776642 -0.627034
-1.138493 -0.066575 -0.050078 -0.000072 -0.792174 -0.602148
0.239303 0.154283 0.189143 0.060519 -0.747576 0.661413
-0.463048 0.031272 0.077215 -0.000367 0.479715 0.872010
0.228739 0.177406 -0.170860 0.113593 0.744101 0.658339
0.125873 0.337715 0.386160 -0.032126 -0.732500 0.680008
0.338395 0.412851 -0.472327 0.060519 -0.747576 -0.661413
1.360976 0.016645 -0.081628 -0.000267 0.287321 -0.952736
0.300850 0.015094 -0.081929 0.000948 0.116304 -0.989404
0.410044 0.033872 -0.076110 0.000467 0.463931 -0.880464
0.539406 0.051495 -0.065486 0.000057 0.664373 -0.741025
-0.101272 -0.071139 0.064348 -0.060458 -0.776642 -0.627034
-0.966063 -0.071056 -0.043488 -0.001600 -0.847286 -0.521924
0.319931 -0.367383 -0.401320 0.113593 -0.744101 0.658339
1.085122 -0.020557 0.080731 0.000656 -0.370049 0.922767
1.276200 -0.070688 -0.044082 -0.001935 -0.846925 -0.522910
0.180004 -0.291980 0.339452 -0.032126 0.732500 0.680008
0.130210 -0.372581 0.415394 -0.060458 -0.776642 -0.627034
0.339377 -0.264907 -0.288850 0.113593 -0.744101 0.658339
1.395916 0.228370 0.250665 -0.040518 0.799233 -0.599653
0.238729 0.439145 0.500752 -0.032126 -0.732500 0.680008
0.279053 0.471230 -0.537218 -0.032126 -0.732500 -0.680008
0.400620 -0.081619 -0.092252 0.060519 0.747576 -0.661413
-0.204459 0.019036 0.081103 0.001549 0.350007 0.930794
0.317171 -0.546369 0.612621 0.000000 -0.662628 0.748949
1.171876 0.075174 -0.035902 0.001826 0.894065 -0.437845
-0.873450 0.019473 -0.080999 0.000031 0.240021 -0.967050
-0.004128 0.137886 -0.164764 -0.032126 -0.732500 -0.680008
-0.266944 -0.076571 -0.032819 0.000272 -0.884919 -0.456097
1.509524 -0.142581 -0.158172 0.088558 -0.734877 0.672394
0.141745 0.174207 0.210780 -0.032126 -0.732500 0.680008
-0.890290 0.000000 0.083307 0.000661 0.125802 0.986835
-1.362415 0.033095 0.076451 -0.000838 0.383881 0.916472
-0.790709 -0.058756 0.059058 0.000061 -0.696646 0.710805
-0.016057 -0.109433 -0.133551 -0.032126 0.732500 -0.680008
1.053476 0.075996 -0.034128 -0.000813 0.859155 -0.501693
1.266562 0.164984 -0.174923 -0.040518 0.799233 0.599653
0.046830 0.334099 0.375770 -0.060458 0.776642 -0.627034
0.332814 -0.324619 0.373112 0.060519 0.747576 0.661413
0.281291 0.544740 -0.614063 -0.060458 0.776642 0.627034
0.127234 0.101981 0.132293 -0.032126 -0.732500 0.680008
-1.579592 0.041726 0.009377 -0.550261 0.775299 0.294257
0.045778 0.070255 0.049075 -0.000000 -0.662628 -0.748949
1.121786 -0.015255 -0.081899 -0.000172 -0.267899 -0.959136
1.298200 -0.089059 0.081467 -0.000000 -0.748949 -0.662628
-1.430465 0.075143 -0.035968 0.000311 0.946124 -0.311573
-0.154426 -0.172070 0.194486 -0.032126 0.732500 0.680008
1.455955 -0.073149 0.090410 0.088558 0.756927 0.647471
0.280488 -0.253958 0.266313 0.113593 -0.744101 -0.658339
0.257915 0.293084 0.344321 0.029648 -0.743117 0.668124
-1.239924 0.082386 0.012353 0.000379 0.967708 0.236877
1.502964 0.056053 0.070562 1.000000 0.000000 0.000000
1.390452 0.000000 0.083307 0.000346 0.095973 0.988985
0.199253 -0.358073 -0.390767 -0.060458 -0.776642 0.627034
1.287523 -0.159461 0.166145 -0.040518 -0.799233 -0.599653
-0.249918 -0.087075 0.098418 -0.032126 0.732500 0.680008
-0.911263 0.066648 -0.049981 0.001127 0.864265 -0.493574
1.199797 0.161402 -0.174659 -0.040518 0.799233 0.599653
0.439520 0.081919 0.015148 -0.002041 0.989418 0.110400
1.140183 -0.140826 -0.151263 -0.040518 -0.799233 0.599653
0.258513 0.244868 -0.289770 0.060519 -0.747576 -0.661413
1.397373 -0.081576 -0.016895 0.000893 -0.947012 -0.307081
1.502964 0.061467 -0.037487 1.000000 0.000000 -0.000000
-0.172040 -0.120018 -0.131713 -0.060458 -0.776642 0.627034
0.983984 -0.097860 -0.104552 -0.040518 -0.799233 0.599653
0.252908 -0.299351 -0.312861 0.057310 -0.756636 0.649892
0.117523 0.020651 0.080707 -0.002897 0.372174 0.922637
0.799621 0.066263 -0.074895 -0.040518 -0.692571 -0.720211
-0.231424 0.070338 0.044639 0.000634 0.790548 0.605409
0.312968 -0.413841 -0.452629 0.113593 -0.744101 0.658339
0.358685 0.442565 0.504055 0.060519 -0.747576 0.661413
1.532723 -0.144520 0.163347 0.088558 0.756927 0.647471
0.268445 -0.495082 -0.553795 -0.060458 -0.776642 0.627034
1.288445 0.115520 0.149762 -0.027026 -0.711853 0.701486
1.356979 0.090852 -0.121881 -0.000000 -0.748949 -0.662628
-1.230400 -0.000000 0.083307 -0.003447 0.127092 0.986891
0.712141 -0.026839 -0.078866 -0.000599 -0.433487 -0.896358
1.319636 0.090934 0.083587 0.000000 0.748949 -0.662628
1.080794 -0.123032 -0.131560 -0.040518 -0.799233 0.599653
0.540135 0.018493 0.081229 0.003424 0.270349 0.957860
0.028805 -0.272790 0.301570 -0.060458 -0.776642 -0.627034
-0.126854 0.147834 -0.161808 -0.060458 0.776642 0.627034
0.320478 -0.150518 -0.156298 0.113593 -0.744101 0.658339
0.361933 0.343275 -0.381319 0.113593 0.744101 0.658339
-0.216385 0.021055 -0.080603 0.001968 0.294412 -0.951269
0.038174 -0.265877 -0.304633 -0.032126 0.732500 -0.680008
0.145130 -0.121293 0.102711 -0.060458 -0.776642 -0.627034
1.501021 -0.227361 -0.264528 0.088558 0.756927 -0.647471
1.373890 -0.207529 0.243047 -0.040518 0.692571 0.720211
1.502964 -0.055696 0.041590 1.000000 -0.000000 -0.000000
0.041937 -0.329616 -0.373470 -0.032126 0.732500 -0.680008
0.049552 -0.172888 -0.205003 -0.032126 0.732500 -0.680008
1.016609 0.071125 0.043374 0.000555 0.793359 0.600627
1.105774 0.112475 0.136558 -0.040518 -0.692571 0.720211
1.182716 0.099301 -0.093044 -0.013520 0.766236 0.642065
1.319164 0.201639 0.234305 -0.040518 -0.692571 0.720211
1.383437 -0.210066 -0.246024 -0.040518 0.692571 -0.720211
0.317171 -0.542630 -0.615930 -0.000000 -0.662628 -0.748949
0.075955 0.138358 -0.169055 -0.032126 -0.732500 -0.680008
1.223772 0.015367 0.081878 0.000131 0.274046 0.957284
-1.512880 -0.048252 0.054958 -0.308068 -0.572529 0.752645
0.130042 0.083307 -0.000000 -0.002454 0.996771 0.044027
0.162085 -0.248818 0.292111 -0.032126 0.732500 0.680008
1.536443 0.157640 0.178175 0.088558 -0.756927 0.647471
1.319636 -0.090934 -0.083587 0.000000 -0.748949 0.662628
-1.578426 -0.023836 0.036399 -0.532766 -0.558718 0.627600
0.379444 0.304154 0.345714 0.060519 -0.747576 0.661413
0.337407 -0.223257 0.241434 0.113593 -0.744101 -0.658339
0.302980 0.410880 0.473340 0.029648 -0.743117 0.668124
0.039107 -0.130819 0.159194 -0.032126 0.732500 0.680008
-0.772996 0.071369 -0.042971 -0.001210 0.906733 -0.409378
-0.162136 0.076377 0.091042 -0.032126 -0.732500 0.680008
1.441056 -0.094169 -0.117021 0.088558 0.756927 -0.647471
0.259758 -0.356009 0.382377 -0.060458 -0.776642 -0.627034
-1.066111 0.017486 0.081452 -0.001241 0.299683 0.948989
-0.309414 0.067480 -0.048853 0.002068 0.813384 -0.574607
0.139590 -0.345383 -0.395068 -0.032126 0.732500 -0.680008
-0.928924 0.063684 0.053707 0.000012 0.678482 0.728197
0.123725 0.404937 0.456095 -0.060458 0.776642 -0.627034
-0.040721 -0.257805 -0.289714 -0.060458 -0.776642 0.627034
0.055595 0.277141 -0.304376 -0.060458 0.776642 0.627034
0.384209 -0.289760 -0.324675 0.113593 -0.744101 0.658339
1.573641 -0.288830 0.326457 0.067072 0.746993 0.660341
0.332002 0.209010 -0.242517 0.060519 -0.747576 -0.661413
-1.309861 0.061218 -0.056502 0.000074 0.728379 -0.678259
0.018691 0.148774 0.177570 -0.032126 -0.732500 0.680008
0.248049 0.083895 -0.108785 0.060519 -0.747576 -0.661413
0.218122 -0.176923 -0.168482 0.113593 -0.744101 0.658339
-0.094744 -0.225193 0.254529 -0.032126 0.732500 0.680008
-0.470153 -0.083307 0.000000 -0.002446 -0.981834 0.153144
-0.142490 0.182695 0.206495 -0.060458 0.776642 -0.627034
0.120113 -0.416432 -0.470682 -0.032126 0.732500 -0.680008
-0.130553 -0.193319 -0.218503 -0.032126 0.732500 -0.680008
-0.226045 0.108324 -0.122435 -0.060458 0.776642 0.627034
0.853156 0.084121 0.095080 -0.040518 0.799233 -0.599653
1.049451 0.149603 0.169091 -0.040518 0.799233 -0.599653
1.299281 -0.232942 -0.263288 -0.040518 -0.799233 0.599653
0.202419 -0.046202 0.070356 -0.000000 0.662628 -0.748949
-0.702602 0.062282 -0.055327 0.000039 0.738215 -0.667508
1.156585 0.149807 0.162125 -0.040518 0.799233 -0.599653
0.254436 -0.401261 0.438939 -0.060458 -0.776642 -0.627034
0.194246 -0.441382 0.494436 -0.060458 -0.776642 -0.627034
0.400620 -0.240124 0.271406 0.060519 0.747576 0.661413
0.400620 -0.425047 -0.480418 0.060519 0.747576 -0.661413
0.400620 0.504299 -0.569995 0.113593 0.744101 0.658339
0.400620 -0.504299 -0.569995 0.060519 0.747576 -0.661413
0.400620 -0.279751 0.316194 0.060519 0.747576 0.661413
0.400620 0.226916 0.256476 0.060519 -0.747576 0.661413
0.400620 0.253333 -0.286335 0.113593 0.744101 0.658339
-0.285655 -0.046194 0.069327 -0.000060 -0.558555 0.823537
-1.484838 0.064963 0.046106 -0.211355 0.784127 0.570958
-1.171941 -0.046189 0.069330 -0.000991 -0.642398 0.760056
-0.721814 0.060234 0.057549 0.000055 0.722080 0.685025
-0.034789 -0.189003 -0.218378 -0.032126 0.732500 -0.680008
-0.054834 -0.073858 -0.038537 0.000676 -0.909435 -0.400961
1.005884 0.035629 -0.075304 0.001107 0.448742 -0.889228
1.260362 -0.076511 0.032956 0.000854 -0.860635 0.499608
-1.010329 0.083307 -0.000000 -0.002210 0.983036 0.152206
-0.168688 -0.080157 0.022694 -0.001914 -0.954208 0.284728
-0.494214 -0.040896 -0.072578 0.000140 -0.597865 -0.795044
0.050023 0.112163 0.100572 -0.060458 0.776642 -0.627034
1.140738 0.055755 0.061899 0.000013 0.661301 0.743973
1.217959 0.111057 0.106332 -0.027026 0.782998 -0.621073
0.204082 -0.078132 -0.028906 0.003295 -0.932175 -0.345507
0.265459 -0.092753 0.081514 0.113593 -0.744101 -0.658339
-0.061391 0.041923 -0.071990 -0.001242 0.407352 -0.907739
0.824438 0.075410 0.035404 0.000412 0.888917 0.447626
-1.362781 0.076303 -0.033436 -0.000344 0.915052 -0.387509
-0.830270 0.000000 0.083307 -0.000600 0.051697 0.995863
1.424637 0.127995 0.158812 0.088558 -0.756927 0.647471
1.088261 -0.063586 -0.053824 -0.000193 -0.679208 -0.727300
-0.332978 -0.013568 -0.082195 -0.008576 -0.272142 -0.959161
0.174700 -0.212849 -0.253962 -0.032126 0.732500 -0.680008
-1.489450 -0.078813 0.000000 -0.222200 -0.965380 0.077725
-0.610198 0.000000 -0.083307 -0.004146 0.081472 -0.991967
0.146040 0.196223 -0.234698 -0.032126 -0.732500 -0.680008
0.100872 -0.089909 -0.118044 -0.032126 0.732500 -0.680008
0.066809 0.214226 -0.250348 -0.032126 -0.732500 -0.680008
1.390363 -0.137354 0.174440 0.059069 0.754779 0.652968
-0.071690 0.180631 0.207617 -0.032126 -0.732500 0.680008
-0.516277 0.081311 -0.018128 -0.002475 0.942987 -0.319179
0.400620 0.425047 -0.480418 0.113593 0.744101 0.658339
0.196433 0.413448 0.471072 -0.032126 -0.732500 0.680008
1.024651 -0.112785 0.132292 -0.040518 0.692571 0.720211
-0.097568 0.017624 0.081422 -0.004550 0.342157 0.934164
1.306066 -0.140449 -0.139552 -0.013520 -0.766236 0.642065
0.349456 0.205420 0.236861 0.060519 -0.747576 0.661413
0.767668 0.065344 0.051675 -0.001068 0.841173 0.531646
-0.420811 0.013606 -0.082189 0.000707 0.244696 -0.965465
0.199535 0.180848 -0.220664 -0.032126 -0.732500 -0.680008
0.248709 0.317215 -0.369881 -0.032126 -0.732500 -0.680008
0.869539 -0.065859 0.051017 -0.000559 -0.803947 0.586295
1.394173 -0.169840 -0.172772 0.044435 -0.757046 0.650729
-0.040888 0.217287 -0.239545 -0.060458 0.776642 0.627034
0.271101 0.381135 -0.439793 -0.032126 -0.732500 -0.680008
-0.187168 -0.030253 -0.077620 -0.000450 -0.483766 -0.870103
-0.173915 0.065777 -0.051123 0.000792 0.800597 -0.591442
0.094235 -0.068427 0.047516 -0.000304 -0.811279 0.576196
-0.010036 0.074255 0.037767 -0.001555 0.880207 0.467007
0.161416 0.106199 0.082445 -0.060458 0.776642 -0.627034
0.277507 0.498423 0.566437 -0.032126 -0.732500 0.680008
-0.890290 0.083307 -0.000000 -0.001567 0.985989 0.136655
1.190965 -0.106120 0.135239 -0.040518 0.692571 0.720211
0.161194 0.260284 -0.304421 -0.032126 -0.732500 -0.680008
1.079000 -0.112081 0.117086 -0.040518 -0.799233 -0.599653
1.473974 0.120290 -0.143056 0.088558 -0.756927 -0.647471
0.842938 -0.013434 0.082217 0.003127 -0.254243 0.963487
0.361336 -0.211634 -0.242799 0.060519 0.747576 -0.661413
0.033368 0.058358 -0.059600 -0.000000 -0.662628 0.748949
0.340534 -0.452081 -0.516473 0.060519 0.747576 -0.661413
0.100373 0.257485 0.298532 -0.032126 -0.732500 0.680008
1.356150 0.223186 -0.246442 -0.040518 0.799233 0.599653
0.597292 -0.064976 -0.052137 0.000797 -0.781459 -0.617130
-0.719026 -0.012156 0.082416 -0.001860 -0.238408 0.967419
-0.898446 -0.082108 0.014084 -0.000119 -0.962809 0.255584
1.497611 0.190699 0.222135 0.088558 -0.756927 0.647471
0.884627 0.040078 0.073033 -0.001124 0.454177 0.885721
0.376990 -0.071527 -0.042708 -0.001740 -0.914366 -0.393114
0.177801 0.083667 -0.114955 0.029648 -0.743117 -0.668124
0.216753 -0.149070 0.136764 0.113593 -0.744101 -0.658339
-0.570633 -0.049246 -0.067193 0.000450 -0.678057 -0.728620
0.250081 0.083307 -0.000000 0.002018 0.994782 0.060250
-1.587242 -0.020353 -0.031699 -0.567196 -0.307443 -0.755342
1.378721 -0.071104 0.043409 -0.001602 -0.850521 0.516713
0.167786 -0.088000 0.059290 -0.002369 -0.767857 -0.639211
-1.378930 -0.079040 0.026322 0.000943 -0.900316 0.425079
1.179801 0.118327 -0.146349 -0.040518 -0.692571 -0.720211
1.484709 -0.169752 -0.199411 0.088558 0.756927 -0.647471
-1.530276 -0.044592 -0.050497 -0.387485 -0.689219 -0.602536
1.436392 0.151815 -0.185050 0.088558 -0.756927 -0.647471
-1.155834 -0.021759 -0.080415 -0.000228 -0.404718 -0.906787
1.305912 0.189382 -0.204782 -0.040518 0.799233 0.599653
0.061137 0.226226 0.240780 -0.060458 0.776642 -0.627034
1.344750 -0.043671 -0.070943 0.000776 -0.517463 -0.850219
-1.103351 -0.062574 0.054996 -0.000011 -0.663026 0.742239
-0.086824 0.083148 -0.101893 -0.032126 -0.732500 -0.680008
0.346391 -0.391956 0.447978 0.060519 0.747576 0.661413
1.502964 -0.087847 -0.020094 1.000000 -0.000000 0.000000
1.502964 -0.038908 -0.081284 1.000000 -0.000000 -0.000000
0.358688 0.119636 -0.139058 0.060519 -0.747576 -0.661413
1.115767 -0.074959 0.101043 -0.040518 0.692571 0.720211
-0.310101 -0.083307 0.000000 -0.000944 -0.994735 0.054126
1.242134 0.175943 0.205261 -0.040518 -0.692571 0.720211
1.562481 0.249473 0.281972 0.088558 -0.756927 0.647471
-0.758795 -0.080680 0.020756 -0.000982 -0.954551 0.282467
0.275783 0.159109 -0.191259 0.060519 -0.747576 -0.661413
0.137050 -0.278467 -0.322866 -0.032126 0.732500 -0.680008
-0.114780 -0.137330 -0.158937 -0.032126 0.732500 -0.680008
-0.015393 0.232348 0.255741 -0.060458 0.776642 -0.627034
0.194799 0.332157 -0.359097 -0.060458 0.776642 0.627034
-0.046450 -0.076796 -0.096958 -0.032126 0.732500 -0.680008
-1.018715 -0.080366 0.021941 -0.000939 -0.948069 0.301579
0.082400 0.097852 -0.079725 -0.060458 0.776642 0.627034
-1.309092 0.011407 -0.082523 -0.002063 0.243361 -0.966190
1.429916 0.199530 0.209929 0.006875 0.777272 -0.627694
0.615939 -0.059769 0.058033 -0.000438 -0.781564 0.615850
-0.665445 -0.019812 0.080917 -0.001082 -0.370137 0.922304
0.486453 -0.019472 0.081000 -0.002132 -0.344259 0.934426
0.679803 0.020658 -0.080705 0.000220 0.316633 -0.942270
1.477731 0.292471 0.330571 -0.040518 0.799233 -0.599653
-1.190387 -0.083307 0.000000 0.000127 -0.985631 0.125124
1.411457 0.074389 -0.097946 0.088558 -0.756927 -0.647471
0.209305 -0.222815 0.266331 -0.032126 0.732500 0.680008
0.039107 -0.130819 -0.159194 -0.032126 0.732500 -0.680008
-0.169462 0.112872 0.130008 -0.032126 -0.732500 0.680008
0.115167 0.165275 0.160076 -0.060458 0.776642 -0.627034
0.493077 0.080727 0.020573 0.002018 0.960284 0.263624
0.261493 0.232913 0.239249 0.113593 0.744101 -0.658339
1.104293 -0.153420 0.170474 -0.040518 -0.799233 -0.599653
0.105427 0.292035 -0.318019 -0.060458 0.776642 0.627034
-0.928457 -0.036812 0.074733 0.001223 -0.428895 0.897338
0.069665 -0.330520 0.369135 -0.060458 -0.776642 -0.627034
0.219537 -0.459347 -0.514249 -0.060458 -0.776642 0.627034
1.371315 0.070174 0.098509 0.054143 -0.754307 0.653786
0.318000 0.041571 0.072194 0.000475 0.616243 0.780382
0.228524 -0.321469 0.342608 -0.060458 -0.776642 -0.627034
1.480864 -0.132841 0.156786 0.088558 0.756927 0.647471
-0.215187 -0.033211 0.076401 0.001257 -0.386468 0.916952
0.945882 0.013296 0.082239 -0.003142 0.255197 0.963838
1.406688 -0.132131 -0.133207 0.088558 -0.734877 0.672394
0.660987 -0.081674 -0.016417 0.000255 -0.954367 -0.283337
1.531265 -0.310329 0.350756 -0.018979 -0.789345 -0.612472
1.423905 0.259956 -0.290872 -0.040518 0.799233 0.599653
1.291434 0.037957 -0.074158 -0.000405 0.436720 -0.892979
1.573641 -0.288830 -0.326457 0.067072 -0.746441 0.660965
0.600529 0.081142 0.018869 -0.000097 0.960169 0.262885
1.276680 0.070498 0.044386 -0.000507 0.776687 0.621642
0.257201 -0.072150 -0.041648 -0.000695 -0.773682 -0.623734
-0.692697 -0.076626 -0.032690 0.001152 -0.913473 -0.394736
0.111911 -0.251798 0.267557 -0.060458 -0.776642 -0.627034
-0.390988 -0.055504 0.062124 0.000074 -0.656028 0.748454
-0.980484 0.064173 -0.053121 0.000869 0.834985 -0.541407
-0.003937 -0.058177 0.059761 0.000000 0.662628 -0.748949
0.157785 0.051820 0.065229 0.002835 0.687013 0.722396
0.735757 -0.071714 0.042393 -0.000038 -0.842070 0.530053
-1.100387 0.035930 -0.075161 -0.000259 0.404420 -0.907133
0.258118 0.145784 -0.140188 0.113593 0.744101 0.658339
-0.563986 -0.046336 0.069232 0.000060 -0.644688 0.758246
1.004571 -0.079101 0.026137 0.001861 -0.951356 0.293900
1.020063 -0.014865 -0.081970 0.000113 -0.261676 -0.960971
0.654157 0.035586 0.075324 -0.001839 0.402215 0.909900
0.350036 0.076115 0.033861 0.000485 0.880724 0.463433
-0.997879 -0.033982 0.076062 0.000364 -0.398252 0.911738
0.916850 -0.062691 0.078055 -0.040518 0.692571 0.720211
-1.210394 0.000000 -0.083307 -0.000711 0.058168 -0.994585
-0.997972 0.065098 0.051985 0.000409 0.781367 0.615893
0.668924 0.065345 -0.051673 0.000346 0.734328 -0.671720
-0.617577 0.070970 0.043627 0.000147 0.780051 0.617731
0.283412 0.077908 0.098781 0.060519 -0.747576 0.661413
0.206859 0.073472 -0.039267 0.000051 0.923057 -0.378500
1.531265 0.310329 0.350756 -0.018979 0.789345 -0.612472
1.512237 0.236161 0.273282 0.088558 -0.756927 0.647471
0.190245 0.226583 0.269491 -0.032126 -0.732500 0.680008
0.163097 0.132744 -0.167125 -0.032126 -0.732500 -0.680008
-0.894581 -0.028600 -0.078244 0.000641 -0.341319 -0.935367
-0.097798 -0.055213 -0.062383 -0.000119 -0.597935 -0.795570
-0.395960 -0.067224 -0.049205 -0.000149 -0.839283 -0.535132
-0.514348 0.056991 0.060763 0.000007 0.683872 0.723114
0.537054 0.063353 0.054097 0.000100 0.819543 0.564867
0.175930 -0.184518 0.223502 -0.032126 0.732500 0.680008
0.344536 0.488288 0.542220 0.113593 0.744101 -0.658339
-0.130310 -0.087762 0.104809 -0.032126 0.732500 0.680008
0.930047 0.031638 -0.077066 -0.000645 0.252219 -0.963093
1.447661 0.059950 0.060148 -0.062436 0.701417 0.703743
-0.616812 0.071684 -0.042444 0.000584 0.913577 -0.390478
1.282765 -0.197638 0.228409 -0.040518 0.692571 0.720211
0.039944 0.290419 0.331153 -0.032126 -0.732500 0.680008
-0.805139 0.041790 -0.072068 -0.000034 0.490229 -0.866123
1.573641 0.288830 0.326457 0.067072 -0.746993 0.660341
1.489487 0.239489 -0.280284 0.002560 -0.715607 -0.697458
0.195178 -0.031396 -0.077165 -0.001331 -0.420699 -0.903256
-1.326799 0.064079 0.053236 -0.000096 0.768693 0.631585
-0.341039 0.067715 0.048526 0.000106 0.812311 0.574686
-1.504221 0.019480 -0.072948 -0.283691 0.318351 -0.897032
-1.223766 0.069084 -0.046557 -0.000260 0.823441 -0.558596
-0.411441 0.020944 0.080632 -0.001268 0.261204 0.961422
1.476139 -0.261057 0.288809 -0.040518 -0.799233 -0.599653
-1.086317 -0.061946 -0.055703 0.000024 -0.653229 -0.750939
-1.445454 0.082354 0.013513 -0.042134 0.967108 0.235178
0.327473 0.284925 0.328735 0.060519 -0.747576 0.661413
-0.010150 -0.187936 0.200226 -0.060458 -0.776642 -0.627034
0.106387 -0.075719 0.103019 -0.032126 0.732500 0.680008
-0.054159 0.096464 0.117780 -0.032126 -0.732500 0.680008
-0.261854 0.076451 0.086410 -0.060458 0.776642 -0.627034
-0.808375 0.054696 0.062837 -0.000102 0.654549 0.749828
1.328213 -0.035061 0.075570 0.002568 -0.398438 0.909633
-0.011050 0.022981 -0.080075 0.000047 0.303979 -0.947734
0.496634 -0.052368 -0.064790 0.000039 -0.550476 -0.831090
1.072942 -0.064985 0.052125 0.000073 -0.768367 0.632602
1.223309 0.069180 -0.046413 0.000652 0.888170 -0.449282
0.378545 -0.165461 0.189035 0.060519 0.747576 0.661413
-0.995087 0.022536 -0.080201 0.000201 0.382851 -0.918494
0.280629 -0.081051 0.019259 0.001292 -0.926033 0.361160
0.858235 0.068049 -0.073315 -0.040518 0.799233 0.599653
-0.461567 0.080824 -0.020189 -0.000736 0.920476 -0.374237
0.379813 -0.508208 0.576317 0.060519 0.747576 0.661413
0.554177 -0.078328 0.028370 -0.001721 -0.923699 0.370218
0.932055 -0.077606 -0.030289 -0.000709 -0.878774 -0.467419
1.000538 0.076382 0.095929 -0.040518 -0.692571 0.720211
1.175519 -0.072419 0.041177 0.000631 -0.869050 0.485519
1.421375 -0.240037 -0.264494 -0.040518 -0.799233 0.599653
0.382365 -0.041894 0.072007 0.000720 -0.383139 0.916788
0.012685 0.320812 -0.362605 -0.060458 0.776642 0.627034
-0.846012 -0.068427 -0.047517 -0.000701 -0.879565 -0.465943
0.181056 0.351274 0.384100 -0.060458 0.776642 -0.627034
0.096240 -0.395184 0.446665 -0.032126 0.732500 0.680008
0.113332 -0.176814 0.212246 -0.032126 0.732500 0.680008
-0.946694 -0.035629 -0.075304 -0.001118 -0.523283 -0.846362
-0.775838 -0.041853 -0.072031 -0.000166 -0.597583 -0.796123
1.158802 -0.144085 0.169938 -0.040518 0.692571 0.720211
0.216402 0.149843 0.137577 0.113593 0.744101 -0.658339
0.762969 -0.052681 -0.064536 0.000483 -0.634040 -0.767472
1.413145 -0.044406 0.070486 -0.030764 -0.527708 0.843415
1.525229 -0.272751 0.314280 0.002560 0.715607 0.697458
1.390452 0.083307 -0.000000 0.003039 0.990137 0.106562
0.146646 0.036641 -0.074817 0.003506 0.340165 -0.935118
0.299759 -0.046734 -0.068964 -0.001866 -0.624888 -0.774689
1.555042 -0.223235 -0.252316 0.088558 -0.734877 0.672394
0.197229 -0.131515 -0.113553 0.113593 -0.744101 0.658339
-0.359715 0.081352 -0.017944 0.002454 0.967287 -0.240474
-0.383764 -0.021470 -0.080493 0.000148 -0.407850 -0.905694
1.156748 -0.049453 -0.067041 -0.000495 -0.591814 -0.800450
0.940165 -0.078197 -0.081305 -0.040518 -0.799233 0.599653
1.241218 -0.086853 0.078974 -0.000000 -0.748949 -0.662628
-0.009967 -0.033725 -0.076176 0.000048 -0.520468 -0.848412
0.141239 -0.062253 -0.055359 -0.000513 -0.689223 -0.718332
-1.430465 -0.018307 -0.081271 0.003465 -0.071523 -0.992117
0.382770 0.178362 -0.203230 0.060519 -0.747576 -0.661413
1.473974 0.120290 0.143056 0.088558 -0.756927 0.647471
1.395825 -0.035968 -0.075143 -0.001195 -0.422148 -0.900988
1.341309 0.133155 0.169694 -0.027026 -0.711853 0.701486
0.318001 0.460972 -0.506768 -0.002369 0.767857 0.639211
0.299231 0.545555 0.613342 -0.000000 0.662628 0.748949
-0.057771 -0.133201 0.137024 -0.060458 -0.776642 -0.627034
-1.328478 -0.066542 -0.050122 -0.000102 -0.798801 -0.593820
0.003858 -0.076433 -0.098945 -0.032126 0.732500 -0.680008
0.251187 -0.096971 -0.123277 0.060519 0.747576 -0.661413
0.143690 0.301916 0.326568 -0.060458 0.776642 -0.627034
-1.274734 0.069337 0.046179 0.000026 0.757824 0.645192
0.788914 -0.018147 0.081307 0.001628 -0.301851 0.947388
0.313826 -0.230250 -0.245269 0.113593 -0.744101 0.658339
0.335111 0.547184 -0.611900 0.007332 0.765927 0.640859
0.109028 0.324654 -0.371295 -0.032126 -0.732500 -0.680008
-0.125413 0.058868 0.058947 0.001716 0.601417 0.792785
0.172794 -0.070579 -0.100619 -0.001233 0.738091 -0.674322
0.088037 -0.021187 -0.080568 -0.002027 -0.317516 -0.941933
0.227872 0.237189 -0.238281 -0.002369 0.767857 0.639211
0.305402 -0.458593 0.524851 -0.032126 0.732500 0.680008
1.293351 0.077414 -0.030776 -0.000906 0.922547 -0.373135
0.135047 -0.119534 0.151570 -0.032126 0.732500 0.680008
1.356979 -0.090852 -0.121881 -0.000000 0.748949 -0.662628
-0.493496 -0.033019 0.076484 0.000044 -0.503595 0.858479
1.447661 0.045266 -0.071852 -0.061551 0.525864 -0.842900
1.569921 0.275711 -0.311629 0.088558 0.734877 0.672394
0.690225 0.000000 0.083307 0.006105 0.060893 0.993258
0.428895 -0.027365 -0.078685 0.002197 -0.440616 -0.893409
0.210509 0.273802 0.321311 -0.032126 -0.732500 0.680008
0.010928 -0.120837 0.115086 -0.060458 -0.776642 -0.627034
-0.360329 -0.082631 0.010591 -0.000860 -0.970938 0.224859
0.400620 0.147663 0.166899 0.060519 -0.747576 0.661413
-1.045358 0.012070 -0.082428 -0.000261 0.236506 -0.967749
1.182716 -0.099301 -0.093044 -0.013520 -0.766236 0.642065
0.340012 0.113482 0.133811 0.060519 -0.747576 0.661413
0.253789 0.200332 0.201095 0.113593 0.744101 -0.658339
1.063994 0.081511 0.017206 0.000724 0.935865 0.338973
0.148860 -0.322848 -0.351997 -0.060458 -0.776642 0.627034
0.190526 0.158589 0.196261 -0.032126 -0.732500 0.680008
1.035872 -0.069249 -0.046311 0.001050 -0.829589 -0.549597
-1.413145 -0.070486 -0.044406 0.002851 -0.843469 -0.529308
0.065474 -0.233055 -0.270567 -0.032126 0.732500 -0.680008
0.274458 -0.153049 -0.184530 0.060519 0.747576 -0.661413
-0.227620 -0.057598 -0.060188 -0.000772 -0.736144 -0.670248
-0.266323 0.080762 -0.020437 -0.003087 0.944839 -0.313051
0.341062 -0.292803 0.336397 0.060519 0.747576 0.661413
1.497397 -0.224659 0.261866 0.088558 0.756927 0.647471
-0.300326 0.028987 -0.078102 -0.001042 0.453387 -0.886982
-1.410459 -0.000000 0.083307 0.003479 0.071145 0.992129
0.090029 -0.083307 0.000000 -0.004734 -0.986863 0.125043
-1.100891 0.081850 0.015513 0.000388 0.958621 0.269233
0.246445 0.015921 -0.081772 -0.002332 0.219073 -0.972271
0.136603 -0.159612 -0.150995 -0.060458 -0.776642 0.627034
0.350114 -0.083307 0.000000 0.001188 -0.992821 0.086838
0.211065 0.085125 0.063508 0.113593 0.744101 -0.658339
0.610198 0.000000 -0.083307 -0.000192 0.159190 -0.979241
-0.053803 -0.137603 -0.162112 -0.032126 0.732500 -0.680008
0.293754 -0.514235 0.584237 -0.032126 0.732500 0.680008
0.265677 -0.419170 -0.480507 -0.032126 0.732500 -0.680008
-1.490239 0.000000 0.078660 -0.239036 -0.083088 0.959599
1.502964 0.000000 0.054070 1.000000 -0.000000 0.000000
0.595992 -0.021016 0.080613 -0.000696 -0.374789 0.921546
1.306811 0.080371 -0.110035 0.000000 -0.748949 -0.662628
-1.017642 0.022209 0.080293 -0.000549 0.292759 0.951282
-0.009481 0.122339 -0.118913 -0.060458 0.776642 0.627034
0.361615 -0.356472 0.396180 0.113593 -0.744101 -0.658339
-0.470153 0.000000 -0.083307 0.000720 0.033298 -0.996406
-0.526866 0.041263 -0.072371 0.000203 0.500569 -0.860175
1.278197 0.020618 0.080716 -0.000030 0.281001 0.955007
1.227624 -0.187459 -0.207509 -0.040518 -0.799233 0.599653
0.232880 -0.227641 -0.272644 -0.001233 0.738091 -0.674322
1.190777 0.056738 0.083322 0.000000 -0.662628 -0.748949
-0.099682 0.013967 -0.082128 -0.002613 0.258351 -0.962375
1.382744 -0.129532 0.127213 0.029550 -0.744762 -0.666336
0.706208 0.080846 -0.020102 -0.000320 0.946578 -0.304844
-0.065231 -0.163321 0.175049 -0.060458 -0.776642 -0.627034
1.250407 0.000000 -0.083307 -0.000547 0.050452 -0.995479
0.276206 0.275100 0.289471 0.113593 0.744101 -0.658339
-0.070023 0.083307 -0.000000 -0.003484 0.995661 0.046086
0.795663 -0.076391 -0.033234 -0.000881 -0.917533 -0.385423
0.286097 0.148738 0.178593 0.060519 -0.747576 0.661413
0.361814 -0.462434 0.515981 0.113593 -0.744101 -0.658339
1.502770 0.211587 -0.232701 0.088558 0.734877 0.672394
0.055376 -0.060016 -0.083694 -0.032126 0.732500 -0.680008
-1.103903 -0.082121 -0.014011 -0.000536 -0.959502 -0.267650
0.297973 -0.397792 0.459005 0.029648 0.743117 0.668124
1.502964 0.041482 0.024770 1.000000 0.000000 0.000000
-1.528726 0.062403 0.026860 -0.337712 0.811475 0.468556
1.357467 0.142915 -0.142340 -0.000000 0.748949 0.662628
0.578272 0.074243 -0.037789 -0.000480 0.916597 -0.384878
0.353052 0.547999 0.611180 0.065349 0.755080 -0.651294
0.285573 -0.264522 -0.309508 0.060519 0.747576 -0.661413
0.143349 -0.244284 -0.286342 -0.032126 0.732500 -0.680008
0.274962 -0.184999 0.187417 0.113593 -0.744101 -0.658339
0.243957 0.030834 0.077391 -0.000282 0.421049 0.901971
-0.088556 0.214818 -0.241082 -0.060458 0.776642 0.627034
1.115767 0.074959 0.101043 -0.040518 -0.692571 0.720211
0.171787 0.130927 -0.112074 -0.060458 0.776642 0.627034
1.502964 -0.039631 -0.033596 1.000000 0.000000 0.000000
1.103965 0.101162 -0.100845 -0.040518 0.799233 0.599653
0.115167 0.165275 -0.160076 -0.060458 0.776642 0.627034
1.344750 0.058390 0.059419 -0.000921 0.697513 0.710293
1.092293 0.056373 -0.061337 -0.000503 0.685392 -0.722298
1.249999 -0.136222 -0.137707 -0.040518 -0.799233 0.599653
0.848003 -0.028842 -0.078155 0.000834 -0.334504 -0.936543
0.195685 0.282496 -0.329977 -0.032126 -0.732500 -0.680008
0.380782 0.505584 0.573262 0.060519 -0.747576 0.661413
1.394173 0.169840 -0.172772 0.014898 0.761413 0.647219
0.116390 -0.190520 -0.191226 -0.060458 -0.776642 0.627034
1.190897 -0.013612 -0.082188 -0.000758 -0.278117 -0.955878
1.517844 0.092044 -0.104035 0.088558 0.734877 0.672394
0.401232 0.012367 0.082384 -0.003049 0.225417 0.970815
0.360951 -0.112407 0.130680 0.060519 0.747576 0.661413
0.142663 -0.288111 0.309569 -0.060458 -0.776642 -0.627034
1.446794 0.198540 -0.211070 0.088558 0.734877 0.672394
0.003166 0.113956 0.139331 -0.032126 -0.732500 0.680008
0.229993 -0.166948 0.204309 0.060519 0.747576 0.661413
-0.261854 -0.076451 -0.086410 -0.032126 0.732500 -0.680008
-0.053439 0.038428 0.073915 -0.000028 0.533423 0.841075
-0.215447 0.068059 -0.079562 -0.032126 -0.732500 -0.680008
-0.023854 0.255320 -0.290331 -0.032126 -0.732500 -0.680008
-1.051786 0.080513 -0.021394 -0.001776 0.959024 -0.269110
0.450146 -0.083307 0.000000 -0.000283 -0.987770 0.127567
1.068087 0.118222 -0.139964 -0.040518 -0.692571 -0.720211
0.218743 0.273025 -0.283548 -0.060458 0.776642 0.627034
0.327144 0.393132 -0.431668 0.113593 0.744101 0.658339
0.952627 0.095431 0.111551 -0.040518 -0.692571 0.720211
-1.330433 -0.000000 0.083307 -0.000051 0.049245 0.994990
0.310255 -0.482606 -0.534311 -0.060458 -0.776642 0.627034
0.266482 -0.284505 0.298423 0.113593 -0.744101 -0.658339
1.487914 -0.271123 -0.301431 -0.040518 -0.799233 0.599653
0.267930 0.336648 0.357609 0.055648 0.757010 -0.649646
0.074547 0.072812 0.098384 -0.032126 -0.732500 0.680008
1.474165 0.259202 0.286471 -0.040518 0.799233 -0.599653
0.240367 0.447642 -0.509982 -0.032126 -0.732500 -0.680008
-1.172229 0.019778 0.080925 -0.000695 0.250346 0.964091
0.198597 -0.171077 -0.210095 -0.032126 0.732500 -0.680008
1.180113 0.126070 0.128898 -0.040518 0.799233 -0.599653
0.121225 0.087317 -0.116213 -0.032126 -0.732500 -0.680008
1.235234 -0.104548 -0.098974 -0.000000 -0.748949 0.662628
-0.118776 0.113988 -0.119108 -0.060458 0.776642 0.627034
-0.002084 0.015626 0.081829 0.000718 0.277904 0.955734
0.282951 0.358526 0.415999 0.029648 -0.743117 0.668124
0.165015 0.390402 -0.434111 -0.060458 0.776642 0.627034
0.335012 0.275527 -0.317423 0.060519 -0.747576 -0.661413
1.400911 0.100565 0.129990 0.088558 -0.756927 0.647471
0.350168 0.032954 -0.076512 0.000505 0.325192 -0.940829
0.967833 0.079428 0.025126 -0.000497 0.942243 0.319781
0.045084 -0.043860 0.070826 -0.000046 -0.533509 0.840213
1.411458 -0.088152 0.085769 0.088558 -0.734877 -0.672394
0.054463 0.343419 -0.386578 -0.060458 0.776642 0.627034
1.249060 -0.134975 0.166255 -0.040518 0.692571 0.720211
0.104278 0.072912 -0.046724 -0.060458 0.776642 0.627034
1.230050 0.075788 0.066468 -0.000000 0.748949 -0.662628
1.107213 0.019320 0.081036 -0.000047 0.250739 0.964470
-0.705100 -0.082329 0.012730 -0.001599 -0.963040 0.255291
1.016609 -0.043374 0.071125 0.000555 -0.600627 0.793359
-0.002020 0.268231 0.305270 -0.032126 -0.732500 0.680008
0.240502 0.475905 0.532736 -0.060458 0.776642 -0.627034
0.004738 0.210801 -0.243726 -0.032126 -0.732500 -0.680008
0.095702 -0.138181 -0.128394 -0.060458 -0.776642 0.627034
0.930303 0.083307 -0.000000 -0.001767 0.982372 0.157004
0.256653 -0.130995 0.123219 0.113593 -0.744101 -0.658339
0.356053 0.345323 0.382619 0.113593 0.744101 -0.658339
-0.061474 -0.049802 0.067171 0.000000 0.662628 -0.748949
0.197387 0.099637 -0.077550 0.113593 0.744101 0.658339
0.741017 0.029837 0.077781 -0.002227 0.364228 0.924664
0.246941 0.102730 0.089596 0.113593 0.744101 -0.658339
0.279870 -0.210963 -0.217611 0.113593 -0.744101 0.658339
0.995002 -0.060310 -0.080162 -0.000000 0.662628 0.748949
0.513230 -0.013116 -0.082268 0.001911 -0.134945 -0.985780
-0.132023 0.063625 -0.078728 -0.032126 -0.732500 -0.680008
0.361397 -0.350038 -0.399227 0.060519 0.747576 -0.661413
1.150089 0.019696 -0.080946 0.001460 0.354440 -0.927159
0.356404 -0.089717 -0.093775 0.113593 -0.744101 0.658339
-0.188226 0.059629 0.058476 -0.000000 -0.662628 -0.748949
0.286082 0.289432 -0.307374 0.113593 0.744101 0.658339
1.223944 0.069530 -0.097781 0.000000 -0.748949 -0.662628
1.488491 -0.112059 -0.131448 0.088558 0.756927 -0.647471
1.346175 -0.109384 0.104440 -0.000000 -0.748949 -0.662628
-1.484875 0.056370 -0.056279 -0.142357 0.740686 -0.649969
0.360742 -0.164234 -0.178748 0.113593 -0.744101 0.658339
0.163462 -0.079776 0.110085 -0.032126 0.732500 0.680008
0.361188 0.236943 -0.271418 0.060519 -0.747576 -0.661413
0.265412 -0.092392 -0.081098 0.113593 -0.744101 0.658339
0.960226 -0.119838 -0.135450 -0.040518 -0.799233 0.599653
0.295287 0.228861 0.268313 0.060519 -0.747576 0.661413
0.986537 -0.099004 0.105903 -0.040518 -0.799233 -0.599653
0.353417 0.481423 -0.548458 0.060519 -0.747576 -0.661413
1.418001 -0.172964 -0.212291 0.049900 0.739179 -0.670749
0.779015 0.075023 -0.036217 0.001240 0.924401 -0.366512
1.286449 -0.180251 -0.211897 -0.040518 0.692571 -0.720211
1.338818 -0.210851 -0.244269 -0.040518 0.692571 -0.720211
0.277944 -0.361513 -0.387441 0.055648 -0.757010 0.649646
-1.540562 0.060219 -0.019491 -0.374206 0.843795 -0.370317
1.486622 -0.208236 -0.226912 0.088558 -0.734877 0.672394
-0.056428 0.219602 0.243910 -0.060458 0.776642 -0.627034
1.390363 0.156404 0.157585 0.014898 0.761413 -0.647219
0.137088 -0.233398 -0.242339 -0.060458 -0.776642 0.627034
0.027627 -0.201399 0.234680 -0.032126 0.732500 0.680008
-0.590192 0.083307 -0.000000 -0.001406 0.993606 0.067740
0.321719 0.176929 0.186364 0.113593 0.744101 -0.658339
0.271704 0.513111 -0.581984 -0.032126 -0.732500 -0.680008
1.310713 -0.071461 0.042819 0.000149 -0.853314 0.512470
1.435931 -0.151309 0.184522 0.088558 0.756927 0.647471
0.077098 -0.154585 0.150505 -0.060458 -0.776642 -0.627034
-0.445289 -0.075287 -0.035664 -0.000228 -0.928716 -0.357205
0.057800 -0.301177 -0.343585 -0.032126 0.732500 -0.680008
1.341309 -0.152205 0.152840 -0.013520 -0.766236 -0.642065
0.286070 0.098891 -0.092008 0.113593 0.744101 0.658339
1.430465 0.081210 0.018576 -0.030968 0.944221 0.311717
1.043527 0.081782 0.079099 -0.040518 0.799233 -0.599653
-1.390452 0.000000 -0.083307 -0.000305 0.087308 -0.988410
0.238313 -0.364677 0.420515 -0.032126 0.732500 0.680008
0.293754 -0.514235 -0.584237 -0.032126 0.732500 -0.680008
1.362415 0.076451 -0.033095 0.000075 0.916754 -0.383211
0.030526 0.140846 -0.137978 -0.060458 0.776642 0.627034
0.299284 -0.145640 0.147128 0.113593 -0.744101 -0.658339
-0.686515 0.079686 0.024295 -0.000101 0.912333 0.396969
0.190038 -0.274553 -0.321153 -0.032126 0.732500 -0.680008
0.153240 0.243778 -0.253639 -0.060458 0.776642 0.627034
1.205733 -0.029278 0.077993 0.004180 -0.329200 0.938782
1.190482 -0.144529 -0.172146 -0.040518 0.692571 -0.720211
-0.010003 -0.083307 0.000000 0.003066 -0.987659 0.128406
0.010003 0.083307 -0.000000 0.005184 0.988682 0.119539
0.360652 0.245064 0.270093 0.113593 0.744101 -0.658339
1.057719 0.013436 0.082217 0.001370 0.129924 0.987000
1.271081 0.114076 0.109743 -0.000000 0.748949 -0.662628
-0.018715 -0.247774 0.275168 -0.060458 -0.776642 -0.627034
0.230188 -0.331466 -0.354829 -0.060458 -0.776642 0.627034
0.152670 0.216251 0.219598 -0.060458 0.776642 -0.627034
1.245250 -0.177117 0.206565 -0.040518 0.692571 0.720211
-0.149225 -0.061400 0.056909 0.000000 0.662628 -0.748949
0.170840 -0.144598 0.129098 -0.060458 -0.776642 -0.627034
0.070380 -0.302307 0.334121 -0.060458 -0.776642 -0.627034
1.348259 0.178526 0.187452 -0.040518 0.799233 -0.599653
0.143102 -0.398195 0.452122 -0.032126 0.732500 0.680008
0.209778 -0.374691 -0.429954 -0.032126 0.732500 -0.680008
0.853156 -0.084121 -0.095080 -0.040518 -0.799233 0.599653
0.082146 -0.342761 -0.383093 -0.060458 -0.776642 0.627034
1.361274 0.209367 0.227678 -0.040518 0.799233 -0.599653
-0.289474 0.060826 0.056923 -0.000003 0.641995 0.760558
1.358940 0.197372 -0.211847 -0.040518 0.799233 0.599653
1.104293 0.153420 -0.170474 -0.040518 0.799233 0.599653
0.365550 0.525394 -0.587787 0.113593 0.744101 0.658339
-0.085761 -0.109653 0.110555 -0.060458 -0.776642 -0.627034
1.502964 -0.038908 0.081284 -0.091153 -0.443861 0.887867
1.024651 0.112785 -0.132292 -0.040518 -0.692571 -0.720211
0.098885 -0.018190 0.081297 0.001678 -0.241981 0.966744
0.320832 0.137498 -0.162710 0.060519 -0.747576 -0.661413
-0.076895 0.145769 -0.169818 -0.032126 -0.732500 -0.680008
0.400620 0.438256 0.495348 0.060519 -0.747576 0.661413
1.403740 -0.233267 0.269477 -0.040518 0.692571 0.720211
0.067393 -0.095293 0.078002 -0.060458 -0.776642 -0.627034
0.150729 -0.155823 -0.191401 -0.032126 0.732500 -0.680008
0.249461 -0.057921 0.059987 -0.000000 0.662628 -0.748949
1.027122 -0.107477 -0.114454 -0.040518 -0.799233 0.599653
0.353275 -0.425535 -0.485302 0.060519 0.747576 -0.661413
0.081845 0.152827 0.184919 -0.032126 -0.732500 0.680008
-0.046975 -0.204296 0.224040 -0.060458 -0.776642 -0.627034
0.338174 -0.089481 0.090363 0.113593 -0.744101 -0.658339
-0.119575 -0.150891 0.173319 -0.032126 0.732500 0.680008
1.371315 0.089224 -0.081654 0.029550 0.744762 0.666336
0.087000 0.078185 0.028763 -0.000408 0.889177 0.449084
0.117797 0.369799 0.413145 -0.060458 0.776642 -0.627034
1.088174 -0.086562 -0.110648 -0.040518 0.692571 -0.720211
-0.790257 0.000000 -0.083307 0.000630 0.077651 -0.993451
0.298723 0.206627 -0.215962 0.113593 0.744101 0.658339
0.232471 -0.455779 0.518374 -0.032126 0.732500 0.680008
0.324116 -0.181461 0.212100 0.060519 0.747576 0.661413
1.463556 -0.205744 0.221150 0.088558 -0.734877 -0.672394
0.196204 -0.217974 -0.217535 -0.060458 -0.776642 0.627034
1.163952 -0.108140 -0.135662 -0.040518 0.692571 -0.720211
-0.310101 0.000000 0.083307 -0.000024 0.038107 0.996262
-0.136013 0.135318 0.147190 -0.060458 0.776642 -0.627034
1.339832 -0.165180 -0.170232 -0.040518 -0.799233 0.599653
-1.467807 -0.072092 0.039184 -0.077331 -0.813101 0.566740
0.122197 -0.381523 -0.433176 -0.032126 0.732500 -0.680008
0.172888 -0.417835 -0.474686 -0.032126 0.732500 -0.680008
1.155073 -0.085255 0.113155 -0.040518 0.692571 0.720211
0.312216 -0.027158 0.078756 -0.000868 -0.435494 0.894982
0.288109 0.243305 -0.255588 0.113593 0.744101 0.658339
1.146213 0.112228 -0.112740 -0.040518 0.799233 0.599653
0.005101 -0.192846 -0.204837 -0.060458 -0.776642 0.627034
-1.413145 -0.059005 0.058810 0.002030 -0.705281 0.703164
0.846654 -0.072652 -0.040765 0.000127 -0.805712 -0.584063
1.287939 -0.100259 0.132514 0.000000 0.748949 0.662628
0.259760 0.356002 -0.382368 -0.060458 0.776642 0.627034
1.269323 -0.056738 -0.083322 -0.000000 0.748949 -0.662628
-0.040815 0.169955 0.180912 -0.060458 0.776642 -0.627034
-0.160615 -0.123722 0.142113 -0.032126 0.732500 0.680008
0.937348 -0.094951 0.110230 -0.040518 0.692571 0.720211
-0.214108 -0.118948 -0.134444 -0.032126 0.732500 -0.680008
-1.001083 -0.080355 -0.021983 0.003916 -0.948463 -0.299602
1.408571 0.220262 -0.239003 -0.040518 0.799233 0.599653
-0.668897 -0.056750 0.060988 -0.000042 -0.762157 0.640070
1.268016 0.151316 0.183035 -0.040518 -0.692571 0.720211
0.150380 -0.101078 -0.132414 -0.032126 0.732500 -0.680008
0.970316 -0.083307 0.000000 0.003064 -0.985943 0.138109
0.292548 -0.335583 0.360652 0.113593 -0.744101 -0.658339
1.002429 0.085126 -0.086333 -0.040518 0.799233 0.599653
0.341160 -0.052502 -0.064782 0.000000 0.662628 0.748949
-1.102649 0.036997 0.074641 0.001237 0.442461 0.891581
1.501511 0.278183 -0.309921 -0.040518 0.799233 0.599653
-0.049460 0.101602 -0.097084 -0.060458 0.776642 0.627034
1.053617 0.058524 -0.081742 -0.040518 -0.692571 -0.720211
0.092217 0.110520 0.094469 -0.060458 0.776642 -0.627034
1.190489 -0.075202 -0.035844 -0.000645 -0.898349 -0.427002
-0.002440 -0.288713 0.324305 -0.060458 -0.776642 -0.627034
-0.550232 -0.082414 0.012164 0.001778 -0.961919 0.258313
0.167160 0.109361 0.142128 -0.032126 -0.732500 0.680008
1.460277 -0.084573 -0.016182 -0.098189 -0.989398 -0.061745
0.380704 0.072267 -0.078245 0.113593 0.744101 0.658339
0.170951 0.433595 -0.491571 -0.032126 -0.732500 -0.680008
0.944765 0.069991 -0.045182 -0.000001 0.790115 -0.605227
0.899887 -0.017754 -0.081393 -0.000329 -0.246841 -0.965071
1.171140 0.056738 -0.083322 -0.006760 -0.739797 -0.672460
