0.630289 -0.084456 0.000000 -0.001829 -0.995807 -0.042701
1.052862 0.098540 0.098588 -0.000000 -0.641162 0.767405
0.826119 -0.052131 -0.066447 0.000049 -0.702800 -0.704917
-0.615189 -0.063862 0.055267 0.000039 -0.668304 0.737707
1.163439 0.163568 -0.120402 0.000000 0.641162 0.767405
-0.909223 0.078053 -0.032256 -0.001111 0.871597 -0.480688
1.493037 -0.268586 0.224402 0.368902 -0.625063 -0.687900
1.493037 0.268586 -0.224402 0.368902 -0.565787 -0.737425
1.490952 0.283866 0.237168 0.368902 -0.565787 0.737425
1.513882 0.115784 -0.096737 0.368902 -0.565787 -0.737425
1.520136 0.056692 0.071366 -0.069690 0.701613 0.703399
-0.080018 0.033320 -0.077605 0.000029 0.493920 -0.864383
-1.033831 -0.063231 -0.055988 0.000160 -0.817195 -0.567977
-0.809580 0.014531 -0.083196 -0.000359 0.285775 -0.953623
0.632308 -0.018003 0.082515 0.002551 -0.328480 0.939566
0.506233 0.659958 -0.551390 0.069486 0.639612 0.765551
0.506233 -0.507356 -0.423893 0.053901 0.640230 -0.766290
0.506233 -0.370015 0.309145 0.053901 0.640230 0.766290
0.506233 0.141113 -0.117899 0.069486 0.639612 0.765551
0.374015 -0.569363 -0.469892 -0.053878 -0.662705 0.746940
-1.202894 0.083278 -0.014058 0.000142 0.964042 -0.250690
0.334703 -0.312265 -0.272961 0.024292 0.635336 -0.771548
0.218931 -0.465391 -0.388831 -0.053878 -0.662705 0.746940
0.314698 0.598917 -0.500391 -0.053878 0.662705 0.746940
-0.030063 0.118222 -0.098774 -0.053878 0.662705 0.746940
0.017821 -0.184986 -0.154554 -0.053878 -0.662705 0.746940
-0.001333 -0.158280 0.132242 -0.053878 -0.662705 -0.746940
1.186533 -0.146225 -0.138428 -0.000000 0.641162 -0.767405
-1.530052 -0.049972 -0.046494 -0.389249 -0.635120 -0.659793
0.635857 -0.057298 -0.062046 -0.000113 -0.675594 -0.731040
0.428855 -0.217530 0.187188 0.053901 0.640230 0.766290
1.294516 -0.250203 0.209043 -0.177436 0.345462 0.921505
-1.396959 -0.035421 0.076669 0.001315 -0.520229 0.848493
1.432830 -0.308024 0.257352 -0.177436 0.345462 0.921505
1.157548 0.083355 0.013593 0.000520 0.962112 0.259355
0.330151 -0.084456 0.000000 -0.000772 -0.985555 -0.138909
1.138590 0.132910 0.127304 -0.000000 -0.641162 0.767405
0.825260 0.054349 -0.064645 -0.000044 0.636643 -0.765180
-0.360503 0.059899 0.059540 0.000045 0.715693 0.692483
0.928450 -0.034254 0.077198 0.001097 -0.503488 0.858589
0.368882 0.280058 0.243648 0.053901 -0.640230 0.766290
-0.045220 -0.030595 0.078720 -0.000093 -0.353828 0.930497
1.378392 0.143771 -0.103862 0.000000 0.641162 0.767405
0.134491 0.117425 0.106940 -0.041785 -0.622783 0.781278
0.354567 0.453350 -0.368364 -0.053878 0.662705 0.746940
-1.273663 -0.079390 0.028810 0.000986 -0.936586 0.334430
-0.668965 -0.043790 0.072216 0.000043 -0.523354 0.846705
0.506233 -0.202153 -0.168898 0.053901 0.640230 -0.766290
-0.688095 0.017237 -0.082678 0.001814 0.224893 -0.970945
-1.258631 0.032354 -0.078013 0.000003 0.484176 -0.869446
0.451390 0.693282 -0.574255 -0.010001 0.655303 0.754498
0.301131 0.262833 0.203187 -0.053878 0.662705 -0.746940
0.327991 0.499140 0.421567 -0.041785 -0.622783 0.781278
0.013290 0.126797 0.103254 -0.053878 0.662705 -0.746940
1.294516 0.250203 0.209043 -0.177436 0.845388 -0.503820
0.040179 -0.077012 -0.069680 -0.041785 0.622783 -0.781278
-1.102500 0.067378 0.050922 0.000650 0.719213 0.688455
1.304124 0.216488 -0.164616 0.000000 0.641162 0.767405
0.438238 0.017170 -0.082692 0.002397 0.230167 -0.969566
0.097984 -0.167282 -0.133065 -0.053878 -0.662705 0.746940
1.465119 0.067967 0.054360 -0.074309 0.778390 0.616121
0.983309 -0.120106 0.100348 -0.177436 0.345462 0.921505
0.378561 -0.012949 -0.083457 -0.000143 -0.241853 -0.966407
1.452338 -0.179495 -0.133709 0.000000 -0.641162 0.767405
1.458601 0.151365 0.110207 0.000000 0.641162 -0.767405
-0.075448 0.075622 -0.037604 0.001126 0.937516 -0.331920
0.506233 0.614177 -0.513141 0.069486 0.639612 0.765551
-0.736441 0.082057 -0.019987 0.001382 0.962372 -0.257582
0.178358 -0.154999 -0.116369 -0.053878 -0.662705 0.746940
-1.529798 0.049692 -0.046931 -0.389006 0.634279 -0.660856
0.295338 -0.246330 0.188963 -0.053878 -0.662705 -0.746940
0.467644 0.534019 -0.448884 0.053901 -0.640230 -0.766290
0.269358 -0.101329 0.101322 0.022011 0.634925 0.771911
0.450457 -0.262932 0.214615 0.069486 -0.639612 -0.765551
1.208070 -0.214065 0.178850 -0.177436 0.345462 0.921505
1.378866 0.045374 0.071232 -0.001429 0.529470 0.842828
0.261231 0.344537 -0.278555 -0.053878 0.662705 0.746940
1.445012 0.227541 -0.206367 0.000000 -0.641162 -0.767405
0.235123 -0.056672 -0.063893 -0.000000 0.767405 0.641162
-0.250115 0.000000 -0.084456 0.001647 -0.137652 -0.985484
1.344642 0.161932 0.151551 0.000000 -0.641162 0.767405
0.590075 0.074715 0.039376 -0.000618 0.880265 0.464724
0.174353 -0.099426 0.067353 -0.053878 -0.662705 -0.746940
0.414147 0.474915 -0.388430 0.069486 0.639612 0.765551
0.274289 -0.374271 0.303994 -0.053878 -0.662705 -0.746940
0.394003 0.659903 -0.548779 -0.053878 0.662705 0.746940
0.406726 0.610271 -0.514363 -0.041785 -0.622783 -0.781278
-0.516491 0.075393 0.038063 0.000128 0.889813 0.446032
-0.470215 0.084456 -0.000000 0.002008 0.996118 0.050884
0.506233 0.629437 0.525891 0.069486 0.639612 -0.765551
0.506233 -0.629437 0.525891 0.053901 0.640230 0.766290
0.168122 0.303061 -0.248473 -0.053878 0.662705 0.746940
1.507629 -0.161624 0.135036 0.368902 -0.625063 -0.687900
0.146443 0.086699 -0.058074 -0.053878 0.662705 0.746940
0.187699 0.101884 -0.097397 -0.041785 -0.622783 -0.781278
1.362315 -0.170471 -0.126169 0.000000 -0.641162 0.767405
-1.379349 0.081634 -0.021650 -0.000063 0.951685 -0.291190
1.499290 0.222745 0.186102 0.368902 -0.565787 0.737425
1.188728 0.036693 -0.076069 -0.000013 0.535893 -0.838840
0.452038 0.047603 0.069762 -0.000052 0.562584 0.821125
-1.259874 0.082698 0.017143 -0.000358 0.951227 0.292515
-0.444172 0.015398 0.083040 -0.000279 0.275902 0.956514
0.630289 0.000000 -0.084456 0.000687 -0.061348 -0.995002
0.187217 -0.353734 0.298130 -0.041785 0.622783 0.781278
0.461875 0.327105 0.276414 0.053901 -0.640230 0.766290
0.437881 -0.285191 -0.243083 0.053901 0.640230 -0.766290
0.762727 0.074316 0.040125 -0.001292 0.930534 0.351062
0.338006 0.276324 -0.242700 0.053901 -0.640230 -0.766290
-0.670968 0.038302 0.075271 0.000786 0.455009 0.885335
1.188470 -0.145182 0.105041 0.000000 -0.641162 -0.767405
0.032794 0.062099 -0.057398 -0.000000 -0.767405 0.641162
1.379268 -0.021896 0.081568 0.000037 -0.293507 0.950911
0.457379 -0.483712 -0.399704 0.069486 -0.639612 0.765551
0.433824 -0.572150 -0.483121 0.053901 0.640230 -0.766290
-0.870399 0.000000 -0.084456 -0.006133 -0.075692 -0.993107
-0.704350 -0.082771 -0.016784 -0.001108 -0.969112 -0.231147
1.347041 -0.068741 0.073691 -0.000000 0.767405 -0.641162
-0.579073 0.082155 -0.019578 0.001442 0.963492 -0.253235
0.369370 0.373329 0.299491 0.069486 0.639612 -0.765551
0.449610 -0.109590 0.095544 0.053901 0.640230 0.766290
0.160715 -0.310405 -0.262173 -0.041785 0.622783 -0.781278
0.372042 0.443436 0.358308 0.028375 0.648186 -0.760365
0.045681 -0.108483 0.095062 -0.041785 0.622783 0.781278
1.266526 -0.123346 0.119313 0.000000 0.641162 0.767405
1.466448 0.087131 0.000000 -0.079527 0.991074 0.061747
1.520136 0.082079 -0.039623 -0.067145 0.935604 -0.331888
1.183027 -0.123857 -0.087223 -0.000000 -0.641162 0.767405
0.268962 0.219529 -0.195521 -0.041785 -0.622783 -0.781278
0.161197 0.249077 0.201076 -0.053878 0.662705 -0.746940
-0.270124 0.000000 0.084456 0.000822 0.030339 0.995899
0.562421 -0.018537 0.082396 0.000926 -0.353571 0.929175
-0.150397 0.010995 -0.083737 -0.000907 0.239768 -0.967259
-1.344203 0.021916 -0.081563 -0.000724 0.281523 -0.954860
0.413013 -0.099380 -0.074571 0.069486 -0.639612 0.765551
0.449153 0.419823 0.345579 0.069486 0.639612 -0.765551
-0.567195 0.040580 0.074068 -0.000577 0.478712 0.872602
0.738676 -0.014513 0.083200 -0.000943 -0.258768 0.961665
0.367598 0.243288 -0.190682 0.069486 0.639612 0.765551
1.070490 -0.084456 0.000000 0.000878 -0.986950 -0.122573
-0.322655 -0.019558 0.082160 -0.000896 -0.362943 0.925300
1.052466 0.149016 -0.124502 -0.177436 0.845388 0.503820
-1.082694 0.081497 -0.022160 0.000149 0.916039 -0.384838
-0.300026 0.082233 -0.019250 -0.000410 0.925765 -0.361956
1.183465 0.109498 0.075227 -0.000000 0.641162 -0.767405
0.341248 -0.391925 -0.314828 -0.053878 -0.662705 0.746940
0.339370 0.340559 0.269389 0.028375 0.648186 -0.760365
1.370960 0.200639 -0.183891 -0.000000 -0.641162 -0.767405
-1.458325 0.082136 -0.017303 -0.074489 0.989635 -0.067596
-0.150397 -0.010995 0.083737 -0.000907 -0.239768 0.967259
0.165277 0.358052 -0.297467 -0.053878 0.662705 0.746940
1.375585 -0.125292 -0.088422 0.000000 -0.641162 0.767405
-0.861813 0.021981 0.081545 0.000381 0.384330 0.916310
1.083506 -0.017775 0.082564 0.000276 -0.339545 0.934597
1.361598 0.082702 -0.017121 0.000310 0.951513 -0.291312
0.284042 -0.249607 -0.220305 -0.041785 0.622783 -0.781278
-1.362059 0.065230 0.053645 0.000065 0.778008 0.620601
0.506233 0.461576 -0.385644 0.069486 0.639612 0.765551
0.562421 0.018537 -0.082396 0.000926 0.353571 -0.929175
0.145731 0.026771 -0.080101 0.003984 0.308809 -0.946331
0.279321 0.089851 0.054474 0.069486 0.639612 -0.765551
0.100238 0.100288 -0.091447 -0.041785 -0.622783 -0.781278
-0.389723 0.060296 -0.059137 -0.000015 0.703910 -0.703812
1.413336 0.059818 -0.059620 -0.025027 0.705179 -0.702426
1.452338 0.179495 -0.133709 0.000000 0.641162 0.767405
-0.309911 0.077430 0.033724 -0.000794 0.914231 0.392855
0.478915 0.528106 0.438749 0.069486 0.639612 -0.765551
0.478915 -0.528106 0.438749 0.069486 -0.639612 -0.765551
0.454161 -0.406984 0.343695 0.053901 0.640230 0.766290
0.317282 -0.158022 -0.114877 0.069486 -0.639612 0.765551
0.363499 0.087156 -0.059863 0.069486 0.639612 0.765551
1.085006 0.038956 -0.074935 0.000047 0.556654 -0.824942
-0.912183 0.038564 -0.075137 -0.000653 0.352135 -0.931111
0.257423 0.292552 0.232707 -0.053878 0.662705 -0.746940
-0.741398 0.077509 0.033543 0.000253 0.919191 0.377646
0.928450 0.034254 -0.077198 0.001097 0.503488 -0.858589
-1.014092 -0.071167 0.045475 0.000271 -0.836235 0.539606
-1.015966 0.042920 -0.072737 0.000945 0.508208 -0.855760
-0.789652 -0.038864 -0.074983 -0.000064 -0.560492 -0.822600
-0.806244 0.064997 -0.053927 0.000035 0.770571 -0.630080
1.241219 -0.058633 -0.060786 0.000091 -0.601755 -0.792608
-0.170317 0.039455 0.074673 0.000778 0.467665 0.878741
0.448195 -0.353818 -0.299695 0.053901 0.640230 -0.766290
1.259874 0.082754 -0.016869 0.000372 0.951930 -0.290412
0.174350 0.099425 0.067352 -0.053878 0.662705 -0.746940
0.146167 -0.068271 -0.049718 0.000953 -0.870907 -0.482100
-1.051802 0.046997 0.070172 0.000061 0.648382 0.755279
1.396016 -0.036464 -0.076179 -0.000833 -0.417700 -0.902878
-0.166304 -0.065947 -0.052761 0.000017 -0.842217 -0.530544
-0.281719 -0.083030 0.015452 0.001199 -0.959916 0.264612
-1.050481 0.000000 -0.084456 -0.000617 -0.136534 -0.984451
0.397854 -0.477409 0.389035 0.069486 -0.639612 -0.765551
-0.928909 -0.047819 0.069614 -0.000031 -0.461215 0.882187
0.244000 -0.100021 -0.098923 -0.041785 0.622783 -0.781278
0.318519 0.409660 -0.349732 -0.041785 -0.622783 -0.781278
0.548098 0.063613 -0.055553 -0.000013 0.819292 -0.565307
-0.636104 -0.077085 -0.034506 -0.000019 -0.907044 -0.408845
0.739422 -0.058512 -0.060903 -0.000020 -0.691434 -0.716028
1.033304 -0.048683 0.069013 0.000010 -0.663818 0.741730
-0.195958 0.079058 -0.029710 0.000871 0.886159 -0.453651
-0.810275 0.066153 0.052503 -0.000191 0.782181 0.615500
-0.914069 0.064524 0.054493 -0.000005 0.763064 0.639175
1.206286 -0.044991 0.071475 0.000273 -0.532830 0.840786
-0.512825 -0.043671 0.072289 0.000965 -0.397755 0.910332
1.120302 0.041157 0.073749 -0.000042 0.579751 0.808888
1.385328 0.255064 0.196846 -0.000000 0.641162 -0.767405
-0.403220 0.083207 -0.014469 0.002141 0.953313 -0.288104
0.447747 0.180079 -0.145146 0.069486 0.639612 0.765551
0.880260 0.042756 0.072834 0.000210 0.506487 0.857034
1.103435 0.082590 0.017654 0.000663 0.967327 0.238529
0.670681 -0.076497 0.035790 0.000606 -0.898746 0.427931
-0.809086 -0.073523 -0.041560 -0.000985 -0.864100 -0.494029
-0.630289 0.000000 -0.084456 0.000259 -0.159202 -0.980741
-1.100149 -0.083110 0.015015 0.000480 -0.956413 0.276529
0.260010 0.268710 -0.234247 -0.041785 -0.622783 -0.781278
-0.201436 0.019899 -0.082078 -0.001349 0.265854 -0.959350
0.804772 -0.012118 0.083582 0.000143 -0.234660 0.968301
-1.490593 -0.033215 0.072269 -0.227473 -0.507879 0.823719
0.080342 -0.016498 -0.082829 0.000284 -0.283020 -0.954889
-0.769414 -0.081852 0.020809 0.001221 -0.927845 0.360557
-0.630689 0.079347 -0.028929 0.000062 0.931822 -0.350280
0.253417 0.068402 -0.049538 -0.001028 0.871790 -0.480497
1.224857 -0.076872 0.034979 0.001241 -0.910716 0.396807
0.278844 0.327602 0.282199 -0.041785 -0.622783 0.781278
-0.718117 -0.077832 0.032787 0.000923 -0.924142 0.366092
-1.345553 -0.043787 -0.072219 0.000229 -0.614077 -0.783811
0.843553 0.081688 -0.021443 0.001038 0.956585 -0.275447
0.998008 -0.106952 -0.073100 -0.055918 -0.713273 0.693616
0.257633 -0.336952 -0.288518 -0.041785 0.622783 -0.781278
-0.162784 -0.067436 0.050845 -0.000209 -0.809243 0.579221
1.291228 -0.101862 0.068847 0.000000 -0.641162 -0.767405
0.338705 0.398377 0.341818 -0.041785 -0.622783 0.781278
0.411547 0.098471 0.073678 0.069486 0.639612 -0.765551
0.349510 0.011381 0.083686 -0.000383 0.241130 0.966728
0.461088 0.060093 -0.059343 0.000182 0.784097 -0.612791
0.288936 -0.397071 -0.323166 -0.053878 -0.662705 0.746940
-0.619273 0.047904 0.069556 0.000059 0.657984 0.746929
0.220397 0.083414 -0.013225 0.000896 0.966893 -0.239532
1.362833 0.077178 0.034299 0.001358 0.915384 0.386367
0.230451 -0.420062 -0.353314 -0.041785 0.622783 -0.781278
0.829496 0.034207 0.077218 0.001748 0.506192 0.857179
-1.461989 -0.082140 0.015803 -0.117413 -0.980289 0.125352
0.464225 0.592542 -0.491252 0.069486 0.639612 0.765551
0.307921 -0.179592 0.132048 0.069486 -0.639612 -0.765551
1.071973 0.118059 -0.082379 0.000000 0.641162 0.767405
-0.930426 -0.084456 0.000000 0.005952 -0.989029 -0.116426
1.381285 -0.111679 0.077049 0.000000 -0.641162 -0.767405
1.385328 -0.239065 0.215995 -0.000000 0.641162 0.767405
0.001906 -0.076537 0.067255 -0.041785 0.622783 0.781278
1.406522 0.184960 0.138275 -0.000000 0.641162 -0.767405
-1.203475 0.052401 0.066234 0.001705 0.529856 0.843082
1.452600 -0.213299 0.161952 0.000000 -0.641162 -0.767405
0.931667 0.075983 0.036869 0.000035 0.838233 0.536897
0.480711 -0.014168 -0.083259 -0.000109 -0.250732 -0.964115
-1.413336 -0.071458 -0.045018 0.001016 -0.843236 -0.529724
0.324275 -0.612270 0.511547 -0.053878 -0.662705 -0.746940
0.445457 -0.074263 -0.040222 0.000301 -0.877208 -0.470435
-0.340285 0.015005 -0.083112 -0.001224 0.263227 -0.960232
-0.492359 -0.075931 0.036976 0.001020 -0.899804 0.424295
1.097806 -0.114380 0.079305 -0.000000 -0.641162 -0.767405
0.418717 0.590405 0.485336 0.028375 0.648186 -0.760365
-0.776367 -0.014851 0.083140 -0.001082 -0.273465 0.958088
-1.430656 0.018832 -0.082330 -0.001337 0.068771 -0.992906
-1.138700 -0.016829 0.082762 0.000181 -0.234690 0.968325
0.098163 0.223403 -0.189475 -0.041785 -0.622783 -0.781278
-1.311188 0.059360 0.060077 0.000400 0.613306 0.784234
-0.493604 0.065223 -0.053654 0.000067 0.774193 -0.625646
0.059420 0.145900 0.116876 -0.053878 0.662705 -0.746940
0.981758 -0.011754 -0.083634 0.000537 -0.228523 -0.969842
0.220411 0.211390 -0.163368 -0.053878 0.662705 0.746940
-0.912182 -0.059047 -0.060384 0.000042 -0.692438 -0.715085
0.215413 -0.290127 0.248934 -0.041785 0.622783 0.781278
-0.305930 -0.071984 -0.044172 0.000045 -0.843753 -0.528099
1.286640 -0.168731 -0.124716 -0.000000 -0.641162 0.767405
0.365585 0.054717 0.064334 0.000029 0.646122 0.757225
1.479566 -0.074523 -0.047009 -0.075909 -0.869257 -0.480466
0.468862 0.078455 0.031267 0.001318 0.928541 0.355120
0.334648 -0.103716 0.071080 0.069486 -0.639612 -0.765551
0.697371 0.013647 0.083346 -0.000554 0.253353 0.963240
0.377883 0.171281 -0.152132 0.053901 -0.640230 -0.766290
-1.250573 -0.000000 0.084456 -0.000803 0.060618 0.994772
1.121623 0.177927 -0.148657 -0.177436 0.845388 0.503820
0.485419 -0.079864 0.068190 0.053901 0.640230 0.766290
1.444243 -0.275795 -0.214167 0.000000 -0.641162 0.767405
-0.616425 -0.045771 -0.070977 0.000465 -0.628316 -0.771486
0.236999 -0.225010 0.174256 -0.053878 -0.662705 -0.746940
-0.806244 -0.064997 0.053927 0.000035 -0.770571 0.630080
0.121244 -0.308593 0.256762 -0.053878 -0.662705 -0.746940
-0.723063 0.045910 0.070888 0.000148 0.543420 0.833796
-0.596669 -0.083328 0.013757 0.000710 -0.962198 0.258573
0.314965 0.154275 -0.142350 0.053901 -0.640230 -0.766290
0.366646 -0.345754 -0.298694 0.053901 0.640230 -0.766290
0.269491 0.173835 0.159126 -0.041785 -0.622783 0.781278
1.509713 0.146344 0.122270 0.368902 -0.565787 0.737425
0.194928 -0.224726 -0.177038 -0.053878 -0.662705 0.746940
-0.084401 0.063989 0.055120 0.000019 0.673628 0.732866
0.070788 0.079923 0.027297 0.000475 0.897393 0.431272
0.999775 0.075083 -0.038671 0.000046 0.825269 -0.556169
-1.153813 0.046022 0.070815 0.000065 0.543269 0.834777
0.394317 0.111164 -0.100749 0.053901 -0.640230 -0.766290
-0.029588 -0.080157 -0.026600 0.002087 -0.943013 -0.317993
0.355938 0.346843 -0.276144 0.069486 0.639612 0.765551
1.520136 -0.029497 -0.023033 1.000000 -0.000000 0.000000
-1.050481 0.000000 0.084456 -0.001714 0.029578 0.995796
-0.836682 0.082867 -0.016307 -0.003571 0.948231 -0.302243
1.139700 -0.166185 -0.122589 -0.060229 -0.718318 0.687309
0.122178 -0.160738 0.125514 -0.053878 -0.662705 -0.746940
1.413336 -0.071458 -0.045018 -0.024779 -0.843332 -0.528334
0.444018 -0.082899 0.016144 0.001092 -0.952801 0.289490
1.244389 0.160617 0.150452 -0.000000 -0.641162 0.767405
-0.531335 -0.070054 -0.047173 0.000036 -0.821530 -0.562050
0.246626 0.363078 0.308755 -0.041785 -0.622783 0.781278
1.495755 -0.017114 -0.087666 -0.073677 -0.062952 -0.991264
1.208346 0.146391 -0.138567 -0.000000 -0.641162 -0.767405
-0.963325 0.019305 0.082220 -0.000173 0.261001 0.961158
-1.086509 -0.078131 -0.032067 -0.001000 -0.871204 -0.481453
1.145957 0.068741 -0.073691 -0.000000 -0.767405 0.641162
0.358447 -0.075205 0.038431 -0.000216 -0.883497 0.458435
0.161197 0.249077 -0.201076 -0.053878 0.662705 0.746940
0.448472 -0.484951 0.409236 0.053901 0.640230 0.766290
0.297531 -0.317031 0.274772 -0.041785 0.622783 0.781278
0.946981 -0.061157 -0.058246 -0.000017 -0.719070 -0.688311
0.447908 0.154472 0.133163 0.053901 -0.640230 0.766290
0.130833 0.172714 -0.150817 -0.041785 -0.622783 -0.781278
0.325087 -0.434102 0.353414 -0.053878 -0.662705 -0.746940
1.172940 -0.023099 -0.081236 0.000970 -0.276055 -0.956543
0.210360 0.026699 0.080125 0.000565 0.310751 0.945765
1.256187 0.111501 -0.109417 -0.000000 -0.641162 -0.767405
1.475522 -0.016994 0.086149 -0.075004 -0.064719 0.990823
-1.548088 0.045880 0.039765 -0.452452 0.628893 0.624454
1.071973 -0.102060 -0.101528 -0.000000 0.641162 -0.767405
1.121019 -0.083046 0.015366 0.000323 -0.959451 0.267022
1.304765 0.171469 -0.127003 -0.000000 0.641162 0.767405
0.213511 -0.079954 -0.027206 0.000377 -0.937652 -0.334730
1.210546 -0.195802 -0.147333 -0.060229 -0.718318 0.687309
0.199778 0.438686 -0.366519 -0.053878 0.662705 0.746940
0.266116 -0.470664 -0.395558 -0.041785 0.622783 -0.781278
-0.061237 -0.057574 -0.061790 0.000073 -0.671516 -0.734760
0.181867 0.329594 0.278600 -0.041785 -0.622783 0.781278
1.326933 -0.068741 -0.073691 -0.000000 0.641162 -0.767405
1.458508 0.299459 -0.233938 0.115805 0.680759 0.704751
1.335784 0.231615 0.177254 -0.000000 0.641162 -0.767405
0.794898 -0.083174 0.014660 0.000200 -0.958145 0.273153
0.463549 -0.158625 -0.135533 0.053901 0.640230 -0.766290
1.326933 0.084740 -0.054542 0.000000 0.641162 0.767405
0.247384 -0.279215 -0.221599 -0.053878 -0.662705 0.746940
0.320220 -0.543074 0.450447 -0.053878 -0.662705 -0.746940
0.059539 -0.020728 0.081873 -0.001615 -0.263159 0.960764
0.450223 0.500764 0.413301 0.069486 0.639612 -0.765551
1.245969 0.210610 -0.159705 -0.060229 0.718318 0.687309
1.237145 0.129165 0.091658 0.000000 0.641162 -0.767405
0.054233 0.051142 0.067211 -0.000032 0.692328 0.715173
0.506233 -0.293714 -0.245396 0.053901 0.640230 -0.766290
1.426920 0.113225 -0.078340 0.000000 0.641162 0.767405
-1.361669 -0.076349 -0.036106 0.000349 -0.908081 -0.401956
0.349139 0.133485 0.122576 0.053901 -0.640230 0.766290
0.298618 -0.500179 -0.420823 -0.041785 0.622783 -0.781278
0.895956 -0.076658 0.035445 -0.000526 -0.903412 0.416528
0.947459 -0.070964 0.045793 0.000784 -0.894870 0.435972
1.333193 0.127048 -0.122406 -0.000000 -0.641162 -0.767405
1.335783 -0.215616 -0.196403 -0.000000 0.641162 -0.767405
0.390443 -0.060804 -0.058946 -0.000000 0.767405 0.641162
1.183465 -0.093499 0.094376 -0.000000 0.641162 0.767405
1.125849 -0.068741 0.073691 -0.000000 0.767405 -0.641162
0.268781 -0.046246 0.070669 0.000031 -0.552047 0.828301
1.383682 0.099877 0.099704 -0.000000 -0.641162 0.767405
0.127207 -0.018445 0.082417 -0.000646 -0.338862 0.936277
1.439626 -0.097945 0.065574 0.000000 -0.641162 -0.767405
0.215756 0.131692 -0.122658 -0.041785 -0.622783 -0.781278
-0.091926 -0.079962 0.027182 0.001665 -0.940675 0.323156
0.330382 0.077632 0.033258 -0.000754 0.916736 0.387192
-0.990454 -0.084456 0.000000 -0.002404 -0.988389 -0.122794
0.369370 -0.373329 0.299491 0.069486 -0.639612 -0.765551
1.112593 -0.084191 -0.086599 0.000000 0.641162 -0.767405
0.332548 -0.072569 -0.044866 -0.000000 0.767405 0.641162
1.341262 -0.144855 0.137284 0.000000 0.641162 0.767405
0.438297 0.227789 0.184150 0.069486 0.639612 -0.765551
0.467671 -0.146803 0.119153 0.069486 -0.639612 -0.765551
1.400284 0.242990 -0.186759 0.000000 0.641162 0.767405
1.156033 -0.145282 0.137640 -0.000000 0.641162 0.767405
0.075281 0.265101 -0.221490 -0.053878 0.662705 0.746940
0.463852 -0.519405 -0.436941 0.053901 0.640230 -0.766290
0.384212 -0.625159 -0.525027 -0.041785 0.622783 -0.781278
0.255999 0.220861 0.169204 -0.053878 0.662705 -0.746940
0.193838 -0.365646 -0.307979 -0.041785 0.622783 -0.781278
0.459078 0.569601 0.479215 0.053901 -0.640230 0.766290
-0.152439 0.082933 -0.015967 -0.002272 0.939563 -0.327190
0.181527 -0.042754 0.072835 -0.000100 -0.602318 0.792169
0.417445 0.450126 0.368019 0.069486 0.639612 -0.765551
1.380962 0.286341 -0.239236 -0.177436 0.845388 0.503820
0.448344 -0.358371 0.294163 0.069486 -0.639612 -0.765551
0.360359 -0.251349 0.220261 0.053901 0.640230 0.766290
0.404137 0.381307 -0.309313 0.069486 0.639612 0.765551
0.105783 0.207827 0.168475 -0.053878 0.662705 -0.746940
0.376313 0.517805 0.439030 -0.041785 -0.622783 0.781278
0.053076 -0.160746 -0.130505 -0.053878 -0.662705 0.746940
0.810833 0.083747 0.010916 0.000479 0.967780 0.237608
0.041830 0.185347 -0.153143 -0.053878 0.662705 0.746940
-1.537796 -0.026685 0.059504 -0.417498 -0.314539 0.847374
0.489398 0.223776 -0.188147 0.053901 -0.640230 -0.766290
0.371014 -0.512007 -0.419220 -0.053878 -0.662705 0.746940
1.423577 -0.182398 -0.168650 0.000000 0.641162 -0.767405
-1.169155 -0.083476 0.012828 0.000065 -0.958782 0.268863
0.202291 -0.075344 0.038158 0.000218 -0.884693 0.456115
1.102304 0.084800 -0.087108 0.000000 -0.641162 -0.767405
-0.898815 0.083682 0.011407 -0.000701 0.967579 0.239389
0.279321 -0.089851 0.054474 0.069486 -0.639612 -0.765551
0.013057 -0.108664 -0.087183 -0.053878 -0.662705 0.746940
0.407899 -0.176254 -0.154176 0.053901 0.640230 -0.766290
-1.342537 -0.081580 0.021853 -0.001481 -0.907025 0.403300
1.326294 -0.082839 -0.016447 0.001097 -0.953983 -0.284356
0.207533 0.272295 -0.234298 -0.041785 -0.622783 -0.781278
0.340387 0.215655 0.165125 0.069486 0.639612 -0.765551
0.215413 0.290127 0.248934 -0.041785 -0.622783 0.781278
0.278898 -0.219434 -0.166286 -0.053878 -0.662705 0.746940
0.436560 -0.454039 -0.373023 0.069486 -0.639612 0.765551
1.483084 -0.222429 -0.193967 0.248188 0.598285 -0.756611
-1.121010 0.083961 0.009125 -0.004009 0.974650 0.209865
-1.519342 0.013137 -0.070789 -0.337198 0.120341 -0.929302
-1.202932 -0.012221 -0.083567 -0.000770 -0.125173 -0.988301
0.804772 0.012118 -0.083582 0.000143 0.234660 -0.968301
0.393732 -0.189472 0.166216 0.053901 0.640230 0.766290
1.520136 -0.039188 0.056249 1.000000 -0.000000 -0.000000
0.346495 -0.296066 0.258597 0.053901 0.640230 0.766290
0.202933 -0.134221 0.096162 -0.053878 -0.662705 -0.746940
1.458597 -0.135359 -0.129349 0.000000 0.641162 -0.767405
1.458601 -0.151365 0.110207 0.000000 -0.641162 -0.767405
-0.550252 -0.084456 0.000000 -0.001944 -0.995227 -0.059181
1.327336 0.037443 0.075702 0.000001 0.540661 0.835613
0.395704 0.082212 -0.019337 0.000247 0.960595 -0.262783
0.213358 -0.381285 0.321489 -0.041785 0.622783 0.781278
0.338659 -0.195997 -0.175542 0.053901 0.640230 -0.766290
0.278693 -0.131463 -0.125842 0.022011 0.634925 -0.771911
0.007198 0.019016 -0.082287 -0.001263 0.335278 -0.937851
1.311805 0.257430 -0.215081 -0.177436 0.845388 0.503820
1.520136 0.043987 0.024266 1.000000 -0.000000 -0.000000
-0.008608 -0.053098 -0.065677 0.000047 -0.715327 -0.692209
1.035542 -0.097280 0.065018 0.000000 -0.641162 -0.767405
1.383548 0.177515 -0.132055 -0.000000 0.641162 0.767405
0.406891 0.305817 -0.262496 0.053901 -0.640230 -0.766290
1.170536 -0.084456 0.000000 0.000699 -0.992941 -0.061254
0.002457 0.042076 0.073228 0.000014 0.494751 0.863469
0.382785 -0.134500 -0.101169 0.069486 -0.639612 0.765551
1.334527 -0.247631 0.190636 -0.060229 -0.718318 -0.687309
0.730335 0.000000 -0.084456 -0.000930 -0.145890 -0.983768
0.484410 0.192933 0.159213 0.069486 0.639612 -0.765551
0.245269 0.113302 0.074548 -0.053878 0.662705 -0.746940
0.301145 0.065655 -0.053141 -0.000000 -0.767405 0.641162
1.221437 -0.097627 -0.065309 0.000000 -0.641162 0.767405
-1.598507 0.012180 -0.027289 -0.631043 0.264609 -0.725014
0.194928 0.224726 0.177038 -0.053878 0.662705 -0.746940
1.445012 -0.227541 0.206367 0.000000 0.641162 0.767405
-1.001240 0.083232 0.014329 -0.000364 0.963313 0.253752
0.181088 0.174936 0.155275 -0.041785 -0.622783 0.781278
-0.289095 0.019721 -0.082121 0.002092 0.249365 -0.964534
-1.512620 -0.072822 -0.013595 -0.281619 -0.901173 -0.314198
0.539439 0.018585 0.082386 -0.000208 0.251244 0.963901
1.520136 0.020061 -0.020503 1.000000 0.000000 -0.000000
0.320700 -0.267064 -0.236181 0.022011 0.634925 -0.771911
1.483616 -0.099415 -0.099319 0.248188 0.598285 -0.756611
1.178067 0.164651 0.121307 -0.000000 0.641162 -0.767405
0.318966 -0.211561 0.159761 0.069486 -0.639612 -0.765551
1.311144 0.073242 0.042053 0.000177 0.861698 0.498387
0.129659 -0.210489 -0.169114 -0.053878 -0.662705 0.746940
0.409110 0.356378 0.304583 0.053901 -0.640230 0.766290
1.479431 0.146088 -0.105798 0.125221 0.643531 0.749793
0.362707 -0.402666 0.346520 0.022011 0.634925 0.771911
0.096720 -0.190271 0.153552 -0.053878 -0.662705 -0.746940
0.442491 0.121649 0.095851 0.069486 0.639612 -0.765551
0.201857 -0.118866 -0.111691 -0.041785 0.622783 -0.781278
0.140210 0.169276 0.131788 -0.053878 0.662705 -0.746940
0.367237 0.308608 -0.245224 0.069486 0.639612 0.765551
0.483867 -0.453466 0.376838 0.069486 -0.639612 -0.765551
1.471062 0.191438 -0.176203 0.248188 -0.598285 -0.756611
0.391184 0.558070 0.458634 -0.053878 0.662705 -0.746940
1.518051 -0.085224 0.071204 0.368902 -0.625063 -0.687900
-0.423024 -0.073713 0.041221 0.000183 -0.874159 0.476045
0.347619 -0.458793 0.390455 -0.041785 0.622783 0.781278
0.177267 -0.169281 0.129120 -0.053878 -0.662705 -0.746940
0.226624 0.077054 0.034577 0.001154 0.914390 0.388672
1.271935 -0.109015 -0.107339 0.000000 0.641162 -0.767405
0.265767 -0.156380 0.145012 -0.041785 0.622783 0.781278
-1.300012 0.015673 0.082989 0.002181 0.218895 0.972634
1.405373 0.261248 0.234529 -0.060229 -0.548622 0.829089
1.452338 0.163496 0.152858 0.000000 -0.641162 0.767405
0.931289 0.082547 -0.017853 -0.001752 0.970252 -0.227845
1.395763 -0.084309 -0.086698 -0.000000 0.641162 -0.767405
0.506233 0.507356 -0.423893 0.069486 0.639612 0.765551
0.290010 -0.414317 0.338390 -0.053878 -0.662705 -0.746940
0.409999 0.629444 0.520602 -0.053878 0.662705 -0.746940
0.409999 -0.629444 0.520602 -0.053878 -0.662705 -0.746940
1.263681 -0.218014 -0.165891 -0.060229 -0.718318 0.687309
-1.293185 0.082683 -0.017214 -0.002558 0.968330 -0.235346
0.311354 -0.491677 0.405487 -0.053878 -0.662705 -0.746940
-0.409153 -0.037393 0.075727 -0.000706 -0.449468 0.888141
0.328879 -0.436007 -0.354831 -0.053878 -0.662705 0.746940
1.015715 0.082568 -0.085243 -0.000000 -0.641162 -0.767405
0.403814 -0.415147 0.354057 0.053901 0.640230 0.766290
0.011057 0.126014 -0.107184 -0.041785 -0.622783 -0.781278
1.339759 0.094694 -0.095375 0.000000 -0.641162 -0.767405
0.297058 0.421715 0.344446 -0.053878 0.662705 -0.746940
0.488430 0.257685 0.216546 0.053901 -0.640230 0.766290
-0.090041 0.000000 0.084456 0.000116 0.044704 0.994737
1.145957 0.084740 0.054542 0.000000 0.641162 -0.767405
0.490356 -0.424041 -0.355400 0.053901 0.640230 -0.766290
0.288709 0.300012 -0.237069 -0.053878 0.662705 0.746940
0.253268 -0.444763 0.374225 -0.041785 0.622783 0.781278
0.400566 -0.240866 0.208674 0.053901 0.640230 0.766290
0.447574 0.357834 -0.293644 0.069486 0.639612 0.765551
1.486687 0.032923 0.082302 -0.076376 0.320359 0.939482
0.130271 0.272972 0.224507 -0.053878 0.662705 -0.746940
0.354863 0.472756 0.401972 -0.041785 -0.622783 0.781278
1.051113 -0.047819 -0.069614 -0.000123 -0.566205 -0.818719
0.739877 0.075059 -0.038717 -0.000142 0.882859 -0.459684
0.389571 0.030473 -0.078767 0.000981 0.460642 -0.882383
1.427475 0.068741 0.073691 -0.000000 -0.641162 0.767405
1.030248 -0.082291 -0.085012 -0.000000 0.641162 -0.767405
0.140210 -0.169276 -0.131788 -0.053878 -0.662705 0.746940
0.488292 0.378062 -0.314240 0.069486 0.639612 0.765551
1.075578 0.076741 0.064116 0.000000 -0.767405 -0.641162
-0.257458 0.061633 0.057743 -0.000061 0.728103 0.678750
0.671674 0.082723 -0.017021 -0.001919 0.943554 -0.317270
-0.003785 -0.081721 0.021320 0.001199 -0.954028 0.284148
1.274766 -0.167771 0.156430 -0.000000 0.641162 0.767405
0.310567 0.121920 -0.115626 0.053901 -0.640230 -0.766290
0.073260 0.069714 -0.048283 -0.053878 0.662705 0.746940
0.194922 -0.224728 0.177040 -0.053878 -0.662705 -0.746940
0.304880 0.361124 -0.290123 -0.053878 0.662705 0.746940
1.370960 -0.216638 0.164742 0.000000 -0.641162 -0.767405
1.458508 -0.283460 -0.253087 0.268887 0.593610 -0.754395
-0.115192 -0.073575 -0.041467 0.000765 -0.920661 -0.374486
0.193195 -0.267047 0.214712 -0.053878 -0.662705 -0.746940
0.463079 0.654963 0.543300 0.069486 0.639612 -0.765551
0.303276 -0.073403 -0.075604 0.053901 0.640230 -0.766290
0.112979 -0.089786 -0.083757 -0.041785 0.622783 -0.781278
1.461369 -0.103951 0.103109 0.000000 0.641162 0.767405
1.378392 -0.143771 0.103862 0.000000 -0.641162 -0.767405
0.396658 0.252485 0.218657 0.053901 -0.640230 0.766290
0.293017 0.486540 0.402252 -0.053878 0.662705 -0.746940
1.227192 0.140585 -0.101200 0.000000 0.641162 0.767405
0.261771 0.053448 0.065392 -0.000066 0.631570 0.769409
-0.770353 0.000000 -0.084456 0.002905 -0.130476 -0.986767
-0.268752 -0.046242 -0.070672 -0.000031 -0.551997 -0.828334
0.215107 0.410175 0.340118 -0.053878 0.662705 -0.746940
0.464621 0.141566 -0.121204 0.053901 -0.640230 -0.766290
1.192834 -0.188398 0.141147 -0.055918 -0.713273 -0.693616
0.092909 0.120752 0.107368 -0.041785 -0.622783 0.781278
0.221296 0.093400 -0.058620 -0.053878 0.662705 0.746940
1.347302 -0.177379 -0.164457 0.000000 0.641162 -0.767405
1.393168 -0.281794 0.227308 -0.119375 -0.786393 -0.599447
-0.878997 -0.015872 0.082951 0.000736 -0.322709 0.940776
-0.021431 0.083417 -0.013207 0.000976 0.962557 -0.254720
0.465781 -0.666720 0.559886 0.053901 0.640230 0.766290
1.256787 0.083549 0.086063 0.000000 -0.641162 0.767405
-1.224036 -0.031388 0.078407 -0.000548 -0.359060 0.926852
0.329387 0.224739 -0.200207 0.053901 -0.640230 -0.766290
0.434762 0.555144 -0.468846 0.053901 -0.640230 -0.766290
0.409817 0.242384 -0.209293 0.053901 -0.640230 -0.766290
0.240904 0.436519 0.361630 -0.053878 0.662705 -0.746940
1.055780 0.083211 -0.014447 0.000112 0.960423 -0.265622
0.473115 -0.269748 -0.227702 0.053901 0.640230 -0.766290
0.302016 -0.023149 0.081222 -0.000835 -0.288556 0.952889
-1.259460 -0.076430 -0.035933 -0.000513 -0.847281 -0.521864
0.334054 0.239806 0.212467 0.053901 -0.640230 0.766290
-1.447973 -0.044742 -0.071659 -0.008208 -0.529660 -0.843101
-0.190087 0.000000 0.084456 -0.002422 0.125006 0.987773
0.506233 -0.339495 -0.283646 0.053901 0.640230 -0.766290
0.093493 0.060470 0.059346 0.000000 -0.767405 -0.641162
0.091298 -0.084681 0.060261 -0.053878 -0.662705 -0.746940
0.151449 -0.282920 -0.231805 -0.053878 -0.662705 0.746940
0.211409 -0.154600 -0.140687 -0.041785 0.622783 -0.781278
-0.963013 -0.032928 -0.077772 -0.000147 -0.374638 -0.920441
0.352509 0.570735 -0.479948 -0.041785 -0.622783 -0.781278
0.047639 -0.082441 0.018340 -0.002358 -0.938243 0.331948
1.175236 0.099548 -0.066914 0.000000 0.641162 0.767405
0.325174 0.476016 -0.390594 -0.053878 0.662705 0.746940
0.201857 0.118866 0.111691 -0.041785 -0.622783 0.781278
0.326829 -0.354152 0.305929 -0.041785 0.622783 0.781278
0.228904 0.170653 0.126612 -0.053878 0.662705 -0.746940
0.419948 -0.087001 0.064857 0.069486 -0.639612 -0.765551
0.009331 -0.125535 0.106710 -0.041785 0.622783 0.781278
1.399720 -0.211897 -0.193297 0.000000 0.641162 -0.767405
-1.293609 -0.052333 -0.066287 0.000475 -0.611490 -0.785534
1.367194 -0.247791 -0.190770 -0.000000 -0.641162 0.767405
1.266526 0.123346 0.119313 -0.000000 -0.641162 0.767405
0.338359 -0.118139 -0.110513 0.053901 0.640230 -0.766290
0.009114 0.096430 -0.076613 -0.053878 0.662705 0.746940
-1.223328 0.077214 0.034217 -0.000929 0.911421 0.395159
1.033304 0.048683 -0.069013 0.000010 0.663818 -0.741730
1.520136 -0.082079 -0.039623 -0.067145 -0.935604 -0.331888
1.278012 0.021864 -0.081577 -0.003939 0.281436 -0.954526
1.420145 0.233437 0.178777 0.000000 0.641162 -0.767405
1.224120 0.038966 0.074930 -0.000103 0.557581 0.824363
0.438561 -0.302437 0.257444 0.053901 0.640230 0.766290
0.366174 0.610348 -0.512256 -0.041785 -0.622783 -0.781278
1.430656 0.082391 -0.018559 -0.052403 0.991751 -0.065749
1.259763 0.077974 0.032448 -0.000182 0.868279 0.486709
0.209933 0.340849 -0.278983 -0.053878 0.662705 0.746940
-1.600573 0.016999 0.022564 -0.636816 0.413008 0.645991
0.346917 -0.300067 -0.236243 0.069486 -0.639612 0.765551
0.361576 -0.120846 0.111141 0.053901 0.640230 0.766290
-1.378866 -0.071976 0.044185 0.001900 -0.849152 0.518982
0.486687 0.596507 0.496604 0.069486 0.639612 -0.765551
0.486687 -0.596507 0.496604 0.069486 -0.639612 -0.765551
-1.469925 -0.000000 0.082833 -0.074029 -0.066395 0.989628
0.438238 -0.017170 0.082692 0.002397 -0.230167 0.969566
-1.171803 -0.038840 0.074995 -0.000771 -0.461727 0.881827
0.194657 -0.057757 -0.062594 -0.000000 0.767405 0.641162
0.384728 0.533987 -0.452379 -0.041785 -0.622783 -0.781278
1.109367 0.138159 0.099172 -0.000000 0.641162 -0.767405
0.256135 0.451972 -0.380124 -0.041785 -0.622783 -0.781278
0.464902 0.299861 0.246781 0.069486 0.639612 -0.765551
0.254127 -0.025264 -0.080589 0.002182 -0.307050 -0.946961
1.154569 -0.099548 0.066914 0.000000 -0.641162 -0.767405
0.411327 -0.496663 -0.421635 0.053901 0.640230 -0.766290
1.361437 -0.016818 -0.082764 0.000451 -0.280868 -0.955041
0.642659 0.070688 0.046216 -0.000675 0.830684 0.547790
0.192861 0.259776 0.223534 -0.041785 -0.622783 0.781278
0.059539 0.020728 -0.081873 -0.001615 0.263159 -0.960764
-0.481405 0.064524 0.054493 -0.000588 0.764628 0.637355
1.335783 0.215616 -0.196403 -0.000000 -0.641162 -0.767405
1.416898 0.153835 -0.144787 0.000000 -0.641162 -0.767405
0.964981 0.068741 0.073691 -0.070185 -0.531585 0.837202
1.286716 0.084740 -0.054542 0.000000 0.641162 0.767405
0.459876 -0.553360 -0.458121 0.069486 -0.639612 0.765551
0.199583 -0.319618 0.271596 -0.041785 0.622783 0.781278
0.409741 0.061472 0.058147 -0.000000 -0.767405 -0.641162
1.338164 -0.114090 -0.079064 -0.000000 -0.641162 0.767405
-0.319290 -0.069786 0.047568 0.000069 -0.827608 0.553019
-0.266578 0.072929 -0.042593 -0.000931 0.864339 -0.493738
1.223697 0.083196 0.014534 0.000522 0.961066 0.261523
0.128582 -0.225669 0.182660 -0.053878 -0.662705 -0.746940
-1.310848 -0.023983 0.080979 -0.001218 -0.391685 0.914755
0.600811 -0.078983 -0.029909 -0.000353 -0.934363 -0.340199
0.327572 -0.559156 -0.464186 -0.053878 -0.662705 0.746940
0.465321 -0.129163 -0.104202 0.069486 -0.639612 0.765551
0.261312 -0.490324 0.407896 -0.053878 -0.662705 -0.746940
1.503459 -0.192185 0.160569 0.368902 -0.625063 -0.687900
1.495121 0.253305 0.211635 0.368902 -0.565787 0.737425
1.507629 -0.161624 -0.135036 0.368902 0.565787 -0.737425
1.488867 -0.299146 0.249935 0.368902 -0.625063 -0.687900
-0.337958 -0.042366 -0.073061 -0.000081 -0.599610 -0.794535
1.090500 0.000000 -0.084456 0.000311 -0.131991 -0.986650
1.270582 0.000000 0.084456 0.000820 0.119115 0.988352
-0.390179 -0.084456 0.000000 -0.001221 -0.995560 -0.044509
-0.130060 -0.084456 0.000000 -0.001394 -0.984122 -0.136302
0.890408 0.000000 -0.084456 -0.000227 -0.086016 -0.988625
0.590270 0.084456 -0.000000 -0.000989 0.995571 0.056801
0.970445 -0.084456 0.000000 0.000130 -0.993843 -0.077997
1.190546 0.000000 0.084456 0.001790 0.057310 0.995606
1.010463 0.084456 -0.000000 -0.001840 0.989690 0.113915
0.970445 0.000000 0.084456 0.002570 0.147859 0.983430
-1.102716 -0.036828 0.076003 0.001598 -0.535385 0.838730
1.260368 0.197190 0.148493 -0.000000 0.641162 -0.767405
0.362707 0.414043 -0.332903 -0.012746 0.655884 0.754161
-0.551673 0.081976 0.020318 -0.001318 0.963904 0.252497
-0.564021 0.054516 -0.064504 0.000018 0.649064 -0.754650
-0.202261 -0.075342 -0.038163 -0.000215 -0.884664 -0.456171
0.155102 -0.087026 -0.083810 -0.041785 0.622783 -0.781278
-0.720302 0.054464 -0.064548 0.000033 0.647786 -0.755751
-0.478841 -0.065909 -0.052809 0.001106 -0.842860 -0.529233
-0.652293 0.034043 -0.077291 0.000244 0.405370 -0.908621
0.650970 0.044651 -0.071688 0.000024 0.531532 -0.841611
-0.704345 -0.064848 -0.054107 -0.000290 -0.832676 -0.545090
0.175436 0.044213 0.071958 -0.001239 0.521074 0.847960
-0.253033 -0.035874 0.076458 -0.000123 -0.426669 0.898579
-0.721435 -0.037926 0.075461 -0.000072 -0.452403 0.886620
-1.137584 -0.061400 -0.057990 0.000004 -0.721226 -0.686037
-0.964530 -0.031882 0.078207 -0.001479 -0.366548 0.923808
0.642513 0.040857 0.073916 -0.000066 0.480439 0.871614
1.276288 -0.043524 -0.072377 -0.000740 -0.512028 -0.853399
-1.154168 0.046890 -0.070243 0.000040 0.556369 -0.825384
0.549434 -0.063579 -0.055592 -0.000072 -0.749805 -0.654730
0.566962 -0.078537 0.031060 0.001656 -0.927161 0.358366
-1.222698 0.063471 -0.055715 0.000011 0.664398 -0.741220
-0.490225 0.000000 0.084456 0.001185 0.136104 0.985709
-0.205681 0.068578 0.049293 0.000068 0.809498 0.579281
-0.409628 -0.068412 -0.049523 0.001108 -0.871795 -0.480404
0.057448 -0.079024 -0.029799 -0.000819 -0.931528 -0.347159
0.721127 -0.057701 0.061672 0.000034 -0.762427 0.639945
-1.309336 -0.070826 0.046005 -0.001236 -0.839038 0.534523
-0.353836 0.071109 -0.045567 0.000064 0.772365 -0.627902
-1.206781 -0.060182 -0.059253 0.000029 -0.711702 -0.695925
-0.136533 0.069414 0.048110 -0.000096 0.819967 0.563974
0.514569 0.075644 -0.037560 -0.002775 0.889199 -0.447578
0.404757 -0.584132 0.480778 -0.053878 -0.662705 -0.746940
-1.292669 0.050308 -0.067838 -0.000006 0.683230 -0.723841
0.480303 -0.063243 -0.055975 0.000030 -0.745858 -0.659066
0.094383 -0.039549 0.074624 -0.000047 -0.569452 0.816437
-0.654726 0.073817 0.041035 0.000107 0.809043 0.579544
0.424243 -0.132201 0.116220 0.053901 0.640230 0.766290
-0.770465 0.074776 -0.039259 0.000036 0.819102 -0.565608
0.506233 -0.110592 -0.092399 0.053901 0.640230 -0.766290
0.506233 0.446316 0.372894 0.069486 0.639612 -0.765551
0.506233 0.308974 -0.258146 0.069486 0.639612 0.765551
0.506233 0.125852 0.105149 0.069486 0.639612 -0.765551
0.506233 0.324234 0.270896 0.069486 0.639612 -0.765551
0.506233 0.705738 0.589640 0.069486 0.639612 -0.765551
0.506233 -0.705738 0.589640 0.053901 0.640230 0.766290
0.506233 0.385275 0.321895 0.069486 0.639612 -0.765551
0.506233 -0.171633 -0.143398 0.053901 0.640230 -0.766290
0.506233 -0.339495 0.283646 0.053901 0.640230 0.766290
0.711782 0.069760 0.047606 -0.000770 0.821976 0.561780
1.170559 0.124449 -0.120234 0.000000 -0.641162 -0.767405
1.218209 0.098515 -0.066051 0.000000 0.641162 0.767405
1.160028 -0.098985 -0.066443 -0.000000 -0.641162 0.767405
0.333852 0.625622 0.522703 -0.053878 0.662705 -0.746940
0.046551 -0.225043 -0.188022 -0.053878 -0.662705 0.746940
0.104011 0.305159 -0.254959 -0.053878 0.662705 0.746940
0.046551 -0.225043 0.188022 -0.053878 -0.662705 -0.746940
0.285968 0.558859 0.466923 -0.053878 0.662705 -0.746940
0.151895 -0.371922 0.310739 -0.053878 -0.662705 -0.746940
0.123164 -0.331865 -0.277271 -0.053878 -0.662705 0.746940
0.084858 -0.278454 -0.232646 -0.053878 -0.662705 0.746940
0.190201 -0.425333 0.355363 -0.053878 -0.662705 -0.746940
-0.049216 -0.091517 0.076462 -0.053878 -0.662705 -0.746940
-0.049216 0.091517 -0.076462 -0.053878 0.662705 0.746940
0.113588 0.318512 0.266115 -0.053878 0.662705 -0.746940
0.161471 -0.385275 -0.321895 -0.053878 -0.662705 0.746940
0.372159 0.679033 0.567328 -0.053878 0.662705 -0.746940
0.372159 -0.679033 0.567328 -0.053878 -0.662705 -0.746940
0.266815 0.532154 -0.444611 -0.053878 0.662705 0.746940
0.266815 -0.532154 -0.444611 -0.053878 -0.662705 0.746940
0.372159 -0.679033 -0.567328 -0.053878 -0.662705 0.746940
0.677775 0.079217 0.029283 -0.000443 0.886528 0.452635
0.124619 0.082887 0.016202 -0.004389 0.946623 0.307038
0.277669 0.445064 0.375769 -0.041785 -0.622783 0.781278
0.514743 -0.074705 -0.039395 -0.001173 -0.881468 -0.462440
0.245914 0.164965 -0.120339 -0.053878 0.662705 0.746940
0.278693 0.131463 0.125842 -0.009885 -0.629110 0.776907
0.309384 0.525912 -0.441912 -0.041785 -0.622783 -0.781278
-0.961088 0.082581 -0.017697 0.000536 0.968262 -0.235378
-1.430656 0.066130 -0.052532 0.001309 0.845052 -0.526817
-0.679494 0.082910 -0.016087 -0.003222 0.954172 -0.282721
1.293441 -0.065656 0.053123 0.000043 -0.779625 0.618826
1.030248 0.098290 0.065863 -0.000000 0.641162 -0.767405
0.091974 0.139553 -0.108896 -0.053878 0.662705 0.746940
-1.413336 0.059620 0.059818 0.000589 0.703172 0.705081
1.447888 -0.045704 0.072547 -0.048854 -0.526333 0.843540
1.412721 -0.080381 0.025916 -0.024232 -0.945317 0.309384
0.163532 0.150361 -0.134747 -0.041785 -0.622783 -0.781278
-0.018327 0.077079 0.066605 -0.041785 -0.622783 0.781278
0.180320 0.199565 -0.155768 -0.053878 0.662705 0.746940
0.598666 -0.038108 0.075370 -0.001121 -0.443583 0.891307
-1.136610 -0.028420 -0.079530 0.000613 -0.334568 -0.937753
1.137385 -0.056935 -0.062380 0.000003 -0.673553 -0.732882
0.894524 -0.052258 0.066347 -0.000023 -0.612192 0.784868
-0.670307 0.000000 0.084456 0.000888 0.037959 0.995785
0.910417 0.000000 0.084456 0.003947 0.156283 0.980241
1.173491 0.199610 0.166773 -0.177436 0.845388 -0.503820
0.948730 -0.105651 0.088271 -0.177436 0.345462 0.921505
0.966020 0.112879 0.094309 -0.177436 0.845388 -0.503820
1.104334 0.170699 0.142618 -0.177436 0.845388 -0.503820
1.450120 0.315251 0.263390 -0.177436 0.845388 -0.503820
0.896863 0.083968 0.070155 -0.177436 0.845388 -0.503820
1.380962 -0.286341 -0.239236 -0.177436 -0.845388 0.503820
1.035177 0.141789 0.118464 -0.177436 0.845388 -0.503820
1.017887 -0.134561 0.112425 -0.177436 0.345462 0.921505
1.085965 0.068677 -0.049155 -0.000014 0.734923 -0.671336
0.860317 -0.066565 -0.051980 -0.000017 -0.708128 -0.699540
-1.172718 -0.072772 -0.042861 -0.000829 -0.911225 -0.399642
0.300773 -0.328570 -0.261536 -0.053878 -0.662705 0.746940
0.133302 -0.272246 0.223644 -0.053878 -0.662705 -0.746940
-1.033686 -0.034773 0.076965 0.000892 -0.514265 0.852150
0.825309 -0.076566 -0.035644 0.000902 -0.909746 -0.398919
0.258612 -0.303747 -0.262102 -0.041785 0.622783 -0.781278
0.634134 -0.053370 0.065455 -0.000027 -0.717211 0.690251
-0.407325 -0.038651 -0.075093 -0.000019 -0.557542 -0.824364
1.032976 -0.078320 -0.031603 -0.001051 -0.923840 -0.370368
0.684821 0.024981 -0.080677 -0.001884 0.286585 -0.953707
1.479566 0.047009 -0.074523 -0.075906 0.480092 -0.869480
-0.393652 0.043374 0.072467 -0.001050 0.523840 0.846537
1.102365 -0.069515 -0.047964 -0.000121 -0.821995 -0.560962
0.396352 -0.447497 -0.363907 0.069486 -0.639612 0.765551
0.056128 0.238396 0.199178 -0.053878 0.662705 -0.746940
0.264690 -0.105410 -0.066145 -0.012746 -0.655884 0.754161
-0.909223 -0.078053 0.032256 -0.001111 -0.871597 0.480688
0.264690 0.105410 -0.066145 -0.012746 0.655884 0.754161
1.244496 -0.191868 0.144047 0.000000 -0.641162 -0.767405
0.151895 0.371922 0.310739 -0.053878 0.662705 -0.746940
0.687927 -0.050191 -0.067924 -0.000066 -0.494215 -0.864095
0.432298 0.267663 -0.228831 0.053901 -0.640230 -0.766290
0.415800 0.520178 0.426397 0.069486 0.639612 -0.765551
0.334531 -0.570765 0.479011 -0.041785 0.622783 0.781278
0.506233 -0.690478 -0.576890 0.053901 0.640230 -0.766290
0.348695 -0.180875 0.162201 0.053901 0.640230 0.766290
-1.066135 -0.076936 0.034838 -0.000832 -0.913845 0.389801
1.461369 0.103951 -0.103109 0.000000 -0.641162 -0.767405
1.015719 -0.098358 0.098435 -0.115063 0.457159 0.876612
0.436804 0.414220 -0.350962 0.053901 -0.640230 -0.766290
0.313293 0.195302 0.145661 0.069486 0.639612 -0.765551
0.216652 -0.019598 0.082151 -0.001455 -0.253446 0.963564
1.033431 0.121761 -0.085472 -0.055918 0.713273 0.693616
1.362060 0.052927 -0.065814 0.000171 0.613999 -0.783274
0.144896 -0.102604 0.095682 -0.041785 0.622783 0.781278
0.506233 0.537877 -0.449392 0.069486 0.639612 0.765551
0.061054 0.173140 0.147424 -0.041785 -0.622783 0.781278
0.378957 -0.599627 -0.496386 -0.053878 -0.662705 0.746940
0.297363 0.208287 -0.155064 -0.012746 0.655884 0.754161
0.337015 0.284284 0.222158 0.069486 0.639612 -0.765551
-0.341728 0.017908 0.082535 -0.000593 0.232993 0.969125
-0.438078 -0.016615 -0.082805 -0.003603 -0.322359 -0.941365
0.859083 0.036670 -0.076080 0.001635 0.534186 -0.839591
0.347235 0.107906 -0.101339 0.053901 -0.640230 -0.766290
0.468877 -0.218399 -0.185098 0.053901 0.640230 -0.766290
0.161461 -0.323595 0.267171 -0.053878 -0.662705 -0.746940
0.483187 -0.577855 -0.480702 0.069486 -0.639612 0.765551
1.302033 -0.215003 0.163375 0.000000 -0.641162 -0.767405
0.247662 0.505449 -0.422299 -0.053878 0.662705 0.746940
0.795375 0.051586 0.066871 -0.001179 0.508818 0.855674
0.434475 -0.704580 -0.591025 0.000000 -0.767405 -0.641162
1.309347 0.107572 0.106134 -0.000000 -0.641162 0.767405
0.999775 -0.075083 0.038671 0.000046 -0.825269 0.556169
1.347302 -0.193378 0.145308 0.000000 -0.641162 -0.767405
0.310343 -0.305535 0.240409 -0.053878 -0.662705 -0.746940
0.462779 0.326154 -0.275556 0.053901 -0.640230 -0.766290
0.448388 -0.390382 -0.320911 0.069486 -0.639612 0.765551
0.036183 0.150964 -0.128416 -0.041785 -0.622783 -0.781278
0.476739 -0.035133 0.076801 -0.001210 -0.517792 0.850062
1.052466 -0.149016 0.124502 -0.177436 0.345462 0.921505
1.410646 0.000000 -0.084456 -0.023505 -0.065833 -0.992877
-0.396785 0.081187 0.023269 -0.000274 0.951929 0.290733
0.397728 0.205620 0.179427 0.053901 -0.640230 0.766290
0.395457 -0.655808 -0.545041 -0.053878 -0.662705 0.746940
1.295223 -0.136106 0.097458 0.000000 -0.641162 -0.767405
0.199778 -0.438686 -0.366519 -0.053878 -0.662705 0.746940
0.096089 -0.128479 -0.098775 -0.053878 -0.662705 0.746940
-1.084005 0.022046 -0.081528 0.000567 0.404034 -0.907015
0.216652 0.019598 -0.082151 -0.001455 0.253446 -0.963564
0.107259 -0.235676 -0.199745 -0.041785 0.622783 -0.781278
1.068854 0.136569 0.097844 -0.119375 0.786393 -0.599447
0.377963 -0.255970 -0.202219 0.069486 -0.639612 0.765551
0.861054 -0.035744 -0.076519 0.000754 -0.398784 -0.909487
1.354426 -0.124316 -0.120123 -0.000000 0.641162 -0.767405
-0.445411 -0.077230 -0.034180 -0.001865 -0.912937 -0.391941
0.045681 0.108483 0.095062 -0.041785 -0.622783 0.781278
0.096720 0.190271 -0.153552 -0.053878 0.662705 0.746940
0.295846 -0.138352 0.130391 0.053901 0.640230 0.766290
0.455222 0.209942 -0.178993 0.053901 -0.640230 -0.766290
0.245269 -0.113302 0.074548 -0.053878 -0.662705 -0.746940
1.086565 -0.143973 -0.104030 -0.030115 -0.679740 0.727357
1.324769 -0.174475 -0.129515 0.000000 -0.641162 0.767405
1.279006 0.150155 -0.109195 -0.000000 0.641162 0.767405
1.206740 -0.119953 -0.116478 0.000000 0.641162 -0.767405
0.035176 -0.169217 0.142913 -0.041785 0.622783 0.781278
0.502260 0.083254 0.014197 0.000160 0.963772 0.251748
0.209428 0.353908 0.299456 -0.041785 -0.622783 0.781278
