-0.215051 -0.355222 -0.319708 -0.073963 -0.697460 0.712797
0.189885 0.025449 0.115807 -0.000064 0.254288 0.966510
-0.085342 0.161683 -0.165900 -0.053888 -0.647359 -0.760278
-0.689166 -0.111446 0.040482 -0.000141 -0.937610 0.346054
-1.414694 0.068780 -0.096583 -0.000008 0.580203 -0.813776
0.058130 -0.647907 0.577748 -0.073963 -0.697460 -0.712797
0.067312 0.637938 -0.582240 -0.053888 -0.647359 -0.760278
0.056249 -0.220044 -0.207951 0.074022 0.668364 -0.740142
0.183576 0.029503 -0.114841 0.000032 0.203399 -0.978560
1.596333 -0.206159 0.201428 0.000000 0.670203 0.742178
-0.066297 0.084673 -0.083151 -0.000000 -0.742178 0.670203
1.554814 -0.129979 -0.132636 0.000000 0.670203 -0.742178
1.661157 0.047594 0.108599 0.108647 0.360466 0.925012
0.097184 -0.103258 -0.058282 0.000477 -0.863577 -0.502983
0.679554 -0.057776 0.103542 0.000013 -0.480635 0.876284
-0.223116 -0.114627 0.030326 -0.000089 -0.958368 0.283541
1.507429 -0.223826 0.186858 0.000000 -0.670203 -0.742178
-0.019818 -0.520534 0.476098 -0.053888 0.647359 0.760278
0.872922 0.061300 0.101495 0.000011 0.553717 0.832021
-0.824386 -0.073793 -0.092809 -0.000091 -0.655325 -0.754575
-0.230716 0.078111 -0.089206 -0.000185 0.678822 -0.733471
0.060117 -0.433947 -0.379683 0.101522 -0.666740 0.738343
0.852362 0.101953 -0.060535 -0.000057 0.835849 -0.547883
1.598454 0.208681 0.203705 -0.000000 -0.670203 0.742178
0.148703 0.184760 0.166843 0.101522 0.666740 -0.738343
0.993287 0.008529 -0.118263 0.000932 0.110475 -0.993275
1.169042 -0.066626 -0.075427 -0.000000 0.670203 -0.742178
0.074486 -0.649137 -0.592284 -0.053888 0.647359 -0.760278
-0.429330 -0.066331 -0.098281 0.000103 -0.592974 -0.804530
-0.013692 -0.160636 0.161299 0.074022 0.668364 0.740142
-0.061461 -0.292034 -0.241943 -0.073963 -0.697460 0.712797
1.683894 -0.215845 -0.210174 -0.000000 0.670203 -0.742178
1.112294 -0.123095 0.111157 -0.080155 -0.771296 -0.631410
1.179071 -0.081809 0.058614 0.000000 -0.670203 -0.742178
1.498782 -0.063780 -0.099955 -0.000014 -0.571592 -0.819895
0.770537 -0.000000 -0.118570 0.000382 -0.020198 -0.999446
-0.098585 -0.338835 0.315803 -0.053888 0.647359 0.760278
-0.701680 0.085844 0.081791 -0.000123 0.733092 0.679173
-0.830520 0.080703 -0.086867 0.000170 0.680295 -0.732234
0.074878 0.168375 -0.141895 0.101522 0.666740 0.738343
-0.022331 0.116746 0.020723 -0.000289 0.979707 0.197280
1.524896 -0.208714 -0.203735 -0.000000 0.670203 -0.742178
-0.695468 0.047430 -0.108671 -0.000096 0.399686 -0.916020
-0.437344 0.094407 -0.071737 -0.000244 0.775433 -0.630482
1.408985 -0.050340 0.107354 -0.000199 -0.404900 0.913763
-0.107294 -0.460403 -0.411444 -0.073963 -0.697460 0.712797
1.739949 0.029923 0.023347 1.000000 0.000000 0.000000
-1.121932 0.067269 -0.097641 0.001232 0.520824 -0.852594
1.508139 0.232943 0.195091 -0.053534 0.739344 -0.669996
-0.710270 -0.056152 0.104432 0.001588 -0.431254 0.901621
-0.164416 0.280436 -0.241277 -0.073963 0.697460 0.712797
1.094774 0.116112 -0.104852 -0.080155 0.771296 0.631410
0.363075 -0.006535 -0.118390 0.001716 -0.098021 -0.994739
0.773482 0.069498 0.096068 -0.000349 0.548048 0.835584
-1.386279 -0.065961 0.098529 -0.000188 -0.562285 0.826267
1.770673 -0.231348 0.208912 0.167575 -0.641976 -0.748188
1.770673 0.231348 0.208912 0.167575 0.641976 -0.748188
-0.695165 -0.084645 -0.083031 0.000090 -0.741918 -0.669609
-1.514946 0.060204 0.102149 0.000026 0.543173 0.838917
1.377052 -0.172405 -0.140423 -0.000000 -0.670203 0.742178
0.106669 0.438522 0.390215 0.101522 0.666740 -0.738343
-0.302086 0.239412 -0.215421 -0.073963 0.697460 0.712797
0.895811 -0.106818 -0.051467 0.000686 -0.880692 -0.472480
-1.542994 -0.058053 -0.103387 -0.000087 -0.484412 -0.874193
0.522780 -0.090942 0.076082 0.000033 -0.736237 0.675867
-0.171318 -0.016552 0.117410 0.000265 -0.114085 0.992974
-0.215051 0.355222 -0.319708 -0.073963 0.697460 0.712797
-0.988652 -0.037148 0.112601 0.000176 -0.307549 0.950948
1.608440 0.248015 -0.239225 -0.000000 -0.670203 -0.742178
1.365664 0.205579 0.179750 -0.080155 0.771296 -0.631410
-0.261341 0.152467 -0.126119 -0.073963 0.697460 0.712797
0.105686 -0.073762 0.092834 0.000130 -0.649154 0.759879
-0.971042 0.117933 -0.012278 -0.001054 0.993394 -0.109241
1.692121 0.226725 -0.189475 -0.000000 0.670203 0.742178
-0.235399 0.101273 0.061666 0.000302 0.831046 0.555181
1.325178 0.126596 0.129581 -0.000000 -0.670203 0.742178
-0.028283 -0.282755 0.273035 -0.011236 0.655307 0.754645
-0.186921 -0.179400 0.173786 -0.053888 0.647359 0.760278
-0.057678 0.569271 -0.514913 -0.053888 -0.647359 -0.760278
1.649242 -0.273996 0.262686 -0.026815 0.631523 0.773854
1.649242 0.273996 0.262686 -0.053534 -0.591366 0.803623
-0.072497 -0.454705 0.402259 -0.073963 -0.697460 -0.712797
-0.329659 -0.211742 -0.191207 -0.053888 0.647359 -0.760278
0.585199 0.111764 -0.039596 0.000229 0.952283 -0.303266
0.803577 -0.118370 -0.006895 -0.000080 -0.995656 -0.087525
0.798634 -0.092949 0.073617 0.000011 -0.779928 0.624930
1.324627 -0.048667 0.108122 -0.000175 -0.453400 0.890637
0.329085 0.086489 -0.081109 0.000024 0.733191 -0.679238
1.307035 -0.032779 -0.113949 -0.000959 -0.323690 -0.945464
-0.162621 0.315278 0.275183 -0.073963 0.697460 -0.712797
-1.074172 -0.118278 0.008321 -0.000308 -0.994192 0.102112
0.012466 0.523776 -0.461027 -0.073963 0.697460 0.712797
-0.077552 -0.217891 0.214313 -0.053888 0.647359 0.760278
0.224545 -0.043520 -0.110295 0.000429 -0.373512 -0.927058
-0.133798 0.465822 -0.419497 -0.073963 0.697460 0.712797
-0.380430 -0.109311 -0.045936 -0.000007 -0.920988 -0.388182
1.537843 0.209716 -0.204639 -0.000000 -0.670203 -0.742178
-0.132622 0.139740 0.143865 -0.053888 -0.647359 0.760278
-0.041238 -0.573956 -0.520067 -0.053888 0.647359 -0.760278
-0.012919 0.020273 0.116825 0.000042 0.172599 0.984402
0.037095 0.109610 0.083634 0.101522 0.666740 -0.738343
-1.145911 -0.072512 0.093813 -0.000080 -0.645355 0.763087
-1.702226 -0.089953 0.067476 -0.225686 -0.755630 0.613835
1.748113 -0.355586 0.314441 -0.080155 -0.771296 -0.631410
1.748348 0.348936 0.321786 -0.080155 -0.549731 0.831487
-0.690481 0.118570 -0.000000 0.001777 0.998928 -0.029777
1.422716 0.125559 -0.128645 0.000000 -0.670203 -0.742178
-0.328416 0.027668 -0.115297 0.000078 0.260191 -0.964952
-1.264243 -0.021239 -0.116653 0.000564 -0.173348 -0.984292
1.054120 -0.053948 -0.105587 0.000310 -0.469913 -0.882048
0.001633 -0.524547 -0.462905 -0.073963 -0.697460 0.712797
-1.089504 0.076050 0.090969 0.000413 0.639115 0.768391
-0.319222 -0.127967 0.108152 -0.073963 -0.697460 -0.712797
-0.861421 -0.112894 0.036248 -0.000001 -0.938025 0.344870
1.596300 0.130097 -0.132743 0.000000 -0.670203 -0.742178
1.025692 0.080049 -0.074350 -0.080155 -0.549731 -0.831487
-0.150911 0.097718 -0.067158 0.000024 0.796637 -0.603499
-1.277610 -0.118338 -0.007429 -0.000393 -0.994785 -0.097065
-1.541668 -0.114295 0.031554 0.000086 -0.964626 0.261654
1.586577 -0.258865 -0.218498 -0.000000 -0.670203 0.742178
-0.011061 0.190928 0.188390 0.074022 -0.668364 0.740142
0.599618 -0.019366 -0.116978 0.000050 -0.193901 -0.980541
1.739949 0.083545 -0.042475 1.000000 -0.000000 0.000000
0.148703 -0.542028 0.489463 0.101522 -0.666740 -0.738343
-0.024916 0.214673 -0.169982 0.101522 0.666740 0.738343
1.172573 0.028509 0.115092 -0.000199 0.239617 0.970299
-0.947233 0.088924 0.078431 0.000568 0.718659 0.694576
-0.839358 -0.024165 0.116082 0.000009 -0.244376 0.969077
1.131759 0.116245 0.023368 0.000263 0.970740 0.237756
0.148703 -0.236862 -0.213891 0.074022 0.668364 -0.740142
0.148703 -0.467597 -0.422251 0.074022 0.668364 -0.740142
1.382237 -0.125466 0.128560 0.000000 0.670203 0.742178
0.148703 -0.162431 0.146679 0.101522 -0.666740 -0.738343
-1.205626 0.113257 0.035096 -0.000091 0.942639 0.332112
0.148703 -0.542028 -0.489463 0.074022 0.668364 -0.740142
1.739949 -0.078129 -0.051982 1.000000 0.000000 0.000000
1.191132 0.154516 0.139531 -0.080155 0.771296 -0.631410
-1.173293 -0.052590 -0.106270 0.000236 -0.440722 -0.897029
-0.572300 -0.070531 -0.095312 0.000777 -0.622430 -0.782073
-0.321767 0.037855 0.112365 -0.000345 0.313178 0.949257
0.148703 0.542028 -0.489463 0.101522 0.666740 0.738343
1.678241 -0.156252 -0.156361 0.000000 0.670203 -0.742178
1.678241 0.156252 -0.156361 0.000000 -0.670203 -0.742178
1.531828 -0.052889 0.106121 -0.000092 -0.483187 0.874873
-0.826265 0.117436 -0.016364 -0.000452 0.983879 -0.175602
-1.360159 0.107153 0.050767 -0.000021 0.902637 0.429036
0.035641 -0.050083 -0.107474 -0.000020 -0.460098 -0.887280
-0.058616 -0.169218 -0.124301 0.101522 -0.666740 0.738343
0.076216 0.444782 -0.391681 0.101522 0.666740 0.738343
1.398686 0.092737 0.073884 -0.000481 0.780888 0.623822
-0.197875 -0.290233 0.254335 -0.073963 -0.697460 -0.712797
0.485621 0.095213 -0.070665 -0.000496 0.785496 -0.618166
1.694415 -0.062775 0.094069 0.162639 -0.545829 0.821273
-1.266247 0.039286 0.111873 -0.000113 0.371316 0.927901
-0.275348 -0.179321 0.167451 -0.053888 0.647359 0.760278
-0.584662 -0.115542 0.026626 -0.000452 -0.976538 0.212880
1.254289 -0.074218 -0.067020 0.000000 0.742178 0.670203
1.352336 0.113545 -0.034152 -0.000176 0.944625 -0.326341
0.148703 -0.281520 0.254219 0.101522 -0.666740 -0.738343
0.213970 0.106211 0.052709 -0.000036 0.910562 0.412158
-0.190132 0.118570 0.000000 0.000861 0.999565 -0.015307
0.148703 0.460154 -0.415529 0.101522 0.666740 0.738343
-0.336264 0.117105 0.018583 -0.000004 0.982849 0.182337
-0.256960 0.205178 0.190771 -0.053888 -0.647359 0.760278
1.741412 0.085650 0.077344 0.167575 0.641976 -0.748188
-1.806893 -0.041934 -0.044320 -0.629499 -0.471461 -0.614696
0.415177 -0.117149 0.018302 0.000050 -0.985732 0.164680
-0.315450 -0.231280 0.208851 -0.073963 -0.697460 -0.712797
1.296019 -0.118405 -0.006262 -0.000702 -0.996227 -0.081890
1.631136 -0.118570 -0.000000 -0.000137 -0.999534 -0.017553
1.496021 0.113316 -0.087065 -0.000000 0.670203 0.742178
-0.481522 0.059749 0.102416 -0.000211 0.466990 0.883607
1.045204 -0.027666 0.115298 -0.000016 -0.201573 0.978698
0.013687 0.105062 -0.054963 -0.000105 0.889828 -0.455038
-0.487590 0.049422 -0.107779 -0.000526 0.447353 -0.893870
-0.034070 -0.397043 0.369938 -0.053888 0.647359 0.760278
0.076820 0.213446 0.199935 0.074022 -0.668364 0.740142
1.685135 -0.031324 -0.110257 0.162718 -0.309008 -0.936412
-0.073901 -0.563427 0.508787 -0.073963 -0.697460 -0.712797
-0.950634 -0.086058 -0.081566 0.000140 -0.735186 -0.677042
-0.201838 -0.261251 -0.242423 -0.053888 0.647359 -0.760278
0.068717 -0.355996 0.310474 0.101522 -0.666740 -0.738343
-0.034964 -0.324366 -0.307991 -0.053888 0.647359 -0.760278
-0.242508 -0.043122 0.110451 0.000319 -0.404652 0.913917
0.237356 0.078155 -0.089167 -0.000038 0.622768 -0.781681
-0.296439 -0.154283 -0.144637 -0.053888 0.647359 -0.760278
0.059530 0.288125 -0.247922 0.101522 0.666740 0.738343
-0.277560 -0.283381 0.255899 -0.073963 -0.697460 -0.712797
1.611122 0.118570 0.000000 -0.001611 0.999455 -0.020669
-1.680851 -0.116479 0.000000 -0.118774 -0.991179 -0.042214
0.075115 -0.215767 0.184724 0.101522 -0.666740 -0.738343
0.140125 0.656812 -0.593973 0.074022 -0.668364 -0.740142
1.535012 0.118444 0.005472 0.000046 0.996392 0.079843
0.011352 0.680656 0.614647 -0.073963 0.697460 -0.712797
0.148703 0.311293 0.281104 0.101522 0.666740 -0.738343
1.400836 -0.072241 -0.094023 -0.000266 -0.607414 -0.793661
1.379851 0.073437 -0.093091 -0.000294 0.620495 -0.783514
0.698538 0.096403 0.069032 0.000128 0.785986 0.617310
-0.537775 -0.044582 0.109870 -0.000103 -0.414405 0.909466
0.148703 -0.125216 -0.113073 0.074022 0.668364 -0.740142
1.244260 0.074218 -0.067020 0.000000 -0.742178 0.670203
-0.163940 -0.243848 0.205427 -0.073963 -0.697460 -0.712797
0.442011 0.114735 0.029916 0.000142 0.955258 0.293802
0.870181 -0.068364 0.096878 0.000075 -0.539656 0.841191
-0.163061 0.208082 0.170340 -0.073963 0.697460 -0.712797
0.892685 -0.049928 -0.107546 -0.000531 -0.452216 -0.891280
1.523702 0.106018 0.110998 0.000000 -0.670203 0.742178
1.567912 0.033947 0.113607 -0.000170 0.327778 0.944188
-0.198734 -0.067021 -0.097812 0.000734 -0.592958 -0.804494
1.516950 -0.118088 0.010689 -0.000305 -0.988991 0.142160
0.952154 -0.114019 0.032536 -0.000287 -0.971710 0.233952
1.150802 -0.000000 -0.118570 -0.000146 -0.014063 -0.999498
-1.576185 -0.112120 -0.038576 -0.000197 -0.931348 -0.362573
-0.844844 0.086933 0.080633 -0.001382 0.751866 0.658663
0.075747 -0.478719 0.439590 0.074022 0.668364 0.740142
1.027816 0.103702 0.057489 -0.000016 0.851381 0.523436
0.341136 -0.096133 0.069408 -0.000005 -0.801237 0.597361
-0.574485 0.118232 -0.008951 0.000242 0.991810 -0.123056
-1.627054 -0.047667 0.108567 -0.000002 -0.362550 0.931353
1.199129 0.081809 0.058614 0.000000 0.670203 -0.742178
-0.056537 -0.421285 -0.367902 -0.073963 -0.697460 0.712797
-0.194241 -0.179395 -0.145505 -0.073963 -0.697460 0.712797
-1.718231 -0.091788 -0.057247 -0.269955 -0.790190 -0.548155
1.472192 0.173222 0.171685 -0.000000 -0.670203 0.742178
-0.149681 -0.459224 0.414689 -0.073963 -0.697460 -0.712797
-0.201780 -0.387584 0.349997 -0.073963 -0.697460 -0.712797
-0.147527 0.206639 -0.167316 -0.073963 0.697460 0.712797
-1.324671 -0.058723 -0.103008 -0.000283 -0.495110 -0.868240
-0.771962 0.043524 -0.110293 0.000471 0.367775 -0.929337
1.739949 -0.048402 0.039717 1.000000 0.000000 0.000000
-0.391230 -0.127077 0.114753 -0.073963 -0.697460 -0.712797
0.561543 -0.117781 0.013663 0.000145 -0.986258 0.161899
1.260519 -0.166803 0.154343 -0.080155 0.549731 0.831487
-1.686201 0.020056 -0.113892 -0.167756 0.229605 -0.957568
0.744640 -0.027686 0.115293 0.000327 -0.274301 0.961046
-0.559777 0.047712 -0.108547 -0.000237 0.382279 -0.923425
1.084161 -0.073947 0.067321 0.000000 0.742178 -0.670203
0.415553 -0.009405 0.118197 0.000661 -0.119525 0.992111
1.301685 0.058228 0.103288 0.000053 0.527623 0.848795
0.075375 -0.597896 0.529830 0.101522 -0.666740 -0.738343
-1.674901 -0.049947 -0.106104 -0.136791 -0.393398 -0.908411
-0.165840 -0.149187 0.113000 -0.073963 -0.697460 -0.712797
0.067065 0.384416 -0.355300 0.074022 -0.668364 -0.740142
0.623277 0.017637 0.117252 -0.000632 0.145792 0.988665
-0.197043 0.394097 0.355878 -0.073963 0.697460 -0.712797
-1.330682 0.075942 -0.091059 -0.000202 0.641889 -0.766075
0.019181 -0.190778 -0.154467 0.101522 -0.666740 0.738343
1.394841 -0.197635 0.187676 -0.080155 0.549731 0.831487
-0.093852 -0.113525 0.034219 0.000837 -0.949979 0.310846
0.666072 -0.118292 -0.008118 -0.000237 -0.992418 -0.117167
-1.419480 0.118243 0.008812 -0.000226 0.993096 0.112465
-0.486188 0.118169 -0.009755 -0.000101 0.994124 -0.102472
1.297566 -0.141724 -0.141334 -0.080155 0.549731 -0.831487
1.715416 -0.295500 0.251581 0.111920 -0.652974 -0.747990
1.715416 0.295500 0.251581 0.111920 0.652974 -0.747990
-1.088068 0.107233 -0.050596 0.000434 0.921433 -0.387277
-1.748716 0.093396 -0.025601 -0.387379 0.877294 -0.279022
-1.296472 -0.048109 0.108372 0.000000 -0.444238 0.895261
0.148703 0.713219 0.644052 0.101522 0.666740 -0.738343
0.148703 -0.661117 -0.597003 0.074022 0.668364 -0.740142
0.148703 0.341065 -0.307989 0.101522 0.666740 0.738343
0.024323 -0.101979 -0.060493 0.000463 -0.858808 -0.511305
1.612006 -0.068563 -0.077175 0.000000 0.670203 -0.742178
-0.205077 -0.110987 -0.041723 -0.000114 -0.935941 -0.350482
-0.101595 -0.114599 0.124657 -0.053888 0.647359 0.760278
-1.520004 -0.015444 0.117560 -0.000254 -0.128919 0.991085
-1.425583 -0.109507 -0.045466 0.000003 -0.905644 -0.422649
-0.367549 0.159640 0.144158 -0.073963 0.697460 -0.712797
-1.497678 0.113947 0.032789 0.000010 0.959885 0.278300
0.651327 -0.079132 -0.088301 0.000165 -0.698690 -0.714606
0.099912 0.102884 -0.058939 -0.000156 0.843835 -0.535605
1.488968 -0.273216 0.246720 -0.080155 -0.771296 -0.631410
1.375863 -0.115907 -0.024990 0.000007 -0.967634 -0.250024
-1.815901 0.047530 0.024132 -0.668797 0.614610 0.413389
0.288461 0.111101 0.041418 -0.000041 0.920391 0.389643
1.284510 0.116897 -0.019851 -0.000381 0.983840 -0.175859
0.341900 0.116864 -0.020044 0.000633 0.975231 -0.218101
-0.028283 0.303665 0.249880 0.043064 0.678832 -0.731798
1.472864 0.218884 -0.182395 -0.053534 0.739344 0.669996
0.089664 -0.266712 -0.246752 0.074022 0.668364 -0.740142
1.693529 -0.171335 0.169981 0.111920 0.677736 0.725630
1.693529 0.171335 0.169981 0.111920 -0.677736 0.725630
0.985089 0.115872 -0.025152 0.000301 0.975444 -0.217670
0.711077 0.044561 -0.109879 -0.000380 0.419561 -0.906890
-1.393712 0.052186 0.106469 0.000018 0.476637 0.878438
-1.517668 0.075905 -0.091090 -0.000115 0.668817 -0.742597
1.256148 0.132544 -0.131272 -0.080155 -0.549731 -0.831487
1.142925 0.109885 -0.044546 -0.000077 0.941709 -0.334677
-1.131202 0.113006 0.035896 0.000650 0.935601 0.350875
-0.099582 0.338430 0.291296 -0.073963 0.697460 -0.712797
1.068302 -0.108561 -0.047681 0.000017 -0.911427 -0.410055
1.602846 -0.318602 0.287705 -0.080155 -0.771296 -0.631410
1.602846 0.318602 0.287705 -0.080155 0.771296 -0.631410
-1.410983 0.000000 -0.118570 -0.000596 -0.020640 -0.999396
-1.724479 0.043492 0.096892 -0.294709 0.420429 0.856999
0.073672 -0.144361 -0.120044 0.101522 -0.666740 0.738343
-0.284001 0.165439 0.141163 -0.073963 0.697460 -0.712797
-0.039315 0.167383 0.125298 0.101522 0.666740 -0.738343
-0.043867 0.253841 0.202745 0.043064 0.678832 -0.731798
-0.055179 0.333832 -0.314619 -0.053888 -0.647359 -0.760278
0.113431 0.247599 -0.218737 0.101522 0.666740 0.738343
0.992061 0.015940 0.117494 -0.000273 0.173477 0.984282
-0.824636 -0.114908 -0.029241 -0.000175 -0.969702 -0.241921
1.609586 0.064434 -0.099535 0.000009 0.545171 -0.837653
-1.270885 0.118570 -0.000000 0.000476 0.999594 -0.012635
-0.165071 -0.340073 0.299699 -0.073963 -0.697460 -0.712797
1.280784 0.033115 -0.113852 -0.001779 0.244308 -0.969344
-0.103553 -0.130635 -0.088384 -0.073963 -0.697460 0.712797
-1.244325 -0.087521 0.079994 -0.000248 -0.738864 0.673003
1.488968 0.273216 0.246720 -0.080155 0.771296 -0.631410
-0.678715 -0.024025 -0.116111 0.000205 -0.205395 -0.978226
-1.187040 0.085805 -0.081832 0.000649 0.693752 -0.719442
0.137191 -0.018420 0.117131 0.000437 -0.174732 0.984061
-0.172525 -0.132578 -0.097442 -0.073963 -0.697460 0.712797
1.621326 -0.149376 -0.119628 -0.000000 -0.670203 0.742178
-0.551504 -0.111403 -0.040599 0.000655 -0.939625 -0.340612
1.322942 0.143951 -0.145252 -0.053534 -0.591366 -0.803623
0.560837 0.110136 0.043921 0.000030 0.912114 0.408511
0.749949 -0.063991 -0.099820 -0.000111 -0.535625 -0.843744
-0.087558 -0.189738 -0.189631 -0.053888 0.647359 -0.760278
-0.007593 -0.654605 0.591122 -0.073963 -0.697460 -0.712797
-1.549896 0.116361 -0.022781 -0.000648 0.981023 -0.191655
1.643837 -0.099281 0.064824 0.000000 -0.836843 0.546402
0.669591 0.116206 -0.023560 -0.000128 0.969123 -0.244251
0.255124 0.009239 0.118210 0.000527 0.093356 0.995108
-0.055306 0.380361 0.354229 -0.053888 -0.647359 0.760278
1.421866 -0.115693 0.025964 0.000442 -0.983373 0.178355
-0.933387 0.033058 -0.113869 0.000349 0.236681 -0.970961
-0.295485 -0.099737 -0.064121 0.000253 -0.841455 -0.539328
0.798033 0.116098 -0.024087 0.000077 0.976790 -0.212792
-0.084562 0.302028 -0.254118 -0.073963 0.697460 0.712797
-0.118141 0.147244 -0.106150 -0.073963 0.697460 0.712797
0.389882 0.063535 -0.100111 -0.000139 0.564212 -0.824957
0.086881 0.279549 0.243938 0.101522 0.666740 -0.738343
0.440802 -0.109549 -0.045365 -0.000398 -0.935942 -0.350806
-0.382671 -0.006972 0.118365 0.000276 -0.100130 0.994547
1.448826 0.067639 -0.097385 -0.000051 0.568852 -0.821730
0.120384 0.540678 0.491076 0.074022 -0.668364 0.740142
0.105343 0.103370 0.058083 0.000164 0.872935 0.486676
1.309897 -0.121154 0.124666 -0.000000 0.670203 0.742178
1.399292 0.117909 0.012510 0.000004 0.988579 0.146415
0.938137 -0.079911 0.087597 -0.000025 -0.672183 0.739601
1.187551 -0.041316 0.111139 -0.000537 -0.364625 0.930489
0.927130 0.010289 -0.118123 0.000743 0.139297 -0.989487
-0.275296 -0.093360 0.073095 0.000636 -0.816743 0.575848
1.089135 0.079640 0.061016 -0.080155 0.771296 -0.631410
-0.616422 0.064995 0.099169 -0.000074 0.579688 0.814135
-1.592554 0.072723 0.093650 0.000192 0.578976 0.814646
-1.092046 -0.072936 -0.093485 -0.000012 -0.613300 -0.789130
-0.090618 0.104368 0.061340 0.033277 0.680442 -0.730264
-0.091592 0.044839 0.109765 0.000010 0.417100 0.908217
-0.289154 -0.249760 -0.226450 -0.053888 0.647359 -0.760278
-0.068110 0.453234 -0.415370 -0.053888 -0.647359 -0.760278
1.616645 -0.178179 0.145637 0.000000 -0.670203 -0.742178
-0.009956 0.051595 -0.106756 -0.000044 0.477153 -0.878148
-1.350731 -0.118139 0.010110 -0.000624 -0.995377 0.091164
0.275318 -0.117537 -0.015624 -0.000702 -0.991656 -0.124098
0.627860 0.079642 0.087841 -0.000053 0.638878 0.768561
-0.011839 0.556345 0.507155 -0.053888 -0.647359 0.760278
0.204047 -0.109361 0.045816 -0.000049 -0.916195 0.399252
1.481127 -0.126658 -0.099113 -0.000000 -0.670203 0.742178
-0.266074 0.191716 -0.178663 -0.053888 -0.647359 -0.760278
0.022030 -0.128331 0.098468 0.101522 -0.666740 -0.738343
-1.271589 0.047649 -0.108575 0.000250 0.402302 -0.914878
0.526990 -0.104479 -0.056064 0.000116 -0.879809 -0.474079
-1.035859 0.024451 -0.116022 -0.000307 0.245179 -0.968909
0.025373 -0.398043 0.342483 0.101522 -0.666740 -0.738343
1.484798 -0.126172 0.129198 -0.000000 0.670203 0.742178
1.463905 -0.221303 -0.186487 -0.080155 -0.771296 0.631410
-1.165794 0.008058 0.118296 0.000282 0.116895 0.992486
1.643837 0.099253 0.064868 0.000010 0.836622 0.546739
1.453718 -0.020757 -0.116740 0.000165 -0.214357 -0.976243
-0.025100 -0.068876 -0.096515 0.000131 -0.545066 -0.837710
1.584669 0.131031 0.103062 0.000000 0.670203 -0.742178
-1.568018 -0.070102 0.095628 -0.000017 -0.622168 0.782154
-1.568153 0.035302 -0.113193 -0.000187 0.333728 -0.942142
1.661157 0.029115 -0.114940 0.054399 0.284618 -0.955729
1.656812 -0.330470 -0.300753 -0.080155 0.549731 -0.831487
0.369749 -0.091561 -0.075337 -0.000051 -0.769236 -0.638054
-0.679719 -0.116352 -0.022828 0.000025 -0.972401 -0.230787
1.260222 0.111869 0.039298 0.000037 0.956008 0.291344
-0.139499 0.373915 -0.342772 -0.053888 -0.647359 -0.760278
1.641066 -0.262177 -0.252013 -0.000000 0.670203 -0.742178
1.156663 -0.115573 -0.026491 0.000113 -0.963346 -0.266212
0.004623 -0.245471 -0.236076 0.074022 0.668364 -0.740142
-1.812539 -0.052688 0.019747 -0.669899 -0.692135 0.259315
0.132015 0.052447 0.106340 -0.000405 0.440157 0.897308
-0.596126 -0.019619 0.116936 0.000655 -0.205275 0.978116
0.148703 -0.422939 0.381923 0.101522 -0.666740 -0.738343
0.118389 0.042918 -0.110531 -0.000152 0.388964 -0.920612
-0.290030 0.094448 -0.072326 -0.073963 0.697460 0.712797
1.417057 -0.132897 -0.104747 -0.000000 -0.670203 0.742178
-0.017929 0.261150 -0.212912 0.101522 0.666740 0.738343
-1.635304 0.061011 -0.101669 0.000023 0.513340 -0.857504
1.427587 0.039494 0.111800 -0.000091 0.373593 0.926956
-1.652497 0.024288 0.116056 -0.032632 0.203822 0.977510
-0.082048 0.472755 0.431004 -0.053888 -0.647359 0.760278
-0.342760 -0.106039 0.053054 0.000197 -0.905847 0.422242
1.661157 0.112159 -0.038460 0.054399 0.929114 -0.362179
-0.026395 -0.117317 0.017197 0.000512 -0.981044 0.190736
1.471782 0.142336 0.113271 0.000000 0.670203 -0.742178
0.510355 -0.000000 -0.118570 0.001427 -0.045636 -0.998365
-1.137241 -0.118270 0.008433 -0.001177 -0.993697 0.106823
1.518196 -0.180548 -0.147777 0.000000 -0.670203 0.742178
-0.951960 0.021566 0.116593 0.000320 0.219810 0.974844
-1.198964 -0.116005 -0.024531 0.000126 -0.985198 -0.168038
-0.225804 0.288820 0.264199 -0.053888 -0.647359 0.760278
0.635084 0.034357 -0.113484 0.000221 0.314048 -0.948807
1.736963 0.110763 -0.102247 0.167575 -0.679051 -0.714708
-0.884910 -0.060703 -0.101853 0.000163 -0.508002 -0.860681
1.744338 -0.100220 0.090501 0.167575 -0.641976 -0.748188
0.167763 -0.067853 -0.097237 -0.000508 -0.576783 -0.816164
0.462335 -0.102848 0.059002 0.000423 -0.879098 0.475339
-0.039666 -0.059864 0.102349 -0.000092 -0.491034 0.870614
0.364202 -0.046235 0.109184 -0.000275 -0.404329 0.914029
1.558099 -0.046768 -0.108957 -0.000172 -0.396736 -0.917300
-0.378637 0.114494 -0.030825 0.000353 0.950685 -0.308241
-0.921576 -0.116770 0.020582 0.000421 -0.984271 0.173323
0.086255 0.598202 0.531603 0.101522 0.666740 -0.738343
0.094160 0.695139 -0.620226 -0.015431 0.689072 0.723283
-0.377021 0.146615 -0.132396 -0.073963 0.697460 0.712797
-0.634398 -0.069283 -0.096223 0.000139 -0.614687 -0.788017
0.499854 0.099906 0.063858 0.000043 0.841014 0.539954
-0.152716 -0.349127 -0.320729 -0.053888 0.647359 -0.760278
0.899346 0.104398 0.056214 -0.000527 0.880209 0.473488
-0.764284 -0.084341 -0.083340 -0.000001 -0.680761 -0.731710
1.735804 -0.113946 -0.105543 0.167575 0.679051 -0.714708
1.473769 0.118401 -0.006340 0.000708 0.996066 -0.084589
-0.126845 0.225361 0.217179 -0.053888 -0.647359 0.760278
-0.199518 0.108302 0.112355 -0.053888 -0.647359 0.760278
-1.334049 0.065552 0.098803 0.000144 0.551099 0.833743
1.603678 0.158815 0.158675 -0.000000 -0.670203 0.742178
0.075872 0.504745 0.463080 0.074022 -0.668364 0.740142
-0.185030 -0.009318 -0.118204 0.001006 -0.125711 -0.991405
0.086216 -0.691677 0.617663 -0.073963 -0.697460 -0.712797
0.012466 0.523776 0.461027 -0.073963 0.697460 -0.712797
1.689597 0.102701 0.105693 0.167575 -0.679051 0.714708
-0.398125 -0.068534 0.096757 0.000249 -0.558149 0.829068
-0.456441 0.100896 0.062281 -0.000096 0.828366 0.559135
0.027184 0.346991 0.325494 0.074022 -0.668364 0.740142
-0.091991 -0.334857 -0.287012 -0.073963 -0.697460 0.712797
-0.806133 -0.008570 -0.118260 -0.000400 -0.120815 -0.991984
0.006158 0.429103 0.400087 -0.053888 -0.647359 0.760278
0.088757 0.123394 0.117423 0.074022 -0.668364 0.740142
-0.466613 -0.115454 0.027007 0.000369 -0.973328 0.226652
-1.746776 0.032417 -0.092162 -0.421875 0.324582 -0.845347
0.152773 -0.113315 -0.034908 -0.000225 -0.957363 -0.286744
-0.458361 -0.083774 0.083910 0.000084 -0.710394 0.702748
1.588996 -0.110303 0.114868 0.000000 0.670203 0.742178
1.735354 -0.205856 -0.179129 0.167575 -0.641976 0.748188
0.048722 0.128287 -0.102098 0.101522 0.666740 0.738343
1.550646 0.169946 -0.138203 0.000000 0.670203 0.742178
0.038044 -0.481201 -0.419319 0.101522 -0.666740 0.738343
-1.476382 -0.118086 0.010709 -0.000082 -0.990442 0.132952
-0.998432 -0.087488 0.080030 0.000035 -0.711204 0.702163
-1.643837 0.104297 -0.056402 0.000047 0.879034 -0.475559
-1.602238 -0.069197 -0.096285 -0.000240 -0.616465 -0.786661
-1.031053 -0.044838 -0.109766 0.000154 -0.376637 -0.925744
0.139321 -0.654514 0.589750 0.101522 -0.666740 -0.738343
1.047481 -0.114271 0.031640 -0.000012 -0.961304 0.273475
-1.005211 0.101625 0.061084 -0.000138 0.833290 0.551795
1.112256 0.033804 0.113650 -0.000010 0.284072 0.958192
-0.765796 -0.113530 0.034205 -0.000220 -0.956864 0.288544
-0.821571 0.040367 0.111487 -0.001092 0.341791 0.939011
1.471579 -0.040256 0.111528 -0.000055 -0.338088 0.940500
-0.021751 0.472032 0.434662 -0.053888 -0.647359 0.760278
-0.497644 -0.080062 -0.087459 0.000806 -0.704326 -0.709081
0.148703 -0.355951 -0.321432 0.074022 0.668364 -0.740142
-0.370110 0.099056 0.065169 -0.000043 0.814657 0.579045
0.087482 0.666554 0.608035 -0.011236 -0.655307 0.754645
0.187886 0.102247 -0.060037 0.000223 0.873213 -0.486313
-0.093746 -0.241893 -0.233601 -0.053888 0.647359 -0.760278
0.816161 0.057977 -0.103429 0.001035 0.497949 -0.866507
0.148703 -0.117773 0.106351 0.101522 -0.666740 -0.738343
0.033203 0.009049 -0.118225 -0.000119 0.105436 -0.993729
-0.769626 -0.040764 0.111343 0.000303 -0.304426 0.951899
0.252593 -0.071625 0.094492 -0.000002 -0.628975 0.776668
-0.854583 -0.077588 0.089661 0.000107 -0.622011 0.782269
1.163399 -0.118672 -0.113160 -0.080155 0.549731 -0.831487
1.365769 -0.213462 -0.189367 -0.080155 -0.771296 0.631410
1.664593 0.325437 -0.298176 -0.080155 -0.549731 -0.831487
-0.006346 0.635787 0.575188 -0.053888 -0.647359 0.760278
1.109030 -0.067711 -0.074226 -0.080155 0.549731 -0.831487
0.031766 -0.346838 -0.297123 0.101522 -0.666740 0.738343
0.019663 0.337008 -0.286582 0.101522 0.666740 0.738343
-0.073901 0.563427 0.508787 -0.073963 0.697460 -0.712797
0.006616 -0.674143 -0.608765 -0.053888 0.647359 -0.760278
0.001879 0.667630 -0.602884 -0.073963 0.697460 0.712797
-1.702877 0.101129 0.048817 -0.244994 0.887619 0.388220
-0.190906 0.310808 -0.285394 -0.053888 -0.647359 -0.760278
-0.039415 -0.268076 0.216212 -0.015431 -0.689072 -0.723283
-0.033803 -0.220159 0.173714 0.101522 -0.666740 -0.738343
0.512445 0.038785 0.112048 -0.000146 0.324485 0.945285
-0.055702 0.115041 -0.028716 0.000167 0.960358 -0.276540
1.252451 -0.178954 -0.161599 -0.080155 0.549731 -0.831487
1.331290 0.210375 -0.189973 -0.080155 0.771296 0.631410
1.436900 0.172688 -0.171203 -0.000000 -0.670203 -0.742178
-0.985991 -0.111978 -0.038987 0.000098 -0.943161 -0.329986
-1.621129 -0.118570 0.000000 -0.000148 -0.999166 -0.023638
-0.079071 0.029880 -0.114744 0.000067 0.243173 -0.969383
1.761895 0.187639 0.169442 0.167575 0.641976 -0.748188
1.550251 0.060944 -0.101709 0.000013 0.548119 -0.835704
1.721854 0.047898 -0.097433 0.162508 0.437386 -0.883688
1.016634 -0.090151 -0.077018 -0.000164 -0.766245 -0.641721
1.669792 -0.013510 0.116366 0.108244 -0.116758 0.985839
-0.202079 -0.309790 -0.283736 -0.053888 0.647359 -0.760278
-0.265199 -0.063519 -0.100122 0.000089 -0.540955 -0.840451
-0.887193 0.113744 -0.033486 -0.000522 0.945603 -0.323230
1.363978 0.132187 -0.104106 0.000000 0.670203 0.742178
-1.626962 0.108695 0.047376 0.000015 0.898390 0.437861
-0.206023 -0.087270 0.080275 -0.000000 0.742178 -0.670203
0.014494 -0.568369 0.504450 -0.073963 -0.697460 -0.712797
1.109030 0.067711 -0.074226 -0.080155 -0.549731 -0.831487
-0.750523 0.118570 -0.000000 -0.000246 0.999289 -0.017424
0.001334 -0.413111 -0.386129 -0.053888 0.647359 -0.760278
0.020625 -0.309504 0.292298 0.074022 0.668364 0.740142
1.770511 -0.360185 -0.331360 -0.003208 0.594453 -0.801324
1.770511 0.360185 -0.331360 0.008724 -0.600682 -0.795699
-0.114085 0.431524 0.383891 -0.073963 0.697460 -0.712797
0.715785 0.103537 -0.057784 0.000564 0.853173 -0.520646
-0.500349 -0.000000 0.118570 0.000205 -0.027232 0.999099
-1.050850 -0.030779 0.114506 -0.000031 -0.264770 0.963733
0.888362 0.066236 -0.098345 -0.001115 0.586682 -0.809320
0.739877 -0.079479 0.087989 0.000285 -0.663713 0.747230
0.832731 -0.036793 -0.112717 -0.001045 -0.346045 -0.937751
1.152976 0.123337 -0.106289 -0.080155 0.771296 0.631410
0.102631 -0.252241 0.221444 0.101522 -0.666740 -0.738343
1.432071 -0.125111 0.097716 -0.000000 -0.670203 -0.742178
0.086799 -0.107908 0.049142 0.000124 -0.890015 0.454716
0.076219 -0.028339 0.115134 0.000265 -0.209290 0.977223
0.024304 0.296128 0.279852 0.074022 -0.668364 0.740142
-1.414906 0.106520 -0.052081 -0.000149 0.878645 -0.476269
-1.449615 -0.050974 0.107054 0.000089 -0.432619 0.900933
0.975843 0.114077 0.032334 -0.000047 0.949042 0.313321
-0.279760 0.073300 0.093199 -0.000196 0.647807 0.761081
1.206957 -0.120042 0.095411 -0.080155 -0.771296 -0.631410
0.054940 -0.380324 -0.352818 0.074022 0.668364 -0.740142
1.731064 -0.315019 -0.297696 0.002762 0.597617 -0.798574
1.731064 0.315019 -0.297696 0.002762 -0.597617 -0.798574
0.090924 0.606138 -0.539411 0.101522 0.666740 0.738343
0.027221 0.587896 0.536788 -0.053888 -0.647359 0.760278
0.329441 0.081289 0.086319 -0.000204 0.680400 0.732113
-0.019946 0.420935 -0.363762 -0.073963 0.697460 0.712797
-0.056580 0.119515 -0.128456 0.074022 -0.668364 -0.740142
1.509118 -0.109273 -0.046027 -0.000165 -0.903017 -0.428312
-0.118948 -0.419247 -0.372384 -0.073963 -0.697460 0.712797
-0.913627 -0.022329 0.116449 -0.000118 -0.191987 0.980766
1.744329 0.202817 -0.178531 0.167575 0.641976 0.748188
-0.567167 0.088083 0.079375 -0.000207 0.770779 0.636182
-0.175580 0.356818 0.317174 -0.073963 0.697460 -0.712797
-1.031355 0.115004 -0.028863 -0.000013 0.967660 -0.249916
0.951748 -0.113413 -0.034590 -0.000307 -0.954165 -0.297399
0.396054 0.079359 0.088097 -0.000121 0.670485 0.741189
-0.221117 0.266427 -0.233453 -0.073963 0.697460 0.712797
0.021201 0.166451 -0.163061 0.074022 -0.668364 -0.740142
-0.974406 0.071813 -0.094349 0.000056 0.571783 -0.819706
0.098278 -0.561824 -0.512382 0.074022 0.668364 -0.740142
-0.881476 0.059021 -0.102837 0.000282 0.498496 -0.866204
0.767894 -0.106046 -0.053039 -0.000036 -0.872602 -0.487240
0.086059 0.374883 0.329914 0.101522 0.666740 -0.738343
-0.111791 0.511326 0.461738 -0.073963 0.697460 -0.712797
1.339846 0.026291 -0.115619 -0.000491 0.261894 -0.964429
-1.232963 0.079625 0.087857 0.000018 0.702504 0.710870
1.607768 0.262455 0.221740 -0.000000 0.670203 -0.742178
-0.617994 0.061166 -0.101576 0.000058 0.515086 -0.856454
-1.298957 -0.096791 -0.068487 0.000468 -0.790757 -0.611221
-0.330491 -0.126360 -0.107749 -0.073963 -0.697460 0.712797
0.026485 -0.507895 0.444033 -0.073963 -0.697460 -0.712797
0.983508 -0.044062 0.110079 0.001180 -0.415882 0.908613
0.040294 0.476183 -0.440846 0.074022 -0.668364 -0.740142
-0.001565 0.591704 -0.528949 -0.073963 0.697460 0.712797
0.090914 0.539615 -0.493064 0.074022 -0.668364 -0.740142
0.870606 -0.000000 0.118570 0.000591 -0.015320 0.999533
0.094160 -0.695139 -0.620226 -0.015431 -0.689072 0.723283
1.419950 0.197796 0.163352 -0.053534 0.739344 -0.669996
0.934034 0.039808 0.111688 0.000137 0.334696 0.941735
1.531937 -0.116967 0.090362 -0.000000 -0.670203 -0.742178
1.309449 -0.081809 0.058614 -0.000000 -0.670203 -0.742178
-0.051228 -0.497605 -0.442028 -0.073963 -0.697460 0.712797
-1.753043 -0.062521 0.071350 -0.421403 -0.639602 0.641143
0.858165 0.118443 -0.005507 0.000813 0.996092 -0.083379
-0.061131 -0.495418 0.440916 -0.073963 -0.697460 -0.712797
0.598201 0.079774 -0.087722 -0.000320 0.690963 -0.722117
1.719452 0.246757 -0.235562 0.167575 -0.679051 -0.714708
-1.213839 0.115885 -0.025094 -0.000053 0.965344 -0.258629
-0.759890 0.076026 0.090989 0.000010 0.611769 0.790404
1.208296 0.113442 -0.087179 -0.053534 0.739344 0.669996
0.015217 -0.282141 0.236425 0.101522 -0.666740 -0.738343
-0.276776 0.049945 -0.107538 0.000556 0.382185 -0.923425
-0.210518 0.185653 -0.153318 -0.073963 0.697460 0.712797
1.645622 0.201506 0.166702 -0.000000 0.670203 -0.742178
1.633976 -0.252415 0.212674 -0.000000 -0.670203 -0.742178
0.764995 0.105764 0.053599 0.000176 0.910635 0.411516
0.030036 -0.616319 -0.561190 -0.053888 0.647359 -0.760278
-0.393674 -0.114678 -0.102875 -0.073963 -0.697460 0.712797
0.420632 -0.014034 -0.117737 0.000195 -0.160651 -0.986492
-0.378722 -0.025598 -0.115774 0.000445 -0.257081 -0.965674
-0.710495 -0.000000 0.118570 0.001242 -0.044370 0.998499
1.455226 -0.196672 0.192861 -0.026815 0.631523 0.773854
1.693150 -0.107874 -0.034640 0.162694 -0.924541 -0.342940
-0.150214 0.110160 0.043861 0.000033 0.911920 0.408951
-0.052159 -0.162809 0.119401 0.101522 -0.666740 -0.738343
1.270157 -0.123107 -0.095907 0.000000 -0.670203 0.742178
0.089978 0.208186 -0.179922 0.101522 0.666740 0.738343
0.585514 -0.069570 -0.096015 -0.000361 -0.622788 -0.781508
1.264503 0.153874 0.129432 -0.080155 0.771296 -0.631410
-0.633484 0.118066 -0.010927 0.000761 0.993159 -0.110636
-0.088534 0.149471 0.105256 -0.073963 0.697460 -0.712797
0.131756 0.161229 -0.143263 0.101522 0.666740 0.738343
1.763113 0.283759 -0.252189 0.167575 0.641976 0.748188
1.763113 -0.279729 -0.256652 0.167575 0.679051 -0.714708
-0.062558 -0.109509 -0.120018 0.074022 0.668364 -0.740142
1.719452 -0.259427 -0.221532 0.167575 -0.641976 0.748188
1.552737 0.251844 -0.238737 -0.080155 -0.549731 -0.831487
0.021622 -0.203540 0.166327 0.101522 -0.666740 -0.738343
-0.135835 -0.194488 0.190254 -0.053888 0.647359 0.760278
1.739949 -0.023626 -0.016696 1.000000 0.000000 -0.000000
1.552271 -0.199243 0.164659 0.000000 -0.670203 -0.742178
1.232782 0.050583 0.107240 0.000017 0.463637 0.885361
-0.253421 0.131512 0.104793 -0.073963 0.697460 -0.712797
1.661412 0.261187 -0.220595 0.000000 0.670203 0.742178
1.349565 0.066626 0.075427 0.000000 -0.742178 -0.670203
-0.522579 -0.118397 0.006403 0.000607 -0.995380 0.092121
-1.106931 -0.103397 0.058034 -0.000172 -0.845540 0.532818
0.481374 -0.083988 -0.083695 -0.000277 -0.676498 -0.735644
0.010582 0.134463 0.135236 0.074022 -0.668364 0.740142
-0.564559 -0.010642 -0.118092 0.001122 -0.143635 -0.988827
-0.141765 0.227823 -0.218218 -0.053888 -0.647359 -0.760278
0.085580 -0.314160 -0.275014 0.101522 -0.666740 0.738343
-1.140086 0.016602 -0.117402 0.001190 0.171563 -0.984493
1.634407 -0.238265 -0.199896 0.000000 -0.670203 0.742178
1.207508 -0.106022 -0.080478 0.000000 -0.670203 0.742178
0.141220 -0.382812 0.344658 0.101522 -0.666740 -0.738343
-0.655200 -0.039054 0.111954 0.000079 -0.367428 0.929458
1.502687 -0.167647 0.166651 -0.000000 0.670203 0.742178
-0.395966 0.120564 0.108872 -0.073963 0.697460 -0.712797
0.676535 -0.101874 0.060669 0.000422 -0.856073 0.515762
-0.308505 0.124963 -0.118817 -0.053888 -0.647359 -0.760278
0.114353 0.626716 0.569374 0.074022 -0.668364 0.740142
0.185461 0.074831 0.091974 -0.000128 0.626060 0.779045
-0.080789 -0.391664 0.341434 -0.073963 -0.697460 -0.712797
-0.698023 0.091874 -0.074954 -0.000721 0.767611 -0.640146
-0.585787 0.094332 -0.071836 -0.000007 0.764751 -0.643413
-1.382002 -0.046228 -0.109188 -0.000107 -0.427025 -0.903626
-0.063861 -0.324578 0.274035 -0.073963 -0.697460 -0.712797
1.419950 -0.197796 -0.163352 -0.026815 -0.705647 0.706919
-1.601115 0.118570 -0.000000 -0.000082 0.999387 -0.019977
1.463261 -0.254125 -0.231620 -0.080155 0.549731 -0.831487
-0.286285 0.110325 0.043444 0.000105 0.943460 0.330004
-1.484977 -0.037831 -0.112373 0.000260 -0.354563 -0.934493
0.062251 -0.434354 0.400877 0.074022 0.668364 0.740142
-0.168182 -0.113850 0.033122 -0.000062 -0.944887 0.325627
-0.185241 0.041542 0.111055 -0.000047 0.348667 0.936609
1.649898 0.137355 -0.108773 -0.000000 0.670203 0.742178
-0.455152 -0.016359 -0.117437 0.000354 -0.177784 -0.983462
1.751588 -0.192046 0.176046 0.167575 0.679051 0.714708
0.577380 -0.084803 0.082870 0.000054 -0.708115 0.705282
1.190344 0.119729 0.097137 -0.080155 0.771296 -0.631410
0.084968 -0.610945 -0.542932 0.101522 -0.666740 0.738343
1.472040 0.067680 0.097357 0.000104 0.571710 0.819809
1.221348 0.047503 -0.108639 -0.000034 0.439876 -0.897412
-0.143787 0.276072 0.234867 -0.073963 0.697460 -0.712797
-0.431665 -0.117021 -0.019105 0.000009 -0.978864 -0.201835
-1.779160 0.036132 0.072229 -0.516215 0.419388 0.745641
-0.030919 -0.175223 -0.176195 0.074022 0.668364 -0.740142
0.545559 0.089544 -0.077723 0.000419 0.780537 -0.623937
0.625849 -0.065457 0.098865 -0.000160 -0.582363 0.812248
1.517819 0.074526 0.067298 0.023284 -0.741977 -0.670021
1.550754 -0.227833 0.221000 -0.000000 0.670203 0.742178
-0.021414 0.490848 -0.432323 -0.073963 0.697460 0.712797
1.225819 -0.111169 0.041236 -0.000069 -0.943914 0.328456
0.086925 -0.458163 -0.419909 0.074022 0.668364 -0.740142
-0.635277 -0.118287 0.008194 -0.001265 -0.998015 0.051193
-0.324923 0.113077 -0.035673 0.000210 0.943854 -0.328614
-0.004780 0.070340 0.095453 -0.000114 0.558341 0.828920
1.359934 -0.086492 0.093366 -0.000000 0.670203 0.742178
0.093176 -0.118374 -0.006822 0.000294 -0.995067 -0.094563
-1.451562 -0.095418 0.070387 0.000179 -0.807547 0.588824
1.703897 -0.137959 0.113825 0.167575 -0.641976 -0.748188
-0.254713 -0.116495 -0.022088 0.000947 -0.981411 -0.189190
1.535123 0.119608 -0.123271 0.000000 -0.670203 -0.742178
0.469067 -0.064016 0.099805 0.001542 -0.528403 0.848271
-0.139325 -0.199928 -0.159897 -0.073963 -0.697460 0.712797
1.373108 0.136418 0.107926 0.000000 0.670203 -0.742178
1.307929 0.007283 0.118347 0.000007 0.093627 0.995089
-0.076858 0.155882 0.161563 -0.053888 -0.647359 0.760278
-0.920997 -0.023953 -0.116126 0.000695 -0.246421 -0.968432
1.294657 0.106408 0.080827 -0.000000 0.670203 -0.742178
0.821960 0.047135 0.108799 -0.000250 0.393976 0.918535
-0.091413 -0.071989 0.094216 0.000001 -0.625107 0.779785
0.073752 -0.193974 -0.164857 0.101522 -0.666740 0.738343
-0.394542 0.067987 -0.097143 0.000181 0.606409 -0.794568
-0.194052 -0.220994 -0.186189 -0.073963 -0.697460 0.712797
-0.299843 -0.017526 -0.117268 0.001493 -0.149611 -0.988031
0.220153 0.118570 0.000000 -0.000822 0.999255 -0.027360
-1.036554 -0.109768 0.044833 -0.000032 -0.924604 0.379404
-1.302446 0.110877 -0.042014 0.000384 0.923759 -0.381521
1.559563 0.244779 0.205779 -0.000000 0.670203 -0.742178
-0.247054 -0.173670 -0.145383 -0.073963 -0.697460 0.712797
0.839939 -0.109791 -0.044776 0.000265 -0.908607 -0.415922
0.047409 -0.533700 -0.492073 0.031400 0.662309 -0.747933
0.456768 0.116703 -0.020963 -0.000378 0.980947 -0.191273
1.330730 0.168087 0.161960 -0.080155 -0.549731 0.831487
-0.282357 -0.009247 0.118209 -0.000813 -0.097117 0.994699
-0.732720 -0.094950 0.071017 -0.000004 -0.774924 0.631134
-0.214560 0.109308 -0.045942 0.000052 0.910548 -0.411980
1.104011 -0.033112 -0.113853 0.000035 -0.279676 -0.959493
-1.394930 -0.009004 0.118228 0.001398 -0.096382 0.994761
-0.439722 0.027385 0.115365 0.000309 0.229264 0.972775
0.752271 0.025351 0.115829 -0.000055 0.207129 0.977727
1.449855 -0.066626 -0.075427 0.000000 0.670203 -0.742178
1.739949 -0.047028 -0.094537 0.165492 -0.397448 -0.901809
0.338365 0.039446 -0.111817 0.000382 0.356423 -0.933750
-1.084987 -0.109788 -0.044782 -0.000056 -0.940377 -0.338466
-0.070640 -0.177948 0.180792 -0.053888 0.647359 0.760278
1.136188 -0.078538 0.088830 -0.001138 -0.651161 0.758036
-1.466072 0.083066 -0.084610 -0.000036 0.729904 -0.682704
0.904614 0.104382 -0.056244 -0.000238 0.877828 -0.477810
-0.017477 -0.284933 -0.273921 0.074022 0.668364 -0.740142
0.116725 -0.509612 0.463389 0.074022 0.668364 0.740142
-0.666596 -0.083623 0.084060 0.000196 -0.732094 0.680465
-1.454430 0.055918 0.104557 0.000019 0.471725 0.881084
1.585935 -0.118028 -0.091320 -0.000000 -0.670203 0.742178
0.390272 0.118570 0.000000 0.000509 0.998690 -0.034205
-0.108672 -0.013168 -0.117837 0.000591 -0.149561 -0.988107
1.739949 0.080970 0.009782 1.000000 -0.000000 0.000000
-0.133233 -0.276149 -0.233847 -0.073963 -0.697460 0.712797
1.348530 -0.061879 -0.101143 -0.000193 -0.554837 -0.831348
-1.364792 -0.103318 0.058175 -0.000150 -0.871604 0.489094
0.162473 -0.019315 -0.116987 0.000020 -0.144791 -0.988622
1.641312 0.214505 -0.208964 -0.000000 -0.670203 -0.742178
1.548477 0.195740 0.192020 -0.000000 -0.670203 0.742178
1.609688 0.064509 0.099486 -0.000053 0.546582 0.836717
0.475916 -0.038553 -0.112128 -0.000318 -0.281742 -0.958921
1.640097 0.297976 -0.257780 -0.080155 0.771296 0.631410
-0.203344 0.039962 -0.111633 0.000092 0.328061 -0.944054
1.399710 -0.081809 0.058614 0.000000 -0.670203 -0.742178
-0.563096 -0.083942 0.083742 0.000492 -0.738130 0.673716
0.303276 0.028605 0.115068 -0.000470 0.278776 0.959806
1.550894 0.006982 -0.118365 0.000307 0.106359 -0.993755
1.229216 -0.066626 0.075427 0.000000 0.670203 0.742178
-1.828962 -0.000000 0.040740 -0.731679 -0.051039 0.675637
0.106700 0.165260 0.143458 0.101522 0.666740 -0.738343
1.715288 0.045262 0.099874 0.163014 0.448324 0.878161
1.086014 0.112621 0.101699 -0.080155 0.771296 -0.631410
1.648835 -0.190766 0.187527 -0.000000 0.670203 0.742178
1.559491 -0.287483 -0.255194 -0.080155 -0.771296 0.631410
1.088178 0.108546 -0.047716 0.001879 0.903140 -0.428123
-0.117714 0.095528 -0.107276 -0.053888 -0.647359 -0.760278
-0.011837 0.410609 0.352817 -0.073963 0.697460 -0.712797
1.363978 -0.117004 -0.120919 -0.000000 0.670203 -0.742178
-0.154094 0.134283 0.097198 -0.073963 0.697460 -0.712797
-1.216119 0.019556 0.116947 0.000047 0.205064 0.978138
-0.145371 -0.095134 -0.070771 0.000080 -0.800513 -0.598344
-1.185906 -0.093088 -0.073441 -0.000212 -0.783306 -0.620772
0.497100 0.052743 -0.106194 -0.000123 0.477417 -0.878036
0.265066 -0.094085 -0.072160 -0.000002 -0.788710 -0.613850
-0.091145 0.373598 -0.324831 -0.073963 0.697460 0.712797
-0.228221 -0.173685 0.143444 -0.073963 -0.697460 -0.712797
0.388798 -0.113876 -0.033035 -0.000023 -0.946217 -0.321729
0.435639 0.082075 -0.085572 -0.000343 0.657388 -0.752784
1.719452 0.246757 0.235562 0.167575 -0.679051 0.714708
0.100769 0.476851 0.424016 0.101522 0.666740 -0.738343
-0.107002 0.097627 0.109823 -0.053888 -0.647359 0.760278
-1.767531 -0.074994 -0.045126 -0.498605 -0.761826 -0.409789
0.571182 0.011508 0.118011 0.000249 0.136651 0.990002
0.026858 0.406926 -0.379649 0.074022 -0.668364 -0.740142
0.277602 -0.032345 -0.114074 -0.000814 -0.317387 -0.947699
-0.895681 0.091709 0.075156 0.000539 0.769686 0.637472
-0.948247 -0.101288 0.061642 -0.000074 -0.874506 0.483794
0.004044 -0.103963 0.057015 -0.000334 -0.890207 0.454281
-1.324394 0.118087 0.010695 -0.000999 0.994320 0.100597
-1.492406 -0.081364 -0.086249 -0.000092 -0.685428 -0.727436
1.726388 -0.244124 0.231434 0.167575 0.679051 0.714708
-0.078190 -0.258497 0.248842 -0.053888 0.647359 0.760278
1.403997 0.205031 -0.193449 -0.080155 -0.549731 -0.831487
1.031325 0.043883 -0.110151 -0.000146 0.406895 -0.912844
1.718026 -0.317534 0.298102 -0.080155 0.549731 0.831487
-0.062233 0.207726 -0.206743 -0.053888 -0.647359 -0.760278
0.026308 0.225872 0.187138 0.101522 0.666740 -0.738343
-1.063440 0.037638 0.112438 0.000272 0.356510 0.933668
-0.838104 0.112663 0.036958 -0.000232 0.938926 0.342393
1.706726 0.317687 0.297113 -0.080155 -0.549731 0.831487
1.563890 -0.167878 -0.166859 0.000000 0.670203 -0.742178
1.456960 0.224128 0.190820 -0.080155 0.771296 -0.631410
0.163465 0.109439 0.045629 -0.000702 0.924030 0.380664
-0.212597 0.125561 -0.094734 -0.073963 0.697460 0.712797
0.120424 -0.577285 0.517412 0.101522 -0.666740 -0.738343
-0.205527 0.209931 0.198464 -0.053888 -0.647359 0.760278
-0.057312 0.250369 -0.243401 -0.053888 -0.647359 -0.760278
-0.164824 0.428370 0.387345 -0.053888 -0.647359 0.760278
0.116521 0.118236 0.008900 -0.001316 0.998265 0.044255
-0.045316 -0.366057 -0.342757 -0.053888 0.647359 -0.760278
1.469102 0.252962 -0.224501 -0.080155 0.771296 0.631410
0.194163 -0.118454 -0.005262 -0.000826 -0.996298 -0.081105
-0.029397 0.161641 -0.163777 0.074022 -0.668364 -0.740142
-0.135767 -0.371479 0.327389 -0.073963 -0.697460 -0.712797
1.348810 -0.217357 0.196278 -0.080155 -0.771296 -0.631410
0.005044 0.100133 -0.104790 0.074022 -0.668364 -0.740142
0.222760 -0.029757 0.114776 0.000130 -0.265162 0.963591
1.249501 -0.125197 0.125774 -0.080155 0.549731 0.831487
0.610425 -0.118570 -0.000000 0.000315 -0.998286 -0.045285
-1.071140 0.058576 -0.103092 0.000408 0.528547 -0.848239
-1.101045 -0.052393 0.106367 -0.000347 -0.467094 0.883759
1.274210 -0.053520 0.105804 -0.000144 -0.475657 0.878974
0.910634 -0.118570 -0.000000 -0.001136 -0.998518 -0.043546
1.568868 -0.118340 0.007396 0.000403 -0.994593 0.098076
-0.723149 0.110447 0.043133 -0.000198 0.930840 0.363907
0.114118 -0.310617 0.283952 0.074022 0.668364 0.740142
1.152720 -0.116036 0.024382 -0.000036 -0.970362 0.239205
0.125593 0.343435 0.312441 0.074022 -0.668364 0.740142
0.314826 -0.103631 -0.057616 -0.000156 -0.877882 -0.477767
1.393434 -0.172937 0.140904 -0.000000 -0.670203 -0.742178
-1.448038 0.033672 -0.113689 -0.000186 0.322187 -0.946083
1.541352 -0.088058 -0.079402 0.000209 -0.766556 -0.641323
0.084019 -0.068686 -0.096650 0.000066 -0.576652 -0.816308
1.148984 0.081809 0.058614 -0.011491 0.685491 -0.727178
0.148703 0.415496 0.375202 0.101522 0.666740 -0.738343
0.148703 0.460154 0.415529 0.101522 0.666740 -0.738343
0.148703 0.497370 -0.449136 0.101522 0.666740 0.738343
0.148703 -0.504813 -0.455857 0.074022 0.668364 -0.740142
-0.011748 0.556100 -0.495168 -0.073963 0.697460 0.712797
0.055208 -0.089056 0.089770 0.074022 0.668364 0.740142
0.102741 -0.621313 0.565655 0.074022 0.668364 0.740142
1.005615 -0.042655 -0.110632 0.000459 -0.355216 -0.934052
-0.133919 0.419689 -0.382143 -0.053888 -0.647359 -0.760278
-0.360251 -0.118570 0.000000 -0.000182 -0.998626 -0.029200
-1.566822 -0.015526 -0.117550 0.000011 -0.127052 -0.991190
-0.077552 0.217891 0.214313 -0.053888 -0.647359 0.760278
-1.195252 -0.081018 0.086574 0.000080 -0.652859 0.756744
1.534198 -0.255307 -0.219101 -0.080155 -0.771296 0.631410
-1.247297 -0.114162 0.032030 -0.000192 -0.948962 0.313559
0.525186 -0.047057 0.108833 0.000193 -0.388364 0.920875
-0.276117 -0.148013 0.123294 -0.073963 -0.697460 -0.712797
0.022307 0.255268 -0.243153 0.074022 -0.668364 -0.740142
-0.310714 0.237792 0.214732 -0.073963 0.697460 -0.712797
0.028974 -0.006720 0.118380 -0.002134 -0.095925 0.995001
0.747024 -0.118339 -0.007407 -0.000166 -0.995131 -0.092954
-0.094088 -0.110083 -0.044053 -0.000020 -0.927274 -0.372806
1.696533 0.151996 0.124220 0.167575 0.641976 -0.748188
0.103220 -0.390303 -0.346198 0.101522 -0.666740 0.738343
