1.385562 0.059159 -0.080749 0.009557 -0.774685 -0.632139
0.365669 -0.052324 0.107691 -0.000417 -0.478141 0.875989
0.286406 -0.348004 -0.440833 -0.016443 0.766785 -0.641516
0.120876 -0.368236 0.458023 -0.044381 -0.801840 -0.595888
0.289931 -0.000000 0.119730 0.000091 0.058278 0.994866
-1.547627 0.101785 -0.000000 -0.332238 0.934865 0.069426
-0.398983 0.067307 -0.099020 0.000487 0.635558 -0.769224
0.113614 -0.304830 -0.382435 -0.026586 0.764614 -0.643940
1.146501 0.083457 -0.101243 -0.012158 0.792798 0.609363
-1.269632 -0.108691 -0.050215 0.001489 -0.882640 -0.465714
0.895037 -0.040334 -0.112731 0.000410 -0.375696 -0.923977
0.632846 0.079134 -0.089850 -0.000293 0.725281 -0.685441
0.909782 0.119730 -0.000000 -0.002964 0.995923 0.053943
0.663313 0.118604 -0.016383 0.000330 0.978974 -0.192092
0.022247 0.122427 -0.134602 -0.044381 0.801840 0.595888
-0.108758 0.168371 -0.206182 -0.044381 0.801840 0.595888
-0.716505 -0.068198 0.098409 0.000457 -0.604250 0.794018
0.929778 0.000000 -0.119730 0.000141 -0.115392 -0.989937
-0.044071 -0.130462 0.150354 -0.044381 -0.801840 -0.595888
-0.445708 0.081779 -0.087449 0.000376 0.709865 -0.701488
-1.586609 -0.072992 0.037679 -0.554151 -0.754146 0.336755
1.264468 0.065559 0.075604 -0.012158 0.792798 -0.609363
0.224068 0.401609 -0.501910 -0.026586 -0.764614 -0.643940
0.398820 0.174335 -0.216843 0.074089 0.777216 0.624857
0.168307 0.368485 0.454825 -0.044381 0.801840 -0.595888
0.089309 0.156715 0.175747 -0.044381 0.801840 -0.595888
-0.234936 0.051317 -0.108175 -0.000271 0.508848 -0.858074
0.328048 0.295798 -0.372943 0.044413 -0.778589 -0.625961
1.469648 0.020817 -0.117906 0.101699 0.052967 -0.987941
0.112167 -0.081748 0.117487 -0.026586 0.764614 0.643940
1.015861 0.119214 -0.011106 0.002522 0.996716 -0.060049
-0.078144 0.108121 0.140945 -0.026586 -0.764614 0.643940
0.194011 -0.183184 -0.203566 -0.004872 -0.794654 0.606334
0.178430 -0.286914 -0.363838 -0.026586 0.764614 -0.643940
0.377093 0.437800 0.541972 0.074089 0.777216 -0.624857
-0.708416 -0.102267 0.062263 0.001185 -0.894139 0.443400
0.479046 -0.114849 0.033837 0.000410 -0.969377 0.236645
-0.061373 0.168160 -0.212928 -0.026586 -0.764614 -0.643940
-1.636774 -0.030763 0.028389 -0.732422 -0.436238 0.513288
0.169372 0.115223 -0.159597 0.020750 -0.774288 -0.632248
0.337146 0.106698 0.125401 0.074089 0.777216 -0.624857
-1.144272 0.115970 0.029769 -0.000967 0.954572 0.291076
0.223716 0.190467 -0.249332 0.044413 -0.778589 -0.625961
1.535165 0.098647 0.017669 0.288872 0.952332 0.056463
1.535165 -0.098647 0.017669 0.288872 -0.952332 0.056463
-1.388926 0.023538 -0.117393 -0.003157 0.184790 -0.981203
1.400268 0.036327 0.114086 -0.000347 0.348547 0.934852
0.912833 0.082444 0.086822 0.000951 0.674416 0.735881
-1.187221 0.109348 -0.048767 0.000569 0.908469 -0.412736
1.485989 -0.105356 -0.127546 0.024816 -0.777242 0.628712
0.029267 -0.190205 -0.225283 -0.044381 -0.801840 0.595888
0.216362 0.115267 0.032384 -0.001327 0.951035 0.303059
-1.021793 -0.033874 0.114838 -0.001664 -0.354881 0.933302
0.264638 -0.216977 -0.279403 0.044413 0.778589 -0.625961
0.057172 -0.131904 0.174772 -0.026586 0.764614 0.643940
1.532861 -0.157981 -0.198564 0.024816 0.780986 -0.624055
0.005866 0.152361 0.176102 -0.044381 0.801840 -0.595888
0.267897 -0.119185 -0.132723 0.074089 -0.777216 0.624857
1.461506 0.211268 0.264237 -0.012158 -0.765430 0.643404
0.154594 0.259607 0.330428 -0.026586 -0.764614 0.643940
0.398820 0.360551 -0.448464 0.074089 0.777216 0.624857
0.256681 0.131247 -0.146396 0.074089 0.777216 0.624857
0.932888 0.031895 0.115403 0.000698 0.341720 0.938244
-1.584754 0.062743 -0.054754 -0.552732 0.639998 -0.524838
0.221842 0.173852 0.195258 0.074089 0.777216 -0.624857
-0.089601 -0.108226 -0.051210 0.000948 -0.919165 -0.388515
1.525106 0.183392 -0.230674 0.024816 -0.780986 -0.624055
-0.229945 -0.119730 -0.000000 0.000676 -0.996797 -0.039436
0.118710 0.029757 -0.115973 -0.000128 0.285606 -0.956366
0.869792 -0.000000 0.119730 0.000046 0.075013 0.995766
1.369078 -0.083113 -0.110031 -0.012158 0.765430 -0.643404
0.282184 0.261091 0.333028 0.044413 -0.778589 0.625961
1.466145 0.153367 -0.195442 0.012492 -0.775929 -0.630610
1.185289 -0.063993 0.101193 0.001095 -0.582042 0.810362
1.449653 -0.119730 -0.000000 0.006953 -0.987638 -0.127782
1.449653 0.119730 -0.000000 0.041588 0.994933 0.035453
-0.349916 0.000000 -0.119730 -0.000012 -0.106996 -0.991358
0.273122 0.406887 -0.498694 -0.044381 0.801840 0.595888
1.250184 -0.094667 0.113758 -0.012158 -0.792798 -0.609363
0.096408 -0.020820 0.117906 -0.000349 -0.224846 0.971318
-1.088174 0.104019 -0.059290 -0.000671 0.824174 -0.562082
0.337908 0.135286 0.161051 0.074089 0.777216 -0.624857
1.554729 -0.237435 0.297128 0.001401 0.771259 0.636412
1.400584 -0.203346 0.252153 -0.012158 -0.792798 -0.609363
0.064708 0.118462 0.159122 -0.026586 -0.764614 0.643940
0.286406 -0.348004 0.440833 -0.016443 0.766785 0.641516
0.273509 -0.283557 -0.361587 0.044413 0.778589 -0.625961
0.149964 0.119730 -0.000000 -0.001186 0.998330 0.026804
0.341586 -0.346497 -0.424197 0.074089 -0.777216 0.624857
-0.676697 0.116400 0.028041 0.003625 0.945204 0.318178
-0.460941 -0.103433 -0.060307 -0.001956 -0.818045 -0.572462
0.185802 -0.111096 0.044643 -0.000144 -0.887098 0.456991
1.326056 -0.160696 -0.198151 -0.012158 -0.792798 0.609363
1.295213 -0.136208 0.171800 -0.012158 0.765430 0.643404
-0.040155 0.141702 0.182388 -0.026586 -0.764614 0.643940
1.525764 0.060312 -0.083516 0.286574 0.611009 -0.735440
0.160420 0.204496 -0.234745 -0.044381 0.801840 0.595888
0.346674 0.151633 -0.192306 0.044413 -0.778589 -0.625961
-0.064669 0.094481 -0.103470 -0.044381 0.801840 0.595888
0.190157 -0.217284 0.249739 -0.044381 -0.801840 -0.595888
0.205057 -0.320364 0.404656 -0.026586 0.764614 0.643940
0.317752 -0.212423 0.254606 0.074089 -0.777216 -0.624857
0.097584 -0.245390 -0.294453 -0.044381 -0.801840 0.595888
1.561348 -0.048131 0.019807 1.000000 0.000000 -0.000000
-1.506353 -0.087647 -0.073629 -0.260701 -0.736010 -0.617514
0.140754 -0.349034 -0.436043 -0.026586 0.764614 -0.643940
0.361489 0.376430 -0.470863 0.044413 -0.778589 -0.625961
-0.044199 -0.085431 0.083885 0.000168 -0.743491 0.665313
0.054075 -0.177606 0.228910 -0.026586 0.764614 0.643940
0.301094 0.071634 -0.096034 0.000000 -0.626579 0.779358
1.294073 0.124294 0.157604 -0.012158 -0.765430 0.643404
0.007698 -0.118564 -0.156890 -0.026586 0.764614 -0.643940
1.486490 0.158373 0.193109 0.024816 0.777242 -0.628712
-1.469648 0.020817 -0.117906 -0.077120 0.267184 -0.957593
0.051523 0.086668 -0.120825 -0.026586 -0.764614 -0.643940
0.230969 -0.237739 0.307616 -0.016443 0.766785 0.641516
0.203369 -0.086337 -0.084214 0.074089 -0.777216 0.624857
0.028686 0.038658 -0.113317 0.000462 0.348703 -0.935475
-1.306295 -0.029694 -0.115989 0.000527 -0.166385 -0.984309
0.121655 -0.059102 -0.104126 0.000762 -0.525573 -0.848402
1.376445 -0.091298 0.119907 -0.012158 0.765430 0.643404
-1.040882 -0.042184 -0.112052 -0.000840 -0.274430 -0.960207
0.162004 0.168286 0.185903 -0.044381 0.801840 -0.595888
-1.084359 0.014091 0.118898 0.000720 0.164227 0.984612
0.121198 -0.129989 0.137409 -0.044381 -0.801840 -0.595888
1.403061 0.156542 0.198028 -0.012158 -0.765430 0.643404
-0.048361 0.213708 -0.262690 -0.044381 0.801840 0.595888
0.302971 0.340346 -0.430132 0.044413 -0.778589 -0.625961
0.078823 -0.121209 -0.128750 -0.044381 -0.801840 0.595888
-1.241586 0.115828 0.030316 -0.000561 0.935826 0.346270
0.357045 -0.087214 0.082030 -0.001230 -0.712602 0.699288
-0.173464 -0.096696 0.070606 -0.000066 -0.834027 0.547577
0.255608 -0.286746 0.366823 -0.005284 0.769157 0.638835
-0.133877 -0.043228 0.111654 -0.000189 -0.294421 0.952165
1.021073 0.049902 0.108835 0.001686 0.370149 0.926380
0.262273 0.083448 0.113483 0.044413 -0.778589 0.625961
-1.149475 0.054211 -0.106754 -0.002063 0.507082 -0.858757
0.999215 -0.063045 0.077625 -0.000000 0.626579 -0.779358
-0.506572 0.114870 -0.033765 0.000503 0.945395 -0.320738
-1.487475 0.096528 -0.067606 -0.185111 0.807209 -0.553495
0.263582 0.240941 -0.309285 0.044413 -0.778589 -0.625961
0.249212 -0.160733 0.210539 0.044413 0.778589 0.625961
-0.559237 0.020789 -0.117911 0.001467 0.274530 -0.958344
0.023416 0.085529 0.084864 -0.044381 0.801840 -0.595888
-0.173323 0.099110 0.117792 -0.044381 0.801840 -0.595888
0.016996 0.021583 0.117768 -0.000207 0.229888 0.970057
0.944680 -0.044576 0.111122 0.000907 -0.421285 0.904282
0.365575 0.265467 0.332554 0.044413 -0.778589 0.625961
-0.095222 0.018588 -0.118278 -0.003714 0.096006 -0.992984
-0.093593 -0.161189 0.195388 -0.044381 -0.801840 -0.595888
-0.129984 0.119591 -0.142124 -0.044381 0.801840 0.595888
0.292429 -0.448762 -0.560722 -0.026586 0.764614 -0.643940
-1.010945 0.088379 -0.080774 -0.000551 0.779790 -0.622384
-0.169959 0.119730 -0.000000 0.002666 0.988628 0.127630
1.133685 0.042755 -0.111836 0.000157 0.395850 -0.915462
0.229390 0.093833 -0.128734 0.044413 -0.778589 -0.625961
-0.909782 0.000000 -0.119730 0.003059 -0.099008 -0.992569
0.315739 0.195820 -0.249462 0.044413 -0.778589 -0.625961
0.070885 0.097239 0.097087 -0.044381 0.801840 -0.595888
0.285174 0.200411 0.235802 0.074089 0.777216 -0.624857
1.479310 -0.193704 0.238038 -0.012158 -0.792798 -0.609363
0.379127 0.186636 0.233541 0.044413 -0.778589 0.625961
0.289198 -0.395547 0.497401 -0.026586 0.764614 0.643940
1.146501 -0.083457 0.101243 -0.012158 -0.792798 -0.609363
0.358974 -0.361024 0.444328 0.074089 -0.777216 -0.624857
1.014234 -0.041833 -0.112184 0.000006 -0.385762 -0.919765
-0.066063 0.119363 -0.154793 -0.026586 -0.764614 -0.643940
-1.504606 -0.088113 0.073654 -0.259048 -0.737240 0.616705
0.214690 -0.266331 -0.313909 -0.044381 -0.801840 0.595888
0.283116 -0.262103 0.334221 0.044413 0.778589 0.625961
-0.120451 -0.104441 0.134829 -0.026586 0.764614 0.643940
0.110834 -0.113294 -0.038726 -0.003237 -0.956525 -0.279602
1.103789 0.031380 0.115544 0.002678 0.181398 0.981863
-0.143792 0.086045 0.083256 -0.000050 0.681721 0.728489
0.731734 0.113958 -0.036726 -0.000676 0.916654 -0.393792
0.180640 -0.224303 -0.289585 -0.026586 0.764614 -0.643940
0.224979 -0.322955 -0.389339 -0.044381 -0.801840 0.595888
1.422727 0.140640 -0.179482 -0.012158 -0.765430 -0.643404
0.662711 -0.087214 -0.082030 0.001230 -0.712602 -0.699288
-1.045475 -0.097900 0.068926 0.000734 -0.760163 0.646538
0.291200 -0.313238 0.397251 0.044413 0.778589 0.625961
1.209508 0.035683 0.114289 -0.000174 0.340194 0.938202
0.233138 0.120795 0.162003 0.044413 -0.778589 0.625961
-0.151103 0.089372 -0.115670 -0.026586 -0.764614 -0.643940
0.237590 -0.097303 0.101912 0.074089 -0.777216 -0.624857
1.561348 0.045032 0.024741 1.000000 -0.000000 -0.000000
-0.106111 -0.150072 -0.181362 -0.044381 -0.801840 0.595888
-0.189386 -0.141230 -0.175666 -0.026586 0.764614 -0.643940
1.064170 0.057942 -0.104776 -0.000020 0.438045 -0.896060
0.118993 0.294811 -0.359361 -0.044381 0.801840 0.595888
0.356462 0.319156 -0.399980 0.044413 -0.778589 -0.625961
-0.044387 -0.159274 0.189147 -0.044381 -0.801840 -0.595888
1.421054 0.091386 0.077355 0.000794 0.819135 0.569733
1.355065 0.077131 0.102649 -0.012158 -0.765430 0.643404
1.284873 -0.065752 -0.075448 -0.012158 -0.792798 0.609363
1.549298 0.187190 0.231213 0.024816 0.777242 -0.628712
-0.989763 0.119730 -0.000000 0.000096 0.993363 0.095042
1.217437 -0.093005 -0.112250 -0.012158 -0.792798 0.609363
1.536467 0.134538 -0.169082 0.024816 -0.780986 -0.624055
0.094920 0.313698 0.392192 -0.026586 -0.764614 0.643940
-0.826528 -0.052735 0.107491 -0.001598 -0.407602 0.910722
0.288022 0.113958 0.036726 0.000676 0.916654 0.393792
1.302883 0.086566 -0.082713 -0.000469 0.685036 -0.725237
1.271061 -0.143821 -0.177293 -0.012158 -0.792798 0.609363
0.017214 0.177399 0.227143 -0.026586 -0.764614 0.643940
0.342073 -0.304629 -0.372178 0.074089 -0.777216 0.624857
1.388002 0.127985 0.154357 -0.012158 0.792798 -0.609363
0.059262 -0.292354 0.360504 -0.044381 -0.801840 -0.595888
0.999215 0.063045 -0.077625 -0.012158 0.792798 0.609363
0.150893 0.101414 0.096745 0.028024 0.787759 -0.614334
-0.384463 -0.032935 0.115111 -0.000161 -0.364801 0.928725
1.553379 0.158753 -0.198714 0.024816 -0.780986 -0.624055
1.439259 -0.090302 -0.078617 0.000502 -0.714614 -0.696725
0.038190 0.225228 -0.271746 -0.044381 0.801840 0.595888
-0.968842 -0.090947 0.077871 -0.000109 -0.722996 0.687453
-1.565195 0.000000 0.093955 -0.409703 0.053960 0.906806
0.078404 -0.281928 -0.353788 -0.026586 0.764614 -0.643940
0.709830 -0.000000 0.119730 0.000183 0.103787 0.991872
0.006521 -0.112535 0.040879 0.000376 -0.919187 0.387916
0.063968 0.272934 -0.334021 -0.044381 0.801840 0.595888
-1.339089 0.020479 -0.117965 -0.001792 0.246051 -0.966925
0.190157 -0.217284 -0.249739 -0.044381 -0.801840 0.595888
-0.629849 0.000000 -0.119730 0.001295 -0.112524 -0.990397
1.384306 0.032563 -0.115217 0.000166 0.317378 -0.945980
0.181692 0.159821 -0.173046 -0.004872 0.794654 0.606334
-0.793004 -0.117922 -0.020725 -0.002257 -0.974726 -0.211285
0.358392 -0.277961 0.348604 0.044413 0.778589 0.625961
1.298733 0.101745 0.121998 -0.012158 0.792798 -0.609363
0.093543 -0.184986 0.239303 -0.026586 0.764614 0.643940
-1.309687 -0.000000 0.119730 0.000317 0.101690 0.992198
-1.469648 -0.020582 -0.117947 -0.077058 -0.265834 -0.957984
-1.469648 -0.000000 0.119730 -0.034931 0.106905 0.990713
0.729825 0.000000 -0.119730 -0.000091 -0.058278 -0.994866
0.151756 -0.235868 0.302124 -0.026586 0.764614 0.643940
-0.218117 -0.017783 -0.118402 0.000555 -0.192746 -0.978837
0.934315 -0.071729 -0.095865 0.000007 -0.553293 -0.830206
-1.057406 0.047238 -0.110017 -0.001118 0.399712 -0.915204
0.329524 0.440178 -0.539290 -0.004872 0.794654 0.606334
0.138714 -0.290332 -0.351865 -0.044381 -0.801840 0.595888
0.398820 -0.310893 0.386698 0.074089 -0.777216 -0.624857
0.420351 0.079123 -0.089860 -0.000000 0.622101 -0.779991
-0.176316 -0.087838 -0.102847 -0.044381 -0.801840 0.595888
1.223660 0.065172 -0.075914 -0.012158 0.792798 0.609363
1.561348 0.039902 0.083361 1.000000 -0.000000 0.000000
1.561348 -0.039902 0.083361 1.000000 0.000000 0.000000
0.279224 0.206434 -0.265254 0.044413 -0.778589 -0.625961
-1.070605 -0.113294 0.038726 0.003237 -0.956525 0.279602
1.427553 -0.158710 0.201070 -0.012158 0.765430 0.643404
0.035490 0.117686 0.022030 0.001802 0.967363 0.242273
0.002799 0.262263 -0.324217 -0.044381 0.801840 0.595888
1.090278 -0.086204 -0.108440 -0.012158 0.765430 -0.643404
-0.243210 -0.057432 0.105056 0.000144 -0.517894 0.851934
1.568660 -0.074338 -0.092464 0.024816 -0.777242 0.628712
1.315838 -0.104333 -0.134268 -0.012158 0.765430 -0.643404
1.539702 0.115552 0.145194 0.024816 -0.780986 0.624055
0.490866 0.033081 -0.115069 -0.000023 0.324570 -0.943363
0.224809 0.225488 0.292814 0.023005 -0.774709 0.631658
0.107470 -0.131050 0.175834 -0.026586 0.764614 0.643940
0.107470 0.131050 -0.175834 -0.026586 -0.764614 -0.643940
1.142044 -0.064398 -0.076536 -0.012158 -0.792798 0.609363
0.097332 0.118472 -0.017310 -0.001166 0.973384 -0.214664
1.605219 0.264608 -0.329127 0.018654 -0.778457 -0.627332
1.605219 -0.264608 0.329127 0.012492 -0.782557 -0.622365
1.575972 0.112392 -0.139796 0.024816 -0.780986 -0.624055
-0.555036 -0.107824 0.052049 -0.000012 -0.879057 0.471936
0.292766 0.281965 -0.358241 0.044413 -0.778589 -0.625961
0.359337 -0.018427 -0.118303 -0.000114 -0.200275 -0.977286
0.049376 -0.238024 0.288131 -0.044381 -0.801840 -0.595888
1.561348 0.020309 -0.090160 1.000000 -0.000000 -0.000000
1.515114 -0.104801 -0.017112 0.286704 -0.953819 -0.051639
-0.954965 0.117905 -0.020824 0.000420 0.966980 -0.243896
1.399858 -0.181198 -0.227299 -0.012158 0.765430 -0.643404
-1.532187 -0.104591 -0.024506 -0.274958 -0.925524 -0.245047
0.262004 0.082942 -0.086943 0.074089 0.777216 0.624857
-0.036255 -0.183646 -0.221337 -0.044381 -0.801840 0.595888
1.561348 -0.039314 -0.036854 1.000000 0.000000 -0.000000
0.369571 0.035140 -0.114457 -0.000026 0.339000 -0.938334
-1.640224 -0.034538 -0.016384 -0.744602 -0.550902 -0.365092
1.488629 0.136358 -0.165977 0.024816 0.777242 0.628712
-1.329807 0.066121 0.099816 -0.000052 0.627907 0.775335
-1.329807 -0.066121 0.099816 -0.000052 -0.627907 0.775335
-0.887755 0.061442 0.102763 0.000119 0.476178 0.876809
1.437977 0.190064 -0.238567 -0.012158 -0.765430 -0.643404
1.124309 0.117902 -0.020842 0.002257 0.970808 -0.227959
0.187851 -0.151978 0.204003 -0.002916 0.769630 0.638241
0.218650 -0.213236 0.278012 -0.002916 0.769630 0.638241
0.795570 0.095223 -0.072580 -0.000162 0.758047 -0.648396
0.941667 -0.117343 -0.023786 -0.000033 -0.966307 -0.246732
0.220001 -0.053642 -0.107041 -0.000341 -0.487716 -0.870456
-0.603547 0.097433 0.069584 -0.000152 0.841855 0.535408
1.363510 0.203965 0.253697 -0.012158 0.792798 -0.609363
1.574867 -0.277690 -0.345399 -0.005995 -0.790270 0.612639
1.028860 -0.087233 0.108503 -0.012158 0.765430 0.643404
1.574867 0.277690 0.345399 -0.005995 0.790270 -0.612639
1.204991 -0.148671 -0.184921 -0.012158 -0.792798 0.609363
1.363510 0.203965 -0.253697 -0.012158 0.792798 0.609363
1.504415 -0.253115 0.314831 -0.012158 0.765430 0.643404
1.504415 0.253115 0.314831 -0.012158 0.792798 -0.609363
1.469188 -0.240827 0.299548 -0.012158 0.765430 0.643404
1.293057 0.179389 -0.223130 -0.012158 0.792798 0.609363
1.416349 -0.222396 -0.276622 -0.012158 -0.792798 0.609363
1.187378 -0.142527 0.177279 -0.012158 0.765430 0.643404
1.134539 -0.124096 -0.154354 -0.012158 -0.792798 0.609363
1.486802 -0.246971 -0.307190 -0.012158 -0.792798 0.609363
-0.530116 0.063394 0.101570 0.000410 0.605088 0.793142
0.999215 0.063045 0.077625 -0.012158 0.792798 -0.609363
1.292805 0.115181 0.032690 0.000131 0.972361 0.224249
0.824551 -0.020323 -0.117992 0.000046 -0.220605 -0.972409
0.824551 0.020323 -0.117992 0.000046 0.220605 -0.972409
-1.458436 -0.115284 0.032323 -0.000268 -0.971441 0.228746
-0.625662 -0.112950 0.039717 -0.000810 -0.958890 0.273416
0.338893 -0.118407 0.017748 -0.000252 -0.967340 0.243791
0.410274 -0.065566 -0.100181 -0.000087 -0.504500 -0.860739
-0.277262 0.017112 0.118501 0.000519 0.181682 0.981292
-0.954965 -0.117905 -0.020824 0.000420 -0.966980 -0.243896
0.376838 -0.107744 0.135574 0.044413 0.778589 0.625961
-0.496237 -0.118643 0.016092 -0.000764 -0.981243 0.181196
0.136553 0.225376 -0.264619 -0.044381 0.801840 0.595888
1.588158 -0.175815 -0.218684 0.024816 -0.777242 0.628712
-0.429391 -0.119349 0.009540 0.000158 -0.985245 0.162458
-0.966842 0.104572 -0.058309 0.000202 0.822818 -0.564394
0.559022 0.101104 0.064134 -0.000071 0.868115 0.491708
-0.825438 -0.009770 0.119330 0.002976 -0.151610 0.987387
-0.133035 -0.052578 -0.107568 0.000306 -0.404090 -0.912137
1.121640 -0.061111 0.079180 -0.000000 0.626579 -0.779358
0.198790 0.402970 0.498959 -0.044381 0.801840 -0.595888
-0.108758 0.168371 0.206182 -0.044381 0.801840 -0.595888
1.533350 0.087968 -0.049130 0.286284 0.877677 -0.377454
1.219449 -0.127557 0.157163 -0.012158 -0.792798 -0.609363
0.187846 -0.117948 0.161676 0.044413 0.778589 0.625961
-0.862339 -0.097573 -0.069388 -0.000052 -0.796436 -0.600892
-0.849656 0.114382 -0.035385 -0.000365 0.921370 -0.382623
0.989763 0.000000 -0.119730 0.000039 -0.058549 -0.994818
0.169959 -0.000000 0.119730 -0.000020 0.113249 0.990310
0.369912 0.119730 -0.000000 0.000025 0.993307 0.095117
0.429897 0.119730 -0.000000 -0.000030 0.993085 0.096607
-0.089978 -0.000000 0.119730 -0.000148 0.060716 0.994424
-0.269935 0.119730 -0.000000 -0.000045 0.990118 0.117838
-0.649845 -0.000000 0.119730 0.001034 0.056974 0.995094
0.509878 0.119730 -0.000000 -0.000136 0.993551 0.092499
0.089978 0.000000 -0.119730 -0.001980 -0.088919 -0.994025
0.049988 -0.119730 -0.000000 -0.001005 -0.993940 -0.096910
0.249940 -0.000000 0.119730 0.000359 0.114709 0.990056
-0.129969 0.119730 -0.000000 -0.000071 0.990109 0.116045
-0.149964 -0.119730 -0.000000 0.000266 -0.992482 -0.097850
1.229706 0.000000 -0.119730 -0.001139 -0.059399 -0.994664
-0.589859 -0.119730 0.000000 0.000467 -0.994838 -0.078567
-0.869792 -0.119730 0.000000 0.000018 -0.990558 -0.107122
0.869792 0.119730 -0.000000 0.003680 0.998169 0.030407
1.496575 -0.090108 0.066029 0.287130 -0.823139 0.484678
-1.369672 -0.000000 0.119730 0.000041 0.096650 0.992957
0.202383 0.308379 -0.390313 -0.026586 -0.764614 -0.643940
1.046473 0.093377 0.116145 -0.012158 0.792798 -0.609363
-1.249503 -0.036008 0.114187 0.000118 -0.345041 0.936127
1.083401 0.105818 -0.056015 0.000368 0.902883 -0.424312
-0.704127 0.019955 0.118055 0.000060 0.260780 0.962710
-0.611873 0.118254 -0.018741 -0.001695 0.964301 -0.254720
-0.133877 0.043228 0.111654 -0.000189 0.294421 0.952165
-0.803878 -0.104339 -0.058724 -0.000096 -0.899865 -0.430461
-1.507043 0.050450 0.102584 -0.168266 0.463731 0.866318
1.054110 -0.042265 -0.112022 0.000277 -0.391252 -0.917463
-0.639467 0.068874 -0.097937 -0.000234 0.627614 -0.775591
-1.311009 0.109948 0.047398 0.000048 0.933508 0.352244
0.659271 -0.079904 0.089166 0.000001 -0.701371 0.709562
0.421381 -0.115316 -0.032211 0.000074 -0.946902 -0.314418
0.490473 -0.090811 -0.078029 -0.000027 -0.787608 -0.612449
0.221169 -0.372790 0.467571 -0.026586 0.764614 0.643940
-0.841793 0.062535 -0.102101 -0.000101 0.494977 -0.866252
-0.612680 -0.042798 -0.111819 -0.000705 -0.419771 -0.905046
1.223212 0.117365 -0.023678 0.000071 0.968407 -0.239062
-0.077683 0.082026 0.087680 -0.044381 0.801840 -0.595888
1.554729 0.239193 0.295715 -0.000713 0.788112 -0.615453
1.420192 0.088372 -0.080781 0.000070 0.704591 -0.706866
-0.021117 0.048218 -0.109591 -0.000395 0.450708 -0.890153
-0.898884 -0.046640 0.110272 0.000154 -0.437731 0.896603
1.520091 -0.230782 -0.285464 -0.012158 -0.792798 0.609363
-1.547009 -0.000000 -0.102033 -0.334775 -0.053527 -0.937119
-0.783163 -0.072813 -0.095044 -0.000166 -0.656623 -0.751152
-1.206851 0.047981 -0.109695 0.000352 0.366153 -0.928321
-0.515332 -0.108851 0.049866 -0.000226 -0.888200 0.454613
1.450966 -0.100996 0.064304 0.047659 -0.869905 0.482184
1.533350 -0.087968 -0.049131 0.286282 -0.877675 -0.377460
0.145383 0.266517 -0.338253 -0.026586 -0.764614 -0.643940
-1.380121 0.079123 0.089860 0.000000 0.622101 0.779991
-1.250029 0.067165 0.099117 0.000208 0.517675 0.852873
0.361444 0.153969 0.187079 0.074089 0.777216 -0.624857
1.269227 0.142805 -0.176007 -0.012158 0.792798 0.609363
-0.888740 -0.111718 -0.043061 0.001293 -0.955314 -0.284061
-0.888740 0.111718 -0.043061 0.001293 0.955314 -0.284061
0.146731 0.387153 -0.481552 -0.044381 0.801840 0.595888
0.043311 0.311484 -0.387433 -0.044381 0.801840 0.595888
-0.189386 0.141230 -0.175666 -0.044381 0.801840 0.595888
0.095021 -0.349319 0.434493 -0.044381 -0.801840 -0.595888
0.056238 0.320943 0.399198 -0.026586 -0.764614 0.643940
-0.228169 0.112854 -0.140372 -0.044381 0.801840 0.595888
-0.047183 -0.245274 0.305080 -0.044381 -0.801840 -0.595888
0.185514 -0.415529 0.516847 -0.044381 -0.801840 -0.595888
0.852776 -0.041378 0.112352 0.000348 -0.309464 0.948963
1.173059 0.050467 0.108574 0.000937 0.502811 0.861782
-0.004803 0.128675 -0.168379 -0.026586 -0.764614 -0.643940
-0.263182 -0.086102 0.083196 -0.000073 -0.750103 0.657915
0.719175 0.080520 0.088610 0.000090 0.633555 0.770721
1.023738 -0.105307 -0.056970 -0.000106 -0.854512 -0.515006
-0.043709 0.105618 0.056392 0.000018 0.856767 0.511210
1.080832 -0.063818 -0.077003 -0.012158 -0.792798 0.609363
-0.725952 -0.111444 -0.043765 -0.000185 -0.890176 -0.450537
1.169765 0.136383 -0.169637 -0.012158 0.792798 0.609363
-0.678406 -0.061959 -0.102452 -0.000174 -0.572016 -0.817449
0.529661 -0.065180 0.100433 -0.000894 -0.500121 0.863264
0.540711 0.078802 -0.090141 -0.000620 0.725138 -0.685158
1.466145 -0.157938 0.191767 0.012492 -0.782557 -0.622365
-1.183962 0.115757 0.030588 0.000059 0.952744 0.296679
-0.945410 -0.073331 -0.094645 -0.000145 -0.662641 -0.745913
-1.528232 0.000000 0.108691 -0.334681 0.053388 0.937149
-0.978283 -0.049648 0.108951 0.000699 -0.461141 0.884979
-0.697971 0.058754 -0.104323 0.000109 0.567875 -0.820329
0.076712 0.021063 0.117863 0.000131 0.226565 0.970852
0.297946 0.139566 0.161636 0.074089 0.777216 -0.624857
-0.639467 -0.068874 -0.097937 -0.000234 -0.627614 -0.775591
0.913962 0.095926 -0.071647 0.000387 0.764739 -0.640785
-1.210173 0.068087 0.098485 -0.000493 0.602557 0.795226
1.391021 -0.098134 -0.068593 -0.000125 -0.844745 -0.530966
0.398820 -0.099849 -0.124195 0.074089 -0.777216 0.624857
0.398820 0.199164 -0.247726 0.074089 0.777216 0.624857
0.398820 -0.161921 -0.201402 0.074089 -0.777216 0.624857
0.398820 -0.447451 0.556553 0.074089 -0.777216 -0.624857
0.398820 -0.261236 -0.324933 0.074089 -0.777216 0.624857
-0.570092 0.061212 0.102900 0.000103 0.588976 0.805310
0.864747 -0.104404 -0.058609 0.000042 -0.843768 -0.532499
-0.752650 -0.118767 -0.015155 -0.001029 -0.973297 -0.219928
-0.731749 0.103122 -0.060837 0.000128 0.808365 -0.584790
-0.823362 0.102109 -0.062521 -0.000002 0.836179 -0.544239
0.924668 -0.104974 -0.057582 0.000322 -0.824025 -0.562441
0.251886 0.110063 -0.047130 -0.000220 0.934979 -0.349031
-0.012012 -0.173955 0.206491 -0.044381 -0.801840 -0.595888
-0.744121 -0.079123 -0.089859 -0.000143 -0.706464 -0.704495
-1.190499 -0.067909 0.098608 0.000142 -0.604462 0.793865
-1.125000 -0.080661 -0.088482 -0.000619 -0.671436 -0.738115
-1.330859 0.116419 -0.027961 0.002292 0.953269 -0.293330
0.510332 -0.109154 -0.049200 -0.000041 -0.866405 -0.494751
1.272804 0.112980 -0.039633 0.000136 0.925437 -0.372404
-0.292557 -0.113027 0.039497 0.000193 -0.926548 0.369839
0.549258 -0.090980 0.077832 -0.000019 -0.726259 0.684086
0.807638 -0.118660 -0.015970 -0.000972 -0.979456 -0.192972
1.255923 0.095330 -0.122426 -0.012158 -0.765430 -0.643404
1.202883 -0.105858 -0.055940 -0.000105 -0.859304 -0.506970
0.149685 -0.125505 -0.170994 -0.026586 0.764614 -0.643940
-0.920425 -0.014455 0.118854 -0.000072 -0.177568 0.981918
-0.245614 0.092089 -0.076517 0.000454 0.791614 -0.607292
-1.282048 -0.075374 -0.093027 0.001167 -0.589702 -0.804704
0.910137 -0.094569 0.073430 -0.000288 -0.761364 0.645023
0.226075 0.258906 -0.332547 -0.026586 -0.764614 -0.643940
-1.253851 0.118592 -0.016465 -0.000239 0.982535 -0.174215
0.094578 0.056797 0.105401 -0.000160 0.423883 0.902855
1.193085 -0.043236 -0.111651 0.000020 -0.444135 -0.893041
-1.005642 0.035700 0.114283 -0.001153 0.248557 0.966479
1.303652 -0.109723 0.047918 0.000021 -0.931999 0.356422
-0.219221 0.073763 0.094323 -0.026586 -0.764614 0.643940
0.845920 0.111539 0.043523 0.000160 0.907348 0.415196
0.235134 0.185954 -0.211886 0.074089 0.777216 0.624857
1.184768 -0.114323 -0.140637 -0.012158 -0.792798 0.609363
1.469648 0.020582 0.117947 0.101984 0.051951 0.988035
-1.594084 0.018913 0.075019 -0.582377 0.265975 0.760691
-0.128238 0.142188 0.179328 -0.026586 -0.764614 0.643940
0.837098 -0.103816 0.059645 0.000566 -0.838406 0.541046
0.528794 -0.109229 0.049034 0.000004 -0.889928 0.451032
-1.449653 0.119730 -0.000000 -0.000802 0.996872 0.044641
-1.527707 0.074527 0.079341 -0.348144 0.622345 0.695208
-0.203197 -0.095919 0.121293 -0.026586 0.764614 0.643940
-1.374196 -0.074082 -0.094059 -0.000108 -0.600982 -0.796519
0.509676 0.064322 0.100984 -0.000508 0.578073 0.812964
0.624789 -0.066628 -0.099479 -0.001330 -0.628938 -0.774721
-1.052488 0.111140 -0.044532 0.000553 0.888304 -0.453829
-0.353341 0.076915 0.091757 0.000808 0.666975 0.742150
0.359727 -0.140446 0.170055 0.074089 -0.777216 -0.624857
0.003819 0.091234 0.124278 -0.026586 -0.764614 0.643940
0.313504 -0.451129 0.555220 -0.044381 -0.801840 -0.595888
0.212276 0.142299 -0.190232 0.044413 -0.778589 -0.625961
1.369249 0.100652 0.130899 -0.012158 -0.765430 0.643404
-1.083382 0.118037 0.020062 0.003858 0.965819 0.247264
0.275675 0.177057 0.205627 0.074089 0.777216 -0.624857
0.216399 0.077191 0.108955 0.044413 -0.778589 0.625961
-0.437767 0.091388 0.077353 -0.000332 0.816465 0.573654
0.133957 0.056367 0.105631 -0.000231 0.420554 0.904485
0.358392 -0.277961 -0.348604 0.044413 0.778589 -0.625961
1.281962 -0.106173 -0.055340 -0.000230 -0.862570 -0.501437
0.731734 -0.113958 -0.036726 -0.000676 -0.916654 -0.393792
1.488291 0.174384 -0.220864 0.012492 -0.775929 -0.630610
0.243288 0.262242 0.337220 0.020750 -0.774288 0.632248
0.356995 0.300815 0.369203 0.074089 0.777216 -0.624857
-0.420063 0.118511 -0.017036 0.001155 0.993440 -0.087731
-0.361828 -0.067612 -0.098812 0.000451 -0.597301 -0.799384
-0.303106 0.086854 0.082411 -0.000002 0.754595 0.652664
0.030480 0.270797 0.338591 -0.026586 -0.764614 0.643940
-0.542683 -0.085555 -0.083759 0.000252 -0.771253 -0.632968
0.189254 -0.344575 -0.421091 -0.044381 -0.801840 0.595888
1.366489 -0.066526 -0.074826 -0.008050 -0.791128 0.611558
0.296965 0.173361 -0.203555 0.074089 0.777216 0.624857
0.017214 0.177399 -0.227143 -0.026586 -0.764614 -0.643940
0.269741 -0.036090 -0.114161 0.000015 -0.254413 -0.964528
0.303891 -0.173808 0.204931 0.074089 -0.777216 -0.624857
-0.001423 0.100388 -0.065249 0.000349 0.813018 -0.578389
-0.146204 -0.017607 -0.118428 0.000601 -0.239359 -0.968559
0.846642 -0.055914 -0.105872 0.000419 -0.417981 -0.905735
-1.121864 -0.105116 -0.057323 0.001303 -0.874321 -0.480512
-0.937551 -0.114543 0.034859 0.000358 -0.939403 0.336230
1.223212 -0.117365 -0.023678 0.000071 -0.968407 -0.239062
1.489379 0.050328 -0.102126 0.286021 0.334340 -0.895145
0.339796 0.241005 -0.303956 0.044413 -0.778589 -0.625961
-1.209516 -0.037600 0.113672 0.000434 -0.357159 0.931562
-1.163156 -0.019632 -0.118109 -0.000726 -0.228621 -0.971086
-1.514137 0.110774 0.020462 -0.222882 0.931330 0.273864
1.234276 0.075123 0.097977 -0.012158 -0.765430 0.643404
0.207701 -0.266777 0.341135 -0.026586 0.764614 0.643940
-0.321687 -0.109671 -0.048036 -0.000166 -0.948328 -0.310071
-1.389668 -0.119730 0.000000 0.004020 -0.994161 -0.085408
0.166032 0.339364 -0.415809 -0.044381 0.801840 0.595888
0.550031 -0.108711 -0.050170 -0.000873 -0.926585 -0.370554
-0.032384 -0.062821 -0.101925 -0.000133 -0.489013 -0.869695
-0.429939 -0.078371 0.090516 -0.000730 -0.687670 0.723243
-1.347623 0.091307 -0.077449 0.000338 0.696307 -0.714684
0.993302 0.112261 -0.041626 -0.001045 0.899103 -0.432327
0.002416 0.235901 0.295997 -0.026586 -0.764614 0.643940
0.256634 0.219184 0.255769 0.074089 0.777216 -0.624857
1.116926 0.117952 -0.146712 -0.012158 0.792798 0.609363
-0.029643 -0.221718 -0.272076 -0.044381 -0.801840 0.595888
-0.149712 0.139210 -0.169993 -0.044381 0.801840 0.595888
-0.918971 0.114349 0.035490 -0.000893 0.921051 0.383934
0.298765 0.039273 0.113106 0.000165 0.271185 0.959729
-0.044414 0.057942 0.104776 0.000020 0.438045 0.896060
1.003106 -0.114657 0.034483 0.000304 -0.940811 0.332504
0.026506 0.121768 0.161471 -0.026586 -0.764614 0.643940
1.530674 0.048828 0.062050 0.024816 -0.780986 0.624055
0.351921 -0.106483 -0.126886 0.074089 -0.777216 0.624857
-1.053570 -0.081682 -0.087540 0.000146 -0.602569 -0.794445
-1.249701 -0.119730 0.000000 0.002621 -0.997675 -0.041238
0.767870 -0.110063 0.047130 0.000220 -0.934979 0.349031
0.298725 -0.381770 0.462989 0.038574 -0.785603 -0.616942
1.436882 -0.037118 0.113831 0.001206 -0.348575 0.935072
-1.169720 -0.000000 0.119730 -0.001830 0.049834 0.996252
1.389668 -0.000000 0.119730 -0.000280 0.106493 0.991439
-1.455432 -0.114727 -0.034250 -0.000107 -0.940206 -0.332647
-0.124748 0.188523 -0.234490 -0.044381 0.801840 0.595888
0.106376 -0.111801 0.042846 0.000025 -0.896385 0.437826
-1.600938 -0.062258 -0.037455 -0.582562 -0.755705 -0.278725
-1.412749 0.068278 -0.098353 0.000074 0.616840 -0.784304
1.365010 0.178880 0.223883 -0.012158 -0.765430 0.643404
0.229791 0.037720 -0.113633 -0.000557 0.402407 -0.912895
-0.023401 0.094762 -0.100776 -0.044381 0.801840 0.595888
1.305277 -0.059370 0.080579 -0.000000 0.626579 -0.779358
0.159137 -0.322828 0.394071 -0.044381 -0.801840 -0.595888
-1.073824 -0.071796 0.095815 -0.000846 -0.633800 0.771020
-0.146534 0.090954 -0.077862 -0.000540 0.815054 -0.575650
1.389668 -0.119730 -0.000000 -0.000166 -0.995292 -0.062210
1.389668 0.119730 -0.000000 -0.000104 0.996850 0.038897
-0.315356 0.019478 -0.118135 -0.000111 0.206888 -0.975858
-0.669840 -0.119730 0.000000 0.003338 -0.997127 -0.038370
1.401604 0.120200 -0.143957 -0.012158 0.792798 0.609363
1.502644 -0.146138 -0.178620 0.024816 -0.777242 0.628712
-0.517616 -0.118193 -0.019120 -0.001205 -0.978673 -0.194807
0.345211 0.127732 -0.162681 0.044413 -0.778589 -0.625961
-0.303562 -0.066291 -0.099703 0.000231 -0.590842 -0.803876
1.489183 0.231568 -0.287102 -0.012158 0.792798 0.609363
0.221739 0.039741 0.112942 -0.000251 0.273750 0.958813
0.098059 -0.292332 0.366952 -0.026586 0.764614 0.643940
-0.426835 -0.079927 -0.089146 0.000361 -0.737851 -0.671761
-0.744329 0.079764 0.089291 -0.000364 0.732886 0.677108
0.382555 0.020264 0.118002 -0.000522 0.256060 0.964121
-1.142429 -0.103816 0.059645 0.000566 -0.838406 0.541046
-0.341091 0.117761 0.021622 0.000140 0.960315 0.269424
0.398820 0.422623 -0.525670 0.074089 0.777216 0.624857
-1.309894 0.058466 -0.104484 0.000554 0.455492 -0.887999
1.544830 -0.145575 0.182562 0.024816 0.780986 0.624055
1.176007 0.111958 0.140697 -0.012158 -0.765430 0.643404
-0.059445 0.114277 -0.035720 -0.000079 0.937277 -0.342526
0.182825 0.321158 0.390059 -0.044381 0.801840 -0.595888
0.137583 -0.248034 -0.315985 -0.026586 0.764614 -0.643940
-0.349916 -0.119730 0.000000 -0.000156 -0.997008 -0.035809
-1.561783 0.089513 -0.033567 -0.452212 0.844852 -0.273123
0.398820 -0.199164 0.247726 0.074089 -0.777216 -0.624857
-1.021657 0.058442 -0.104498 0.000070 0.546636 -0.834732
1.461854 0.064681 -0.076309 0.024816 0.777242 0.628712
0.353270 0.409066 -0.503407 0.074089 0.777216 0.624857
-0.078144 -0.108121 0.140945 -0.026586 0.764614 0.643940
0.163870 -0.351552 0.439987 -0.026586 0.764614 0.643940
1.193085 0.043236 -0.111651 0.000020 0.444135 -0.893041
-0.475992 0.118609 0.016346 0.000169 0.972882 0.222240
1.204991 0.148671 0.184921 -0.012158 0.792798 -0.609363
-0.881146 0.015277 0.118751 -0.000299 0.172072 0.983075
-0.869269 0.090047 0.078909 -0.001486 0.783769 0.617771
-0.461494 0.036973 0.113878 0.001440 0.337364 0.938716
1.264468 -0.059757 0.080268 -0.000000 0.626579 -0.779358
0.302920 -0.254993 -0.323972 0.044413 0.778589 -0.625961
0.147005 0.306156 0.385388 -0.026586 -0.764614 0.643940
1.547700 0.073966 0.092832 0.024816 -0.780986 0.624055
-0.002315 -0.114427 -0.035237 -0.000493 -0.923290 -0.378406
-0.741608 -0.115780 0.030500 0.000189 -0.946721 0.314453
1.600345 0.239239 -0.297572 0.024816 -0.780986 -0.624055
0.382555 -0.020264 0.118002 -0.000522 -0.256060 0.964121
0.361186 0.341611 0.420444 0.074089 0.777216 -0.624857
-0.504297 0.032377 0.115269 0.000259 0.325365 0.943188
0.683440 0.068090 -0.098483 -0.000875 0.488969 -0.870033
0.109337 0.230147 0.293580 -0.026586 -0.764614 0.643940
-0.769816 0.000000 -0.119730 0.000303 -0.121492 -0.988807
0.398820 0.137092 0.170519 0.044413 -0.778589 0.625961
-0.516189 -0.015435 0.118731 0.000579 -0.222165 0.972837
1.461506 -0.211268 -0.264237 -0.012158 0.765430 -0.643404
1.557254 0.271546 -0.337757 -0.005995 0.790270 0.612639
0.431481 0.091607 0.077093 0.000168 0.818382 0.571146
0.132993 0.109190 -0.108542 -0.044381 0.801840 0.595888
0.552287 -0.066014 -0.099887 0.000880 -0.515580 -0.854416
0.321197 -0.148293 -0.189958 0.044413 0.778589 -0.625961
-0.437492 -0.041619 -0.112263 -0.000254 -0.374494 -0.924873
-0.481439 -0.080270 0.088837 -0.001200 -0.736071 0.673801
0.117898 0.334805 -0.413259 -0.044381 0.801840 0.595888
-1.049749 -0.000000 0.119730 0.001980 0.088919 0.994025
1.343192 -0.110486 0.132484 -0.012158 -0.792798 -0.609363
1.109597 0.084674 -0.106985 -0.012158 -0.765430 -0.643404
1.565802 -0.247943 -0.309839 0.001401 0.771259 -0.636412
0.284311 0.473016 0.586845 0.000000 0.626579 0.779358
0.300581 -0.080520 -0.088610 -0.000090 -0.633555 -0.770721
1.507051 0.085457 -0.103778 0.024816 0.777242 0.628712
1.476924 -0.118267 0.143150 0.024816 -0.777242 -0.628712
0.233138 -0.120795 0.162003 0.044413 0.778589 0.625961
0.981267 -0.101611 0.063328 -0.000732 -0.786003 0.614182
-1.199082 -0.062963 -0.101838 0.000812 -0.496222 -0.865833
1.275444 0.173246 0.215488 -0.012158 0.792798 -0.609363
1.156379 -0.114560 0.034802 0.000107 -0.939886 0.335281
1.261649 -0.117906 -0.020818 -0.000131 -0.971600 -0.224378
0.569425 -0.091488 -0.077235 -0.000692 -0.791392 -0.607962
-0.061504 0.172741 0.208544 -0.044381 0.801840 -0.595888
1.396660 0.192362 -0.240521 -0.012158 -0.765430 -0.643404
-1.069744 0.000000 -0.119730 -0.001896 -0.033248 -0.998329
-1.643504 0.034637 -0.000000 -0.756441 0.647474 0.052827
0.663285 0.037627 -0.113664 0.001101 0.353663 -0.932894
-1.016048 0.076776 0.091873 -0.000471 0.599084 0.797739
-0.832142 0.091151 0.077632 0.000865 0.788160 0.612285
0.164809 0.201413 0.261751 -0.026586 -0.764614 0.643940
1.300606 0.097150 -0.125435 -0.012158 -0.765430 -0.643404
1.323064 -0.091736 0.076940 0.000349 -0.822929 0.564095
-0.529197 0.045093 -0.110914 -0.001687 0.290629 -0.954398
0.273505 -0.101663 0.063245 -0.000625 -0.816283 0.574297
0.357045 0.087214 0.082030 -0.001230 0.712602 0.699288
0.789965 -0.037720 0.113633 0.000557 -0.402407 0.912895
-0.673391 0.109005 -0.049528 0.000233 0.894473 -0.441834
1.249701 -0.000000 0.119730 -0.001253 0.049509 0.996302
0.071748 0.236236 0.299258 -0.026586 -0.764614 0.643940
0.221717 -0.377366 -0.473027 -0.026586 0.764614 -0.643940
0.362736 -0.233656 0.286349 0.074089 -0.777216 -0.624857
-1.090462 0.079800 -0.089259 -0.000706 0.666067 -0.742945
1.040024 0.063432 -0.077314 -0.012158 0.792798 0.609363
1.561348 -0.000000 -0.055452 1.000000 -0.000000 -0.000000
1.385562 -0.059159 0.080749 0.000000 0.626579 -0.779358
0.300090 0.241459 0.307339 0.044413 -0.778589 0.625961
0.958407 0.062658 -0.077936 -0.012158 0.792798 0.609363
0.299972 -0.118214 0.018990 -0.000045 -0.964917 0.252613
0.362486 0.378095 0.472864 0.044413 -0.778589 0.625961
0.516864 -0.048706 -0.109375 -0.000254 -0.341633 -0.937570
0.153670 0.248897 0.294995 -0.044381 0.801840 -0.595888
-1.608233 0.017325 -0.065005 -0.582406 0.265975 -0.760669
1.574867 -0.277690 0.345399 -0.005995 0.768087 0.640232
1.405131 -0.144523 0.175531 -0.012158 -0.792798 -0.609363
0.589394 0.036685 -0.113971 -0.000224 0.391160 -0.917897
-0.202550 0.118513 -0.017028 0.000051 0.979542 -0.189737
-0.789811 0.119730 -0.000000 -0.001008 0.992810 0.096334
-0.007709 0.166823 -0.196574 -0.044381 0.801840 0.595888
1.325372 0.139069 0.170027 -0.012158 0.792798 -0.609363
-0.175497 0.047223 -0.110023 0.000207 0.450202 -0.890087
0.237589 -0.097303 -0.101911 0.074089 -0.777216 0.624857
0.030329 -0.213772 0.256916 -0.044381 -0.801840 -0.595888
1.318621 -0.016075 -0.118646 -0.000324 -0.174730 -0.982670
0.569864 0.000000 -0.119730 -0.000416 -0.105976 -0.991522
0.360574 -0.222916 -0.279983 0.044413 0.778589 -0.625961
1.478211 -0.191621 -0.235349 -0.012158 -0.792798 0.609363
1.436878 0.037100 0.113837 0.001199 0.348486 0.935105
0.605439 -0.118671 0.015889 -0.000081 -0.972286 0.224500
0.104294 0.067055 -0.099716 -0.000000 -0.626579 0.779358
0.284311 -0.473016 -0.586845 0.000000 -0.626579 -0.779358
-1.489225 -0.064562 0.098288 -0.171543 -0.446542 0.873610
1.138671 0.100544 0.065008 0.000062 0.884465 0.462216
0.360574 0.222916 0.279983 0.044413 -0.778589 0.625961
-1.229512 0.036090 0.114161 -0.000015 0.254413 0.964528
0.749821 -0.000000 0.119730 0.000823 0.052512 0.995837
0.269935 0.000000 -0.119730 -0.000823 -0.052512 -0.995837
-1.175664 0.079815 -0.089246 0.000959 0.593265 -0.802128
1.177985 0.092374 -0.117436 -0.012158 -0.765430 -0.643404
0.374144 -0.401379 0.500997 0.044413 0.778589 0.625961
0.022612 -0.163091 0.210376 -0.026586 0.764614 0.643940
0.363799 -0.463481 -0.572338 0.074089 -0.777216 0.624857
-0.073038 0.226357 0.281550 -0.026586 -0.764614 0.643940
0.050452 -0.234099 -0.295841 -0.026586 0.764614 -0.643940
0.084346 0.194383 -0.226803 -0.044381 0.801840 0.595888
0.095088 0.104974 0.057582 -0.000322 0.824025 0.562441
0.371026 0.094047 0.118950 0.044413 -0.778589 0.625961
0.212603 0.282409 -0.359899 -0.026586 -0.764614 -0.643940
0.179768 -0.015422 -0.118732 0.002413 -0.081714 -0.994944
0.358974 0.463960 0.572362 0.074089 0.777216 -0.624857
-1.269696 -0.000000 0.119730 0.000183 0.103787 0.991872
0.949773 -0.000000 0.119730 0.001872 0.113736 0.989902
-0.574022 0.013689 0.118945 -0.005571 0.194765 0.979227
0.256891 -0.441766 0.546836 -0.044381 -0.801840 -0.595888
-0.117063 -0.080524 -0.088607 -0.001296 -0.699863 -0.711533
1.374462 -0.047199 -0.110034 -0.000142 -0.480575 -0.874415
-0.221866 -0.024233 0.117252 0.000374 -0.294362 0.952475
0.256924 -0.441806 -0.546887 -0.044381 -0.801840 0.595888
1.336993 -0.046296 -0.110417 0.000382 -0.467495 -0.881662
-0.765183 0.051882 0.107905 0.000374 0.474188 0.877997
0.311045 -0.397010 -0.500040 -0.002916 0.769630 -0.638241
0.344879 0.180698 0.218362 0.074089 0.777216 -0.624857
0.077968 0.251391 -0.303989 -0.044381 0.801840 0.595888
1.379878 -0.134513 -0.171383 -0.012158 0.765430 -0.643404
1.561348 0.042542 -0.025403 1.000000 -0.000000 0.000000
0.232536 0.364179 -0.444247 -0.044381 0.801840 0.595888
-0.938062 0.100156 0.065604 0.000138 0.860393 0.505402
0.377774 0.318570 0.393751 0.074089 0.777216 -0.624857
0.134400 0.088154 0.126012 -0.026586 -0.764614 0.643940
-0.094114 0.059316 -0.104004 -0.000273 0.400314 -0.913355
-0.022220 0.114543 -0.034859 -0.000358 0.939403 -0.336230
0.150893 -0.078468 -0.115192 -0.002916 0.769630 -0.638241
1.431100 -0.051370 -0.108150 -0.001028 -0.506868 -0.859639
0.073715 -0.201989 -0.237830 -0.044381 -0.801840 0.595888
-0.124748 0.188523 0.234490 -0.026586 -0.764614 0.643940
0.242822 -0.317475 0.380636 -0.044381 -0.801840 -0.595888
0.054261 0.165976 -0.215108 -0.026586 -0.764614 -0.643940
0.588281 -0.066892 -0.099301 0.000003 -0.632926 -0.771333
0.413103 -0.092440 0.076092 -0.000690 -0.734137 0.675846
-1.097926 -0.118512 -0.017033 0.000544 -0.977124 -0.196963
-1.009758 -0.119730 0.000000 -0.002185 -0.992430 -0.101640
-1.502700 0.102089 0.053454 -0.208674 0.900629 0.371201
-1.436266 0.088817 -0.080292 0.000358 0.784971 -0.616072
0.144121 0.133012 0.139769 -0.044381 0.801840 -0.595888
0.180681 -0.113291 0.115050 0.074089 -0.777216 -0.624857
-0.238093 0.017059 -0.118508 0.000198 0.188965 -0.979683
-0.090502 0.090047 -0.078909 0.001486 0.783769 -0.617771
0.721367 0.068157 -0.098437 -0.000012 0.490386 -0.869235
-1.648439 -0.000000 -0.028967 -0.752364 -0.054359 -0.651816
1.236207 -0.051158 0.108250 0.000840 -0.467965 0.881034
0.149685 0.144923 -0.155382 -0.044381 0.801840 0.595888
0.252569 0.451446 -0.560183 -0.044381 0.801840 0.595888
0.107644 0.210456 0.246695 -0.044381 0.801840 -0.595888
0.325203 -0.185557 -0.236025 0.044413 0.778589 -0.625961
0.017455 0.292567 0.363904 -0.026586 -0.764614 0.643940
-0.073493 -0.106776 -0.120672 -0.044381 -0.801840 0.595888
-1.309382 0.035415 0.114372 -0.000006 0.341570 0.937407
0.038489 0.101611 -0.063328 0.000732 0.786003 -0.614182
-0.998260 0.101611 0.063328 -0.000732 0.786003 0.614182
-0.829802 -0.119730 0.000000 0.002169 -0.997366 -0.045670
0.123178 -0.329300 -0.411885 -0.026586 0.764614 -0.643940
-0.042956 -0.021669 0.117752 -0.000071 -0.235415 0.968545
1.523109 -0.033774 0.098160 0.286591 -0.213608 0.930924
-1.347622 -0.091307 -0.077449 0.000338 -0.696309 -0.714682
-0.369912 -0.000000 0.119730 -0.000715 0.043790 0.997110
-0.245614 -0.092089 -0.076517 0.000454 -0.791614 -0.607292
0.102050 0.161637 0.211930 -0.026586 -0.764614 0.643940
0.268286 -0.393385 -0.493970 -0.026586 0.764614 -0.643940
-0.034255 0.254733 0.316844 -0.026586 -0.764614 0.643940
1.040024 -0.063432 0.077314 -0.000000 0.626579 -0.779358
-0.493622 -0.109876 -0.047565 0.002618 -0.895989 -0.441361
-0.162190 0.022411 0.117614 -0.000048 0.295878 0.951726
-0.162190 -0.022411 0.117614 -0.000048 -0.295878 0.951726
0.053166 -0.101509 0.104151 -0.044381 -0.801840 -0.595888
0.187846 -0.117948 -0.161676 0.044413 0.778589 -0.625961
1.310670 -0.185533 0.230772 -0.012158 0.765430 0.643404
1.556173 -0.122095 0.151010 0.024816 -0.777242 -0.628712
-0.735029 -0.037134 0.113826 0.000514 -0.352610 0.933312
-1.420084 0.115558 -0.031328 0.000006 0.956947 -0.283233
0.132993 -0.109190 0.108542 -0.044381 -0.801840 -0.595888
0.159274 0.169893 -0.224096 -0.026586 -0.764614 -0.643940
-0.947306 0.064013 0.101181 0.000180 0.494898 0.866430
1.331944 -0.113336 -0.038604 -0.000099 -0.927962 -0.366404
0.510080 0.064322 -0.100984 0.000508 0.578073 -0.812964
1.019338 -0.017680 0.118417 -0.000303 -0.185494 0.980354
1.568660 -0.074338 0.092464 0.024816 -0.777242 -0.628712
-0.194618 -0.101362 -0.063726 -0.000297 -0.889067 -0.452899
0.449892 -0.000000 0.119730 0.000416 0.105976 0.991522
1.497867 0.222904 0.275657 -0.012158 0.792798 -0.609363
0.236120 -0.359787 0.438071 -0.044381 -0.801840 -0.595888
0.318872 -0.242039 0.291576 0.074089 -0.777216 -0.624857
0.187851 0.151978 0.204003 0.019059 -0.773952 0.632674
0.569337 0.109278 -0.048923 0.000079 0.888928 -0.453496
0.250479 0.366888 0.446557 -0.044381 0.801840 -0.595888
0.134467 0.104703 0.058074 -0.000427 0.820080 0.568094
0.117898 0.334805 0.413259 -0.044381 0.801840 -0.595888
0.187115 0.122642 0.127443 0.074089 0.777216 -0.624857
0.094586 -0.083624 0.085687 0.000333 -0.665500 0.743304
-1.137614 0.110371 -0.046405 0.000425 0.883262 -0.463376
0.183824 0.067571 -0.099301 -0.000000 -0.626579 0.779358
1.257774 -0.151852 0.189703 -0.012158 0.765430 0.643404
0.069463 0.209274 -0.267148 -0.026586 -0.764614 -0.643940
0.852776 0.041378 0.112352 0.000348 0.309464 0.948963
1.309687 0.119730 -0.000000 -0.000557 0.994230 0.083703
-0.907410 -0.034921 -0.114524 0.000400 -0.320127 -0.944952
-0.483702 0.024610 -0.117173 -0.002577 0.259777 -0.963150
1.253246 0.114892 0.033691 0.000267 0.970956 0.230160
-0.632514 -0.084347 0.084975 0.000367 -0.632949 0.771155
-0.460941 0.103433 -0.060307 -0.001956 0.818045 -0.572462
0.304712 0.425114 0.520867 -0.044381 0.801840 -0.595888
-0.559137 -0.043171 -0.111676 0.000246 -0.429740 -0.900932
0.276910 -0.247290 -0.293132 0.074089 -0.777216 0.624857
1.390196 0.101486 0.063528 0.000246 0.892063 0.446914
-1.146410 0.035604 0.114314 -0.002422 0.367531 0.927053
0.499016 0.115022 0.033245 0.000336 0.944456 0.321731
0.377004 -0.327505 0.408908 0.044413 0.778589 0.625961
-0.085965 0.216899 -0.269785 -0.044381 0.801840 0.595888
-0.806467 0.050467 0.108574 0.001025 0.503874 0.861312
1.539493 -0.205556 -0.257839 0.024816 0.780986 -0.624055
0.640068 -0.050884 0.108379 -0.000038 -0.468458 0.880876
-0.557007 -0.116863 -0.026043 -0.000634 -0.967632 -0.241347
-0.083853 -0.117401 0.023499 -0.002815 -0.968545 0.239230
1.103609 -0.117401 -0.023499 0.002815 -0.968545 -0.239230
0.320233 0.341168 0.429931 0.044413 -0.778589 0.625961
-0.854135 0.029316 -0.116085 0.000704 0.212853 -0.975136
-0.381452 -0.106201 0.055287 0.000452 -0.866469 0.494922
0.189254 0.344575 0.421091 -0.044381 0.801840 -0.595888
1.162382 0.022019 -0.117688 0.000083 0.239197 -0.967502
1.223660 -0.065172 -0.075914 -0.012158 -0.792798 0.609363
0.294506 0.257594 -0.308035 0.074089 0.777216 0.624857
0.262824 -0.115409 -0.031875 0.000500 -0.950438 -0.304174
0.042051 0.222626 0.281871 -0.026586 -0.764614 0.643940
0.398820 0.273650 0.340374 0.044413 -0.778589 0.625961
1.369249 0.100652 -0.130899 -0.012158 -0.765430 -0.643404
0.584790 0.118492 -0.017169 0.000142 0.979297 -0.191209
0.133614 0.095071 -0.072778 -0.000874 0.821046 -0.566906
-0.600613 0.075457 -0.092960 -0.000589 0.680573 -0.729590
0.783185 -0.118706 0.015625 -0.000141 -0.974077 0.217433
-1.297439 0.113491 -0.038146 -0.000116 0.924356 -0.375390
-1.221880 0.111390 -0.043904 -0.002053 0.924391 -0.375644
-1.407704 -0.111527 -0.043555 0.000410 -0.918863 -0.388775
-0.002685 -0.077836 -0.090977 0.000063 -0.574516 -0.815683
0.559866 0.017142 0.118496 0.000002 0.047813 0.996553
1.156379 0.114560 0.034802 0.000107 0.939886 0.335281
-0.503415 -0.085244 -0.084076 -0.000521 -0.675446 -0.734262
0.157053 0.090720 -0.129994 0.020750 -0.774288 -0.632248
1.410132 -0.101174 0.064024 0.000172 -0.869262 0.489796
1.458928 0.186537 0.234767 -0.012158 -0.765430 0.643404
0.154243 0.292540 -0.369518 -0.026586 -0.764614 -0.643940
-0.646801 0.093727 -0.074501 -0.000276 0.760135 -0.646323
-0.775187 0.041695 -0.112235 -0.001465 0.308407 -0.947135
1.060780 0.048074 0.109655 0.000354 0.357610 0.931460
0.015727 -0.271721 0.335982 -0.044381 -0.801840 -0.595888
-1.132479 0.094192 0.073913 0.000112 0.814188 0.576777
0.315758 0.110622 -0.143489 0.044413 -0.778589 -0.625961
0.398820 -0.385380 -0.479346 0.074089 -0.777216 0.624857
