-0.225757 0.404453 -0.363707 0.063414 -0.661827 -0.746970
1.170407 -0.110537 -0.000000 0.001058 -0.996599 -0.052193
-0.442147 0.145321 -0.145935 -0.072579 -0.626109 -0.776350
-0.436760 0.344532 0.303530 -0.063362 0.691487 -0.719604
-0.546456 0.029344 -0.106571 0.000691 0.280440 -0.956999
-1.811929 -0.053164 0.084957 -0.246156 -0.471811 0.840912
1.030358 -0.110537 -0.000000 -0.000610 -0.985426 -0.142179
1.183830 0.101027 -0.044855 0.000322 0.872241 -0.483349
1.170407 -0.000000 -0.110537 -0.001126 -0.056481 -0.996496
-0.516497 0.108169 0.083423 -0.063362 0.691487 -0.719604
-0.311361 0.263561 -0.246142 0.063414 -0.661827 -0.746970
-0.231841 0.134880 -0.125378 0.063414 -0.661827 -0.746970
-0.215366 0.095603 0.055484 0.000068 0.865154 0.496349
-1.828121 0.000000 -0.094843 -0.300586 0.060056 -0.947669
1.838388 -0.052000 -0.062623 1.000000 0.000000 0.000000
1.802098 -0.148797 -0.133350 0.020068 0.666098 -0.745594
0.666459 -0.035457 0.104696 -0.003518 -0.383397 0.920696
-0.261655 0.240369 -0.205641 0.055339 0.662145 0.747330
-0.315553 0.171020 -0.164505 0.063414 -0.661827 -0.746970
1.425046 -0.106627 -0.029139 0.000906 -0.935808 -0.344988
1.319589 0.107456 0.025917 0.002554 0.969645 0.233245
0.707168 -0.084837 -0.070860 -0.000402 -0.761785 -0.643763
-1.750609 -0.037645 -0.103929 -0.030262 -0.244521 -0.965879
1.665401 -0.154621 0.132955 -0.010662 -0.676114 -0.736720
1.600820 0.072433 -0.069716 -0.007247 -0.651761 -0.758367
-0.550201 -0.049072 -0.099047 -0.000079 -0.438322 -0.895672
-0.162671 0.295205 0.261556 0.055339 0.662145 -0.747330
-0.162671 -0.522853 -0.463255 0.063414 0.661827 -0.746970
-0.162671 0.188970 0.167430 0.055339 0.662145 -0.747330
-0.162671 -0.234499 0.207770 0.055339 -0.662145 -0.747330
-0.162671 -0.401441 0.355682 0.055339 -0.662145 -0.747330
-0.618675 0.052550 0.097246 0.002528 0.463586 0.882780
1.866738 -0.179581 -0.159111 0.020068 0.666098 -0.745594
-0.565060 -0.156254 0.133906 -0.063362 -0.691487 -0.719604
-0.321733 -0.160693 -0.155880 0.063414 0.661827 -0.746970
1.915338 -0.357197 0.316482 0.014947 0.663442 0.748026
1.870788 0.194382 -0.172225 0.020068 -0.666098 -0.745594
-0.481810 0.057656 -0.094309 0.000030 0.535453 -0.841353
-0.481940 0.254226 0.220731 -0.063362 0.691487 -0.719604
-1.129928 -0.034207 -0.105111 -0.000011 -0.392638 -0.916787
1.301473 -0.036721 0.104259 -0.000775 -0.411818 0.908148
0.947560 0.033694 -0.105276 0.000858 0.387112 -0.919165
0.715480 0.082347 0.073739 -0.000788 0.708228 0.702184
1.110386 0.110537 0.000000 0.001500 0.988395 0.124864
1.030358 -0.000000 -0.110537 0.001383 -0.041622 -0.997327
-1.010351 -0.000000 -0.110537 -0.001682 -0.049658 -0.996395
-1.846092 0.087425 -0.000000 -0.382361 0.918520 -0.054940
1.698649 -0.100248 0.046570 -0.000176 -0.904944 0.419428
0.340117 0.108989 0.018433 0.001807 0.991912 0.105621
-0.449086 -0.103446 -0.038952 -0.000611 -0.931998 -0.354979
1.838388 -0.038665 0.093848 1.000000 0.000000 -0.000000
-0.215381 -0.106804 0.028484 0.000959 -0.936140 0.344324
0.940464 -0.078641 0.077678 0.000232 -0.642971 0.762447
1.811218 -0.198597 0.174337 0.020068 -0.659946 -0.751045
1.043186 -0.063271 0.090638 -0.000125 -0.642677 0.762638
-0.221494 -0.049918 -0.098623 0.000121 -0.444407 -0.892672
1.491998 0.045949 -0.100534 0.000051 0.494447 -0.866104
-0.412565 0.149054 0.113560 0.015766 0.672815 -0.739052
-0.572432 -0.104143 -0.100546 -0.072579 0.626109 -0.776350
1.848024 0.317741 0.280013 0.009094 0.665798 -0.746015
-0.851245 0.089286 -0.065165 0.000055 0.835161 -0.545750
-0.435220 -0.296057 -0.256813 -0.063362 -0.691487 0.719604
-0.340125 -0.481214 0.426363 -0.063362 -0.691487 -0.719604
-0.393096 -0.418952 0.371198 -0.063362 -0.691487 -0.719604
-0.657952 -0.107639 0.095370 -0.063362 -0.691487 -0.719604
-0.573198 0.207259 0.183635 -0.072579 -0.626109 0.776350
-0.456662 -0.344237 0.304999 -0.063362 -0.691487 -0.719604
-0.308342 0.518572 -0.459463 -0.063362 0.691487 0.719604
1.390484 -0.000000 0.110537 -0.003627 0.139944 0.985953
0.414798 -0.108794 -0.019550 -0.000077 -0.966660 -0.241947
1.664009 0.063291 0.090624 -0.000164 0.570616 0.818047
-0.454727 0.252694 -0.231353 -0.072579 -0.626109 -0.776350
-0.495494 0.104894 -0.034868 -0.000340 0.955717 -0.282095
-0.342361 0.410335 0.358450 -0.063362 0.691487 -0.719604
-0.202530 -0.178710 -0.161724 0.063414 0.661827 -0.746970
1.422834 -0.100699 0.045586 0.000066 -0.909500 0.408818
-1.348215 0.093028 -0.059701 0.001159 0.780369 -0.619433
1.861032 0.246608 0.219145 0.020068 -0.666098 0.745594
-1.629946 0.100335 -0.046383 0.000185 0.906643 -0.415794
-1.285137 -0.060806 -0.092310 -0.000001 -0.548636 -0.832861
0.146064 -0.102162 0.042206 -0.000151 -0.883549 0.462720
-1.491615 -0.043977 -0.101412 -0.000843 -0.395897 -0.915308
-1.440045 -0.069185 -0.086208 -0.000013 -0.691961 -0.718207
-1.664461 0.090933 0.062846 0.000039 0.817112 0.571917
0.557598 -0.099306 0.048546 -0.000379 -0.852050 0.518474
-1.233588 -0.082905 -0.073110 -0.000012 -0.805002 -0.588798
-0.302250 -0.114551 -0.113344 0.063414 0.661827 -0.746970
0.827404 -0.078497 -0.077825 0.000214 -0.708925 -0.701566
-1.523328 -0.109831 -0.012472 -0.000415 -0.982212 -0.176865
1.268797 0.071019 -0.084703 0.000169 0.641817 -0.763417
0.093666 0.103892 -0.037748 -0.000787 0.901409 -0.426777
-0.314291 -0.315229 -0.268070 0.055339 -0.662145 0.747330
-0.007855 -0.105960 0.031480 -0.000760 -0.927848 0.365780
-0.219980 -0.174738 0.150577 0.055339 -0.662145 -0.747330
-1.266906 0.057617 0.094333 0.000516 0.526667 0.846946
0.110419 -0.012219 0.109859 -0.000338 -0.195417 0.978353
-0.416220 -0.214053 -0.176341 -0.063362 -0.691487 0.719604
-0.149473 0.102688 0.040908 0.000413 0.891682 0.447048
1.228310 0.082627 0.073209 -0.010662 -0.649930 0.759919
-0.367130 0.247370 0.204034 0.012935 0.673506 -0.738380
0.839254 0.098863 0.049443 -0.000644 0.861038 0.503637
1.811218 0.198597 -0.174337 0.020068 0.659946 0.751045
1.782840 0.016192 -0.105989 0.100503 0.234747 -0.964170
0.372349 -0.034834 -0.104905 0.001719 -0.313399 -0.946550
0.637893 -0.103168 -0.039682 -0.000543 -0.896130 -0.437643
-0.389669 -0.262918 0.245680 -0.072579 0.626109 0.776350
-1.032829 0.102914 0.040338 -0.000795 0.887743 0.453988
0.519924 -0.085644 -0.069882 0.000387 -0.823675 -0.562506
1.419511 -0.120518 0.105215 -0.010662 -0.676114 -0.736720
0.493285 -0.022669 0.108187 0.001233 -0.270209 0.959771
1.615346 0.109079 0.017895 -0.000477 0.970284 0.229893
1.617099 0.209722 0.187363 -0.010662 -0.649930 0.759919
0.555172 -0.061256 0.092011 -0.000400 -0.623228 0.778665
1.595778 -0.045150 0.100895 -0.001101 -0.406720 0.910551
0.849985 0.022991 0.108119 0.001117 0.298451 0.951818
-0.589266 0.103402 -0.098374 -0.072579 -0.626109 -0.776350
-1.630567 -0.000000 0.110537 -0.001588 0.072230 0.995555
-0.273370 0.318901 -0.291949 0.063414 -0.661827 -0.746970
1.723152 0.182106 0.165232 0.009826 -0.660786 0.750457
-1.388287 -0.044221 -0.101306 -0.000773 -0.396978 -0.914871
-1.750609 0.070958 0.084755 -0.027483 0.571520 0.816716
1.688550 0.179243 -0.155216 -0.010662 0.676114 0.736720
-0.206030 -0.435903 -0.383006 0.055339 -0.662145 0.747330
1.116143 0.049643 -0.098762 -0.000634 0.368926 -0.926877
-0.388330 -0.351571 0.306030 -0.063362 -0.691487 -0.719604
-0.301176 -0.208433 -0.196433 0.063414 0.661827 -0.746970
-0.422406 0.289962 0.264430 -0.072579 -0.626109 0.776350
1.846488 0.105574 -0.093540 0.020068 -0.666098 -0.745594
0.210073 0.110537 0.000000 0.005703 0.991663 0.099882
-0.295731 -0.391370 0.358056 -0.024010 0.639968 0.767157
0.203743 -0.014948 -0.109522 0.000577 -0.201857 -0.977058
-1.464214 0.099085 0.048996 -0.000365 0.850625 0.521102
-0.327925 0.089272 0.093126 0.063414 -0.661827 0.746970
0.914148 0.102861 -0.040472 0.000259 0.892770 -0.444751
1.838388 -0.093750 0.038902 1.000000 0.000000 -0.000000
1.838388 0.000000 -0.040600 1.000000 -0.000000 0.000000
-0.314291 0.315229 0.268070 0.055339 0.662145 -0.747330
1.590150 0.120681 0.110831 -0.010662 -0.649930 0.759919
1.721260 -0.154164 0.140320 0.020068 0.666098 0.745594
1.744802 -0.179781 -0.162572 0.020068 0.666098 -0.745594
-0.312940 0.221514 0.209022 0.063414 -0.661827 0.746970
-1.199247 -0.096864 0.053253 0.000039 -0.826889 0.557579
1.734275 0.113436 -0.103584 0.020068 -0.666098 -0.745594
1.509210 -0.070569 0.085079 0.000000 -0.636961 0.767388
1.671237 0.090460 -0.084755 0.020068 -0.666098 -0.745594
-0.363150 0.110442 -0.114873 0.063414 -0.661827 -0.746970
0.510177 -0.110537 -0.000000 -0.000529 -0.997913 -0.026896
1.735076 -0.275005 -0.242427 -0.010662 -0.676114 0.736720
-0.380712 -0.161186 -0.161324 0.063414 0.661827 -0.746970
-0.418824 -0.092149 0.062678 0.013125 -0.673401 -0.738361
1.458019 -0.023592 0.107990 -0.000036 -0.228879 0.970663
-0.381884 -0.257818 -0.215373 -0.063362 -0.691487 0.719604
-0.475379 0.071201 0.084551 -0.000007 0.646102 0.759722
-0.217842 0.566057 -0.506219 -0.000000 0.748476 -0.663161
-0.674894 0.013800 -0.109672 -0.002099 0.205459 -0.976574
-0.488444 0.306879 -0.271900 -0.063362 0.691487 0.719604
-1.510525 -0.000000 0.110537 0.000616 0.090549 0.993782
0.503605 0.013191 -0.109747 0.000488 0.190202 -0.979511
-0.237315 0.522385 -0.469178 0.018075 -0.651032 -0.758078
0.054658 0.031768 -0.105874 -0.000525 0.193472 -0.978691
-1.630567 0.000000 -0.110537 -0.000411 -0.119161 -0.988393
0.630219 0.110537 0.000000 -0.000856 0.989992 0.121127
-0.237315 -0.522385 0.469178 -0.027256 0.639127 0.767871
-1.190414 -0.000000 -0.110537 0.000481 -0.062068 -0.996502
1.812952 0.227661 0.199922 0.020068 0.659946 -0.751045
-0.057106 0.015547 -0.109438 -0.000860 0.213701 -0.974278
-1.800751 0.037030 0.096386 -0.199632 0.266789 0.938494
-0.147495 0.105188 -0.033969 0.001015 0.947226 -0.310284
-1.894801 -0.058261 0.000000 -0.584907 -0.804066 0.058603
0.043225 -0.093552 0.058877 0.000086 -0.793394 0.604290
1.335004 0.073973 -0.067304 -0.010662 -0.649930 -0.759919
-0.380111 0.219280 -0.178184 -0.026632 0.683287 0.729139
-0.162671 0.522853 0.463255 0.055339 0.662145 -0.747330
1.615043 -0.113162 0.095635 -0.010662 -0.676114 -0.736720
-0.150052 -0.000000 0.110537 -0.000270 0.045998 0.996466
-1.204400 0.100228 -0.046613 -0.000701 0.910191 -0.407203
0.553996 0.105886 -0.031725 -0.000731 0.926001 -0.370372
-0.289167 0.454362 -0.396073 -0.063362 0.691487 0.719604
-0.323863 -0.127624 0.101140 0.055339 -0.662145 -0.747330
-1.381233 0.015884 -0.109390 -0.000084 0.193017 -0.978393
-1.369397 0.035971 0.104520 -0.000518 0.381310 0.922098
1.656139 0.245503 -0.216495 -0.010662 0.676114 0.736720
-0.371095 0.269765 0.252939 -0.072579 -0.626109 0.776350
-1.681772 0.037153 -0.104106 0.001587 0.416185 -0.906223
1.766406 0.260759 0.233108 -0.010662 -0.649930 0.759919
-0.305528 -0.283247 0.263089 0.063414 0.661827 0.746970
-0.456662 0.344237 -0.304999 -0.063362 0.691487 0.719604
-1.788840 0.075163 -0.074609 -0.228892 0.640174 -0.728087
-1.678314 0.109202 -0.017125 -0.002205 0.982238 -0.177753
1.838258 -0.145069 0.129046 0.020068 0.666098 0.745594
1.030530 0.099257 -0.048646 0.003111 0.866034 -0.495335
-0.289382 -0.238029 0.201514 0.055339 -0.662145 -0.747330
1.837697 -0.275959 -0.245996 0.020068 0.666098 -0.745594
-1.261698 0.011316 -0.109956 -0.000208 0.170979 -0.983145
-1.442184 0.039825 -0.103113 -0.000310 0.435455 -0.897392
1.080971 -0.109154 -0.017431 -0.000250 -0.982870 -0.174521
0.198896 -0.109382 0.015937 0.000778 -0.972845 0.220918
-0.913866 0.038458 -0.103631 -0.000034 0.386414 -0.919253
0.905938 0.097508 0.052063 -0.000050 0.837725 0.541119
0.590586 0.036800 0.104231 -0.000012 0.373686 0.924626
1.544555 0.096317 0.054235 -0.000264 0.821060 0.566119
-0.373621 -0.233325 0.191109 -0.046413 -0.687733 -0.724036
-0.857206 -0.108668 -0.020243 0.001028 -0.957485 -0.276578
0.437858 -0.088460 0.066281 -0.000611 -0.793495 0.604368
-0.212205 0.327935 0.286887 0.055339 0.662145 -0.747330
1.133403 0.025560 0.107541 0.000274 0.329095 0.940937
1.330629 0.129307 0.114568 -0.010662 -0.649930 0.759919
1.676190 0.167582 0.144694 -0.010662 0.676114 -0.736720
0.385856 0.059891 0.092906 -0.000758 0.613645 0.786433
1.425833 -0.061458 -0.091877 -0.000152 -0.561729 -0.824148
0.660163 0.021846 -0.108357 0.000315 0.214440 -0.974102
1.562984 -0.090169 -0.063938 0.000228 -0.761025 -0.644776
-0.979012 0.100876 -0.045192 -0.000851 0.886061 -0.457396
1.215345 -0.063353 0.090581 -0.000214 -0.493020 0.866643
-0.404748 -0.122729 -0.090814 0.055339 -0.662145 0.747330
-0.335772 -0.109113 0.017685 -0.002512 -0.966087 0.247203
1.566838 -0.178520 0.159972 -0.010662 0.649930 0.759919
0.490125 0.034003 0.105177 -0.000217 0.256676 0.963670
-0.269889 0.374445 -0.323825 0.055339 0.662145 0.747330
-0.981429 0.053981 -0.096460 0.000251 0.537528 -0.840020
1.371535 0.017881 -0.109081 0.002174 0.249632 -0.965560
-1.337036 -0.069083 -0.086290 0.000070 -0.550795 -0.831420
0.471628 -0.060382 -0.092587 0.000563 -0.544799 -0.835463
-0.356629 -0.387555 -0.349286 -0.072579 0.626109 -0.776350
1.492108 0.027577 0.107042 0.001509 0.328608 0.941199
1.785152 0.100586 -0.036433 0.103324 0.934553 -0.331519
-0.751456 -0.057574 0.094359 -0.000167 -0.594169 0.801005
-0.287212 -0.374772 -0.322832 0.055339 -0.662145 0.747330
-0.707542 -0.084077 -0.071759 -0.000761 -0.758697 -0.647124
-1.681867 -0.070273 -0.085324 -0.000021 -0.633094 -0.770691
-0.276012 -0.105229 -0.033842 0.000109 -0.949007 -0.305991
1.730664 -0.287446 0.255431 -0.010662 0.649930 0.759919
-1.320266 -0.100936 0.045059 -0.000689 -0.910892 0.405984
-0.730254 -0.000000 -0.110537 0.001969 -0.056103 -0.994858
-0.423487 -0.046063 0.100482 0.001211 -0.414129 0.907070
1.008533 -0.091195 0.062465 0.000045 -0.768587 0.635569
0.248660 -0.065432 0.089091 -0.000074 -0.661668 0.746388
-0.620118 -0.064123 -0.090037 -0.000013 -0.647970 -0.758111
-1.423513 -0.046059 0.100484 -0.000136 -0.493552 0.866319
-1.008730 -0.101528 0.043709 -0.000993 -0.916064 0.394137
-0.287052 0.038349 0.103671 0.000050 0.430970 0.899422
1.767878 -0.107931 -0.097762 0.020068 0.666098 -0.745594
0.725999 -0.045795 -0.100604 0.000225 -0.489448 -0.868694
-0.535844 -0.105739 -0.032214 0.000138 -0.953125 -0.293108
-0.729315 0.098047 0.051040 -0.000624 0.836946 0.542413
-0.939334 -0.047644 0.099742 -0.000492 -0.428088 0.900614
-1.579385 -0.084978 0.070690 -0.000244 -0.705260 0.705234
1.610560 -0.000000 -0.110537 -0.000197 -0.117249 -0.989207
0.557724 0.019266 -0.108845 -0.000162 0.201180 -0.977158
1.111737 -0.078476 0.077845 -0.000057 -0.708431 0.701997
-0.120178 -0.094956 -0.056585 -0.000179 -0.806188 -0.587155
-1.544816 0.054751 -0.096024 0.000409 0.570280 -0.818225
0.468343 0.092220 -0.060942 -0.000102 0.778348 -0.623570
-0.698951 -0.101807 0.043056 0.001030 -0.919483 0.386303
-0.341537 0.109155 -0.017422 0.001391 0.969890 -0.230387
1.664297 0.100406 0.046227 -0.000543 0.865099 0.496074
0.351777 -0.066309 0.088439 0.000730 -0.599380 0.797326
0.844622 -0.018696 -0.108944 -0.000134 -0.259166 -0.963301
-1.543809 -0.069472 -0.085977 -0.000174 -0.693892 -0.716260
-0.112140 -0.089233 0.065237 -0.000077 -0.748314 0.659286
-1.095104 -0.038135 0.103750 -0.000205 -0.339486 0.937282
0.906380 -0.046111 0.100460 0.000268 -0.496881 0.864794
-0.481153 -0.051061 -0.098037 0.000079 -0.537046 -0.840351
1.688887 -0.234939 0.206326 -0.010662 -0.676114 -0.736720
-0.956804 -0.105088 0.034278 0.000739 -0.951260 0.296033
-0.561280 -0.064480 0.089782 0.000015 -0.652621 0.754119
-0.490551 -0.233247 -0.212320 -0.072579 0.626109 -0.776350
-1.025902 -0.072344 0.083574 0.000030 -0.652500 0.754214
-0.060660 -0.068206 0.086985 0.000051 -0.615183 0.784999
1.457649 0.078615 0.077705 0.000072 0.709547 0.700818
-0.216420 0.190674 0.173503 0.063414 -0.661827 0.746970
-1.250787 -0.063892 0.090201 -0.000046 -0.575349 0.814607
0.059539 -0.058361 0.093874 -0.000168 -0.530220 0.844780
-0.289812 -0.029103 -0.106637 -0.000170 -0.267480 -0.960838
-0.276235 -0.527443 -0.469619 -0.072579 0.626109 -0.776350
1.838388 0.040600 -0.000000 1.000000 -0.000000 0.000000
-0.866815 0.062578 0.091118 -0.000582 0.638801 0.766037
1.128899 -0.104494 0.036046 0.001239 -0.946694 0.309911
-0.614999 -0.109398 0.015828 0.000508 -0.974258 0.213944
-0.117368 -0.034868 -0.104893 0.000642 -0.305283 -0.949206
0.963600 -0.078878 -0.077438 0.000010 -0.713947 -0.696565
0.572682 0.067430 -0.087588 -0.000000 0.609507 -0.789429
1.595487 0.046208 0.100415 -0.000129 0.414545 0.907184
-0.409014 0.014353 0.109601 -0.000841 0.215489 0.973812
-0.950792 0.055517 0.095584 -0.000569 0.511503 0.856305
1.405675 0.071603 0.084211 -0.000009 0.645300 0.760400
-1.044484 -0.089344 -0.065085 0.000330 -0.804965 -0.588796
0.162771 -0.057736 0.094260 -0.000117 -0.594896 0.800482
-1.647460 -0.096172 0.054492 0.000297 -0.866821 0.492768
-0.536178 0.124288 -0.120181 -0.072579 -0.626109 -0.776350
1.194065 -0.098538 -0.050087 0.001054 -0.848244 -0.525059
-1.714739 -0.109166 -0.017352 -0.003186 -0.966502 -0.245336
0.912588 -0.019413 -0.108819 -0.003006 -0.260875 -0.962495
0.381934 0.096231 -0.054388 -0.000144 0.870678 -0.486071
0.878741 -0.096573 -0.053779 0.000259 -0.870593 -0.486668
-1.157558 0.079076 -0.077235 0.000518 0.726839 -0.683129
0.444019 0.101774 0.043133 0.001865 0.920294 0.384375
0.291388 0.025791 0.107486 0.000959 0.153443 0.984294
-0.290989 0.059678 -0.093043 0.000492 0.458753 -0.885785
-0.647809 -0.056912 0.094760 0.000115 -0.512619 0.855491
-0.237664 0.108684 -0.020153 0.003315 0.956734 -0.279620
-0.865023 0.106563 0.029371 -0.000428 0.963150 0.257365
0.052822 -0.056376 -0.095079 -0.000115 -0.583484 -0.808910
1.301739 -0.104503 0.036021 0.000415 -0.947666 0.306473
1.682363 -0.162872 -0.140282 -0.010662 -0.676114 0.736720
0.727617 0.077188 -0.079123 -0.000102 0.628902 -0.774098
-0.593610 0.108367 0.021796 -0.000204 0.978920 0.193170
-0.379218 -0.095927 -0.054921 0.000012 -0.863901 -0.498272
0.813895 0.104429 -0.036236 -0.002295 0.941661 -0.329048
0.288115 0.079000 0.077313 -0.000722 0.779823 0.622022
0.183927 0.054009 0.096444 -0.000298 0.484921 0.871121
1.440278 0.071331 -0.084441 -0.000032 0.642343 -0.762904
-1.578113 0.084795 -0.070910 0.000092 0.765886 -0.638778
0.257248 -0.020609 -0.108599 -0.000394 -0.283234 -0.955388
-1.270442 -0.110537 0.000000 -0.000320 -0.997617 -0.036583
-0.909265 -0.045212 -0.100867 -0.001018 -0.397693 -0.914595
1.500353 0.155827 0.139631 -0.010662 -0.649930 0.759919
-0.196937 -0.352620 -0.315335 0.063414 0.661827 -0.746970
1.719804 -0.077154 -0.065183 0.004435 0.748469 0.663155
1.155910 0.092695 0.060217 -0.000176 0.838514 0.540732
1.862688 0.164779 0.145997 0.020068 -0.666098 0.745594
-0.342361 0.410335 -0.358450 -0.063362 0.691487 0.719604
-0.549404 -0.207114 -0.181400 -0.063362 -0.691487 0.719604
1.570546 -0.000000 0.110537 0.002491 0.081133 0.994271
-0.509310 -0.085858 0.069619 0.000049 -0.775406 0.627218
-0.578067 0.017768 0.109100 -0.003537 0.259805 0.962466
1.516688 0.171641 -0.153385 -0.010662 -0.649930 -0.759919
-0.373877 0.035421 -0.104708 0.003044 0.407097 -0.909873
0.914222 0.068514 -0.086742 -0.000479 0.615612 -0.784748
-0.743311 0.096622 -0.053690 0.000240 0.818871 -0.569544
-1.364901 0.098442 0.050276 0.000446 0.888507 0.453424
1.733289 -0.078239 0.078083 0.034224 -0.705392 0.703985
1.023429 -0.049057 -0.099055 -0.000497 -0.444450 -0.892583
0.624885 -0.024802 -0.107719 -0.000749 -0.303834 -0.949706
1.750609 0.110537 0.000000 0.067148 0.993299 0.052313
-0.380252 0.317950 -0.290942 -0.072579 -0.626109 -0.776350
-0.582081 -0.143343 -0.131258 -0.072579 0.626109 -0.776350
1.521812 -0.160323 0.143777 -0.010662 0.649930 0.759919
-1.681868 -0.070532 0.085110 0.000005 -0.641288 0.763934
0.922542 -0.109188 0.017215 0.000343 -0.971315 0.225977
0.083837 0.050614 0.098268 -0.000963 0.533065 0.843200
0.656159 -0.076578 -0.079713 0.000957 -0.752196 -0.654951
0.068494 0.105351 0.033459 -0.000226 0.920505 0.383898
-1.492780 -0.046243 0.100399 0.000014 -0.416456 0.906233
0.985521 0.012667 0.109809 0.001886 0.186009 0.980501
-0.779183 0.101401 0.044004 0.000045 0.882094 0.465453
1.729241 0.106407 0.091139 0.020068 0.659946 -0.751045
1.800770 0.059311 -0.087096 0.103133 0.628210 -0.767670
-0.930313 0.107096 0.027364 -0.000760 0.941410 0.329901
-1.100592 0.109919 0.011667 0.001560 0.984538 0.165141
1.763723 -0.184517 0.160696 0.020068 -0.659946 -0.751045
-1.050382 0.075834 0.080421 0.000136 0.683401 0.726668
1.838094 -0.238458 -0.212482 0.020068 0.666098 -0.745594
1.699512 0.010905 -0.109998 0.002722 0.174268 -0.982755
0.349067 0.071344 -0.084430 -0.000066 0.643011 -0.762372
0.136587 -0.092118 -0.061096 0.000233 -0.833893 -0.547150
0.186322 -0.086947 -0.068254 0.000466 -0.838027 -0.540833
-0.965056 0.092081 0.061152 0.000839 0.778685 0.623290
-0.397148 -0.318928 -0.290152 -0.072579 0.626109 -0.776350
1.636200 0.166808 -0.150928 -0.010662 -0.649930 -0.759919
1.510525 -0.000000 -0.110537 -0.002056 -0.087694 -0.993949
-0.272279 -0.188346 0.158761 0.055339 -0.662145 -0.747330
-0.162671 -0.522853 0.463255 0.055339 -0.662145 -0.747330
-0.803026 -0.109324 -0.016331 -0.000028 -0.974777 -0.211789
-0.475356 -0.038088 0.103768 -0.000296 -0.337775 0.937893
1.802098 0.150299 -0.131654 0.020068 0.659946 0.751045
0.390136 0.110537 0.000000 0.001146 0.991674 0.101938
-1.391018 0.106004 -0.031331 -0.004230 0.958836 -0.271454
0.738943 0.106310 0.030275 0.001438 0.955930 0.284601
-1.403905 -0.109178 0.017282 0.000028 -0.971372 0.225890
-1.019685 0.025703 0.107507 0.000428 0.319325 0.945209
1.370218 -0.114976 0.102866 -0.010662 0.649930 0.759919
-1.465083 0.061964 0.091536 -0.000700 0.484754 0.871941
-0.273674 -0.493655 -0.432467 -0.063362 -0.691487 0.719604
1.495263 0.092199 -0.078130 -0.010662 0.676114 0.736720
-1.580518 0.103377 0.039136 0.001197 0.962775 0.258671
-0.193304 -0.097121 -0.083782 0.055339 -0.662145 0.747330
-0.206125 -0.552357 -0.486179 0.055339 -0.662145 0.747330
-0.102773 -0.109921 -0.011649 -0.000197 -0.980929 -0.183985
-1.324123 0.016366 0.109319 0.002245 0.243392 0.967288
-0.810408 -0.057975 -0.094113 -0.000082 -0.602023 -0.795564
1.500837 -0.104453 -0.095699 -0.010662 0.649930 -0.759919
1.751164 -0.117668 0.101620 0.020068 -0.659946 -0.751045
0.470138 0.047870 -0.099634 -0.000188 0.513009 -0.855273
-0.370583 -0.096356 0.054166 0.000016 -0.821003 0.566116
-0.590918 0.132637 0.121797 -0.072579 -0.626109 0.776350
-0.330115 -0.000000 0.110537 -0.000775 0.097902 0.992908
0.017435 0.052076 0.097501 -0.000500 0.537694 0.840392
-0.206255 -0.306970 -0.275680 0.063414 0.661827 -0.746970
-0.480679 0.154906 0.150062 -0.072579 -0.626109 0.776350
1.080465 0.103699 0.038273 -0.001704 0.885508 0.456236
1.790322 0.114070 0.099505 0.020068 0.659946 -0.751045
-1.079862 -0.109695 -0.013613 0.000087 -0.980191 -0.186682
1.293755 -0.075431 -0.065658 -0.010662 -0.676114 0.736720
-0.224891 0.108708 0.101599 0.063414 -0.661827 0.746970
-0.208521 0.557535 0.490590 0.055339 0.662145 -0.747330
0.318372 -0.074663 -0.081509 -0.000762 -0.734100 -0.675621
1.385341 0.119217 -0.104517 -0.010662 0.676114 0.736720
-0.270300 -0.309878 0.283694 0.063414 0.661827 0.746970
-0.279112 0.250452 0.231789 0.063414 -0.661827 0.746970
-0.640756 0.088957 -0.065613 -0.003258 0.741837 -0.666896
-1.764830 0.106837 0.023958 -0.131941 0.948886 0.270979
-1.732646 0.107305 -0.026532 -0.025342 0.967241 -0.240479
0.674668 0.108851 -0.019233 0.000328 0.980705 -0.184297
0.805689 -0.049526 0.098821 -0.000933 -0.361013 0.929822
-0.732442 0.041688 0.102375 0.000185 0.374726 0.924465
-1.147305 -0.106404 -0.029943 -0.000969 -0.962494 -0.259036
1.415894 0.168206 0.149033 -0.010662 -0.649930 0.759919
-0.219072 -0.248346 0.215862 0.055339 -0.662145 -0.747330
0.999018 0.109692 -0.013643 -0.000191 0.979463 -0.190296
-1.854440 0.050346 0.066517 -0.412594 0.551009 0.718189
0.236901 0.088313 0.066477 -0.001897 0.808555 0.584639
1.470511 0.110537 0.000000 -0.002246 0.989250 0.117962
1.859376 -0.328436 0.292294 0.009094 0.660401 0.750798
-0.454467 0.090362 -0.063663 0.000325 0.756136 -0.650236
0.284558 0.083587 -0.072329 0.000454 0.757180 -0.649620
1.465397 -0.091041 0.077499 -0.010662 -0.676114 -0.736720
1.826383 0.089671 0.079029 0.020068 0.659946 -0.751045
-0.419056 0.135009 -0.100635 -0.023801 0.682596 0.729810
-0.585149 -0.117894 0.110447 -0.072579 0.626109 0.776350
-0.198328 0.096980 -0.053041 0.003048 0.830178 -0.553772
1.050365 -0.000000 0.110537 0.001280 0.063962 0.993599
1.776567 -0.292649 -0.260525 -0.010662 0.649930 -0.759919
0.101422 -0.108406 -0.021598 -0.000162 -0.973768 -0.216182
-0.468192 0.191439 -0.159187 -0.063362 0.691487 0.719604
1.410491 0.110537 0.000000 0.002651 0.989438 0.116966
1.749749 0.257487 -0.230075 -0.010662 -0.649930 -0.759919
-0.462880 0.205210 0.192295 -0.072579 -0.626109 0.776350
-0.217682 -0.459889 0.403395 0.055339 -0.662145 -0.747330
1.807558 0.335346 0.297476 -0.010662 -0.649930 0.759919
0.819732 -0.107816 0.024374 -0.001400 -0.975274 0.211958
-1.773954 -0.031729 0.103652 -0.195166 -0.269685 0.938355
-1.789074 -0.097220 0.041886 -0.198117 -0.939126 0.263368
1.838388 0.099544 -0.019833 0.104733 0.967402 -0.219316
1.809114 -0.090295 -0.079116 0.020068 -0.659946 0.751045
1.070895 0.085974 -0.069475 -0.003211 0.740095 -0.668937
-0.452953 -0.171274 0.165855 -0.072579 0.626109 0.776350
-0.570198 -0.110537 0.000000 0.000414 -0.997008 -0.038510
0.776192 -0.070600 -0.085054 0.000155 -0.638799 -0.765978
-0.203887 0.107783 -0.098996 0.063414 -0.661827 -0.746970
1.777959 -0.272273 0.239300 -0.010662 -0.676114 -0.736720
0.977480 -0.104481 -0.036085 -0.000395 -0.909634 -0.409051
0.298274 0.109545 -0.014772 -0.000998 0.977308 -0.201256
1.841085 0.260413 -0.229453 0.020068 0.659946 0.751045
-0.221352 0.443747 -0.388821 0.055339 0.662145 0.747330
-0.255509 -0.134203 0.112031 0.055339 -0.662145 -0.747330
-0.482580 -0.133524 0.104801 -0.063362 -0.691487 -0.719604
-1.854921 -0.049523 0.066831 -0.419037 -0.530449 0.730851
1.089287 0.040453 0.102869 -0.000913 0.442756 0.893981
1.472478 0.156282 -0.139629 -0.010662 -0.649930 -0.759919
-0.277236 0.131499 0.108027 0.055339 0.662145 -0.747330
1.319706 0.108362 -0.021817 -0.001119 0.947138 -0.308093
-0.209155 0.231097 0.208702 0.063414 -0.661827 0.746970
1.353392 -0.045854 0.100577 0.001342 -0.411742 0.908192
-1.920775 -0.006246 -0.035082 -0.712753 -0.190656 -0.672515
-0.225532 0.404652 0.363864 0.063414 -0.661827 0.746970
1.589033 -0.208475 -0.185903 -0.010662 0.649930 -0.759919
-0.203025 0.284228 -0.248842 0.055339 0.662145 0.747330
1.578394 0.104368 -0.036411 -0.000453 0.947183 -0.307898
-0.210634 0.480345 -0.429665 0.063414 -0.661827 -0.746970
-1.782125 -0.088914 -0.059779 -0.164698 -0.877037 -0.442781
-0.529483 0.194929 -0.167937 -0.063362 0.691487 0.719604
-0.776112 -0.083791 -0.072094 -0.000143 -0.756942 -0.651100
-0.262750 0.525378 0.461988 -0.063362 0.691487 -0.719604
-0.412565 -0.129339 -0.135811 0.018075 0.651032 -0.758078
0.250087 -0.000000 0.110537 0.004188 0.118318 0.989794
1.690588 0.110537 0.000000 -0.002357 0.993936 0.084094
1.607931 -0.090500 -0.085268 -0.010662 0.649930 -0.759919
0.748088 -0.018208 0.109027 0.001422 -0.257183 0.963538
-0.387823 0.368144 0.321911 -0.063362 0.691487 -0.719604
-0.234203 0.480288 0.431615 0.063414 -0.661827 0.746970
-0.378004 0.180398 0.143891 0.055339 0.662145 -0.747330
1.838388 0.019581 0.099594 0.109471 0.114551 0.983678
1.688326 -0.200341 -0.174582 -0.010662 -0.676114 0.736720
1.509417 0.104433 -0.036224 0.001566 0.910591 -0.406491
1.690588 -0.000000 0.110537 0.000515 0.036717 0.997979
-0.300647 0.101524 0.043718 0.000923 0.919419 0.386541
-0.639039 0.084424 0.071397 0.000000 -0.748476 -0.663161
0.109480 0.019880 -0.108734 0.001603 0.275018 -0.958880
-0.480679 -0.154906 -0.150062 -0.072579 0.626109 -0.776350
-0.265368 -0.433664 0.376628 0.055339 -0.662145 -0.747330
-0.544427 0.182576 0.157383 -0.063362 0.691487 -0.719604
-0.890310 -0.000000 -0.110537 0.002195 -0.115071 -0.989875
1.791063 -0.339363 -0.300680 -0.010662 -0.676114 0.736720
-0.647332 -0.097432 0.052205 -0.000075 -0.879763 0.469433
1.319290 0.064122 0.090038 -0.000017 0.577599 0.813059
-1.914230 0.020314 0.036678 -0.653962 0.307410 0.684681
1.802482 -0.323526 0.287296 -0.010662 0.649930 0.759919
-0.496437 -0.118187 -0.118976 -0.072579 0.626109 -0.776350
1.589033 0.209657 -0.184569 -0.010662 0.676114 0.736720
-1.181555 -0.043615 -0.101568 0.000086 -0.389594 -0.918001
-0.418391 0.174932 -0.172036 -0.072579 -0.626109 -0.776350
-0.462783 -0.215040 -0.181389 -0.063362 -0.691487 0.719604
-0.458684 -0.278900 0.252117 -0.072579 0.626109 0.776350
1.458751 -0.076598 -0.064341 -0.010662 -0.676114 0.736720
1.449093 -0.142889 -0.127846 -0.010662 0.649930 -0.759919
-0.287212 0.374772 0.322832 0.055339 0.662145 -0.747330
-1.612606 -0.108983 -0.018472 -0.001075 -0.981788 -0.179589
1.634002 0.114999 0.097046 -0.010662 0.676114 -0.736720
-0.371283 -0.092022 -0.099243 0.063414 0.661827 -0.746970
-0.253821 -0.427268 -0.371816 0.055339 -0.662145 0.747330
-0.419056 -0.114782 0.123464 -0.027256 0.639127 0.767871
-0.289332 0.103420 -0.082252 0.055339 0.662145 0.747330
1.668207 0.249376 0.221994 -0.010662 -0.649930 0.759919
1.420397 0.118157 0.103036 -0.010662 0.676114 -0.736720
1.705798 0.300463 0.266215 -0.010662 -0.649930 0.759919
-0.285306 0.201530 0.169478 0.055339 0.662145 -0.747330
1.877037 -0.293098 -0.259135 0.020068 -0.659946 0.751045
-0.182549 0.343251 -0.302653 0.055339 0.662145 0.747330
-0.200067 0.205722 -0.185447 0.063414 -0.661827 -0.746970
-0.533064 -0.190191 0.173622 -0.072579 0.626109 0.776350
-0.202079 -0.081074 0.075178 0.063414 0.661827 0.746970
-0.380111 0.202125 0.197546 -0.027256 -0.639127 0.767871
-0.401527 0.233833 -0.221115 -0.072579 -0.626109 -0.776350
1.766992 0.203606 -0.183260 0.020068 -0.666098 -0.745594
-0.756091 0.065425 -0.089095 0.000284 0.544161 -0.836032
-0.205672 -0.289737 0.253527 0.055339 -0.662145 -0.747330
-1.594631 -0.025888 0.107463 0.001914 -0.240663 0.967760
-0.421229 0.099744 0.047641 -0.001092 0.903004 0.422921
-0.402752 0.105858 0.114174 0.063414 -0.661827 0.746970
1.371313 0.104657 0.035570 -0.001037 0.945148 0.317435
-0.991117 -0.038317 0.103683 0.000155 -0.426750 0.901222
1.750609 -0.000000 0.110537 0.066251 0.052373 0.993354
-0.206910 -0.142900 -0.130367 0.063414 0.661827 -0.746970
-0.563169 0.106025 -0.031260 -0.002515 0.959555 -0.272755
1.774526 0.188894 0.169913 0.020068 -0.666098 0.745594
-0.212078 -0.483274 -0.424530 0.055339 -0.662145 0.747330
-1.475355 -0.104559 0.035858 0.000833 -0.910599 0.406655
1.584827 0.187009 0.167485 -0.010662 -0.649930 0.759919
-1.180811 -0.010982 0.109990 -0.000008 -0.171016 0.983239
-0.389662 0.396396 -0.349220 -0.063362 0.691487 0.719604
-0.329954 0.153885 -0.123957 0.055339 0.662145 0.747330
-1.799169 0.038428 -0.096254 -0.196467 0.271882 -0.937394
1.520164 -0.072731 -0.068840 -0.010662 0.649930 -0.759919
-1.011066 -0.042978 -0.101840 -0.001226 -0.389997 -0.917972
1.721260 0.154164 -0.140320 0.020068 -0.666098 -0.745594
-0.372233 0.176375 -0.174061 0.063414 -0.661827 -0.746970
0.722802 -0.109107 0.017720 0.000173 -0.981124 0.182851
-0.266990 0.282378 0.259048 0.063414 -0.661827 0.746970
1.228310 0.082627 -0.073209 -0.010662 -0.649930 -0.759919
1.053873 0.086659 0.068620 -0.000800 0.718564 0.690917
-0.534929 0.231601 -0.206844 -0.072579 -0.626109 -0.776350
1.802163 0.043405 0.095861 0.103866 0.408677 0.903495
-0.179931 0.422317 -0.375644 0.063414 -0.661827 -0.746970
1.365334 0.107122 0.093706 -0.010662 0.676114 -0.736720
1.544096 -0.105041 0.034422 -0.000496 -0.949364 0.301452
-0.435759 -0.220097 0.183869 -0.063362 -0.691487 -0.719604
0.168369 0.109128 0.017592 -0.002308 0.970041 0.234107
1.700040 0.073672 0.068981 0.020068 -0.666098 0.745594
1.544785 -0.208871 -0.184488 -0.010662 -0.676114 0.736720
-0.343809 0.341134 0.292081 -0.063362 0.691487 -0.719604
-1.730602 0.000000 -0.110537 -0.030985 -0.052370 -0.995117
1.840903 -0.259282 0.228454 0.020068 -0.659946 -0.751045
-0.203779 -0.555312 0.488970 0.055339 -0.662145 -0.747330
-0.348693 -0.317753 -0.293734 -0.072579 0.626109 -0.776350
1.385046 -0.104045 -0.093726 -0.010662 0.649930 -0.759919
1.459834 -0.021679 -0.108390 0.000465 -0.306582 -0.947593
-0.217518 0.169674 -0.146272 0.055339 0.662145 0.747330
-1.873326 0.019399 -0.070305 -0.566734 0.276157 -0.768091
1.589033 -0.209657 0.184569 -0.010662 -0.676114 -0.736720
1.547422 -0.103221 0.095299 -0.010662 0.649930 0.759919
1.625998 0.102866 -0.086028 -0.010662 0.676114 0.736720
-0.010003 0.110537 0.000000 -0.000288 0.991757 0.105830
-0.425543 0.039194 -0.103355 -0.000785 0.441138 -0.894248
-0.305469 0.417819 0.378476 -0.072579 -0.626109 0.776350
-0.830289 -0.000000 -0.110537 -0.001260 -0.116018 -0.989729
0.916130 0.039452 0.103257 -0.000247 0.269926 0.959373
-0.234235 -0.203664 -0.175150 0.055339 -0.662145 0.747330
-0.234242 0.062992 0.090832 0.000010 0.571994 0.816976
1.757208 -0.218688 0.196997 0.009826 0.660786 0.750457
1.759332 0.074657 -0.068266 0.020068 -0.666098 -0.745594
-0.303726 0.348469 -0.298304 0.055339 0.662145 0.747330
-1.699436 0.022133 0.108298 -0.000650 0.310287 0.946347
1.591837 -0.154318 -0.139624 -0.010662 0.649930 -0.759919
-1.056327 0.059737 -0.093005 -0.000989 0.478644 -0.874582
-0.852756 -0.019427 0.108816 -0.000885 -0.264222 0.961791
1.623775 -0.154824 0.140504 -0.010662 0.649930 0.759919
-1.578812 0.016856 -0.109244 0.000593 0.248153 -0.965506
0.441591 0.078227 0.078096 -0.002635 0.776199 0.625373
0.130103 0.094777 -0.056884 0.001323 0.821815 -0.565022
-0.225418 -0.271376 -0.245770 0.063414 0.661827 -0.746970
-0.507987 0.092546 -0.097217 -0.072579 -0.626109 -0.776350
-0.506065 0.224249 0.203613 -0.072579 -0.626109 0.776350
1.197996 -0.104545 0.035900 0.000374 -0.947084 0.308686
-0.528485 -0.094458 -0.096843 -0.072579 0.626109 -0.776350
1.273130 0.075285 0.065822 -0.000000 -0.748476 -0.663161
-0.345347 0.444766 -0.396480 -0.072579 -0.626109 -0.776350
1.730602 -0.110537 -0.000000 0.034781 -0.994938 -0.051960
1.637585 -0.269344 0.238643 -0.010662 -0.676114 -0.736720
-1.915735 0.040520 -0.000000 -0.662748 0.740950 -0.061026
-0.374990 0.358274 -0.311296 -0.063362 0.691487 0.719604
1.396877 -0.076160 -0.064835 -0.010662 -0.676114 0.736720
-0.064464 0.105569 0.032766 -0.001503 0.924499 0.374370
0.053840 -0.109294 -0.016532 -0.000805 -0.972681 -0.220622
-1.336407 -0.103556 -0.038660 0.000097 -0.899674 -0.430086
1.660512 -0.077746 -0.064118 0.004435 0.748469 0.663155
1.837451 0.221482 -0.197334 0.020068 -0.666098 -0.745594
0.110038 0.110537 0.000000 0.001492 0.996372 0.044783
-1.857292 -0.061813 -0.053833 -0.504086 -0.673944 -0.530733
1.703789 0.232682 0.208216 -0.010662 -0.649930 0.759919
-0.201114 -0.366104 0.327638 0.063414 0.661827 0.746970
-0.272045 -0.542789 0.479538 -0.063362 -0.691487 -0.719604
-1.198718 -0.103334 -0.039249 -0.000055 -0.897239 -0.435136
1.779247 -0.216235 -0.194212 0.020068 0.666098 -0.745594
0.007992 -0.033102 0.105464 0.000945 -0.381743 0.921406
1.855554 -0.215710 0.190560 0.020068 -0.659946 -0.751045
0.150052 -0.000000 0.110537 0.003049 0.114127 0.990262
0.998649 0.026485 -0.107317 0.001858 0.225178 -0.971801
1.547417 0.103225 -0.095303 -0.010662 -0.649930 -0.759919
0.910317 0.110537 0.000000 0.000209 0.991923 0.098334
1.838388 0.076520 0.020370 1.000000 -0.000000 0.000000
-0.337035 0.157983 0.154778 0.063414 -0.661827 0.746970
1.314379 -0.075577 0.065493 -0.010662 -0.676114 -0.736720
1.547578 0.102774 0.094919 -0.010662 -0.649930 0.759919
-0.079093 -0.020378 0.108642 -0.000060 -0.209917 0.975187
0.330115 -0.000000 -0.110537 0.000668 -0.106662 -0.990209
1.218568 0.107923 -0.023895 -0.000457 0.946326 -0.310967
1.595568 0.045798 -0.100603 -0.000197 0.418995 -0.905151
1.712396 0.084401 -0.078234 0.020068 -0.666098 -0.745594
-0.730254 -0.110537 0.000000 0.002745 -0.995157 -0.065215
1.600820 -0.072433 0.069716 -0.007247 0.651761 0.758367
-0.272980 0.172866 -0.144994 0.055339 0.662145 0.747330
-0.345900 -0.232903 -0.221911 0.063414 0.661827 -0.746970
-0.187438 0.263990 0.232065 0.055339 0.662145 -0.747330
1.776567 0.293873 0.259143 -0.010662 0.676114 -0.736720
-0.382771 0.085535 -0.070015 -0.000187 0.782490 -0.618310
-0.268563 -0.508654 0.446430 -0.063362 -0.691487 -0.719604
1.409107 -0.150462 -0.132847 -0.010662 -0.676114 0.736720
-0.335415 -0.115165 -0.089246 0.055339 -0.662145 0.747330
-0.467439 -0.089665 -0.098685 -0.072579 0.626109 -0.776350
-0.442464 0.115533 0.083981 -0.063362 0.691487 -0.719604
0.833901 0.066498 0.088297 0.000786 0.547311 0.833815
1.804792 -0.103975 0.091021 0.020068 -0.659946 -0.751045
1.391517 -0.088257 0.080314 -0.010662 0.649930 0.759919
-0.236354 -0.016726 0.109264 -0.000076 -0.220180 0.972735
-0.490102 0.101146 0.044586 -0.000692 0.914881 0.397009
-0.199993 -0.201383 0.181597 0.063414 0.661827 0.746970
-1.415151 0.020288 0.108659 -0.000319 0.186418 0.980738
-0.050017 -0.110537 -0.000000 0.002275 -0.993727 -0.088772
1.870728 -0.341701 -0.301674 0.000607 -0.670263 0.742058
-0.225040 0.252346 -0.218964 0.055339 0.662145 0.747330
-0.870289 -0.101598 0.043546 -0.000845 -0.916827 0.392396
-0.202749 -0.246240 -0.215205 0.055339 -0.662145 0.747330
1.655040 -0.108941 0.101701 0.009826 0.660786 0.750457
1.536601 -0.153045 -0.137760 -0.010662 0.649930 -0.759919
-0.556710 -0.170810 -0.147158 -0.063362 -0.691487 0.719604
0.548774 -0.022414 0.108241 -0.000678 -0.218929 0.973333
-0.127959 -0.108680 0.020176 0.000272 -0.979899 0.189637
-0.302393 -0.461730 0.414177 -0.072579 0.626109 0.776350
1.756957 0.323803 -0.286894 -0.010662 -0.649930 -0.759919
1.688550 -0.175673 0.159245 -0.010662 0.649930 0.759919
0.762363 0.029176 0.106617 -0.002214 0.360142 0.930205
-0.162671 -0.325558 0.288449 0.055339 -0.662145 -0.747330
-0.162671 0.538029 -0.476702 0.055339 0.662145 0.747330
-0.162671 -0.477323 0.422915 0.055339 -0.662145 -0.747330
-0.162671 0.280029 -0.248110 0.055339 0.662145 0.747330
-0.162671 -0.371088 -0.328789 0.063414 0.661827 -0.746970
-0.162671 0.158617 0.140537 0.055339 0.662145 -0.747330
-0.162671 -0.158617 0.140537 0.055339 -0.662145 -0.747330
-0.162671 0.158617 -0.140537 0.055339 0.662145 0.747330
-0.162671 -0.173793 -0.153983 0.063414 0.661827 -0.746970
-0.162671 0.492500 0.436362 0.055339 0.662145 -0.747330
-0.162671 -0.492500 -0.436362 0.063414 0.661827 -0.746970
-0.162671 0.371088 0.328789 0.055339 0.662145 -0.747330
-0.162671 0.431794 0.382576 0.055339 0.662145 -0.747330
-0.162671 -0.431794 -0.382576 0.063414 0.661827 -0.746970
0.339035 0.095046 0.056432 0.000058 0.903728 0.422157
1.591837 0.154318 -0.139624 -0.010662 -0.649930 -0.759919
-1.440019 -0.103639 -0.038436 0.000225 -0.900525 -0.428305
-0.284277 0.103298 -0.039345 0.000075 0.900717 -0.428256
-0.333703 -0.220452 0.209843 0.063414 0.661827 0.746970
-0.443003 0.173793 0.140013 -0.063362 0.691487 -0.719604
1.519402 0.196084 0.174329 -0.010662 -0.649930 0.759919
-1.615862 0.037066 0.104137 0.001194 0.412449 0.908011
1.878888 -0.223985 -0.198454 0.020068 0.666098 -0.745594
1.903188 0.312793 0.277139 0.020068 -0.666098 0.745594
1.891038 -0.268389 0.237797 0.020068 0.666098 0.745594
1.858638 -0.149978 -0.132883 0.020068 0.666098 -0.745594
1.891038 0.268389 -0.237797 0.020068 -0.666098 -0.745594
1.915338 -0.357197 -0.316482 0.014947 0.663442 -0.748026
1.907238 -0.327594 0.290254 0.020068 0.666098 0.745594
1.907238 0.327594 -0.290254 0.020068 -0.666098 -0.745594
1.919389 0.371999 0.329596 0.014947 -0.663442 0.748026
1.919389 0.371999 -0.329596 0.014947 -0.663442 -0.748026
-0.338855 -0.017039 -0.109216 -0.002865 -0.229155 -0.970318
1.370854 0.037453 0.103998 -0.000511 0.333161 0.939576
-0.065087 0.041200 0.102572 0.000025 0.374331 0.924428
-0.162671 -0.113087 0.100197 0.055339 -0.662145 -0.747330
-0.201407 0.379582 -0.333447 0.055339 0.662145 0.747330
-0.353621 -0.100862 0.105576 0.063414 0.661827 0.746970
1.579500 0.104621 0.035678 -0.000068 0.945672 0.312633
1.290449 -0.000000 -0.110537 -0.000153 -0.094772 -0.991908
-0.371283 0.108480 0.080667 0.055339 0.662145 -0.747330
-0.347657 0.274912 -0.259280 0.014829 -0.650168 -0.758766
0.415363 -0.094596 -0.057185 0.000958 -0.788027 -0.609586
1.046221 -0.104146 -0.037039 -0.001860 -0.940611 -0.333225
-0.271547 -0.257111 -0.219742 0.055339 -0.662145 0.747330
-1.245557 0.079667 -0.076626 0.000716 0.786547 -0.612364
1.058790 -0.031418 -0.105978 -0.000843 -0.364390 -0.928447
-0.281977 -0.147974 -0.122273 0.055339 -0.662145 0.747330
-0.483050 -0.108999 -0.018377 -0.000537 -0.979185 -0.191380
1.653725 0.142598 0.122090 -0.010662 0.676114 -0.736720
-0.083224 0.055102 -0.095824 -0.001388 0.550912 -0.832221
-0.804542 0.050420 -0.098368 0.000594 0.409867 -0.909279
-0.343772 -0.341166 0.292108 -0.063362 -0.691487 -0.719604
1.670581 -0.110537 -0.000000 -0.004235 -0.989449 -0.116735
-1.095565 -0.105049 0.034396 0.000787 -0.915962 0.394394
-0.376755 -0.035774 -0.104588 0.000766 -0.305338 -0.948219
-0.150052 -0.000000 -0.110537 0.001141 -0.039078 -0.997032
-1.270442 0.110537 -0.000000 0.002268 0.996790 0.048813
-0.730254 -0.000000 0.110537 -0.000362 0.119034 0.989875
-0.770268 0.110537 -0.000000 -0.001141 0.990229 0.111481
-0.690240 0.110537 -0.000000 -0.000010 0.998004 0.019634
-1.190414 0.110537 -0.000000 0.000203 0.991937 0.105289
-0.650226 -0.000000 0.110537 0.003070 0.103464 0.991723
-0.930324 -0.000000 0.110537 -0.000370 0.043771 0.997623
0.890310 -0.000000 0.110537 0.001714 0.023540 0.997934
0.250087 0.110537 0.000000 -0.000174 0.995130 0.051569
1.210421 -0.000000 -0.110537 -0.000457 -0.113669 -0.990339
1.130393 -0.000000 -0.110537 -0.001685 -0.033842 -0.997821
-1.310456 -0.110537 0.000000 0.002207 -0.993672 -0.091439
0.310108 -0.110537 -0.000000 -0.001189 -0.996710 -0.048135
0.410143 -0.000000 -0.110537 0.000253 -0.048476 -0.997049
-0.450157 -0.000000 -0.110537 0.001381 -0.049947 -0.996558
0.470164 0.110537 0.000000 0.000034 0.992316 0.093990
-0.314929 -0.178756 0.147106 0.055339 -0.662145 -0.747330
-0.221394 0.051371 -0.097875 0.000819 0.389152 -0.918205
-0.259781 0.165758 0.155108 0.063414 -0.661827 0.746970
-0.355727 -0.432400 -0.380830 -0.063362 -0.691487 0.719604
1.710540 0.145455 0.124951 0.020068 0.659946 -0.751045
1.893382 -0.386042 0.342039 -0.005540 -0.673459 -0.739151
1.671691 0.284904 0.252429 -0.010662 -0.649930 0.759919
1.705798 0.300463 -0.266215 -0.010662 -0.649930 -0.759919
1.842223 0.362702 -0.321360 -0.010662 -0.649930 -0.759919
1.279469 -0.105967 0.093888 -0.010662 -0.676114 -0.736720
1.586426 0.246004 0.217964 -0.010662 -0.649930 0.759919
1.620532 -0.261564 -0.231750 -0.010662 -0.676114 0.736720
1.705798 -0.300463 -0.266215 -0.010662 -0.676114 0.736720
1.467054 -0.191545 -0.169712 -0.010662 -0.676114 0.736720
1.432947 0.175986 -0.155926 -0.010662 -0.649930 -0.759919
1.364735 0.144866 -0.128354 -0.010662 -0.649930 -0.759919
1.893382 -0.386042 -0.342039 -0.005540 -0.673459 0.739151
1.415894 -0.168206 0.149033 -0.010662 -0.676114 -0.736720
1.876329 0.378262 0.335146 -0.005540 -0.652663 0.757576
1.825170 -0.354922 -0.314467 -0.010662 -0.676114 0.736720
1.501160 0.207105 -0.183498 -0.010662 -0.649930 -0.759919
1.569373 0.238225 -0.211071 -0.010662 -0.649930 -0.759919
1.330629 -0.129307 -0.114568 -0.010662 -0.676114 0.736720
-0.250087 -0.110537 -0.000000 -0.002428 -0.991201 -0.109149
1.688848 -0.258457 -0.227909 -0.010662 -0.676114 0.736720
-0.993481 -0.102807 -0.040610 -0.001169 -0.929566 -0.361428
0.942750 0.089298 0.065148 0.000157 0.797614 0.598697
-1.344473 0.049291 -0.098938 0.002470 0.386508 -0.919280
0.015551 0.039301 -0.103314 -0.002110 0.378963 -0.923013
-0.922214 -0.086295 0.069077 -0.000036 -0.719250 0.690867
-0.562191 0.066767 0.088094 -0.000659 0.671847 0.736997
-1.164531 -0.085892 0.069577 -0.000004 -0.828014 0.555890
0.156820 -0.019442 -0.108814 0.000125 -0.275977 -0.957607
-0.344587 0.332213 -0.305780 -0.072579 -0.626109 -0.776350
-0.260518 0.425819 0.385589 0.063414 -0.661827 0.746970
0.212524 0.091541 -0.061957 0.001012 0.872530 -0.482540
-0.458684 0.278900 0.252117 -0.072579 -0.626109 0.776350
-0.401527 -0.233833 0.221115 -0.072579 0.626109 0.776350
-0.583784 0.042704 -0.101955 -0.000660 0.397579 -0.914495
-0.042736 -0.098871 0.049426 -0.000078 -0.893751 0.442265
0.640295 0.103279 -0.039392 -0.000103 0.897319 -0.435009
-1.595753 -0.044022 -0.101393 0.000963 -0.396800 -0.914962
1.509465 0.071211 0.084543 -0.000113 0.642235 0.762993
-0.282972 -0.331193 -0.303655 0.063414 0.661827 -0.746970
-0.560953 -0.101470 0.043844 0.000075 -0.876917 0.474732
1.543720 -0.054052 0.096420 0.000459 -0.484647 0.871319
-1.233897 -0.104760 0.035268 0.000867 -0.913633 0.399747
-1.793306 -0.017267 -0.103551 -0.199708 -0.266786 -0.938478
-1.647092 0.071344 -0.084430 0.000085 0.640841 -0.764219
-1.354632 -0.078638 0.077682 0.000012 -0.708759 0.701637
-0.147097 -0.060932 0.092226 0.000035 -0.622905 0.778845
0.231560 -0.097849 0.051420 -0.000242 -0.880920 0.467735
-0.250089 -0.100145 0.046790 -0.000214 -0.862023 0.501612
-0.284783 -0.090352 0.063679 -0.000114 -0.760536 0.645158
0.261177 0.022743 -0.108172 0.002263 0.303322 -0.948479
-1.285312 -0.024200 -0.107855 0.000665 -0.221863 -0.972625
-0.785717 -0.087143 0.068003 -0.000056 -0.726936 0.682897
0.403165 -0.056841 0.094803 0.000694 -0.515211 0.853918
-0.318511 0.452586 0.396950 -0.063362 0.691487 -0.719604
0.778173 0.015065 -0.109506 -0.000129 0.219206 -0.973163
-1.629927 -0.090090 -0.064048 0.000139 -0.812882 -0.577834
-1.095222 -0.086121 0.069294 0.000072 -0.776742 0.625515
-0.286752 0.218291 -0.184221 0.055339 0.662145 0.747330
-0.515126 -0.031784 -0.105869 0.001067 -0.278597 -0.956774
-1.698649 0.063291 0.090624 0.000128 0.570151 0.818395
0.059216 0.093337 -0.059216 0.000031 0.794503 -0.602883
-0.891741 0.067282 -0.087702 0.000116 0.647134 -0.758946
-0.446874 0.109351 -0.016146 -0.000244 0.983164 -0.171179
1.838388 -0.071681 0.071863 1.000000 0.000000 -0.000000
1.750609 -0.019001 -0.108891 0.034211 -0.053291 -0.994960
-1.733289 0.078239 -0.078083 -0.028328 0.704504 -0.705136
-1.733289 -0.106818 0.028431 -0.025130 -0.966441 0.243768
-0.200639 0.044607 0.101137 0.000145 0.403081 0.912083
0.667692 0.069216 0.086184 0.000343 0.575924 0.814311
-0.248778 0.104483 0.036080 -0.001658 0.911906 0.403498
-0.016887 -0.096177 -0.054484 0.000153 -0.867260 -0.492568
1.163530 -0.054853 0.095967 0.000061 -0.495438 0.865556
0.509556 0.064990 0.089413 0.000086 0.541726 0.837335
-1.808928 -0.101088 0.000000 -0.235576 -0.964345 0.067265
-0.455664 -0.132565 0.134384 -0.072579 0.626109 0.776350
-1.389040 -0.063499 0.090478 -0.000079 -0.572117 0.816876
-0.286328 0.293816 -0.251169 0.055339 0.662145 0.747330
0.350428 -0.102512 0.041350 0.000127 -0.886893 0.456078
-0.303726 0.348469 0.298304 0.055339 0.662145 -0.747330
0.330115 -0.000000 0.110537 -0.007576 0.110405 0.990145
0.772497 -0.078670 0.077650 -0.000288 -0.767660 0.637157
1.868189 0.316921 -0.279831 0.020068 0.659946 0.751045
0.538520 0.098643 0.049880 0.000077 0.864137 0.497869
-0.667607 0.068809 -0.086509 0.001109 0.684396 -0.723391
-0.534929 -0.231601 0.206844 -0.072579 0.626109 0.776350
1.340032 -0.016228 -0.109339 0.000268 -0.214047 -0.974204
1.870728 0.340630 0.302882 0.009094 -0.660401 0.750798
-1.129964 -0.097041 0.052929 0.000022 -0.875413 0.477769
-1.164739 -0.104872 0.034931 -0.000888 -0.949362 0.301944
-0.419097 0.337262 -0.294989 -0.063362 0.691487 0.719604
-1.548007 0.070467 0.085163 -0.000482 0.634007 0.770293
-0.099589 0.058319 0.093901 -0.000176 0.531390 0.844110
-0.636115 0.021106 -0.108503 0.002906 0.230477 -0.969474
-0.273674 0.493655 0.432467 -0.063362 0.691487 -0.719604
-0.350396 0.234307 -0.223537 0.063414 -0.661827 -0.746970
0.928946 -0.064542 -0.089737 -0.000404 -0.506088 -0.859528
-1.388111 -0.106712 -0.028827 0.003686 -0.964084 -0.254389
1.816161 0.135049 0.120689 0.020068 -0.666098 0.745594
-0.604981 -0.169902 0.150536 -0.063362 -0.691487 -0.719604
-0.329530 0.493667 0.437396 -0.072579 -0.626109 0.776350
-0.393096 0.418952 0.371198 -0.072579 -0.626109 0.776350
-0.414284 -0.394047 -0.349131 -0.063362 -0.691487 0.719604
-0.371907 -0.443857 0.393264 -0.063362 -0.691487 -0.719604
-0.594387 0.182354 -0.161569 -0.063362 0.691487 0.719604
-0.615575 0.157449 -0.139502 -0.063362 0.691487 0.719604
-0.509633 0.281974 0.249834 -0.072579 -0.626109 0.776350
-0.325988 -0.278330 -0.260470 0.063414 0.661827 -0.746970
-0.285145 -0.062242 0.091347 0.000220 -0.562403 0.823676
1.259227 -0.061659 -0.091742 0.000187 -0.545416 -0.835241
-0.416220 0.214053 0.176341 -0.063362 0.691487 -0.719604
