-0.993918 0.085245 -0.019757 -0.000809 0.984874 -0.166067
-0.151719 0.248121 0.253517 -0.028366 -0.696991 0.716519
0.121937 -0.446186 0.436853 0.081166 -0.706649 -0.702893
1.475307 0.100496 0.103118 0.008783 -0.707941 0.706217
-0.201821 -0.164593 -0.170282 -0.028366 0.696991 -0.716519
1.018477 -0.077335 0.040943 0.000271 -0.861257 0.506094
1.618789 0.203981 0.205071 0.008783 -0.707941 0.706217
1.213402 0.079838 0.035817 -0.000027 0.914524 0.402065
-0.322421 -0.100220 0.096974 -0.048001 -0.727553 -0.684371
0.171900 0.122396 -0.126562 0.048019 -0.708171 -0.704406
-0.466990 -0.087172 -0.007621 -0.001722 -0.989932 -0.134744
0.030432 0.365557 -0.354305 -0.048001 0.727553 0.684371
-0.217636 -0.095931 0.102866 -0.028366 0.696991 0.716519
0.995153 0.036395 -0.079576 0.000135 0.462265 -0.885571
0.170209 -0.652709 -0.659824 -0.002899 0.701075 -0.712843
1.556094 0.256837 0.258069 -0.003608 0.714699 -0.699423
1.349959 -0.036632 -0.079468 -0.000950 -0.471157 -0.880855
0.215907 0.480862 -0.483943 0.048019 -0.708171 -0.704406
0.039239 0.123657 0.136872 0.048019 -0.708171 0.704406
0.401446 0.043951 0.075666 0.000713 0.548703 0.834772
-0.424635 0.040270 0.077687 0.000309 0.461331 0.886032
0.150360 0.282216 -0.288704 0.048019 -0.708171 -0.704406
-0.479999 -0.021573 -0.084803 0.000837 -0.293942 -0.955183
-0.303477 0.121988 0.118787 -0.048001 0.727553 -0.684371
0.991501 -0.024928 -0.083878 -0.000074 -0.340116 -0.939236
-0.103861 0.082480 0.029224 -0.000017 0.919313 0.390758
0.824151 0.074673 -0.045617 -0.000077 0.854073 -0.518085
0.293962 0.042079 0.076723 -0.001047 0.494146 0.868231
-1.622798 0.070364 0.049974 -0.118441 0.836548 0.532092
0.451166 0.051535 -0.070719 0.000676 0.616990 -0.785795
-1.387227 0.012589 -0.086594 0.003202 0.147236 -0.987971
-0.025819 -0.098772 -0.074632 -0.048001 -0.727553 0.684371
-1.522224 -0.074545 -0.045826 -0.000103 -0.850548 -0.523801
0.092980 0.263756 0.250104 0.081166 0.706649 -0.702893
0.176215 -0.295535 0.291665 0.081166 -0.706649 -0.702893
-0.436334 0.053617 -0.069154 -0.000006 0.643918 -0.763740
-0.119211 0.156643 0.165820 -0.028366 -0.696991 0.716519
0.073289 0.332320 -0.344330 -0.002899 -0.701075 -0.712843
0.098075 0.495559 -0.487765 -0.048001 0.727553 0.684371
1.196004 -0.082532 -0.029077 -0.000155 -0.944894 -0.324566
0.205432 0.405683 -0.405774 0.081166 0.706649 0.702893
-0.021751 -0.459045 -0.463838 -0.028366 0.696991 -0.716519
-0.194977 -0.242752 -0.246583 -0.028366 0.696991 -0.716519
-1.513242 0.065659 0.057843 0.000121 0.785753 0.616804
-1.564879 -0.024079 0.084126 0.000051 -0.329137 0.943152
0.054829 0.110077 -0.122158 0.048019 -0.708171 -0.704406
0.101405 -0.593797 -0.591968 -0.048001 -0.727553 0.684371
1.422628 0.085636 0.017987 0.001650 0.967846 0.247821
1.510743 -0.000000 -0.087504 -0.000889 -0.024447 -0.999159
-0.495336 -0.068616 0.054303 0.000294 -0.786322 0.616114
-0.675801 -0.013378 -0.086476 0.000228 -0.195806 -0.979580
-0.820403 0.087504 -0.000000 0.001467 0.998055 0.035417
1.459496 -0.133949 0.136307 -0.003608 0.703222 0.710962
1.106568 -0.078018 0.039626 0.000097 -0.917951 0.393977
0.877467 -0.084336 -0.023333 -0.000305 -0.961659 -0.270319
0.049303 -0.547523 0.546429 -0.048001 -0.727553 -0.684371
0.151166 -0.468083 -0.475510 0.048019 0.708171 -0.704406
0.000079 0.149944 -0.164026 -0.028366 -0.696991 -0.716519
0.213051 -0.517358 -0.520829 0.048019 0.708171 -0.704406
-0.142363 -0.221919 0.228400 -0.028366 0.696991 0.716519
-0.518546 0.080366 0.034616 -0.000402 0.921514 0.386121
0.040020 -0.000000 -0.087504 -0.000507 -0.078995 -0.995289
-0.166730 0.281095 -0.278342 -0.048001 0.727553 0.684371
0.165516 0.452775 -0.448509 0.081166 0.706649 0.702893
0.219751 -0.043493 0.075930 -0.000040 -0.518327 0.853926
0.418187 -0.024654 0.083960 0.000156 -0.318657 0.946702
0.093499 0.265943 -0.276221 0.048019 -0.708171 -0.704406
-0.560275 -0.000000 -0.087504 0.000235 -0.028049 -0.998511
0.262317 -0.077498 -0.040633 0.000866 -0.866456 -0.497257
0.038378 -0.282004 0.294003 -0.028366 0.696991 0.716519
1.268292 0.147085 -0.148330 -0.003608 -0.703222 -0.710962
1.637555 -0.043364 -0.043363 0.008783 -0.709980 0.704167
0.396960 0.016076 -0.086015 -0.000300 0.244991 -0.968479
-1.472952 -0.041625 -0.076970 -0.001407 -0.528885 -0.847296
-0.244779 -0.228606 -0.228015 -0.048001 -0.727553 0.684371
1.410339 -0.085567 -0.018309 0.000104 -0.964206 -0.260983
-0.094855 -0.150491 -0.160799 -0.028366 0.696991 -0.716519
0.326882 -0.031058 0.081807 0.000205 -0.413791 0.909190
-0.285662 0.085508 -0.078756 -0.048001 0.727553 0.684371
0.162856 -0.095642 -0.089161 0.081166 -0.706649 0.702893
-0.015747 0.222622 -0.234097 -0.028366 -0.696991 -0.716519
-0.069811 0.060189 -0.063516 -0.000029 0.714108 -0.698532
0.168860 -0.369671 0.375365 0.048019 0.708171 0.704406
1.415403 -0.184972 0.186551 -0.003608 0.703222 0.710962
1.438136 -0.070361 0.052022 -0.000102 -0.800339 0.598037
0.096466 0.420591 -0.408180 0.041216 0.714155 0.698163
0.170117 0.041191 0.077203 0.000048 0.481995 0.875076
0.632280 0.072712 -0.048682 -0.000173 0.827967 -0.558883
0.455528 0.070355 0.052031 -0.000019 0.835554 0.547422
0.223410 -0.442498 -0.444863 0.081166 -0.706649 0.702893
-0.221802 0.060144 0.063559 0.000522 0.727669 0.684502
-1.240372 0.060025 -0.063671 0.000397 0.733536 -0.678061
-0.378031 -0.098155 -0.098679 -0.028366 0.696991 -0.716519
-0.045277 -0.196548 -0.207564 -0.028366 0.696991 -0.716519
1.257544 -0.107080 0.108706 -0.003608 0.703222 0.710962
-0.660393 0.031738 0.081546 -0.000016 0.413827 0.909184
1.418730 0.179061 0.179303 -0.003608 0.714699 -0.699423
-0.163192 -0.082864 -0.028115 -0.000037 -0.941628 -0.333719
0.692292 0.038309 -0.078673 0.000274 0.441787 -0.895732
0.348571 0.036103 -0.079709 0.000054 0.446737 -0.893455
1.488405 0.018637 0.085497 -0.000157 0.267157 0.962551
-0.140921 0.090807 0.100918 -0.028366 -0.696991 0.716519
-0.179107 0.220764 0.215072 -0.048001 0.727553 -0.684371
-0.903611 -0.085839 0.016990 0.000464 -0.979782 0.194240
-0.413388 -0.039696 0.077982 0.000146 -0.459828 0.886806
-1.617790 -0.079485 0.034767 -0.110972 -0.903084 0.411495
0.170209 0.652709 -0.659824 -0.002899 -0.701075 -0.712843
0.115991 0.124269 0.112529 0.081166 0.706649 -0.702893
-0.555945 -0.068297 0.054704 -0.000037 -0.744413 0.666133
-0.660117 -0.061130 0.062611 -0.000251 -0.691558 0.720795
1.247447 -0.077952 -0.076869 -0.003608 -0.714699 0.699423
1.248438 0.049754 0.071983 -0.000045 0.568705 0.821227
0.146295 -0.147980 -0.154028 0.048019 0.708171 -0.704406
-0.899831 -0.049288 -0.072303 0.000519 -0.589593 -0.806045
0.514641 0.046679 0.074014 0.000233 0.578151 0.814728
-1.149507 0.081591 -0.031623 0.000435 0.928469 -0.368339
1.020502 0.087504 0.000000 0.002218 0.997145 0.059289
-0.072678 0.265844 -0.273886 -0.028366 -0.696991 -0.716519
-0.291867 0.174716 0.176566 -0.028366 -0.696991 0.716519
0.898523 0.030201 0.082127 0.000151 0.365885 0.929451
0.599477 0.027413 0.083100 0.000030 0.312120 0.948902
-0.586668 -0.085889 0.016737 0.000217 -0.967619 0.248033
0.215915 -0.637900 -0.640444 0.081166 -0.706649 0.702893
0.530216 0.086055 -0.015859 -0.000193 0.975200 -0.216645
-0.177565 -0.028819 0.082622 0.000026 -0.378742 0.924336
0.659556 0.042112 0.076704 0.000028 0.481720 0.875094
0.368188 -0.063631 -0.060067 0.000177 -0.699932 -0.713071
1.499646 -0.206708 0.208478 -0.003608 0.703222 0.710962
-1.213129 -0.043626 -0.075854 0.000102 -0.550503 -0.833527
0.177314 -0.179098 0.174732 0.081166 -0.706649 -0.702893
0.075187 -0.085748 0.096311 0.048019 0.708171 0.704406
0.018682 -0.085182 0.020024 0.001046 -0.982281 0.182135
1.401239 0.170101 -0.171770 -0.003608 -0.703222 -0.710962
-0.211325 0.150152 0.142265 -0.048001 0.727553 -0.684371
1.496216 0.086200 0.015051 0.000021 0.973303 0.224955
-0.507671 -0.077873 -0.039909 0.000232 -0.908976 -0.414255
0.067160 -0.123004 -0.134313 0.048019 0.708171 -0.704406
1.337022 -0.172847 -0.174160 -0.003608 0.703222 -0.710962
1.274956 0.090932 0.089990 -0.003608 0.714699 -0.699423
-1.126757 -0.007771 0.087159 -0.000447 -0.133137 0.990120
-0.037552 -0.430279 0.435231 -0.028366 0.696991 0.716519
1.449381 -0.132605 -0.134927 -0.003608 0.703222 -0.710962
-0.111846 -0.076548 -0.042395 0.000378 -0.840617 -0.539641
0.310152 -0.000000 -0.087504 0.000250 -0.080141 -0.995499
-0.077643 -0.332143 0.338183 -0.028366 0.696991 0.716519
-0.951348 -0.017957 0.085642 0.000255 -0.206012 0.977350
-1.677557 0.018282 -0.072454 -0.335917 0.214449 -0.914595
-0.009277 -0.403166 -0.397072 -0.048001 -0.727553 0.684371
0.833255 0.008360 0.087104 -0.000221 0.141754 0.988811
0.141282 0.206344 -0.213046 0.048019 -0.708171 -0.704406
-1.410034 0.045706 0.074619 -0.000112 0.470517 0.881201
1.164815 0.080677 -0.033884 0.000492 0.897573 -0.438532
-0.029868 -0.093599 0.069417 -0.048001 -0.727553 -0.684371
0.028669 -0.241531 0.222577 -0.048001 -0.727553 -0.684371
-0.285662 0.085508 0.078756 -0.048001 0.727553 -0.684371
1.086205 -0.034207 -0.080541 -0.000000 -0.392363 -0.918646
0.179852 -0.253553 0.257877 0.048019 0.708171 0.704406
0.050641 0.542334 -0.540819 -0.048001 0.727553 0.684371
0.193682 -0.314893 -0.313143 0.081166 -0.706649 0.702893
-1.496981 0.078502 -0.038658 -0.000223 0.903391 -0.426462
1.342158 0.071191 -0.050880 -0.000198 0.813349 -0.580001
-0.853776 0.079291 -0.037013 0.000764 0.880543 -0.471613
-1.054229 -0.023536 0.084280 0.000099 -0.319677 0.946262
-1.030280 0.022143 -0.084656 -0.000039 0.310463 -0.949451
-1.284457 -0.046632 0.074044 -0.000127 -0.578334 0.814577
0.664454 -0.050355 0.071564 -0.000055 -0.548091 0.835121
0.203889 -0.077669 0.040305 0.000075 -0.874330 0.483113
1.100141 -0.084056 -0.083867 -0.003608 -0.714699 0.699423
0.045167 0.187103 -0.200253 0.048019 -0.708171 -0.704406
-1.679090 0.065520 -0.034859 -0.327409 0.788158 -0.517080
-0.343399 0.033563 0.080812 0.001485 0.341002 0.938965
0.165183 0.079675 -0.084070 0.048019 -0.708171 -0.704406
0.996004 0.076227 -0.042971 -0.000073 0.867663 -0.494961
0.120282 -0.084780 -0.021664 0.000655 -0.960270 -0.275368
1.546263 -0.262265 0.263667 -0.003608 -0.714699 -0.699423
1.546263 0.262265 -0.263667 -0.003608 -0.703222 -0.710962
1.555416 -0.265127 -0.266544 -0.003608 -0.714699 0.699423
1.033687 -0.102002 0.102547 -0.003608 -0.714699 -0.699423
-1.420698 -0.087504 0.000000 0.001018 -0.998610 -0.024535
-0.914528 0.070979 0.051176 -0.000333 0.771946 0.634051
-0.566109 0.073027 0.048208 -0.000253 0.831012 0.554472
1.557142 0.088493 0.087861 0.008783 0.709980 -0.704167
1.459496 0.135591 -0.134673 -0.003608 0.714699 0.699423
0.223410 -0.245052 -0.246362 0.081166 -0.706649 0.702893
0.615122 0.087047 0.008935 -0.000861 0.997239 0.059283
0.223410 0.590583 0.593739 0.048019 -0.708171 0.704406
0.223410 -0.350827 0.352702 0.048019 0.708171 0.704406
0.223410 -0.195691 0.196737 0.048019 0.708171 0.704406
-0.134494 -0.078611 0.060821 -0.048001 -0.727553 -0.684371
0.140899 -0.015982 -0.086032 -0.000118 -0.152802 -0.987299
0.769272 -0.043351 0.076011 -0.000184 -0.525487 0.849549
1.225044 -0.085850 0.016935 0.000217 -0.964817 0.258769
-0.659204 0.075795 0.043727 0.000184 0.865569 0.498710
-0.197974 0.316826 0.318519 -0.048001 0.727553 -0.684371
-0.288002 0.207490 -0.208599 -0.028366 -0.696991 -0.716519
-0.358025 0.122452 0.123106 -0.048001 0.727553 -0.684371
-1.115392 -0.051882 -0.070465 0.000070 -0.600796 -0.798016
1.198561 0.124459 0.124644 -0.003608 0.714699 -0.699423
1.042840 -0.104864 -0.105424 -0.003608 -0.714699 0.699423
-0.028279 0.465972 0.470318 -0.028366 -0.696991 0.716519
1.085448 0.039636 0.078013 -0.000096 0.399062 0.915784
0.120562 -0.269308 -0.258871 0.081166 -0.706649 0.702893
-1.470511 -0.078323 0.039020 -0.000137 -0.895875 0.441916
-0.370182 0.087504 0.000000 -0.000552 0.998726 0.029230
-1.038113 0.050924 0.071160 -0.000095 0.573045 0.818249
-0.321198 -0.040284 -0.077680 0.000875 -0.404957 -0.913373
-1.225017 0.021534 0.084813 -0.000169 0.255002 0.965786
-0.206813 0.251977 -0.255087 -0.028366 -0.696991 -0.716519
-0.056463 0.227909 0.214067 -0.048001 0.727553 -0.684371
-0.160317 -0.294598 0.298388 -0.028366 0.696991 0.716519
1.657206 -0.041547 0.058578 1.000000 0.000000 -0.000000
0.075919 -0.314485 0.299135 0.081166 -0.706649 -0.702893
1.187208 -0.028296 -0.082803 0.000632 -0.276146 -0.959717
1.275594 0.022562 -0.084546 -0.000432 0.252984 -0.966366
1.626793 -0.169683 -0.170590 0.008783 -0.709980 0.704167
1.654005 0.053070 -0.053354 0.008783 -0.707941 -0.706217
1.609185 0.245138 0.246448 0.008783 -0.707941 0.706217
1.609185 -0.245138 -0.246448 0.008783 -0.709980 0.704167
1.590438 0.135487 0.136762 0.008783 -0.707941 0.706217
-0.901172 -0.016137 0.086003 0.000518 -0.234490 0.971011
-0.094361 -0.084804 -0.096923 -0.028366 0.696991 -0.716519
0.047093 0.471893 -0.466181 -0.048001 0.727553 0.684371
1.303695 -0.132112 -0.131922 -0.003608 -0.714699 0.699423
0.966858 -0.075129 0.044863 -0.000498 -0.868100 0.494274
-0.136263 -0.141975 0.128307 -0.048001 -0.727553 -0.684371
0.590177 -0.026401 0.083427 -0.000005 -0.333431 0.941652
-0.135805 -0.326602 -0.324551 -0.048001 -0.727553 0.684371
-0.102944 0.432235 0.434545 -0.048001 0.727553 -0.684371
-0.056143 0.115384 0.128181 -0.028366 -0.696991 0.716519
-1.337314 0.083872 -0.024949 0.000876 0.974024 -0.221993
1.590782 0.074117 -0.046516 0.084155 0.872521 -0.478108
-0.189766 -0.014318 -0.086325 -0.000619 -0.204463 -0.977953
-0.788766 0.035790 0.079850 0.000092 0.403650 0.913735
-1.301667 0.038362 -0.078647 -0.000781 0.381806 -0.922990
0.037564 -0.293074 -0.304739 -0.028366 0.696991 -0.716519
1.347390 -0.053575 0.069186 0.000185 -0.602980 0.796607
-0.195169 -0.060216 -0.063490 0.000020 -0.671792 -0.739422
-0.045422 0.099511 0.076792 -0.048001 0.727553 -0.684371
0.490093 -0.076170 0.043072 0.000396 -0.836005 0.546938
0.057654 0.372276 0.382577 -0.028366 -0.696991 0.716519
-0.442091 0.086246 0.014786 -0.000856 0.989682 0.138127
0.045164 -0.077516 -0.040598 -0.000711 -0.878571 -0.475282
1.124773 -0.046566 0.074085 -0.000183 -0.554147 0.831016
0.155728 0.243582 0.237068 0.081166 0.706649 -0.702893
-0.151969 -0.210355 -0.216771 -0.028366 0.696991 -0.716519
-0.267353 0.141280 0.145010 -0.028366 -0.696991 0.716519
1.612955 -0.024971 -0.080942 0.125893 -0.226253 -0.964842
-1.127748 -0.085784 0.017268 -0.000726 -0.979972 0.191746
-0.144842 0.322244 0.325893 -0.028366 -0.696991 0.716519
0.101368 0.176871 0.186136 0.048019 -0.708171 0.704406
-0.205334 0.163489 -0.156023 -0.048001 0.727553 0.684371
-1.573462 0.082589 0.028915 -0.000024 0.942796 0.330201
-0.070034 -0.000000 0.087504 -0.000173 0.062154 0.996999
-0.363276 -0.008747 -0.087066 -0.001783 -0.142065 -0.988702
-0.028216 -0.225257 0.236167 -0.028366 0.696991 0.716519
-0.125593 0.215451 -0.205671 -0.048001 0.727553 0.684371
-0.932183 0.039000 -0.078333 0.000263 0.428652 -0.902368
1.437961 0.062817 -0.060918 -0.000214 0.711931 -0.700777
0.551509 -0.070695 -0.051567 0.000363 -0.798368 -0.600396
0.101680 -0.085181 -0.093934 0.048019 0.708171 -0.704406
1.411920 -0.185741 -0.187294 -0.003608 0.703222 -0.710962
-0.560304 0.006886 0.087233 -0.001443 0.131287 0.990475
0.098935 0.232954 -0.219825 0.081166 0.706649 0.702893
-0.126961 -0.288521 -0.293797 -0.028366 0.696991 -0.716519
1.504797 -0.085330 -0.019387 -0.000129 -0.960337 -0.274951
-0.102267 -0.038623 -0.078519 -0.000024 -0.384998 -0.921830
0.175395 0.106824 0.101851 0.081166 0.706649 -0.702893
1.299872 -0.091925 -0.090877 -0.003608 -0.714699 0.699423
-0.945347 0.080315 -0.034734 0.000396 0.936773 -0.347080
-0.025872 0.337043 -0.327941 -0.048001 0.727553 0.684371
-0.336655 -0.080215 -0.034964 0.000402 -0.899915 -0.433790
0.059440 -0.072166 0.049488 -0.000327 -0.848788 0.526796
-0.977593 0.007634 -0.087171 0.000314 0.128402 -0.990771
-0.251403 -0.175760 -0.172300 -0.048001 -0.727553 0.684371
-1.471675 0.085703 0.017665 0.000578 0.966247 0.253438
-0.123475 0.263337 -0.256430 -0.048001 0.727553 0.684371
0.166913 0.536473 0.543191 0.048019 -0.708171 0.704406
-0.238769 0.017060 0.085825 -0.000467 0.248895 0.967424
0.171225 0.515252 -0.521563 0.048019 -0.708171 -0.704406
-1.212282 -0.084745 0.021800 0.000656 -0.967150 0.249887
-0.210801 -0.160818 0.166256 -0.028366 0.696991 0.716519
-0.299383 -0.011346 0.086766 -0.000796 -0.127094 0.991097
0.388789 0.086932 -0.009992 -0.000700 0.981208 -0.185932
1.511775 0.161964 0.164282 0.004653 -0.706380 0.707810
-0.277759 -0.073492 0.078659 -0.028366 0.696991 0.716519
0.905749 0.039273 -0.078196 -0.000101 0.452167 -0.890766
1.492957 -0.097362 0.096002 0.008783 -0.709980 -0.704167
-1.748632 -0.038392 0.000000 -0.604818 -0.788075 -0.064141
1.521327 0.205636 0.207527 -0.003608 -0.703222 0.710962
1.226389 0.125130 -0.125186 -0.003608 0.714699 0.699423
-1.755965 0.011116 -0.030929 -0.625711 0.335245 -0.694569
1.146450 0.064787 0.058819 0.000035 0.738929 0.672268
-0.200914 0.086420 -0.073781 -0.048001 0.727553 0.684371
0.779042 -0.009351 -0.087003 0.000973 -0.167047 -0.984844
-0.027404 0.289712 0.298896 -0.028366 -0.696991 0.716519
-0.031481 0.118802 -0.132483 -0.028366 -0.696991 -0.716519
1.613585 -0.103447 -0.104356 0.008783 0.707941 -0.706217
0.074943 -0.328158 -0.312767 0.081166 -0.706649 0.702893
-0.103230 0.372593 0.376517 -0.028366 -0.696991 0.716519
1.406508 0.083474 -0.026252 0.000125 0.951725 -0.303386
0.019571 -0.429126 0.436371 -0.028366 0.696991 0.716519
-0.044799 -0.131334 -0.144146 -0.028366 0.696991 -0.716519
-0.905255 0.086883 -0.010407 0.000272 0.982610 -0.178480
0.293826 -0.087275 0.006325 0.001052 -0.993251 0.108389
1.362592 0.122566 0.121864 -0.003608 0.714699 -0.699423
1.353171 0.169247 -0.169613 -0.003608 0.714699 0.699423
0.026936 -0.179090 0.193441 -0.001079 0.701338 0.712551
-0.153662 -0.167358 -0.174879 -0.028366 0.696991 -0.716519
1.113042 0.083529 -0.026076 0.000040 0.955241 -0.292052
-0.554828 -0.082259 -0.029840 0.000012 -0.933843 -0.354844
-0.106230 -0.266219 0.272923 -0.028366 0.696991 0.716519
0.118706 -0.634373 0.639949 -0.028366 0.696991 0.716519
-1.008746 -0.066493 -0.056883 0.000648 -0.792356 -0.608519
1.508848 0.094421 -0.093236 0.008783 0.709980 0.704167
-1.666447 -0.073417 0.026626 -0.255188 -0.895308 0.362399
0.182864 0.241290 -0.245343 0.048019 -0.708171 -0.704406
0.117832 -0.211931 0.200872 0.081166 -0.706649 -0.702893
0.035876 0.044909 -0.075101 0.000045 0.537636 -0.841898
0.294753 0.082168 -0.030089 -0.000096 0.924260 -0.379891
-0.068492 -0.085882 -0.016772 0.000736 -0.973687 -0.223763
-0.327713 0.095107 -0.097706 -0.028366 -0.696991 -0.716519
1.217857 -0.074769 0.076545 -0.003608 0.703222 0.710962
0.186390 0.415155 0.413098 0.081166 0.706649 -0.702893
1.252777 0.119555 0.119354 -0.003608 0.714699 -0.699423
0.095585 -0.138588 0.148043 0.048019 0.708171 0.704406
-1.590782 0.061900 -0.061849 -0.006524 0.749023 -0.660741
1.337422 -0.184549 0.185737 -0.003608 0.703222 0.710962
0.122023 0.380987 -0.389934 0.048019 -0.708171 -0.704406
0.041685 -0.244531 -0.224854 0.038135 -0.714664 0.697732
-0.145743 0.009655 -0.086970 0.001381 0.145878 -0.988093
1.647602 0.080509 0.080939 0.008783 -0.707941 0.706217
1.235056 -0.164963 -0.165844 -0.003608 -0.714699 0.699423
0.223410 0.336724 -0.338523 0.048019 -0.708171 -0.704406
-0.003500 0.498825 -0.503257 -0.028366 -0.696991 -0.716519
0.142559 0.466288 0.474291 0.048019 -0.708171 0.704406
-0.185384 -0.238135 0.233980 -0.048001 -0.727553 -0.684371
-0.388034 0.086007 0.086466 -0.048001 0.727553 -0.684371
1.145267 0.101477 -0.102594 -0.003608 -0.703222 -0.710962
-0.493466 0.023498 0.084290 -0.000255 0.319312 0.946676
-1.685727 -0.061082 -0.037910 -0.363001 -0.781717 -0.501803
-0.242184 -0.075580 -0.065152 -0.048001 -0.727553 0.684371
-0.020099 -0.153347 0.132249 -0.048001 -0.727553 -0.684371
-0.185480 -0.085889 0.016737 0.000289 -0.981695 0.184585
-0.222441 0.208378 0.204945 -0.048001 0.727553 -0.684371
0.092063 0.085853 -0.016920 -0.000105 0.969754 -0.239707
-0.112794 0.270199 0.276535 -0.028366 -0.696991 0.716519
0.657328 -0.087239 -0.006811 0.001505 -0.992322 -0.116831
1.496089 0.158464 -0.157857 -0.003608 0.714699 0.699423
0.574281 -0.085958 0.016379 0.000004 -0.966810 0.251314
0.125668 0.640751 0.640184 -0.048001 0.727553 -0.684371
1.344039 0.191848 0.192989 -0.003608 -0.703222 0.710962
-0.233146 -0.132472 0.137797 -0.028366 0.696991 0.716519
0.052769 -0.459296 -0.467032 -0.028366 0.696991 -0.716519
-1.685859 0.057731 0.042760 -0.328422 0.780626 0.528971
-1.490733 0.000000 -0.087504 0.001902 -0.064855 -0.996774
-1.189344 0.085587 0.018217 0.000023 0.974446 0.219854
1.513424 -0.024971 0.083866 0.000066 -0.282615 0.958116
-0.128578 -0.382267 -0.384924 -0.028366 0.696991 -0.716519
-1.112130 0.068389 -0.054589 0.000070 0.777559 -0.627104
-0.732385 -0.075543 -0.044162 0.001108 -0.885534 -0.462115
1.582339 -0.143708 -0.143846 0.008783 -0.709980 0.704167
1.633956 -0.075602 0.031901 0.124732 -0.893530 0.429655
0.116325 -0.446017 -0.455700 0.048019 0.708171 -0.704406
-0.296418 -0.135581 -0.132743 -0.048001 -0.727553 0.684371
0.018219 0.089541 -0.104007 0.048019 -0.708171 -0.704406
1.657206 0.000000 0.039562 1.000000 0.000000 -0.000000
-0.880433 -0.000000 -0.087504 0.002442 -0.031725 -0.998693
-0.302840 -0.177398 0.177649 -0.048001 -0.727553 -0.684371
0.627000 -0.048692 -0.072706 -0.000083 -0.603372 -0.796104
-0.660434 -0.082221 -0.029946 -0.000142 -0.945026 -0.323718
0.745951 0.034941 0.080225 0.000023 0.400684 0.915038
0.383937 -0.051769 0.070548 -0.000538 -0.625127 0.779169
0.112744 -0.084370 0.023210 0.000483 -0.955519 0.291280
1.296537 -0.087093 -0.008469 0.000191 -0.985224 -0.163545
-0.204269 0.217982 -0.222120 -0.028366 -0.696991 -0.716519
-1.385364 -0.052755 0.069813 -0.000025 -0.648282 0.760035
0.213407 0.135862 0.135433 0.081166 0.706649 -0.702893
1.325361 0.074845 0.045334 -0.000159 0.853485 0.519088
1.462187 -0.075724 -0.043851 0.000004 -0.867191 -0.495971
-0.231664 -0.073993 0.062727 -0.048001 -0.727553 -0.684371
-0.014131 0.140536 0.118212 -0.048001 0.727553 -0.684371
1.005937 -0.071380 -0.050615 -0.000350 -0.785555 -0.617365
-0.027259 0.186410 0.167900 -0.048001 0.727553 -0.684371
1.371580 -0.083317 -0.085780 -0.003608 0.703222 -0.710962
0.109997 0.166916 -0.154712 0.081166 0.706649 0.702893
-0.763696 0.035867 -0.079816 0.000227 0.432108 -0.900605
0.564588 0.053051 0.069589 0.000062 0.650619 0.758014
0.106499 -0.193910 -0.202916 0.048019 0.708171 -0.704406
0.459409 -0.054450 -0.068500 0.000145 -0.571948 -0.819004
-0.748271 0.060381 0.063333 -0.000352 0.682404 0.729271
-0.407738 -0.037782 -0.078927 0.000638 -0.481665 -0.875026
0.018570 -0.137380 0.114461 0.081166 -0.706649 -0.702893
-0.993187 -0.034598 0.080374 0.000032 -0.397377 0.916480
-1.099131 0.033833 -0.080699 -0.000155 0.381849 -0.923061
0.962830 -0.078427 -0.038810 0.000243 -0.866716 -0.496733
1.189849 -0.142972 0.143607 -0.003608 -0.714699 -0.699423
0.887857 -0.057313 0.066123 0.000211 -0.700840 0.711861
0.140099 0.315988 -0.323356 0.048019 -0.708171 -0.704406
-1.547582 0.014357 -0.086318 0.000045 0.218807 -0.974674
-1.046752 0.084577 -0.022444 0.000130 0.964212 -0.261136
-0.843807 0.064258 0.059396 -0.000059 0.692179 0.720244
0.783548 0.048884 -0.072577 0.000009 0.606047 -0.794070
1.072646 -0.014093 0.086362 0.000885 -0.223755 0.973615
0.232539 0.086448 0.013552 0.000514 0.990403 0.132831
-1.388840 0.080696 -0.033840 0.000520 0.920326 -0.388671
0.034498 -0.471412 0.478095 -0.028366 0.696991 0.716519
-1.014618 -0.083622 0.025774 -0.000058 -0.955648 0.290823
-0.349765 -0.123256 0.124215 -0.028366 0.696991 0.716519
0.619299 -0.056454 0.066858 0.000082 -0.620987 0.782460
-0.286931 -0.145327 0.148172 -0.028366 0.696991 0.716519
-0.709715 0.083955 0.024669 -0.000069 0.941020 0.335213
-1.160745 -0.045838 0.074538 0.000015 -0.568995 0.821015
0.089845 -0.020584 0.085049 -0.000502 -0.277561 0.959596
1.576086 -0.200622 0.202235 0.008783 0.707941 0.706217
1.576086 0.200622 -0.202235 0.008783 -0.707941 -0.706217
1.556718 -0.038002 0.078821 0.000022 -0.485115 0.873246
-0.088249 0.144872 -0.128019 -0.048001 0.727553 0.684371
0.112136 0.425920 0.435781 0.048019 -0.708171 0.704406
1.470714 -0.207698 -0.208297 -0.003608 -0.714699 0.699423
1.556349 0.038066 -0.078791 -0.000042 0.382252 -0.922897
-0.203011 -0.131955 -0.122337 -0.048001 -0.727553 0.684371
1.418207 0.205922 -0.206754 -0.003608 0.714699 0.699423
0.821081 -0.027242 -0.083156 -0.000113 -0.317366 -0.947255
-0.279895 -0.024248 -0.084078 0.000319 -0.322113 -0.945466
1.657206 -0.076424 -0.020493 0.132670 -0.936306 -0.320594
0.142706 -0.479722 0.472966 0.081166 -0.706649 -0.702893
0.185168 0.351984 0.356472 0.048019 -0.708171 0.704406
-1.547869 0.080992 -0.033127 0.000515 0.924630 -0.378180
0.092132 0.087021 -0.096435 0.048019 -0.708171 -0.704406
1.001798 0.077009 0.041553 0.000026 0.875457 0.481275
0.490847 0.032954 -0.081062 -0.000037 0.343078 -0.938174
-0.045607 -0.272791 0.281716 -0.028366 0.696991 0.716519
-0.698311 -0.076729 0.042067 0.000046 -0.876380 0.479491
0.223410 -0.125175 0.125843 0.048019 0.708171 0.704406
0.058507 0.601320 -0.602974 -0.048001 0.727553 0.684371
1.631595 -0.149104 0.149901 0.008783 -0.709980 -0.704167
1.631595 0.149104 -0.149901 0.008783 -0.707941 -0.706217
1.519564 -0.106098 -0.105142 0.008783 -0.709980 0.704167
0.016193 -0.194921 -0.173900 -0.048001 -0.727553 0.684371
0.179820 -0.540751 -0.546612 0.048019 0.708171 -0.704406
-0.133382 0.337397 -0.341087 -0.028366 -0.696991 -0.716519
1.438458 -0.083424 -0.081476 -0.003608 -0.714699 0.699423
1.314861 0.087025 -0.009146 -0.000713 0.984064 -0.170054
0.223410 0.181588 -0.182558 0.048019 -0.708171 -0.704406
-1.197675 0.050516 -0.071450 -0.000702 0.613240 -0.788878
0.014213 -0.082761 -0.097464 0.048019 0.708171 -0.704406
0.948257 -0.037139 -0.079232 0.000011 -0.423515 -0.904705
1.180825 0.126688 -0.127711 -0.003608 -0.703222 -0.710962
1.556303 -0.078918 -0.037801 -0.000250 -0.874258 -0.483334
0.200208 0.051992 -0.070384 0.000066 0.633042 -0.772751
-1.138611 0.007269 -0.087202 0.000562 0.133548 -0.990208
0.132962 -0.357859 0.349327 0.081166 -0.706649 -0.702893
-1.326247 -0.083545 0.026024 0.000016 -0.953674 0.297315
0.861583 0.040356 -0.077643 -0.000099 0.509098 -0.859482
1.605092 -0.098898 0.099902 0.008783 0.707941 0.706217
1.605092 0.098898 -0.099902 0.008783 -0.707941 -0.706217
-0.023397 0.400033 0.406369 -0.028366 -0.696991 0.716519
0.210103 -0.000000 0.087504 0.000468 0.062792 0.996852
1.261718 0.087322 -0.005653 -0.000068 0.997595 -0.050784
1.113680 0.119395 0.119907 -0.003608 0.714699 -0.699423
0.027767 0.228754 -0.209057 -0.048001 0.727553 0.684371
-0.837462 -0.070984 -0.051169 0.001119 -0.799507 -0.598998
-0.586511 -0.057420 -0.066030 0.000300 -0.689418 -0.722887
-0.044366 0.396387 -0.392326 -0.048001 0.727553 0.684371
-0.113828 0.063584 -0.075510 -0.028366 -0.696991 -0.716519
0.134421 0.567357 -0.575381 -0.028366 -0.696991 -0.716519
0.875488 0.077309 0.040991 -0.000266 0.877504 0.477353
0.044045 0.405890 0.414737 -0.028366 -0.696991 0.716519
-0.045277 -0.196548 0.207564 -0.028366 0.696991 0.716519
-1.245149 0.083799 -0.025195 0.000901 0.953129 -0.299025
-0.275488 0.087154 -0.007827 -0.000350 0.997261 -0.061179
0.353855 0.074132 -0.046492 0.000106 0.879686 -0.473353
1.512809 0.081020 -0.033057 -0.000312 0.902392 -0.428414
-1.364080 -0.027922 -0.082930 0.000405 -0.365115 -0.930125
-0.071394 -0.045490 0.074751 -0.000199 -0.565969 0.823168
1.105202 0.079682 0.036163 -0.000696 0.930752 0.362573
0.127945 -0.313560 -0.304212 0.081166 -0.706649 0.702893
0.079610 -0.366419 0.351772 -0.004921 -0.721632 -0.691558
0.109266 -0.516479 -0.509220 -0.048001 -0.727553 0.684371
0.092034 0.656916 -0.659728 -0.048001 0.727553 0.684371
-0.507550 0.071048 -0.051080 0.000531 0.772128 -0.633816
-1.706017 0.063472 -0.000000 -0.406690 0.911425 0.030723
1.507069 -0.157310 0.156621 0.000523 -0.713138 -0.701016
1.582122 0.084081 0.024237 0.041717 0.958697 0.275930
0.053737 0.424938 -0.433649 -0.028366 -0.696991 -0.716519
-0.398037 0.073858 -0.074253 -0.028366 -0.696991 -0.716519
-0.879622 -0.065417 0.058117 0.000108 -0.748126 0.661939
-0.121994 -0.121930 -0.131942 -0.028366 0.696991 -0.716519
0.060787 -0.403984 -0.413545 -0.028366 0.696991 -0.716519
0.072757 0.226539 0.210353 0.081166 0.706649 -0.702893
1.590782 0.019411 0.085324 0.085043 0.168888 0.980258
0.254190 -0.009386 -0.087000 0.000277 -0.138758 -0.989188
0.126146 0.467913 -0.459182 0.081166 0.706649 0.702893
-0.165163 -0.154792 0.162200 -0.028366 0.696991 0.716519
1.215132 -0.115643 -0.115550 -0.003608 -0.714699 0.699423
0.052769 0.459296 0.467032 -0.028366 -0.696991 0.716519
0.082115 -0.656980 -0.660491 -0.028366 0.696991 -0.716519
-0.095549 0.130101 0.140938 -0.028366 -0.696991 0.716519
0.500246 -0.000000 0.087504 -0.002297 0.033371 0.997886
0.323576 -0.058638 -0.064951 0.000187 -0.698449 -0.713981
0.193044 0.283074 -0.281081 0.081166 0.706649 0.702893
0.177459 0.339968 -0.344918 0.048019 -0.708171 -0.704406
1.134542 0.025905 -0.083582 0.000480 0.244461 -0.968557
1.539837 -0.074323 0.046186 -0.000071 -0.816606 0.575361
1.556015 -0.117733 0.117328 0.008783 -0.709980 -0.704167
1.626198 0.075748 0.034019 0.126354 0.922191 0.362213
-0.579585 0.078024 -0.039614 0.000735 0.858130 -0.511393
0.804597 0.083878 0.024929 0.000042 0.940108 0.337682
0.007614 -0.360145 -0.368796 -0.028366 0.696991 -0.716519
-0.819155 -0.060484 0.063235 0.000048 -0.731039 0.680759
-1.636888 0.009226 -0.083997 -0.161081 0.181460 -0.968446
0.811280 -0.070761 -0.051477 -0.000532 -0.810994 -0.583248
1.556015 0.116699 -0.118357 0.008783 -0.707941 -0.706217
1.085503 -0.078158 -0.039348 -0.000591 -0.862701 -0.503100
-0.073962 -0.190829 -0.175874 -0.048001 -0.727553 0.684371
-1.287465 -0.017965 -0.085640 -0.000424 -0.253916 -0.966100
1.120551 -0.087504 -0.000000 0.003192 -0.996955 -0.061901
-0.050916 0.454464 -0.458227 -0.028366 -0.696991 -0.716519
-0.740645 -0.041392 -0.077095 -0.000856 -0.448340 -0.892744
-0.101463 -0.231809 0.239640 -0.028366 0.696991 0.716519
-0.455251 -0.048289 0.072974 0.000268 -0.598633 0.799757
0.034886 0.385319 -0.394364 -0.028366 -0.696991 -0.716519
0.018233 0.201183 0.180415 -0.048001 0.727553 -0.684371
1.516139 -0.223088 -0.224763 -0.003608 0.703222 -0.710962
0.149008 0.073687 0.047193 0.000585 0.811012 0.583465
0.007091 0.565867 0.568891 -0.048001 0.727553 -0.684371
-0.008047 -0.182953 0.162878 -0.048001 -0.727553 -0.684371
-0.806567 0.039834 -0.077912 -0.000410 0.395527 -0.917363
1.585168 -0.159677 0.161077 0.008783 0.707941 0.706217
1.585168 0.159677 -0.161077 0.008783 -0.707941 -0.706217
0.067792 0.279438 0.291540 0.048019 -0.708171 0.704406
1.427101 -0.024261 -0.084074 -0.002112 -0.352844 -0.933803
0.164448 0.378373 -0.384415 0.048019 -0.708171 -0.704406
-0.021533 -0.231355 -0.215279 -0.048001 -0.727553 0.684371
0.112342 0.497998 0.507038 -0.028366 -0.696991 0.716519
-0.265318 -0.087006 -0.009321 -0.000875 -0.991032 -0.125915
-0.576440 -0.039055 0.078305 0.000123 -0.449727 0.892012
1.155045 -0.053782 -0.069025 -0.000599 -0.657841 -0.751649
-0.454313 0.012614 -0.086590 0.000112 0.182480 -0.982245
-1.384856 0.071061 0.051063 0.000174 0.809209 0.585685
0.214336 0.242833 0.244750 0.048019 -0.708171 0.704406
-1.250615 -0.087504 0.000000 -0.001191 -0.998841 -0.027270
-0.061920 0.078615 0.038428 -0.000085 0.869235 0.492243
0.181093 0.267924 0.272240 0.048019 -0.708171 0.704406
-0.180342 0.082832 -0.028212 0.000166 0.922439 -0.383303
0.896407 -0.043431 -0.075966 0.000047 -0.543425 -0.838144
-0.012201 0.355768 0.363754 -0.028366 -0.696991 0.716519
0.131987 -0.319768 0.310920 0.081166 -0.706649 -0.702893
0.183985 -0.170490 -0.174089 0.048019 0.708171 -0.704406
-0.226037 0.125660 -0.131452 -0.028366 -0.696991 -0.716519
-0.366468 0.076905 -0.041745 -0.000027 0.845306 -0.532287
0.335812 0.026018 0.083547 -0.000504 0.327553 0.943834
0.352826 -0.087134 0.008040 -0.000529 -0.986685 0.156159
-0.309852 -0.075881 0.043578 -0.000132 -0.838684 0.542690
1.434220 0.121347 0.120248 -0.003608 0.714699 -0.699423
0.020004 0.105694 0.082771 0.081166 0.706649 -0.702893
0.175608 -0.210438 -0.214821 0.048019 0.708171 -0.704406
1.408603 0.103380 -0.102022 -0.003608 0.714699 0.699423
0.132745 -0.218900 -0.226250 0.048019 0.708171 -0.704406
0.223410 0.223897 -0.225094 0.048019 -0.708171 -0.704406
-1.378832 -0.077052 -0.041472 -0.000291 -0.850881 -0.523265
1.092131 -0.087472 0.088471 -0.003608 0.703222 0.710962
0.462288 -0.023224 0.084366 0.000361 -0.286416 0.956772
-0.358582 0.071094 0.051016 -0.000026 0.841706 0.538151
0.200551 -0.651323 0.652164 0.081166 -0.706649 -0.702893
0.179343 -0.047817 -0.073284 -0.000387 -0.519650 -0.853142
-0.046701 -0.097875 -0.111524 -0.028366 0.696991 -0.716519
0.037291 -0.097785 0.110995 0.048019 0.708171 0.704406
-0.316626 0.062698 0.061041 0.000190 0.714303 0.698394
-1.018349 0.070955 -0.051210 0.000042 0.806469 -0.589590
-1.633768 0.082153 -0.021696 -0.130552 0.973254 -0.179720
-1.454206 -0.053574 0.069187 -0.000089 -0.656889 0.752617
0.012733 -0.358538 0.348085 -0.048001 -0.727553 -0.684371
-0.223876 -0.189867 0.193995 -0.028366 0.696991 0.716519
-0.142419 0.172244 -0.160918 -0.048001 0.727553 0.684371
0.118326 -0.407448 0.416789 0.048019 0.708171 0.704406
0.806413 0.040748 0.077438 -0.000015 0.515474 0.855642
-0.197157 -0.277092 -0.279900 -0.028366 0.696991 -0.716519
-0.065152 0.370525 -0.366290 -0.048001 0.727553 0.684371
1.636397 0.128526 0.129212 0.008783 -0.707941 0.706217
0.169495 0.087260 0.006539 0.000070 0.990481 0.129982
0.544131 0.069589 -0.053050 0.000545 0.809212 -0.585877
0.141238 -0.141717 0.148075 0.048019 0.708171 0.704406
-0.057184 -0.096650 0.109917 -0.028366 0.696991 0.716519
0.000792 -0.494633 0.493604 -0.048001 -0.727553 -0.684371
-0.187971 -0.328974 -0.330732 -0.028366 0.696991 -0.716519
0.010005 0.087504 0.000000 0.000049 0.999088 0.025571
1.294695 0.083392 -0.085464 -0.003608 -0.703222 -0.710962
-0.140069 0.087504 0.000000 -0.000121 0.996859 0.064472
0.134827 0.302880 0.310538 0.048019 -0.708171 0.704406
0.055940 0.236294 0.248973 0.048019 -0.708171 0.704406
0.190824 0.187647 0.184887 0.081166 0.706649 -0.702893
-0.194243 0.264212 0.267486 -0.028366 -0.696991 0.716519
-1.269304 -0.078857 -0.037928 0.000268 -0.923011 -0.381882
0.809031 -0.028337 0.082789 0.000167 -0.382877 0.922626
-0.114464 0.366153 -0.369808 -0.028366 -0.696991 -0.716519
0.128070 0.522164 -0.513945 0.038135 0.714664 0.697732
0.204771 -0.372562 -0.375824 0.048019 0.708171 -0.704406
-0.112129 0.308795 0.303960 -0.048001 0.727553 -0.684371
-0.032904 0.168718 -0.180982 -0.028366 -0.696991 -0.716519
0.062755 0.297495 -0.310037 -0.002899 -0.701075 -0.712843
0.200098 -0.087504 -0.000000 -0.000012 -0.999125 -0.021795
1.623718 0.041616 0.072216 0.126137 0.554565 0.820687
-1.308429 0.023215 0.084369 -0.001014 0.257833 0.965176
-0.353023 -0.128526 -0.129213 -0.028366 0.696991 -0.716519
-0.127326 -0.193864 0.182843 -0.048001 -0.727553 -0.684371
0.194700 -0.596559 0.601704 0.048019 0.708171 0.704406
0.002072 -0.273482 -0.284275 -0.028366 0.696991 -0.716519
-1.581804 0.013622 0.086438 0.004375 0.161546 0.985744
1.349026 -0.141943 -0.141734 -0.003608 -0.714699 0.699423
0.134090 -0.364796 -0.356432 0.081166 -0.706649 0.702893
-0.054122 -0.299332 -0.289832 -0.048001 -0.727553 0.684371
-0.056968 0.113002 -0.091945 -0.048001 0.727553 0.684371
-0.076308 -0.185892 0.170790 -0.048001 -0.727553 -0.684371
0.076040 -0.372171 -0.383204 -0.028366 0.696991 -0.716519
-0.132953 0.395790 -0.397905 -0.028366 -0.696991 -0.716519
0.703115 -0.078977 -0.037678 -0.000030 -0.876597 -0.478971
1.162778 -0.062446 0.061298 -0.000033 -0.732547 0.679126
0.357895 0.083052 0.027556 0.000420 0.945051 0.323419
0.079752 -0.263182 -0.247999 0.081166 -0.706649 0.702893
1.536284 -0.165648 -0.167670 0.008783 0.707941 -0.706217
-0.005425 -0.061362 0.062386 -0.000000 0.705220 -0.708989
-0.179198 -0.108337 0.095559 -0.048001 -0.727553 -0.684371
0.035239 -0.130731 -0.109701 0.081166 -0.706649 0.702893
-0.766822 -0.085478 -0.018722 -0.000114 -0.971324 -0.233080
-0.986498 -0.085279 -0.019610 0.001362 -0.962293 -0.268703
0.178525 -0.053832 0.068986 0.000096 -0.634274 0.771723
-0.309746 0.047071 -0.073766 0.000474 0.591394 -0.805095
-1.368728 -0.077930 0.039798 0.000308 -0.889845 0.454014
0.077797 0.559934 -0.565919 -0.028366 -0.696991 -0.716519
1.035336 -0.085002 -0.020778 -0.000237 -0.967557 -0.248309
0.001584 0.284761 0.270434 -0.048001 0.727553 -0.684371
0.180671 -0.405405 -0.410485 0.048019 0.708171 -0.704406
0.034027 -0.534638 -0.539579 -0.028366 0.696991 -0.716519
0.030272 0.178640 -0.157292 0.081166 0.706649 0.702893
1.397586 -0.082426 0.080666 -0.003608 -0.714699 -0.699423
-0.005956 0.302833 -0.290175 -0.048001 0.727553 0.684371
0.848133 -0.042978 0.076223 -0.000456 -0.523547 0.850743
1.412477 0.035366 -0.080039 0.000164 0.453163 -0.890357
1.234611 -0.133755 0.134974 -0.003608 0.703222 0.710962
1.370674 -0.087504 -0.000000 0.000987 -0.994944 -0.085124
-0.951521 0.055059 0.068011 0.000047 0.579564 0.813597
-0.029341 -0.046946 -0.073845 0.000379 -0.504880 -0.862020
0.227809 -0.062112 -0.061637 -0.000381 -0.686278 -0.725907
0.595114 0.010650 -0.086854 0.000720 0.131189 -0.990476
-0.885258 0.051034 0.071081 0.000805 0.627254 0.777558
-0.082222 -0.084837 0.021440 -0.000189 -0.969911 0.239243
-0.046806 0.242903 -0.252595 -0.028366 -0.696991 -0.716519
1.331581 -0.071542 -0.069885 -0.003608 -0.714699 0.699423
0.005940 -0.233067 -0.245116 -0.028366 0.696991 -0.716519
-0.031137 0.141976 0.155039 -0.028366 -0.696991 0.716519
1.249012 -0.039443 0.078111 -0.000286 -0.450937 0.891429
-0.125141 0.063550 0.060209 -0.000000 -0.705220 -0.708989
-0.201726 0.115167 0.122207 -0.028366 -0.696991 0.716519
-0.127326 0.193864 0.182843 -0.048001 0.727553 -0.684371
0.014695 0.009172 0.087022 -0.000768 0.125785 0.991112
-0.046626 -0.322537 0.313975 -0.048001 -0.727553 -0.684371
-0.115951 -0.230922 -0.221441 -0.048001 -0.727553 0.684371
-0.087775 0.406161 0.405762 -0.048001 0.727553 -0.684371
0.034608 -0.402086 0.392846 -0.048001 -0.727553 -0.684371
0.121086 0.146367 0.154124 0.048019 -0.708171 0.704406
0.015965 0.241629 0.253841 -0.028366 -0.696991 0.716519
1.237320 0.088184 -0.087376 -0.003608 0.714699 0.699423
-0.382100 0.047332 0.073598 0.000482 0.581505 0.812403
0.920486 -0.005300 0.087344 0.001585 -0.125260 0.991226
1.315204 -0.076848 0.079095 -0.003608 0.703222 0.710962
-1.620566 -0.028734 -0.081607 -0.067129 -0.356693 -0.930183
1.300639 -0.000000 0.087504 0.000045 0.023592 0.999071
1.548595 -0.086293 -0.085536 0.008783 -0.709980 0.704167
-1.368025 0.014332 0.086323 0.000357 0.221153 0.974110
0.034685 0.135672 -0.149262 0.048019 -0.708171 -0.704406
0.038654 0.157115 0.170549 0.048019 -0.708171 0.704406
0.038677 0.081930 -0.030732 0.000069 0.956154 -0.289245
0.130836 -0.418099 -0.426644 0.048019 0.708171 -0.704406
-0.054453 0.352123 0.358535 -0.028366 -0.696991 0.716519
0.020957 0.252230 -0.264351 -0.028366 -0.696991 -0.716519
0.499268 -0.083104 -0.027400 -0.000080 -0.925865 -0.374890
0.140074 0.082398 -0.029454 0.000039 0.960832 -0.272802
-0.065892 0.312936 0.319964 -0.028366 -0.696991 0.716519
1.062816 0.085476 0.086349 -0.003608 -0.703222 0.710962
-0.009353 -0.144492 -0.158349 -0.028366 0.696991 -0.716519
-0.244085 0.089222 0.079788 -0.048001 0.727553 -0.684371
-0.329668 -0.079368 -0.075315 -0.048001 -0.727553 0.684371
-0.802335 -0.039496 -0.078084 -0.000116 -0.392423 -0.918643
0.978768 0.084831 0.085285 -0.003608 -0.703222 0.710962
1.326588 0.193581 -0.194615 -0.003608 -0.703222 -0.710962
1.408966 -0.219337 0.220510 -0.003608 -0.714699 -0.699423
1.518803 -0.253680 -0.255035 -0.003608 -0.714699 0.699423
1.262516 0.173548 0.174476 -0.003608 -0.703222 0.710962
0.046529 -0.170683 -0.183653 0.048019 0.708171 -0.704406
-0.030015 0.087504 0.000000 -0.001129 0.997101 0.063751
1.210595 -0.000000 0.087504 0.002511 0.068987 0.996309
-0.520256 -0.000000 -0.087504 -0.001423 -0.024947 -0.998600
0.008467 0.552453 -0.555897 -0.028366 -0.696991 -0.716519
1.595876 0.181032 0.181647 0.008783 0.709980 -0.704167
0.223410 0.301465 0.303077 0.048019 -0.708171 0.704406
0.223410 0.075813 0.076218 0.048019 -0.708171 0.704406
0.223410 0.597634 -0.600828 0.048019 -0.708171 -0.704406
0.223410 -0.456602 0.459042 0.048019 0.708171 0.704406
0.223410 0.364930 0.366880 0.048019 -0.708171 0.704406
1.374034 -0.173641 0.173995 -0.003608 -0.714699 -0.699423
-0.179736 0.057116 0.066609 -0.000000 -0.705220 -0.708989
-0.228878 -0.085747 0.017446 -0.000748 -0.965169 0.257447
0.375939 -0.083902 -0.024849 0.000655 -0.967249 -0.249947
0.728575 0.082612 -0.028848 -0.000133 0.944587 -0.324990
-0.098225 0.077860 0.090015 -0.028366 -0.696991 0.716519
0.059862 -0.574235 0.579120 -0.028366 0.696991 0.716519
1.657206 0.067884 0.010247 1.000000 -0.000000 0.000000
-0.052729 0.024344 -0.084050 0.000048 0.312088 -0.948922
-0.173745 0.160780 0.150928 -0.048001 0.727553 -0.684371
0.072112 -0.644831 0.648277 -0.048001 -0.727553 -0.684371
-0.212979 -0.298603 0.300199 -0.048001 -0.727553 -0.684371
-0.262994 0.237861 0.239132 -0.048001 0.727553 -0.684371
-0.147958 0.377567 0.379585 -0.048001 0.727553 -0.684371
0.042102 -0.608386 0.611638 -0.048001 -0.727553 -0.684371
-0.252991 -0.250009 0.251346 -0.048001 -0.727553 -0.684371
-0.097942 -0.438309 -0.440652 -0.028366 0.696991 -0.716519
0.027098 -0.590164 -0.593318 -0.028366 0.696991 -0.716519
-0.112947 0.420087 -0.422332 -0.028366 -0.696991 -0.716519
0.141257 0.416701 0.409442 0.081166 0.706649 -0.702893
0.192074 -0.262000 -0.265537 0.048019 0.708171 -0.704406
-1.556237 -0.061823 -0.061926 0.000289 -0.705553 -0.707200
0.123769 0.439291 -0.430133 0.081166 0.706649 0.702893
0.201329 0.015571 -0.086108 0.000546 0.149704 -0.987793
-0.193409 -0.271660 0.274765 -0.028366 0.696991 0.716519
1.461735 0.080680 0.033877 -0.000071 0.897854 0.437796
-0.409849 -0.068712 -0.054181 0.000113 -0.780688 -0.623180
-0.713846 0.040499 -0.077568 0.000014 0.427179 -0.902971
0.176438 -0.528326 0.534352 0.048019 0.708171 0.704406
-0.008138 -0.322818 0.331863 -0.028366 0.696991 0.716519
1.547682 0.050318 0.071590 -0.000138 0.575774 0.816296
1.361322 0.043211 -0.076091 -0.000081 0.444242 -0.894750
1.370880 -0.074014 -0.046679 -0.001363 -0.826634 -0.561510
0.738215 -0.010183 0.086910 0.000129 -0.184205 0.981592
-0.087451 0.094358 -0.074263 -0.048001 0.727553 0.684371
-0.238593 -0.198659 -0.201964 -0.028366 0.696991 -0.716519
-0.306839 -0.087172 -0.007617 -0.000651 -0.991190 -0.124583
0.917380 0.083559 -0.025977 0.000141 0.934477 -0.352996
0.092658 -0.181456 0.191339 0.048019 0.708171 0.704406
-0.082010 0.308896 -0.301955 -0.048001 0.727553 0.684371
1.385522 0.081809 0.031053 0.000159 0.911941 0.407651
1.475659 0.224485 0.225939 -0.003608 -0.703222 0.710962
-0.291357 0.149966 -0.147680 -0.048001 0.727553 0.684371
-0.213924 -0.013652 0.086433 -0.000144 -0.207260 0.977209
1.657206 0.020407 0.076447 0.128310 0.270531 0.953139
1.248834 0.076872 -0.041806 0.000100 0.851522 -0.522497
1.192079 0.069859 0.071558 -0.000000 -0.705220 -0.708989
1.547765 0.076686 0.042145 0.000009 0.875305 0.481354
-0.697749 0.068472 -0.054485 0.000017 0.756270 -0.652645
1.637998 -0.121666 0.122316 0.008783 -0.709980 -0.704167
1.637998 0.121666 -0.122316 0.008783 -0.707941 -0.706217
0.058992 0.309981 0.322033 -0.028366 -0.696991 0.716519
0.120197 -0.095465 0.084057 0.081166 -0.706649 -0.702893
0.081118 0.055932 -0.067295 -0.000013 0.652193 -0.756634
-1.233513 -0.019777 0.085240 0.000659 -0.223392 0.973709
0.545083 -0.034137 0.080571 0.000166 -0.418726 0.906928
0.318565 0.082923 0.027942 -0.000080 0.937402 0.345028
0.776047 -0.081440 -0.032007 0.001084 -0.944483 -0.326420
0.027668 0.511127 0.516457 -0.028366 -0.696991 0.716519
1.407955 -0.116209 0.118499 -0.003608 0.703222 0.710962
0.097349 0.091771 0.100855 0.048019 -0.708171 0.704406
-0.446580 0.078744 -0.038163 0.000342 0.871925 -0.487808
1.582122 -0.084101 0.024168 0.041757 -0.958926 0.275124
-0.989194 0.085376 0.019180 0.001158 0.972110 0.229888
-0.269653 0.179585 -0.177647 -0.048001 0.727553 0.684371
1.497338 -0.084293 0.023488 -0.000019 -0.945535 0.322131
1.346432 -0.125416 0.124859 -0.003608 -0.714699 -0.699423
0.529166 -0.077297 0.041015 0.000101 -0.895005 0.443822
-0.721197 0.083275 -0.026876 0.000192 0.943005 -0.329602
-0.034515 -0.378172 0.384664 -0.028366 0.696991 0.716519
-1.650872 0.048413 0.066089 -0.191315 0.616713 0.761811
-0.016968 0.238459 0.222512 -0.048001 0.727553 -0.684371
0.177503 0.630462 -0.628530 0.081166 0.706649 0.702893
0.061503 -0.489161 -0.496429 -0.028366 0.696991 -0.716519
1.448573 -0.203097 0.204647 -0.003608 0.703222 0.710962
1.567004 -0.202456 -0.202888 0.008783 -0.709980 0.704167
0.598723 0.059816 -0.063867 -0.000531 0.638258 -0.768631
1.475301 0.077745 -0.076003 0.008783 0.709980 0.704167
0.101920 -0.017617 -0.085713 0.000140 -0.229442 -0.972272
0.131874 0.188389 -0.178825 0.081166 0.706649 0.702893
-0.063350 -0.339199 -0.345612 -0.028366 0.696991 -0.716519
1.054628 0.038781 -0.078441 0.000057 0.451075 -0.891298
0.054472 -0.360966 -0.347738 -0.048001 -0.727553 0.684371
1.163103 -0.112059 0.112156 -0.003608 -0.714699 -0.699423
1.168401 0.074818 -0.076342 -0.003608 -0.703222 -0.710962
-0.122343 0.122422 -0.106544 -0.048001 0.727553 0.684371
1.160571 -0.000000 0.087504 0.002962 0.077988 0.995480
0.999339 0.011966 0.086682 0.000489 0.138212 0.989281
1.085867 0.058842 -0.064766 -0.000087 0.632442 -0.773246
0.629876 -0.009274 -0.087011 -0.001219 -0.120563 -0.991758
-0.364961 -0.035878 0.079811 0.000316 -0.408879 0.911612
-1.170320 -0.087337 0.005402 -0.000375 -0.992663 0.114060
0.179088 -0.625855 0.632221 0.048019 0.708171 0.704406
0.096512 0.615765 -0.620969 -0.028366 -0.696991 -0.716519
0.007091 -0.565867 -0.568891 -0.028366 0.696991 -0.716519
-1.654572 -0.014989 0.079711 -0.238092 -0.125531 0.961951
0.136825 -0.674403 0.679605 -0.028366 0.696991 0.716519
1.550236 0.144737 -0.144483 0.008783 0.709980 0.704167
1.550236 -0.143709 0.145505 0.008783 0.707941 0.706217
0.970415 -0.043928 0.075679 -0.000251 -0.555510 0.830247
0.127894 -0.027076 0.083210 0.000787 -0.339879 0.939490
-0.237246 -0.110352 -0.116118 -0.028366 0.696991 -0.716519
-0.129384 0.351178 0.354651 -0.028366 -0.696991 0.716519
-1.405406 -0.021463 -0.084831 0.000149 -0.299935 -0.952806
1.189290 0.150653 0.151459 -0.003608 -0.703222 0.710962
0.021017 0.440261 -0.447259 -0.028366 -0.696991 -0.716519
-1.610561 -0.082079 -0.029544 -0.064261 -0.954078 -0.288049
0.198022 -0.508264 0.508048 0.081166 -0.706649 -0.702893
-0.201365 0.178379 0.171575 -0.048001 0.727553 -0.684371
-0.734097 -0.024195 0.084093 0.000098 -0.278567 0.959248
-0.084537 -0.399607 -0.403534 -0.028366 0.696991 -0.716519
0.067263 -0.488673 0.496183 -0.028366 0.696991 0.716519
-0.633349 -0.065206 -0.058354 0.000024 -0.714989 -0.697644
0.135104 0.355487 0.363406 0.048019 -0.708171 0.704406
-0.160934 -0.084806 -0.069261 -0.048001 -0.727553 0.684371
-0.917774 -0.073162 -0.048004 0.002337 -0.799461 -0.598268
-0.173976 -0.106977 -0.115339 -0.028366 0.696991 -0.716519
0.198302 -0.409230 0.408518 0.081166 -0.706649 -0.702893
0.067622 0.210744 -0.222490 0.048019 -0.708171 -0.704406
-0.860423 -0.087504 0.000000 -0.000312 -0.994672 -0.091561
1.515787 0.087544 0.089631 0.008783 -0.707941 0.706217
-0.890857 0.036182 -0.079674 -0.000076 0.409671 -0.911401
1.309599 0.112296 -0.114130 -0.003608 -0.703222 -0.710962
-0.088805 0.204882 -0.213947 -0.028366 -0.696991 -0.716519
1.121579 -0.113980 0.114841 -0.003608 0.703222 0.710962
-1.701628 -0.010582 -0.064606 -0.417567 -0.231987 -0.876110
0.015988 -0.510740 -0.515619 -0.028366 0.696991 -0.716519
-0.820403 -0.000000 0.087504 -0.002387 0.030352 0.998535
0.016309 0.522902 -0.527461 -0.028366 -0.696991 -0.716519
-0.101735 0.079185 -0.037239 -0.000058 0.874029 -0.483712
1.453324 0.036869 0.079358 0.000161 0.470618 0.881124
0.943680 0.033711 0.080750 -0.000304 0.415387 0.908540
0.145729 -0.073277 0.047828 -0.000629 -0.821781 0.568050
1.465499 -0.075527 0.078210 0.008783 0.707941 0.706217
1.025035 -0.044732 -0.075207 -0.000077 -0.513467 -0.856861
0.096435 -0.072564 -0.048903 -0.001463 -0.792293 -0.608412
0.153025 0.211146 0.217073 0.048019 -0.708171 0.704406
0.081752 0.117687 0.127973 0.048019 -0.708171 0.704406
0.077105 0.539880 0.546384 -0.028366 -0.696991 0.716519
0.073289 0.346104 0.330619 -0.004921 0.721632 -0.691558
1.243006 -0.138038 -0.138291 -0.003608 -0.714699 0.699423
