0.529304 -0.646204 0.549489 0.061492 0.641235 0.764877
-1.232186 -0.101854 -0.025214 -0.000589 -0.958780 -0.281907
0.831004 -0.106441 -0.089234 -0.023312 -0.678634 0.734106
0.221498 -0.220356 -0.170799 -0.061453 -0.667997 0.741622
-0.279422 0.070857 0.077391 0.000159 0.655687 0.753963
-0.459037 -0.041902 -0.096199 -0.000041 -0.374157 -0.926558
-1.018211 -0.024407 -0.102051 -0.001038 -0.214890 -0.975879
0.411568 -0.499837 -0.406785 -0.061453 -0.667997 0.741622
-0.993187 0.104929 -0.000000 -0.000125 0.998669 0.030880
1.524719 -0.152647 -0.127452 0.053651 -0.639053 0.767289
0.279725 -0.088754 0.055971 -0.000658 -0.855526 0.516499
0.128058 0.303472 -0.255260 -0.054423 -0.617123 -0.784982
0.663788 0.000000 0.104929 -0.000000 -0.027340 0.998877
0.125158 -0.272976 -0.231084 -0.054423 0.617123 -0.784982
-0.410600 0.057636 0.087682 0.000225 0.527183 0.848868
0.014800 -0.063887 -0.083238 -0.000139 -0.564673 -0.824427
0.509922 0.070605 0.077621 0.000062 0.712209 0.700920
0.014964 0.103506 0.017219 -0.000020 0.989819 0.136913
-1.190245 0.055977 0.088750 0.000558 0.581038 0.812735
0.120494 -0.187729 -0.149781 -0.061453 -0.667997 0.741622
-1.230378 0.076384 -0.071941 -0.000044 0.693960 -0.718942
0.494429 0.101996 -0.024635 -0.000207 0.959218 -0.280029
-0.974433 0.081529 -0.066053 0.000170 0.786504 -0.616360
1.417207 0.099759 0.032529 -0.000119 0.949700 0.310881
0.616376 0.366810 0.308260 0.061492 -0.641235 0.764877
0.893494 0.092419 0.049686 -0.000207 0.892397 0.449544
1.473248 -0.090744 0.072296 0.053651 -0.639053 -0.767289
0.481250 -0.117060 0.085023 0.069436 -0.640900 -0.764478
-0.027158 -0.113447 0.095108 -0.061453 -0.667997 -0.741622
0.347100 0.351610 0.278615 -0.061453 0.667997 -0.741622
-0.347348 -0.057831 -0.087554 -0.000129 -0.594902 -0.802828
0.244248 -0.147666 -0.103440 -0.061453 -0.667997 0.741622
0.359283 0.096181 0.041944 0.000140 0.926453 0.374393
-1.514597 0.039687 0.083383 -0.334475 0.404186 0.849610
-0.767742 0.041164 0.096517 0.000037 0.367660 0.929198
0.347759 0.176882 0.123050 0.069436 0.640900 -0.764478
-1.506040 0.093647 0.015811 -0.264924 0.938837 0.214974
1.004780 0.129700 0.105218 -0.023312 0.678634 -0.734106
1.370395 0.161501 0.146815 0.004188 -0.618989 0.785034
0.608158 0.561671 0.472281 0.061492 -0.641235 0.764877
0.097832 0.179948 0.156054 -0.054423 -0.617123 0.784982
1.175972 0.104588 -0.008447 0.001422 0.991673 -0.122411
1.419778 0.272069 -0.223650 -0.023312 0.678634 0.734106
0.994180 -0.102832 -0.020872 0.000666 -0.981119 -0.190242
0.607296 0.466156 0.389136 0.069436 0.640900 -0.764478
0.435580 0.398879 0.349679 0.061492 -0.641235 0.764877
1.525052 -0.057166 -0.028076 1.000000 0.000000 0.000000
-0.504717 0.101349 0.027174 0.000297 0.949685 0.310753
1.487342 0.220433 0.181295 0.053651 0.639053 -0.767289
-1.183681 0.098826 0.035263 0.000667 0.960074 0.276155
1.050807 0.103069 0.019667 0.001042 0.979486 0.197565
-1.332235 -0.091056 0.052143 0.000182 -0.842617 0.537158
-1.016542 -0.104444 -0.010076 0.000673 -0.987342 -0.152145
0.572115 -0.770385 -0.650155 0.061492 0.641235 -0.764877
1.335684 -0.107234 -0.103461 0.017890 0.643119 -0.765452
0.484311 -0.126832 -0.093494 0.069436 -0.640900 0.764478
-1.487495 -0.099283 -0.007640 -0.216024 -0.968464 -0.116368
0.440880 -0.357307 0.282767 0.069436 -0.640900 -0.764478
0.407992 -0.624736 0.527233 -0.054423 0.617123 0.784982
0.220850 0.199033 -0.151647 -0.061453 0.667997 0.741622
0.561463 0.405722 0.334309 0.069436 0.640900 -0.764478
-0.868828 -0.098362 0.036538 -0.000266 -0.926945 0.372962
0.174209 -0.051894 -0.091198 0.000868 -0.541306 -0.839883
0.175370 -0.111411 0.107549 -0.054423 0.617123 0.784982
-0.821923 0.071003 0.077257 0.000614 0.693175 0.720061
0.299410 0.104574 -0.008620 0.000006 0.997747 -0.054761
0.719692 -0.043098 0.095669 -0.000151 -0.379377 0.924287
-1.237729 0.008644 0.104572 0.000415 0.053604 0.997733
-1.433707 0.080746 -0.067008 -0.016887 0.770023 -0.636564
0.503628 0.267795 0.234314 0.061492 -0.641235 0.764877
0.100989 0.238930 0.197515 -0.061453 0.667997 -0.741622
-1.128031 0.020585 -0.102890 -0.000370 0.209270 -0.977067
-0.303874 -0.103302 0.018403 -0.000483 -0.992330 0.115701
-0.114662 0.087631 0.057713 -0.000002 0.819142 0.572275
0.317204 0.247245 0.187088 -0.061453 0.667997 -0.741622
1.416747 0.181781 -0.144167 0.053651 0.639053 0.767289
-0.084845 0.000000 -0.104929 0.000006 -0.027352 -0.998876
-0.484302 0.064190 0.083004 0.000069 0.588904 0.807274
0.561194 0.694854 0.587712 0.061492 -0.641235 0.764877
0.081728 0.122801 -0.094511 -0.061453 0.667997 0.741622
0.288598 -0.082060 -0.065392 -0.000334 -0.764090 -0.644080
-1.073403 -0.063690 -0.083388 -0.000546 -0.633974 -0.772369
0.785584 -0.098438 0.036333 0.000135 -0.916821 0.397401
0.161619 0.254481 0.219072 -0.054423 -0.617123 0.784982
0.285201 -0.516574 0.432332 -0.061453 -0.667997 -0.741622
1.367163 0.035258 -0.098828 -0.000335 0.377654 -0.925222
0.216586 0.342803 0.281498 -0.061453 0.667997 -0.741622
-1.244349 -0.005935 -0.104761 0.000784 -0.110327 -0.993221
-0.756769 -0.060226 0.085923 0.000141 -0.589949 0.806090
1.158483 0.184707 0.158224 -0.023312 -0.604409 0.796333
-0.284452 -0.017206 0.103508 -0.000001 -0.136770 0.989842
-0.009942 0.042001 0.096156 -0.000002 0.349146 0.936264
1.197375 -0.119223 0.089417 -0.023312 -0.678634 -0.734106
1.482205 -0.296905 -0.244627 0.002353 -0.665913 0.745706
0.576335 -0.564891 -0.469099 0.069436 -0.640900 0.764478
0.360492 -0.118842 0.120947 0.061492 0.641235 0.764877
0.573856 -0.064110 0.083066 0.000017 -0.565868 0.823600
-0.095252 0.103658 -0.016280 -0.000159 0.990815 -0.130403
1.049761 -0.101357 0.091780 -0.023312 0.604409 0.796333
-0.009876 0.041921 -0.096191 0.000060 0.373965 -0.926639
0.602714 0.047243 -0.093692 0.000758 0.413415 -0.910017
0.523441 0.751176 -0.634640 -0.054423 -0.617123 -0.784982
-1.366335 0.051441 -0.091454 0.000206 0.491305 -0.870283
-0.888407 0.025602 0.101757 0.000260 0.192142 0.980530
0.213731 -0.099869 -0.032192 -0.000296 -0.941619 -0.334722
0.248113 0.116416 -0.074973 -0.061453 0.667997 0.741622
-0.154621 -0.076983 0.071300 0.000006 -0.694741 0.718211
-1.122951 0.017216 0.103507 0.000007 0.109581 0.993219
-0.184663 0.000000 0.104929 -0.000001 -0.027428 0.998870
-0.603361 0.087942 0.057238 -0.000250 0.850850 0.523967
-1.298339 -0.041797 -0.096245 0.000148 -0.442256 -0.896061
0.610723 -0.487000 -0.409475 0.061492 0.641235 -0.764877
1.198087 0.189208 -0.162800 -0.023312 -0.604409 -0.796333
-0.939023 0.098797 0.035343 0.000391 0.931248 0.362368
-1.501177 0.040987 -0.087166 -0.278860 0.391121 -0.875819
0.625633 0.264293 0.221570 0.061492 -0.641235 0.764877
-0.788613 -0.008609 -0.104575 -0.000000 -0.054701 -0.997752
0.454481 -0.548965 -0.470888 -0.054423 0.617123 -0.784982
0.425740 0.368805 -0.291031 0.069436 0.640900 0.764478
0.201289 -0.058005 0.087438 -0.000206 -0.527648 0.848538
0.468582 -0.254692 0.226147 0.061492 0.641235 0.764877
-0.943525 0.049680 0.092423 -0.000314 0.521565 0.852347
0.625633 0.754649 0.632660 0.061492 -0.641235 0.764877
1.057637 0.024717 0.101976 -0.000436 0.188909 0.981348
1.366322 -0.099310 -0.033875 -0.000040 -0.947567 -0.317382
0.339344 -0.101750 0.025633 0.000001 -0.975261 0.217631
1.324826 -0.288600 -0.241948 -0.023312 -0.678634 0.734106
0.848961 0.113065 -0.094788 -0.023312 -0.604409 -0.796333
0.134738 0.017167 0.103515 0.000020 0.136602 0.989866
-0.713697 0.000000 -0.104929 -0.000022 -0.027413 -0.998871
1.378307 -0.268321 -0.221503 -0.023312 -0.678634 0.734106
0.131999 0.324885 0.272367 -0.054423 -0.617123 0.784982
-1.085492 -0.099895 0.032110 0.000303 -0.965274 0.258474
1.545655 0.324999 0.272463 0.053651 0.639053 -0.767289
0.576904 0.581024 -0.491019 0.061492 -0.641235 -0.764877
0.404641 0.150105 -0.105768 0.069436 0.640900 0.764478
-0.510757 0.056953 -0.088127 0.000233 0.517960 -0.854506
0.408534 -0.536550 0.440104 -0.061453 -0.667997 -0.741622
0.439193 0.042021 -0.096147 0.000063 0.376103 -0.925725
-1.236500 -0.097758 0.038123 -0.000039 -0.933169 0.357321
0.540184 0.377393 -0.323257 0.061492 -0.641235 -0.764877
-1.470224 -0.022689 -0.100041 -0.161351 -0.174140 -0.969947
1.131671 -0.036842 0.098248 0.001002 -0.375443 0.925978
0.938341 0.008606 0.104575 0.000003 0.054702 0.997752
0.047478 -0.112594 -0.099613 -0.054423 0.617123 -0.784982
0.351700 -0.255600 -0.233130 -0.054423 0.617123 -0.784982
1.475476 0.080664 -0.071212 0.053651 -0.643991 -0.763150
0.092214 0.091457 0.065410 -0.061453 0.667997 -0.741622
0.921549 0.091158 -0.051965 -0.000801 0.872433 -0.487441
0.516463 0.119531 -0.090293 0.069436 0.640900 0.764478
0.455946 0.421021 -0.366604 0.061492 -0.641235 -0.764877
0.352979 0.314884 -0.245048 -0.061453 0.667997 0.741622
1.295222 0.089105 0.055411 -0.000268 0.826708 0.561618
0.330342 0.099300 0.106988 0.061492 -0.641235 0.764877
1.491589 -0.232522 -0.198226 0.053651 0.643991 -0.763150
0.999261 0.034780 0.098997 0.000777 0.371537 0.927630
0.224903 -0.022719 -0.102440 -0.001363 -0.266797 -0.963052
-0.663132 0.100007 -0.031759 0.000547 0.942108 -0.333244
0.475399 0.562318 0.457774 -0.017817 0.659971 -0.750399
0.579648 0.429309 -0.355734 0.069436 0.640900 0.764478
1.400314 0.102219 -0.023693 0.000063 0.962549 -0.268118
-0.823781 0.049165 -0.092698 -0.000172 0.419730 -0.906835
0.399966 0.609446 0.514657 -0.054423 -0.617123 0.784982
1.203520 -0.195546 -0.159778 -0.023312 -0.678634 0.734106
1.092976 0.073425 0.074959 0.000513 0.663733 0.747021
0.457739 0.113722 -0.080089 0.069436 0.640900 0.764478
0.351453 -0.470841 0.402327 -0.054423 0.617123 0.784982
0.411299 0.505774 0.412155 -0.061453 0.667997 -0.741622
0.356304 0.407207 -0.352637 -0.054423 -0.617123 -0.784982
0.332753 -0.175920 -0.169175 -0.054423 0.617123 -0.784982
1.108281 0.160600 -0.130496 -0.023312 0.678634 0.734106
0.427488 -0.129241 -0.124279 0.061492 0.641235 -0.764877
0.365184 -0.255403 0.190461 0.025813 -0.650938 -0.758017
0.271383 0.272372 0.213518 -0.061453 0.667997 -0.741622
0.938159 -0.079452 0.060882 -0.000000 0.766327 -0.642450
-1.023595 0.058988 -0.086778 0.000758 0.510202 -0.858956
-1.315986 0.074961 -0.073422 0.000188 0.712946 -0.700287
-1.187696 -0.024629 -0.101997 0.000114 -0.182068 -0.982564
0.273746 -0.402018 0.342834 -0.054423 0.617123 0.784982
0.359457 0.050441 -0.092009 0.000016 0.504065 -0.862797
0.107181 0.225217 -0.184651 -0.061453 0.667997 0.741622
0.356599 0.125302 -0.080611 0.069436 0.640900 0.764478
0.737781 -0.104679 -0.007237 -0.000497 -0.993591 -0.107412
0.303112 -0.147026 0.144405 -0.054423 0.617123 0.784982
0.537488 -0.408422 -0.349487 0.061492 0.641235 -0.764877
-1.289180 -0.093762 -0.047104 0.000070 -0.871404 -0.489193
0.107719 0.092285 -0.049935 0.000099 0.850637 -0.524244
-0.717178 0.068770 0.079251 0.000419 0.670204 0.741165
-0.913333 0.000000 -0.104929 -0.000001 -0.027436 -0.998869
-1.225905 0.104663 -0.007468 -0.000470 0.998571 -0.041881
0.513560 -0.332950 0.288138 0.061492 0.641235 0.764877
0.414099 0.652602 -0.544174 -0.061453 0.667997 0.741622
0.477639 -0.219477 -0.170556 0.069436 -0.640900 0.764478
0.291911 0.206551 0.152531 -0.061453 0.667997 -0.741622
0.818007 0.101550 -0.026412 0.000145 0.974222 -0.221810
0.573036 0.229941 0.187994 0.069436 0.640900 -0.764478
-0.867449 0.101522 -0.026521 -0.000721 0.975529 -0.216313
1.352620 -0.098836 0.070601 0.053651 -0.639053 -0.767289
0.615433 0.499215 -0.417590 0.069436 0.640900 0.764478
-1.352607 0.006072 0.104753 0.000259 0.106025 0.993695
0.416284 0.519321 -0.423944 -0.061453 0.667997 0.741622
0.174913 -0.314431 0.267124 -0.054423 0.617123 0.784982
1.333804 0.291912 0.244724 -0.023312 -0.604409 0.796333
-1.603972 0.024736 0.033548 -0.674642 0.432139 0.592074
0.256313 -0.164937 0.117998 -0.061453 -0.667997 -0.741622
0.359755 0.509527 -0.419806 -0.061453 0.667997 0.741622
1.284790 -0.112326 0.106985 -0.023312 0.604409 0.796333
1.525052 -0.053606 0.032002 1.000000 0.000000 -0.000000
-1.391183 -0.055909 -0.088793 -0.000134 -0.529576 -0.847424
-0.560502 0.103258 0.018651 0.000468 0.972348 0.230133
0.625633 -0.394544 -0.330766 0.061492 0.641235 -0.764877
1.277218 -0.034274 0.099173 -0.000503 -0.336903 0.940830
1.336558 -0.201328 -0.160898 -0.023312 -0.678634 0.734106
0.417902 0.097133 -0.039690 0.000801 0.929298 -0.366880
-1.296339 0.092267 0.049968 -0.000335 0.857207 0.513490
0.571087 -0.179677 -0.155018 0.061492 0.641235 -0.764877
-1.425521 -0.103256 -0.018662 -0.000209 -0.973714 -0.224412
0.573868 0.770584 -0.650181 0.061492 -0.641235 -0.764877
0.535894 0.313840 0.254957 0.069436 0.640900 -0.764478
1.471687 0.087617 0.040296 0.279413 0.878601 0.385121
0.244295 0.412964 -0.342397 -0.061453 0.667997 0.741622
0.483080 0.466022 0.402150 0.061492 -0.641235 0.764877
0.565974 0.078048 0.070228 -0.000000 -0.766327 -0.642450
0.283095 -0.288787 0.254464 -0.054423 0.617123 0.784982
1.231714 0.102486 -0.022508 -0.000321 0.975950 -0.214745
0.625633 -0.111057 0.093105 0.069436 -0.640900 -0.764478
0.559826 0.525161 0.434291 0.069436 0.640900 -0.764478
-0.880046 -0.075730 -0.072629 -0.000472 -0.741788 -0.669681
0.853500 -0.049699 0.092412 0.000253 -0.446569 0.893967
1.262132 -0.104638 0.007800 -0.000787 -0.992198 0.118484
-0.783570 0.104929 -0.000000 -0.000044 0.998772 0.028725
0.539042 -0.104573 -0.008638 -0.000003 -0.997740 -0.054852
0.499016 0.628085 0.515055 -0.017817 0.659971 -0.750399
0.413297 -0.178340 -0.166582 0.061492 0.641235 -0.764877
0.005079 -0.064244 0.082962 -0.000011 -0.589888 0.806552
1.243566 -0.158741 -0.141007 -0.023312 0.604409 -0.796333
-1.095694 0.102411 -0.022848 -0.000258 0.983970 -0.175785
1.525052 0.016786 0.061617 1.000000 -0.000000 0.000000
0.251451 0.108674 0.110672 -0.054423 -0.617123 0.784982
1.213299 0.185869 0.150522 -0.023312 0.678634 -0.734106
1.193972 -0.099135 -0.070954 -0.023312 -0.678634 0.734106
0.404722 0.247917 -0.225601 0.061492 -0.641235 -0.764877
0.526286 -0.620555 -0.528229 0.061492 0.641235 -0.764877
1.207931 0.110449 -0.103311 -0.023312 -0.604409 -0.796333
0.252011 -0.315141 -0.253646 -0.061453 -0.667997 0.741622
0.365963 -0.566902 0.470971 -0.061453 -0.667997 -0.741622
-1.390809 -0.089235 0.055201 0.000215 -0.850339 0.524909
0.464062 -0.099301 0.033901 -0.000016 -0.954140 0.296850
0.296694 0.147682 -0.099109 -0.061453 0.667997 0.741622
0.911107 -0.056823 -0.088211 0.000107 -0.535922 -0.843392
0.424220 -0.099294 -0.033921 0.000023 -0.953789 -0.297876
0.377593 -0.104764 0.065300 0.069436 -0.640900 -0.764478
-0.578418 0.096495 -0.041215 -0.000804 0.909396 -0.414228
0.603901 -0.017149 0.103518 -0.000024 -0.136260 0.989918
-0.269392 0.041849 -0.096222 -0.000007 0.373848 -0.926679
0.306480 -0.464234 -0.394015 -0.054423 0.617123 -0.784982
0.998892 0.029134 -0.100803 -0.000075 0.315087 -0.948457
1.383637 -0.156841 0.121080 0.053651 -0.639053 -0.767289
0.503948 -0.422899 0.343485 0.069436 -0.640900 -0.764478
1.450716 -0.041420 0.093771 0.186931 -0.395165 0.896097
1.246133 0.051225 0.091575 0.000187 0.492318 0.869594
0.494877 -0.063907 0.083222 0.000373 -0.630243 0.775498
1.184814 -0.045366 -0.094615 0.000027 -0.429158 -0.902402
-0.329403 0.101740 -0.025672 -0.000156 0.980911 -0.190627
0.313786 0.246084 -0.223020 -0.054423 -0.617123 -0.784982
1.439350 -0.215117 0.173513 0.053651 -0.639053 -0.767289
0.141114 0.258307 -0.220658 -0.054423 -0.617123 -0.784982
-1.462017 0.030444 0.099016 -0.129015 0.283993 0.948813
-0.416534 -0.034502 0.099094 -0.000099 -0.360157 0.932050
0.534279 0.624722 -0.531080 0.061492 -0.641235 -0.764877
0.414054 0.087582 0.057787 0.000006 0.818402 0.573339
1.347594 0.008606 0.104575 0.000942 0.054307 0.997641
0.433071 0.329882 0.259067 0.069436 0.640900 -0.764478
-1.604079 -0.037460 0.018065 -0.647857 -0.711038 0.261778
0.440556 0.182249 -0.167668 0.061492 -0.641235 -0.764877
0.301266 0.369241 -0.318974 -0.054423 -0.617123 -0.784982
0.411651 -0.632415 -0.533524 -0.054423 0.617123 -0.784982
-0.119669 0.041957 -0.096175 -0.000367 0.349004 -0.936286
0.486066 -0.426284 -0.368595 0.061492 0.641235 -0.764877
0.490716 -0.055698 -0.088926 -0.000057 -0.551630 -0.833183
1.476929 -0.144206 0.117080 0.053651 -0.639053 -0.767289
0.614731 -0.091749 -0.050913 -0.000244 -0.888852 -0.456209
0.656624 0.052034 -0.091118 -0.000640 0.455630 -0.889390
1.177904 -0.008606 0.104575 0.000599 -0.055704 0.997667
1.533535 -0.170331 0.142797 0.053651 -0.639053 -0.767289
-0.765129 -0.098124 0.037172 -0.000692 -0.913515 0.405000
0.496521 -0.501574 0.408767 0.069436 -0.640900 -0.764478
0.139352 0.125402 0.092079 -0.061453 0.667997 -0.741622
0.748135 0.045046 -0.094768 -0.000526 0.474761 -0.879321
0.216740 0.246744 0.216811 -0.054423 -0.617123 0.784982
-0.347263 -0.089909 0.054096 0.000444 -0.870489 0.490812
1.055092 0.154361 -0.132165 -0.023312 -0.604409 -0.796333
0.807895 -0.058140 -0.087349 -0.000116 -0.591985 -0.804960
0.504011 -0.757776 0.638482 -0.054423 0.617123 0.784982
0.453616 -0.405162 0.353497 0.061492 0.641235 0.764877
0.625633 -0.578427 -0.484924 0.061492 0.641235 -0.764877
0.920850 0.111682 0.095843 -0.023312 -0.604409 0.796333
1.037897 -0.119640 -0.094866 -0.023312 -0.678634 0.734106
-0.656390 -0.065882 -0.081667 -0.000228 -0.646222 -0.762193
0.412419 -0.368965 0.326463 0.022858 0.633956 0.772513
-1.163053 0.075843 -0.072511 0.000087 0.755564 -0.654016
-0.827869 -0.046618 0.094004 -0.000378 -0.491034 0.870315
0.433855 0.545708 -0.466898 -0.054423 -0.617123 -0.784982
-1.315660 -0.034452 0.099111 0.000234 -0.326020 0.944605
0.044703 0.164562 0.140275 -0.054423 -0.617123 0.784982
1.306996 0.045633 -0.094487 -0.000108 0.477710 -0.877664
0.951953 0.115813 -0.099889 -0.023312 -0.604409 -0.796333
0.438829 -0.699861 -0.588432 -0.054423 0.617123 -0.784982
0.039939 -0.104572 0.008644 0.000009 -0.997739 0.054866
0.321191 -0.344923 -0.274739 -0.061453 -0.667997 0.741622
1.086551 0.081677 -0.058228 -0.023312 0.678634 0.734106
-0.689000 0.026924 0.101416 0.000935 0.196720 0.979426
0.923797 0.054086 -0.089915 0.000363 0.552756 -0.832597
-0.700103 -0.051426 0.091463 -0.000289 -0.536074 0.843311
0.149727 -0.104573 0.008631 0.000018 -0.998843 0.027746
1.432586 -0.171200 0.136462 0.053651 -0.639053 -0.767289
-0.538590 -0.091672 0.051052 0.000139 -0.859877 0.509076
0.245055 0.322396 -0.260757 -0.061453 0.667997 0.741622
0.089199 -0.136735 0.121483 -0.054423 0.617123 0.784982
1.127256 0.198510 -0.167787 -0.023312 -0.604409 -0.796333
-0.246864 -0.098978 -0.034834 -0.000357 -0.933351 -0.357064
0.453222 0.225255 0.202703 0.061492 -0.641235 0.764877
1.159432 -0.101882 -0.025100 -0.000009 -0.957156 -0.286995
1.434101 0.310064 -0.261437 -0.023312 -0.604409 -0.796333
0.169554 -0.293998 -0.250689 -0.054423 0.617123 -0.784982
0.407238 -0.432587 -0.346570 -0.061453 -0.667997 0.741622
0.022780 0.125167 -0.107785 -0.054423 -0.617123 -0.784982
1.207569 0.095565 0.092004 -0.023312 -0.604409 0.796333
-0.344371 0.000000 -0.104929 0.000009 -0.027368 -0.998875
-1.134097 0.103418 0.017742 0.000858 0.989495 0.138934
1.080922 -0.095228 0.044065 -0.000225 -0.898501 0.437277
0.024954 0.000000 0.104929 0.000001 -0.027432 0.998869
1.124951 -0.163742 -0.141331 -0.023312 0.604409 -0.796333
-0.678773 -0.104572 0.008644 -0.000106 -0.997702 0.055300
-0.973526 -0.076581 0.071732 -0.000109 -0.710579 0.702561
0.583318 -0.217595 0.185823 0.061492 0.641235 0.764877
-0.618819 0.025592 -0.101760 -0.000088 0.216986 -0.975411
0.479558 -0.774980 -0.650312 -0.054423 0.617123 -0.784982
0.501202 0.236032 -0.207881 0.061492 -0.641235 -0.764877
0.578042 -0.336882 -0.278102 0.069436 -0.640900 0.764478
1.290024 0.236032 -0.194458 -0.023312 0.678634 0.734106
0.981824 0.092182 0.050125 0.000532 0.899458 0.435269
0.314515 0.025346 -0.101821 0.000550 0.301667 -0.952407
-0.250091 0.081569 -0.066004 0.000696 0.793106 -0.607929
-1.057547 -0.057210 0.087961 0.000064 -0.589622 0.806758
1.492217 0.279713 0.231009 0.053651 0.639053 -0.767289
0.530043 -0.461922 0.378570 0.069436 -0.640900 -0.764478
-0.633846 -0.099284 -0.033952 0.000331 -0.961340 -0.272382
0.361156 0.586626 -0.489135 -0.061453 0.667997 0.741622
1.283797 -0.102574 -0.099555 -0.008551 0.628649 -0.777514
-0.583934 -0.017156 0.103517 -0.000003 -0.136390 0.989898
-0.195693 -0.103420 -0.017732 0.000408 -0.989141 -0.141151
0.774962 -0.069631 0.078495 -0.000289 -0.702862 0.710238
1.352834 -0.219703 0.177367 -0.023312 -0.678634 -0.734106
0.625633 0.601413 -0.504194 0.069436 0.640900 0.764478
1.397792 0.220504 0.192399 -0.023312 -0.604409 0.796333
1.315847 -0.285288 0.239171 -0.023312 -0.678634 -0.734106
0.379034 -0.188027 0.177458 0.061492 0.641235 0.764877
-0.544352 -0.049098 -0.092733 -0.000242 -0.493877 -0.868685
0.153607 0.060921 -0.085432 0.000079 0.561325 -0.826696
-0.139677 -0.056902 -0.088160 0.000040 -0.519149 -0.853812
0.572603 0.798521 0.673703 0.048625 -0.638895 0.767524
0.586832 -0.223418 -0.183778 0.069436 -0.640900 0.764478
-0.100031 -0.098768 -0.035425 0.000436 -0.930532 -0.364175
-0.439246 0.008615 -0.104574 0.000003 0.054723 -0.997750
0.556265 0.445484 0.367171 0.069436 0.640900 -0.764478
-0.818506 -0.104573 0.008631 0.000369 -0.998867 0.026004
-1.409132 0.089277 0.055133 0.000058 0.874961 0.482694
0.569912 0.115491 -0.101302 0.061492 -0.641235 -0.764877
-0.783575 -0.017150 0.103518 0.000002 -0.136313 0.989910
0.887532 0.008100 -0.104616 -0.001169 0.110804 -0.993102
-0.449486 -0.091234 0.051831 0.000327 -0.857337 0.513396
0.482957 -0.611564 -0.501504 -0.061453 -0.667997 0.741622
0.490441 -0.474219 -0.408430 0.061492 0.641235 -0.764877
0.528311 -0.147329 0.114673 0.069436 -0.640900 -0.764478
0.381000 -0.583393 -0.484579 -0.061453 -0.667997 0.741622
0.529172 0.025801 0.101707 0.000014 0.271793 0.961566
0.604635 -0.576371 0.484889 0.061492 0.641235 0.764877
0.839938 0.086151 0.059901 -0.001150 0.839941 0.540782
1.142136 0.115480 -0.087711 -0.023312 0.678634 0.734106
-0.250581 -0.082543 0.064782 0.000039 -0.769349 0.637673
0.213389 -0.260508 0.207638 -0.061453 -0.667997 -0.741622
1.397175 -0.240304 0.195004 -0.023312 -0.678634 -0.734106
-0.758726 0.082254 -0.065149 -0.000023 0.795478 -0.604744
0.300327 -0.424011 -0.361967 -0.054423 0.617123 -0.784982
1.543231 -0.294065 0.246530 0.053651 -0.639053 -0.767289
-0.074815 -0.033947 0.099286 -0.000002 -0.297246 0.954011
0.404546 -0.365015 -0.285930 -0.017817 -0.659971 0.750399
0.274017 0.071001 -0.077259 -0.000007 0.634913 -0.771583
-0.489163 -0.025583 0.101762 -0.000000 -0.217082 0.975385
1.267975 -0.018722 -0.103245 0.000040 -0.220596 -0.974588
0.319369 -0.025624 0.101752 0.000006 -0.217409 0.975311
0.309836 -0.154815 -0.104445 -0.061453 -0.667997 0.741622
1.491589 -0.235763 0.194360 0.053651 -0.639053 -0.767289
1.304283 -0.241900 0.205901 -0.023312 0.604409 0.796333
1.245996 -0.183567 0.159921 -0.023312 0.604409 0.796333
-0.736561 -0.090300 -0.053441 0.000013 -0.842180 -0.537818
0.578931 0.104572 -0.008644 0.000390 0.997683 -0.055528
1.350052 -0.055873 -0.088816 -0.001525 -0.570986 -0.819707
0.227620 -0.367821 -0.312751 -0.054423 0.617123 -0.784982
0.545886 0.057454 -0.087801 -0.000082 0.547968 -0.835658
1.340675 0.281594 -0.237094 -0.023312 -0.604409 -0.796333
1.048813 -0.156568 -0.128658 -0.023312 -0.678634 0.734106
0.384729 -0.452563 -0.390265 -0.054423 0.617123 -0.784982
0.609091 -0.502511 0.422610 0.061492 0.641235 0.764877
1.256130 -0.092715 -0.049133 -0.000195 -0.860482 -0.508000
0.384614 0.414098 0.360017 -0.054423 -0.617123 0.784982
0.424095 -0.031971 -0.099939 0.001106 -0.344213 -0.938397
-1.540014 0.079443 -0.022421 -0.389345 0.889921 -0.232381
0.043378 0.101456 -0.026770 -0.000248 0.958917 -0.280739
0.608607 0.171527 0.142253 0.069436 0.640900 -0.764478
0.442458 -0.287025 -0.255354 0.061492 0.641235 -0.764877
1.113082 -0.163645 0.140910 -0.023312 0.604409 0.796333
0.949796 -0.118317 -0.096441 -0.023312 -0.678634 0.734106
1.092589 -0.064987 -0.082382 0.000224 -0.617975 -0.785262
0.349873 -0.307227 -0.238409 -0.061453 -0.667997 0.741622
0.199745 0.125566 -0.087222 -0.061453 0.667997 0.741622
1.459505 -0.338280 0.283597 -0.023312 -0.678634 -0.734106
0.282577 0.469143 -0.389827 -0.061453 0.667997 0.741622
0.888781 0.057980 0.087455 0.000955 0.524440 0.850455
0.509795 -0.177805 -0.158375 0.061492 0.641235 -0.764877
0.244987 -0.165429 -0.154842 -0.054423 0.617123 -0.784982
1.142389 -0.116889 -0.106280 -0.023312 0.604409 -0.796333
0.543094 -0.692647 0.573183 0.069436 -0.640900 -0.764478
0.296812 -0.476765 0.395512 -0.061453 -0.667997 -0.741622
1.531718 0.147131 -0.123347 0.053651 0.639053 0.767289
1.526870 -0.085263 0.071480 0.053651 -0.639053 -0.767289
1.546261 -0.332732 0.278946 0.053651 -0.639053 -0.767289
1.537777 0.224465 0.188180 0.053651 0.639053 -0.767289
1.536565 -0.208998 0.175213 0.053651 -0.639053 -0.767289
1.531718 0.147131 0.123347 0.053651 0.639053 -0.767289
-0.619204 0.080606 -0.067177 0.000293 0.746011 -0.664917
0.576293 0.296893 -0.244419 0.069436 0.640900 0.764478
0.135746 0.099252 0.034044 0.000050 0.953757 0.297987
0.167960 -0.357346 -0.300380 -0.054423 0.617123 -0.784982
1.480306 -0.084487 -0.041076 0.279773 -0.884582 -0.370672
1.057127 -0.104657 -0.007552 -0.000029 -0.992582 -0.115701
-0.389234 0.089434 0.054877 -0.000846 0.835713 0.547599
1.342176 -0.164903 0.148571 -0.023312 0.604409 0.796333
1.240330 0.142567 0.128637 -0.023312 -0.604409 0.796333
0.527800 -0.368885 -0.300369 0.069436 -0.640900 0.764478
0.575809 -0.630443 0.532537 0.061492 0.641235 0.764877
1.294924 0.202869 0.176003 -0.023312 -0.604409 0.796333
-0.892147 0.103445 0.017583 -0.000099 0.992975 0.111364
0.496483 0.124613 0.092739 0.069436 0.640900 -0.764478
1.425789 0.149241 0.132575 0.053651 -0.643991 0.763150
0.119048 -0.107861 -0.077962 -0.061453 -0.667997 0.741622
0.523165 -0.250333 -0.218105 0.061492 0.641235 -0.764877
0.332802 -0.345128 0.302203 -0.054423 0.617123 0.784982
0.520524 0.465860 -0.381007 0.069436 0.640900 0.764478
1.433707 0.059269 0.086586 0.093790 0.560587 0.819220
0.212419 -0.205033 0.157750 -0.061453 -0.667997 -0.741622
0.309388 0.149763 0.099932 -0.061453 0.667997 -0.741622
0.366500 -0.126119 -0.126565 0.061492 0.641235 -0.764877
0.625633 -0.157028 0.131644 0.069436 -0.640900 -0.764478
0.625633 -0.356235 0.298649 0.069436 -0.640900 -0.764478
0.625633 0.340911 -0.285803 0.069436 0.640900 0.764478
0.625633 -0.356235 -0.298649 0.061492 0.641235 -0.764877
0.109800 -0.008631 -0.104573 -0.000013 -0.027418 -0.998870
0.923315 0.104929 -0.000000 0.000051 0.998863 0.024964
0.522612 -0.544859 -0.447426 0.069436 -0.640900 0.764478
1.433707 -0.096005 0.042344 0.093570 -0.908499 0.400084
0.110446 -0.219103 -0.187711 -0.054423 0.617123 -0.784982
1.204278 0.048450 -0.093073 -0.000033 0.499201 -0.865610
1.154233 -0.225672 0.189192 -0.023312 -0.678634 -0.734106
1.504398 0.354840 0.297480 -0.023312 -0.604409 0.796333
1.360740 -0.301848 0.253054 -0.023312 -0.678634 -0.734106
1.504398 -0.354840 0.297480 -0.023312 -0.678634 -0.734106
0.211577 -0.430604 -0.360997 -0.061453 -0.667997 0.741622
-0.027158 -0.113447 -0.095108 -0.061453 -0.667997 0.741622
0.480154 0.787405 -0.660121 -0.061453 0.667997 0.741622
0.420470 -0.708116 0.593649 -0.061453 -0.667997 -0.741622
-0.034932 -0.064421 -0.082825 -0.000061 -0.634046 -0.772335
1.335684 0.120588 -0.087533 0.035774 0.640340 0.767153
1.403600 -0.272686 0.232175 -0.023312 0.604409 0.796333
1.447335 -0.299243 0.247896 -0.023312 -0.678634 -0.734106
1.034394 0.102550 -0.092236 -0.023312 -0.604409 -0.796333
1.217083 0.248856 0.208628 -0.023312 -0.604409 0.796333
0.442398 -0.659079 0.556618 -0.054423 0.617123 0.784982
1.431695 -0.292151 -0.247772 -0.023312 0.604409 -0.796333
0.436036 -0.452705 0.362305 0.025813 -0.650938 -0.758017
0.451781 -0.481895 0.417973 0.022858 0.633956 0.772513
0.264502 0.017165 0.103515 0.000006 0.136503 0.989881
0.256340 -0.490071 -0.410851 -0.061453 -0.667997 0.741622
-0.199506 -0.092089 0.050296 -0.000001 -0.863468 0.502906
0.007658 -0.159699 0.133884 -0.061453 -0.667997 -0.741622
-0.414244 0.104929 -0.000000 0.000032 0.998227 0.036235
0.059982 -0.091160 0.051960 0.000145 -0.844603 0.534379
1.013312 -0.064087 0.083083 -0.000036 -0.588793 0.807354
0.153895 -0.077165 0.071103 -0.000032 -0.770771 0.635952
0.478023 0.569625 -0.464138 -0.017817 0.659971 0.750399
0.161978 -0.192761 0.150876 -0.061453 -0.667997 -0.741622
-0.813931 -0.094612 -0.045372 -0.000003 -0.875868 -0.481076
0.598929 -0.091764 0.050886 -0.000241 -0.845683 0.532325
1.408428 -0.143604 -0.111789 0.053651 -0.639053 0.767289
0.377937 -0.435360 0.376269 -0.054423 0.617123 0.784982
-0.967971 -0.027073 -0.101376 -0.000809 -0.222850 -0.973951
1.111144 0.098335 0.036609 -0.000762 0.937904 0.344890
-0.903351 -0.104929 0.000000 0.000329 -0.998875 -0.026136
0.467694 0.680771 0.575425 -0.054423 -0.617123 0.784982
1.297658 -0.056823 -0.088211 0.000242 -0.505064 -0.862241
0.049238 0.041925 -0.096189 0.000064 0.449158 -0.892640
-0.554943 -0.094006 -0.046615 -0.000340 -0.883283 -0.467411
0.364125 -0.291669 0.262348 -0.054423 0.617123 0.784982
-1.382379 -0.091948 -0.050552 0.000174 -0.876301 -0.480222
0.305524 -0.195957 0.141860 -0.061453 -0.667997 -0.741622
1.296442 -0.167663 0.131051 -0.023312 -0.678634 -0.734106
-0.968185 -0.104574 0.008615 -0.000006 -0.997749 0.054716
-0.464117 -0.092371 -0.049776 0.000468 -0.904794 -0.424103
0.199307 0.090378 0.092674 -0.054423 -0.617123 0.784982
0.209570 0.025652 -0.101745 0.000636 0.223194 -0.973864
1.347842 0.102322 -0.023243 0.000307 0.984395 -0.169676
0.474822 0.206765 0.159643 0.069436 0.640900 -0.764478
0.147533 -0.150964 0.114425 -0.061453 -0.667997 -0.741622
-1.152965 -0.083896 0.063019 -0.000216 -0.830328 0.555982
0.473819 0.616324 -0.506549 -0.061453 0.667997 0.741622
0.259517 0.101752 0.025625 -0.000047 0.961869 0.270746
-0.027158 0.113447 0.095108 -0.054423 -0.617123 0.784982
0.450883 -0.361423 -0.317048 0.061492 0.641235 -0.764877
0.144655 -0.148303 -0.134423 -0.054423 0.617123 -0.784982
1.493982 -0.269582 0.229331 0.053651 0.643991 0.763150
0.132044 -0.246802 0.210984 -0.054423 0.617123 0.784982
0.399472 0.431271 -0.374548 -0.054423 -0.617123 -0.784982
0.248407 0.161499 0.115556 -0.061453 0.667997 -0.741622
0.567201 -0.115111 -0.091196 0.069436 -0.640900 0.764478
0.585721 -0.414293 -0.350531 0.061492 0.641235 -0.764877
1.307465 -0.076549 0.071766 -0.000279 -0.732579 0.679622
1.481070 0.099667 0.086855 0.053651 -0.643991 0.763150
0.681976 -0.076966 0.071318 0.000126 -0.711568 0.701259
1.022510 -0.135793 0.117119 -0.023312 0.604409 0.796333
0.886108 -0.086101 0.075410 -0.023312 0.604409 0.796333
0.261657 -0.440211 0.372022 -0.054423 0.617123 0.784982
0.138426 0.167288 -0.129883 -0.061453 0.667997 0.741622
0.532292 -0.033226 -0.099529 0.000663 -0.266512 -0.963116
0.347120 0.564455 0.475623 -0.054423 -0.617123 0.784982
1.421359 0.121456 -0.094247 0.053651 0.639053 0.767289
0.328811 -0.530751 -0.441487 -0.061453 -0.667997 0.741622
0.547772 -0.393302 0.322653 0.069436 -0.640900 -0.764478
1.301724 0.131145 0.097124 -0.023312 0.678634 -0.734106
1.441548 0.331656 0.278044 -0.023312 -0.604409 0.796333
1.257156 -0.227268 0.193416 -0.023312 0.604409 0.796333
0.589710 -0.707738 0.590070 0.069436 -0.640900 -0.764478
0.315323 0.315400 0.277620 -0.054423 -0.617123 0.784982
-1.330643 -0.102226 -0.023662 0.000276 -0.983971 -0.173248
0.543779 -0.105317 0.094873 0.061492 0.641235 0.764877
0.399342 0.295691 -0.227339 0.069436 0.640900 0.764478
0.441322 0.327972 -0.258215 0.069436 0.640900 0.764478
0.127025 -0.318277 0.266828 -0.061453 -0.667997 -0.741622
-1.131974 -0.033833 0.099325 -0.000758 -0.271481 0.961630
0.408737 -0.325402 -0.253100 0.069436 -0.640900 0.764478
0.503490 0.579538 0.495675 0.061492 -0.641235 0.764877
-0.309404 0.025676 0.101739 0.000006 0.217751 0.975232
1.096427 -0.095294 -0.043922 -0.000030 -0.885680 -0.462704
0.488007 0.098882 0.035105 -0.000242 0.932920 0.357986
1.298075 0.095086 -0.044370 0.000219 0.886945 -0.460465
0.625633 0.417529 -0.350036 0.069436 0.640900 0.764478
1.075953 0.175188 0.145008 -0.023312 0.678634 -0.734106
0.392599 0.178143 0.168081 0.061492 -0.641235 0.764877
0.294386 0.064232 0.082971 0.000022 0.567377 0.822543
0.432439 -0.308437 0.274110 0.061492 0.641235 0.764877
0.446635 -0.401393 -0.350898 0.061492 0.641235 -0.764877
0.381997 -0.226987 -0.209881 0.061492 0.641235 -0.764877
0.262467 0.177407 -0.165471 -0.054423 -0.617123 -0.784982
0.378304 0.291940 0.222284 -0.017817 0.659971 -0.750399
0.374410 0.140215 0.137746 0.061492 -0.641235 0.764877
1.063794 0.118405 0.092902 -0.023312 0.678634 -0.734106
0.511692 0.020698 -0.102867 -0.000028 0.241569 -0.969540
0.577320 -0.462373 0.383242 0.069436 -0.640900 -0.764478
0.200227 0.340310 -0.289224 -0.054423 -0.617123 -0.784982
0.504574 0.491105 -0.421451 0.061492 -0.641235 -0.764877
0.510104 -0.273771 0.238804 0.061492 0.641235 0.764877
0.044753 0.131324 0.105252 -0.061453 0.667997 -0.741622
1.141101 0.126581 0.113598 -0.023312 -0.604409 0.796333
0.297146 -0.232369 0.175351 -0.061453 -0.667997 -0.741622
-0.280678 0.100955 -0.028605 -0.000138 0.952739 -0.301888
0.839232 0.077968 -0.062652 -0.023312 0.678634 0.734106
0.604415 0.100804 0.086215 0.061492 -0.641235 0.764877
0.232698 -0.103425 0.064549 -0.061453 -0.667997 -0.741622
0.386793 -0.149948 0.144911 0.061492 0.641235 0.764877
1.010576 0.172680 -0.144767 -0.023312 -0.604409 -0.796333
1.442726 0.293570 0.242798 -0.023312 0.678634 -0.734106
1.221115 -0.100309 0.030790 0.000481 -0.961958 0.270584
0.559445 -0.602155 -0.498805 0.069436 -0.640900 0.764478
0.262806 -0.332275 0.268185 -0.061453 -0.667997 -0.741622
0.047173 -0.152764 -0.124363 -0.061453 -0.667997 0.741622
1.217083 -0.248856 0.208628 -0.023312 -0.678634 -0.734106
0.587662 -0.282761 0.233604 0.069436 -0.640900 -0.764478
0.272064 -0.103484 -0.108021 -0.054423 0.617123 -0.784982
-1.377650 0.104601 0.008289 0.001930 0.991018 0.127955
0.317395 0.094193 -0.050970 0.022898 0.651465 0.757421
1.064447 -0.192552 0.161426 -0.023312 -0.678634 -0.734106
0.385455 0.467774 0.402273 -0.054423 -0.617123 0.784982
1.496664 0.017053 -0.087562 0.278499 0.157159 -0.946409
1.515993 0.346070 -0.289005 -0.023312 0.678634 0.734106
0.267582 -0.049870 -0.092320 -0.000666 -0.496141 -0.867443
0.344190 0.196943 -0.139544 -0.017817 0.659971 0.750399
-0.323838 0.086150 0.059902 0.000085 0.803265 0.594469
0.965683 0.156120 -0.130884 -0.023312 -0.604409 -0.796333
-1.280624 -0.084831 0.061756 -0.000280 -0.780026 0.624517
-0.399283 0.008644 0.104572 -0.000206 0.056397 0.997610
0.379136 0.239353 0.178273 0.069436 0.640900 -0.764478
0.310495 0.298793 -0.234075 -0.061453 0.667997 0.741622
0.197464 -0.374644 0.316025 -0.054423 0.617123 0.784982
1.475977 0.182256 0.156907 0.053651 -0.643991 0.763150
0.213391 -0.135373 0.094925 -0.061453 -0.667997 -0.741622
1.373735 0.092991 -0.088767 0.053651 -0.643991 -0.763150
0.514328 0.534566 0.438044 0.069436 0.640900 -0.764478
0.369743 -0.406857 -0.326502 -0.061453 -0.667997 0.741622
1.203493 -0.176561 0.142228 -0.023312 -0.678634 -0.734106
0.579409 0.250586 -0.213795 0.061492 -0.641235 -0.764877
0.579211 -0.449336 -0.380433 0.061492 0.641235 -0.764877
-0.962725 -0.078126 -0.070046 0.000092 -0.711694 -0.701403
0.451850 0.717426 -0.603144 -0.054423 -0.617123 -0.784982
-0.258346 -0.042006 -0.096154 -0.000080 -0.374753 -0.926292
0.608670 -0.157568 -0.133461 0.061492 0.641235 -0.764877
0.577230 0.323191 0.274838 0.061492 -0.641235 0.764877
1.481070 -0.099667 -0.086855 0.053651 0.643991 -0.763150
1.332622 0.250992 0.206934 -0.023312 0.678634 -0.734106
1.327954 0.162964 0.125706 -0.023312 0.678634 -0.734106
0.308411 0.505554 0.426633 -0.054423 -0.617123 0.784982
0.211086 0.206225 0.184564 -0.054423 -0.617123 0.784982
-1.093001 -0.017185 -0.103512 0.000000 -0.136584 -0.989870
-0.165462 0.047855 -0.093380 -0.000364 0.407429 -0.912542
0.843461 0.103507 0.017216 -0.000000 0.993221 0.109572
0.978217 -0.096152 0.042010 -0.000006 -0.926296 0.374791
1.364308 0.098842 0.071423 0.053651 0.639053 -0.767289
-1.551735 -0.045529 -0.062025 -0.459190 -0.572983 -0.676793
1.509021 0.081418 -0.026522 0.279004 0.924400 -0.256023
1.462692 0.178154 -0.144359 0.053651 0.639053 0.767289
-1.128086 -0.086904 -0.058802 0.000386 -0.822506 -0.567836
-1.550539 -0.061827 0.046808 -0.436830 -0.682797 0.582517
0.322415 0.168596 0.162701 -0.054423 -0.617123 0.784982
-1.540094 -0.000000 0.082510 -0.425847 0.036836 0.902442
0.519673 -0.606874 0.517291 0.061492 0.641235 0.764877
0.153839 0.290366 0.246744 -0.054423 -0.617123 0.784982
-0.603361 -0.087942 0.057238 -0.000387 -0.850191 0.524991
1.542019 0.278599 -0.233563 0.053651 0.639053 0.767289
0.435074 -0.103341 0.069328 0.069436 -0.640900 -0.764478
0.260268 -0.270875 -0.213090 -0.061453 -0.667997 0.741622
0.071327 -0.171206 0.147344 -0.054423 0.617123 0.784982
0.866918 -0.119689 0.100341 -0.023312 -0.678634 -0.734106
0.243260 -0.376079 0.320328 -0.054423 0.617123 0.784982
-1.552786 0.029339 -0.070545 -0.470956 0.374624 -0.797193
0.828476 -0.008644 -0.104572 0.000094 -0.053996 -0.997758
0.580698 0.460713 -0.389851 0.061492 -0.641235 -0.764877
0.703640 0.099284 -0.033951 0.000055 0.954280 -0.296436
0.453898 0.348939 0.306340 0.061492 -0.641235 0.764877
0.614473 -0.428171 0.359855 0.061492 0.641235 0.764877
0.394065 -0.219815 -0.163249 0.069436 -0.640900 0.764478
-0.711860 0.065461 -0.082005 0.000076 0.637940 -0.769105
0.933077 -0.098387 -0.036470 -0.000031 -0.918485 -0.393585
0.293772 -0.090775 0.099534 -0.054423 0.617123 0.784982
1.381649 -0.113727 0.105709 0.053651 0.643991 0.763150
1.299939 0.091145 -0.089973 -0.000000 -0.642450 -0.766327
0.429264 -0.008615 0.104574 0.000006 -0.054759 0.997747
0.064329 -0.064089 -0.083082 0.000111 -0.587205 -0.808533
0.395858 0.370229 -0.326308 -0.054423 -0.617123 -0.784982
0.487777 -0.724677 0.611335 -0.054423 0.617123 0.784982
-1.610750 0.015797 -0.031866 -0.675739 0.424143 -0.596056
1.469929 0.000000 0.096948 0.278810 -0.027056 0.959201
0.615588 -0.283620 -0.236860 0.069436 -0.640900 0.764478
0.399259 0.104572 0.008644 0.000000 0.997738 0.054869
-0.012084 0.081991 -0.065526 -0.061453 0.667997 0.741622
-0.723679 -0.104929 0.000000 0.000001 -0.998870 -0.027428
0.580021 0.177568 -0.152531 0.061492 -0.641235 -0.764877
0.394211 -0.064135 0.083046 -0.000030 -0.566454 0.823179
0.758611 0.053144 0.090475 -0.000030 0.548483 0.835427
0.305351 -0.225308 -0.168312 -0.061453 -0.667997 0.741622
0.494456 0.281380 -0.246441 0.061492 -0.641235 -0.764877
-0.239543 -0.025663 0.101742 -0.000002 -0.190878 0.980846
-0.209547 0.057212 0.087959 0.000006 0.521572 0.852324
-0.184566 -0.049719 -0.092401 -0.000042 -0.449053 -0.892657
1.389878 0.138714 0.106419 0.053651 0.639053 -0.767289
0.349435 0.057144 0.088003 -0.000122 0.497494 0.866604
0.236326 -0.216975 0.194765 -0.054423 0.617123 0.784982
0.104704 0.049876 0.092317 0.000048 0.498700 0.865896
-0.319308 0.042794 -0.095806 0.000058 0.461175 -0.886308
0.947656 -0.141582 0.118016 -0.023312 -0.678634 -0.734106
0.633804 0.033884 0.099307 0.000004 0.296727 0.954169
-0.129732 0.025676 0.101739 0.000006 0.217751 0.975232
-0.074696 0.101591 0.026256 0.000117 0.960331 0.276109
-0.928781 -0.057392 0.087842 -0.000189 -0.591740 0.805214
-0.292480 -0.101722 -0.025742 0.000034 -0.953698 -0.298225
0.374550 0.218022 -0.202965 0.061492 -0.641235 -0.764877
1.342656 0.154309 -0.117238 -0.023312 0.678634 0.734106
0.439104 0.057176 0.087983 -0.000005 0.521526 0.852353
1.239154 -0.104857 0.099981 -0.023312 0.604409 0.796333
0.432757 0.572356 0.470348 -0.061453 0.667997 -0.741622
0.299697 0.446995 0.379992 -0.054423 -0.617123 0.784982
0.179701 0.041956 0.096176 -0.000004 0.348716 0.936427
0.484101 -0.017165 0.103515 0.000005 -0.136501 0.989882
0.616393 -0.712585 -0.598138 0.061492 0.641235 -0.764877
0.783570 0.017154 0.103517 -0.000002 0.136341 0.989906
0.504674 0.158265 -0.142406 0.061492 -0.641235 -0.764877
-0.668749 0.025612 -0.101755 -0.000008 0.217227 -0.975351
0.374449 -0.375127 0.297532 -0.061453 -0.667997 -0.741622
-0.084076 0.087517 -0.057887 0.000473 0.848642 -0.527541
-0.733788 0.103521 0.017128 0.000042 0.990253 0.134103
-1.239015 0.039828 -0.097076 0.000274 0.381568 -0.923543
0.394567 0.167059 -0.158630 0.061492 -0.641235 -0.764877
0.373056 -0.256034 0.234952 0.025622 0.634523 0.772023
-0.883128 -0.033611 -0.099400 -0.000207 -0.347036 -0.937067
0.731787 -0.050119 -0.092186 -0.000486 -0.478883 -0.877013
0.479734 -0.313899 -0.249905 0.069436 -0.640900 0.764478
0.706558 0.057769 0.087595 -0.000538 0.592224 0.804923
-1.248374 0.050607 0.091918 -0.000692 0.443761 0.895327
1.216374 -0.014541 -0.103916 -0.000053 -0.180075 -0.982934
-1.222443 -0.039643 0.097152 0.000248 -0.325777 0.944475
0.440775 -0.667893 -0.555736 -0.061453 -0.667997 0.741622
-1.425147 -0.028930 -0.100862 0.000071 -0.228303 -0.972848
0.514421 0.186035 0.164904 0.061492 -0.641235 0.764877
0.428279 0.524141 0.449556 -0.054423 -0.617123 0.784982
-0.700284 -0.042039 -0.096139 -0.000463 -0.428469 -0.902747
0.444225 -0.262535 -0.203619 0.069436 -0.640900 0.764478
0.585359 0.729426 0.607856 0.069436 0.640900 -0.764478
0.098993 -0.098717 -0.035565 0.000013 -0.920466 -0.388863
-1.272831 0.065364 -0.082082 0.000491 0.620394 -0.783405
0.462369 0.342670 -0.300402 0.061492 -0.641235 -0.764877
1.056020 -0.042621 -0.095883 0.000090 -0.398967 -0.916157
0.423727 -0.265733 0.204439 0.069436 -0.640900 -0.764478
0.225731 0.285917 -0.229501 -0.061453 0.667997 0.741622
1.227531 -0.043543 0.095467 0.001210 -0.458376 0.887858
0.625633 0.647384 -0.542734 0.069436 0.640900 0.764478
-1.585821 0.055694 0.006740 -0.583249 0.795830 0.156158
1.007460 -0.086491 -0.079258 -0.023312 0.604409 -0.796333
0.454338 0.681691 -0.575223 -0.054423 -0.617123 -0.784982
0.573386 0.147830 0.128133 0.061492 -0.641235 0.764877
0.686648 0.091783 0.050851 0.000170 0.861162 0.506906
0.633843 0.104929 -0.000000 -0.000000 0.998839 0.027801
0.418811 0.675519 0.564425 -0.061453 0.667997 -0.741622
0.513656 0.349325 0.282686 0.069436 0.640900 -0.764478
0.598895 -0.008644 -0.104572 0.000922 -0.053525 -0.997833
1.437867 -0.214771 -0.187023 0.053651 0.643991 -0.763150
0.441803 -0.515760 -0.443905 -0.054423 0.617123 -0.784982
0.203819 -0.132131 -0.092798 -0.061453 -0.667997 0.741622
0.487864 -0.341195 -0.297116 0.061492 0.641235 -0.764877
-0.482097 0.082197 -0.065220 0.000170 0.765160 -0.642860
0.455016 -0.126483 0.119754 0.061492 0.641235 0.764877
0.171740 -0.258625 -0.223032 -0.054423 0.617123 -0.784982
1.043043 0.143317 0.123430 -0.023312 -0.604409 0.796333
1.517526 0.074512 0.063065 0.053651 -0.643991 0.763150
-0.383219 -0.096106 -0.042114 0.000227 -0.902206 -0.429344
-1.047372 -0.096171 -0.041966 0.000649 -0.915045 -0.401711
1.287704 0.008606 0.104575 0.000338 0.051761 0.997736
0.374397 0.083055 -0.064124 -0.000007 0.807348 -0.588799
0.457404 0.143161 0.104739 0.069436 0.640900 -0.764478
1.150075 -0.079040 0.069012 -0.000192 -0.766415 0.641267
0.938358 0.096195 0.041911 0.000000 0.926678 0.373852
-1.193802 -0.064263 -0.082948 -0.000361 -0.577135 -0.815731
0.733671 0.103509 0.017200 -0.000380 0.992994 0.111055
0.326435 0.479034 0.395102 -0.061453 0.667997 -0.741622
0.318293 -0.261361 -0.199713 -0.061453 -0.667997 0.741622
0.582241 0.594772 0.494686 0.069436 0.640900 -0.764478
0.351211 0.331992 -0.293152 -0.054423 -0.617123 -0.784982
-1.262719 0.103507 0.017216 -0.000010 0.989850 0.136716
0.439254 0.482009 -0.417195 -0.054423 -0.617123 -0.784982
0.467214 0.431743 0.374688 0.061492 -0.641235 0.764877
-0.936012 0.055928 -0.088781 0.000330 0.577035 -0.815796
-1.448838 0.100198 -0.030215 -0.073351 0.962564 -0.255836
0.407157 0.100466 0.101790 0.061492 -0.641235 0.764877
0.133363 -0.208354 0.180849 -0.054423 0.617123 0.784982
1.342656 -0.154309 -0.117238 -0.023312 -0.678634 0.734106
0.097756 -0.075162 0.073671 -0.000000 0.766327 -0.642450
1.491595 -0.194161 -0.165854 0.053651 0.643991 -0.763150
0.587862 0.669387 -0.557750 0.069436 0.640900 0.764478
0.226284 0.215936 -0.193252 -0.054423 -0.617123 -0.784982
0.537030 0.305154 -0.262949 0.061492 -0.641235 -0.764877
-1.027988 0.098496 0.036173 -0.000041 0.929797 0.366170
-1.442368 -0.009685 0.104481 -0.015528 -0.130960 0.990449
0.381050 0.359063 0.316503 -0.054423 -0.617123 0.784982
-0.490134 -0.098862 0.035163 -0.000205 -0.921797 0.385748
0.327473 -0.116808 -0.070844 0.069436 -0.640900 0.764478
-0.159578 0.092089 0.050296 0.000006 0.863452 0.502936
1.010576 -0.172680 -0.144767 -0.023312 -0.678634 0.734106
0.524963 0.152903 0.136280 0.061492 -0.641235 0.764877
0.192947 0.149557 0.138756 -0.054423 -0.617123 0.784982
0.506609 0.353475 -0.305904 0.061492 -0.641235 -0.764877
0.582864 0.519662 -0.439097 0.061492 -0.641235 -0.764877
0.485445 -0.087115 -0.058489 -0.000203 -0.811496 -0.582786
-0.640427 0.098578 0.035950 0.001068 0.917037 0.396619
0.428413 0.465089 -0.374090 -0.061453 0.667997 0.741622
0.583511 -0.173464 0.148810 0.061492 0.641235 0.764877
0.538275 0.101130 -0.027978 0.000064 0.959802 -0.278042
1.250567 -0.239014 -0.198467 -0.023312 -0.678634 0.734106
1.391030 -0.018367 0.103309 -0.000054 -0.222885 0.974103
0.750197 0.076633 -0.064245 -0.023312 -0.604409 -0.796333
0.508991 0.765377 0.644802 -0.054423 -0.617123 0.784982
-0.854839 0.079920 -0.067991 0.000407 0.772182 -0.634418
0.480154 -0.787405 0.660121 -0.061453 -0.667997 -0.741622
0.178807 0.322219 0.273517 -0.054423 -0.617123 0.784982
0.274698 -0.195461 -0.180512 -0.054423 0.617123 -0.784982
0.572603 -0.798521 0.673703 -0.000000 -0.766327 0.642450
1.375986 0.168060 -0.151957 0.004188 -0.618989 -0.785034
0.966333 0.110821 0.096520 -0.023312 -0.604409 0.796333
1.082106 -0.128900 0.102023 -0.023312 -0.678634 -0.734106
1.147140 -0.189268 0.155764 -0.023312 -0.678634 -0.734106
1.131268 -0.134408 0.105554 -0.023312 -0.678634 -0.734106
0.164395 -0.190549 -0.169003 -0.054423 0.617123 -0.784982
-0.549080 0.025688 -0.101736 0.000094 0.216993 -0.975416
-0.519224 0.041817 0.096236 -0.000008 0.373306 0.926904
0.229593 -0.104572 0.008644 -0.000192 -0.997675 0.055630
0.089840 -0.025674 0.101739 -0.000015 -0.190925 0.980837
0.014973 0.000000 -0.104929 -0.000013 -0.027418 -0.998870
1.525052 0.044672 -0.007810 1.000000 0.000000 0.000000
1.028177 -0.008606 0.104575 -0.000004 -0.054727 0.997750
-0.593921 -0.103509 -0.017204 0.000046 -0.993240 -0.109427
-0.114702 -0.064245 0.082962 -0.000002 -0.589925 0.806524
-0.504085 -0.103509 -0.017204 0.000011 -0.993232 -0.109475
-0.404226 0.033914 -0.099297 0.000072 0.270535 -0.961935
-0.169651 -0.042001 0.096156 -0.000002 -0.349146 0.936264
-1.122951 -0.104929 0.000000 0.000548 -0.999172 -0.020392
0.253015 0.180286 0.167079 -0.054423 -0.617123 0.784982
-0.429197 -0.101742 -0.025663 0.000183 -0.980744 -0.191491
-0.104661 -0.095909 0.042561 -0.000002 -0.901901 0.430194
0.969297 -0.039664 -0.097143 0.000168 -0.334505 -0.941624
-0.039868 -0.057201 0.087966 -0.000002 -0.497960 0.866331
0.501980 -0.550631 0.450390 0.069436 -0.640900 -0.764478
-0.613403 -0.049561 0.092486 0.000045 -0.497528 0.866603
0.538294 0.251362 0.202796 0.069436 0.640900 -0.764478
-0.479075 0.025636 -0.101749 0.000019 0.217453 -0.975302
-1.416927 0.059927 0.086133 0.000003 0.569177 0.821335
0.039959 0.041932 0.096186 -0.000003 0.348509 0.936504
0.638834 -0.104573 -0.008631 -0.000001 -0.998869 -0.027441
0.953418 -0.049767 0.092376 -0.000037 -0.448975 0.892705
0.186709 0.397566 0.333300 -0.054423 -0.617123 0.784982
0.294199 0.145189 -0.142342 -0.054423 -0.617123 -0.784982
1.124951 0.167737 0.136565 -0.023312 0.678634 -0.734106
-1.342381 0.048350 0.093126 0.000129 0.458191 0.888068
-1.507756 0.074366 0.058263 -0.258023 0.772881 0.577897
0.323685 0.529728 -0.446697 -0.054423 -0.617123 -0.784982
-1.329640 0.097425 -0.038967 -0.000032 0.912327 -0.407709
0.194645 0.104929 -0.000000 0.000009 0.998872 0.027394
1.510609 -0.348886 -0.293143 -0.023312 0.604409 -0.796333
0.292858 -0.374759 -0.322729 -0.054423 0.617123 -0.784982
-0.533967 -0.049707 0.092408 0.000008 -0.448794 0.892796
-0.862458 -0.018070 0.103361 0.000241 -0.145727 0.988376
1.219905 0.076633 -0.064245 0.000000 -0.766327 0.642450
-0.079764 0.070863 0.077386 0.000006 0.654286 0.755251
-0.172532 0.099568 -0.033109 -0.000062 0.956580 -0.289210
0.830175 -0.094858 0.044855 -0.000052 -0.878664 0.475866
-0.774701 -0.077991 -0.070195 0.000098 -0.756846 -0.652449
-0.638874 0.025622 0.101752 -0.000194 0.219953 0.974663
1.481745 -0.025068 -0.090105 0.278517 -0.200928 -0.938291
0.000000 -0.104573 -0.008631 0.000022 -0.998835 -0.027844
0.569000 -0.096147 -0.042021 -0.000095 -0.926086 -0.375283
