2.868742 0.630472 0.441096 0.000000 0.701013 0.000354
0.746296 0.602506 0.474491 -0.000000 0.636798 -0.000016
2.088153 0.465093 0.538774 0.000000 -0.999634 -0.000000
2.802720 0.399488 0.695226 0.077712 -0.006586 -0.009287
1.834473 1.052627 1.034223 -0.039587 -0.009202 0.009657
1.064968 0.609982 0.596934 -0.000000 0.735479 0.000003
1.247067 0.480848 0.490223 0.000000 -0.820019 -0.000009
2.294133 0.627378 0.569345 0.000000 0.933919 0.000010
1.403044 0.632981 0.539058 0.000000 0.999640 -0.000000
3.059726 0.486743 0.618482 0.000000 -0.713149 0.000656
1.442493 0.431908 0.654332 -0.051129 -0.007095 -0.006639
1.862769 0.548607 0.455259 0.000000 -0.027057 -0.000008
2.001427 0.245831 0.241158 0.051165 0.005841 -0.005904
1.766381 0.462030 0.602898 0.066072 -0.006495 -0.006576
0.917200 0.465141 0.536998 0.000000 -0.999629 -0.000000
1.767987 0.818529 0.287035 -0.051128 0.004222 0.003975
2.419513 0.546619 0.623087 0.000000 -0.027266 0.000124
1.583204 0.616042 0.590789 0.000000 -0.713149 -0.000441
1.702313 0.577448 0.460209 -0.000001 0.332007 -0.000074
0.136021 0.476297 0.510219 -0.196081 -0.000160 -0.000059
3.110295 0.772167 0.776588 0.077710 0.006586 -0.009287
2.001427 0.124165 0.121562 0.051163 0.008088 -0.008127
1.718331 0.159949 0.156737 -0.051127 -0.012912 0.011827
3.003648 0.672597 0.678713 -0.000002 0.701007 -0.000496
2.703855 0.574385 0.619225 0.000002 0.305977 0.000080
3.110295 0.307850 0.758227 -0.000001 0.701012 0.000510
1.674777 0.202890 0.879453 -0.051127 -0.007119 -0.006661
0.655246 0.581551 0.616591 0.000001 0.325365 0.000005
1.156017 0.602643 0.474604 -0.000000 0.636220 -0.000004
1.156017 0.495588 0.603932 0.000001 -0.634865 0.000008
2.761812 0.717116 0.373978 0.077711 0.006401 0.009027
3.183012 0.448418 0.544221 -0.246117 -0.000177 0.000007
2.203084 0.557403 0.455673 -0.000001 0.094187 -0.000068
1.565739 0.524937 0.458786 0.000000 -0.280568 -0.000089
2.567281 0.577582 0.460256 0.000000 0.332293 -0.000005
1.790919 0.088381 0.992013 -0.051127 -0.008940 -0.008319
2.191143 0.548749 0.623144 0.000000 -0.027266 0.000016
3.085005 0.269296 0.264224 0.077712 -0.006586 0.009287
3.085005 0.828770 0.264224 0.077712 0.006586 0.009287
1.659817 0.722912 0.359644 -0.039588 -0.012201 -0.012564
1.338116 0.515405 0.616117 0.000000 -0.407603 0.000058
2.840703 0.418909 0.429342 -0.000001 0.701012 -0.000567
1.882110 0.853139 0.827052 0.066071 0.010670 -0.010716
0.382099 0.528911 0.457697 -0.000000 -0.228137 -0.000028
1.916649 0.394875 0.696825 0.051163 0.002359 0.002397
1.974513 0.470533 0.464534 0.066072 -0.003480 0.003535
2.999156 0.655364 0.416627 0.000001 0.701011 0.000496
0.382099 0.524391 0.619454 0.000000 -0.280258 0.000006
1.871344 0.279471 0.813520 0.051163 0.013778 0.013536
0.200000 0.526574 0.620092 0.021101 -0.000243 0.000832
1.681483 0.704895 0.703204 -0.039586 -0.006702 0.007119
1.885698 0.851556 0.233512 0.051162 -0.006441 -0.006501
0.791820 0.478551 0.493600 -0.000000 -0.835262 -0.000004
3.183012 0.541505 0.639658 -0.235371 -0.000016 0.000185
2.020985 0.584284 0.615393 -0.000000 0.433058 0.000007
2.933369 0.422738 0.645294 0.000000 0.701012 0.000425
0.245525 0.555315 0.455489 -0.000001 0.067619 -0.000382
0.564197 0.533493 0.456702 0.000000 -0.175037 -0.000073
2.862873 0.686817 0.656587 0.000000 -0.701013 0.000354
1.876133 0.998488 0.092174 -0.039588 -0.005801 -0.006184
2.385183 0.482550 0.487947 0.000000 -0.787859 -0.000003
1.681512 0.335054 0.339358 -0.051128 -0.010430 0.009654
1.474690 0.553578 0.623029 0.000000 0.027266 0.000237
3.183012 0.647776 0.519239 -0.235881 0.000182 -0.000034
1.659817 0.365256 0.708687 -0.051126 -0.002773 -0.002616
0.955261 0.551022 0.623098 -0.000000 0.027266 0.000016
1.292591 0.598467 0.471353 -0.000000 0.594226 -0.000018
2.647882 0.465094 0.540123 0.000000 -0.999910 0.000000
1.966439 0.214659 0.864635 0.066072 -0.009047 -0.009118
2.001427 1.078187 0.019052 0.051163 -0.008987 -0.009005
2.001427 0.019879 1.059348 0.051165 0.008986 0.009004
1.656788 0.466585 0.523380 -0.000000 -0.984517 -0.000009
1.888390 0.400488 0.403678 0.066072 -0.001827 0.001858
1.790370 0.970588 0.950665 -0.051128 0.005795 -0.005439
2.794904 0.631417 0.555333 -0.000000 0.978687 0.000001
2.066510 0.555563 0.455506 0.000000 0.067640 -0.000191
0.518672 0.543106 0.622935 -0.000001 -0.067575 0.000095
3.203114 0.314833 0.308986 -0.177558 -0.003620 0.003567
3.203114 0.783233 0.308986 -0.177557 -0.003505 -0.003680
1.674777 0.895177 0.198947 -0.039588 -0.009002 -0.009457
1.515082 0.360340 0.724682 -0.051127 -0.007096 -0.006639
1.529600 0.752040 0.339648 -0.039589 -0.013400 -0.013677
1.746403 0.282144 0.809764 -0.039588 0.005101 0.005451
1.838887 0.568049 0.620962 0.000001 0.227561 0.000055
1.920980 0.632908 0.536359 0.000000 0.999628 -0.000000
2.001427 0.886997 0.206987 0.051164 -0.010484 -0.010449
2.001427 1.008664 0.991008 0.051164 -0.006890 0.006947
2.001427 0.886997 0.871412 0.051162 -0.005243 0.005306
2.990461 0.398662 0.373336 0.000000 -0.701012 0.000496
2.782217 0.547754 0.455265 0.000000 -0.013422 -0.000016
2.895656 0.465095 0.540195 0.000000 -0.999910 0.000000
2.935956 0.632961 0.540976 0.000000 0.999910 0.000000
1.878073 0.766695 0.316381 0.051163 -0.002060 -0.002094
2.567281 0.527261 0.620273 0.000000 -0.254549 0.000049
1.442493 0.666158 0.424068 -0.039589 -0.008573 -0.009027
3.189712 0.423071 0.415382 -0.177556 -0.003620 0.003567
0.097506 0.577064 0.599787 -0.346097 0.000035 0.000071
1.739255 0.242871 0.246078 -0.051129 -0.001945 0.001836
0.097506 0.580303 0.480219 -0.346097 0.000039 -0.000069
1.902744 0.764118 0.741462 0.066071 0.006263 -0.006343
3.068052 0.560296 0.456008 -0.000000 0.116330 -0.000014
1.670222 0.551022 0.623098 0.000000 0.027266 0.000237
1.520214 0.468899 0.564214 -0.000000 -0.951838 0.000008
1.695976 0.826153 0.816534 -0.039590 -0.002551 0.002742
1.793362 0.625356 0.504241 0.000001 0.908339 -0.000006
3.031672 0.408619 0.695277 0.000001 -0.701012 -0.001275
0.837345 0.631742 0.553551 0.000000 0.984512 0.000002
3.087751 0.451843 0.461716 0.000000 0.701013 -0.000623
1.457011 0.417595 0.409998 -0.051128 -0.007095 0.006639
0.291049 0.586524 0.614313 -0.000000 0.456297 0.000013
2.999444 0.733871 0.339456 0.077713 0.006586 0.009286
1.838887 0.466786 0.522405 -0.000000 -0.978678 -0.000001
1.019443 0.475441 0.579583 -0.000000 -0.876980 0.000014
2.612806 0.632658 0.546544 -0.000001 0.989996 0.000001
0.473148 0.590842 0.466406 -0.000000 0.503837 -0.000044
3.189712 0.674995 0.415382 -0.177556 -0.003505 -0.003680
1.803612 0.695656 0.697538 0.051162 -0.002359 0.002397
0.882870 0.527879 0.457964 0.000000 -0.254289 -0.000049
0.655246 0.631266 0.522336 0.000000 0.979326 -0.000005
2.310552 0.551022 0.455302 0.000000 0.027057 -0.000016
1.911715 0.079445 0.992467 0.066071 -0.006031 -0.006110
1.909921 0.283297 0.286483 0.066073 -0.002668 0.002712
2.294133 0.528223 0.620526 0.000000 -0.254509 0.000098
2.001427 0.713189 0.700562 0.051162 -0.002209 0.002246
2.804606 0.545766 0.623063 0.000000 -0.027266 0.000031
2.885953 0.528669 0.457757 -0.000001 -0.246738 -0.000013
1.786122 0.886532 0.862001 -0.051129 0.003560 -0.003354
1.907229 0.934822 0.168723 0.066072 0.003944 0.004005
2.610989 0.665010 0.425197 0.077711 0.006401 0.009027
1.019443 0.578979 0.460779 0.000000 0.357465 -0.000068
2.658330 0.527604 0.458037 -0.000001 -0.254402 -0.000098
2.567896 0.447944 0.439831 0.077712 -0.004267 0.006030
1.474690 0.573946 0.459033 0.000000 0.306412 -0.000020
1.904538 0.095334 0.102218 0.066073 -0.003016 0.003065
0.746296 0.479234 0.585838 0.000000 -0.834939 0.000009
2.001427 0.437020 0.649307 0.051162 0.004494 0.004554
2.507577 0.632931 0.537211 0.000000 0.999628 -0.000000
1.581250 0.677020 0.671913 -0.039587 -0.009430 0.009884
1.801218 0.112377 0.112557 -0.051128 -0.005132 0.004824
3.198647 0.747154 0.733949 -0.177557 -0.003505 0.003680
2.733402 0.438057 0.630236 -0.000000 0.701012 0.001134
0.664202 0.546050 0.455329 0.000000 -0.027057 -0.000031
3.183012 0.549033 0.539200 1.000000 0.000000 0.000000
2.020985 0.628852 0.513206 0.000000 0.949959 -0.000002
3.205347 0.296793 0.787147 -0.177555 -0.002414 -0.002378
1.377670 0.549175 0.455252 0.000000 0.027057 -0.000031
0.746296 0.615867 0.590006 -0.000000 0.804159 0.000005
3.100907 0.696341 0.702053 -0.000001 0.701010 -0.000765
1.558635 0.317399 0.311508 -0.051127 -0.002608 0.002460
1.732848 0.145635 0.935733 -0.051128 -0.011588 -0.010677
2.847996 0.746890 0.733690 0.077711 0.006401 -0.009027
0.564197 0.471805 0.572112 -0.000000 -0.921886 0.000001
3.022527 0.579112 0.617570 -0.000001 0.357360 0.000068
1.776402 0.995372 0.100457 -0.039587 -0.012401 -0.012751
2.476232 0.518291 0.461083 -0.000000 -0.357615 -0.000017
1.501557 0.632958 0.538206 0.000000 0.999640 -0.000000
1.656788 0.632217 0.527866 0.000000 0.992572 -0.000000
1.338116 0.465372 0.532245 0.000001 -0.990500 -0.000001
2.001427 0.730570 0.360753 0.051162 -0.008837 -0.008859
2.649401 0.654635 0.633979 0.077711 -0.009206 0.006699
2.890153 0.360258 0.715737 0.077713 0.009205 0.006699
2.783358 0.373507 0.366661 0.077710 -0.006586 0.009287
1.728974 0.668171 0.443295 -0.051127 0.015607 0.014103
2.998820 0.299071 0.293492 0.077711 -0.006586 0.009287
1.782530 0.365447 0.379063 0.066071 -0.006727 0.006809
3.089837 0.663073 0.445153 -0.000000 -0.701012 -0.000312
1.914406 0.154520 0.933250 0.051162 0.010185 0.010162
3.111602 0.611323 0.618482 0.000000 0.713152 0.000572
1.156017 0.508370 0.465761 0.000001 -0.478482 -0.000012
1.156017 0.628710 0.565634 0.000001 0.934697 0.000001
1.247067 0.478590 0.584859 -0.000000 -0.835206 0.000009
0.427623 0.604828 0.601923 0.000000 0.657673 0.000002
2.430707 0.470612 0.569146 0.000000 -0.924298 0.000001
1.735703 0.418470 0.682654 -0.039589 0.003051 0.003277
1.833217 0.411831 0.658448 0.066072 -0.008699 -0.008774
2.385183 0.631879 0.552782 0.000000 0.984614 0.000000
0.973919 0.626370 0.571849 0.000000 0.923888 0.000011
1.338116 0.606454 0.600438 0.000000 0.677780 0.000014
1.862822 0.660528 0.442473 0.066072 0.008699 0.008774
0.973919 0.499370 0.471522 -0.000000 -0.594297 -0.000018
1.839945 0.251630 0.235258 0.051163 0.013778 -0.013536
1.975461 0.570496 0.458046 0.000001 0.253119 -0.000025
1.926069 1.050399 1.025037 -0.051127 0.013905 -0.012676
2.932934 0.728943 0.697996 0.077709 -0.009206 0.006699
2.977003 0.476060 0.580702 0.000001 -0.815361 0.000001
2.977003 0.578183 0.460474 -0.000000 0.357383 -0.000034
1.929936 0.578382 0.617850 0.000001 0.357232 0.000034
2.203084 0.625226 0.574450 -0.000000 0.913118 0.000003
1.658212 0.396347 0.402505 -0.051127 -0.007805 0.007289
0.382099 0.466536 0.523659 -0.000000 -0.982306 -0.000001
2.755572 0.448447 0.422273 0.000000 -0.701012 0.000567
0.837345 0.474666 0.578144 0.000001 -0.874847 0.000002
3.128097 0.843657 0.828810 0.077713 0.004267 -0.006029
3.128097 0.254409 0.828810 0.077712 -0.004267 -0.006029
2.157559 0.485142 0.484744 -0.000000 -0.751125 -0.000006
2.855774 0.467595 0.637304 0.000000 -0.701013 -0.000354
1.916649 0.714517 0.384404 0.066072 0.003364 0.003417
2.101586 0.546477 0.623083 0.000000 -0.027266 0.000237
0.270153 0.632957 0.541260 0.000000 0.999910 0.000000
1.912813 0.001249 0.003237 0.000001 -0.713144 -0.000216
2.922066 0.698306 0.410520 0.000000 -0.701012 -0.000425
1.565739 0.535171 0.621996 0.000000 -0.175268 0.000036
2.931703 0.634301 0.641069 0.000000 0.701013 -0.000425
2.248609 0.620500 0.495163 0.000000 0.849925 -0.000002
1.970028 0.180643 0.179995 0.066072 -0.004060 0.004122
2.763107 0.634301 0.641069 0.000000 0.701013 -0.000850
1.438305 0.638423 0.625284 -0.051128 0.014189 -0.012917
1.878073 0.329906 0.743144 0.066072 -0.001566 -0.001593
0.837345 0.600231 0.472673 -0.000000 0.611125 -0.000004
3.104892 0.418143 0.649811 0.000000 0.701013 0.000312
0.068279 0.500661 0.561579 -0.460231 -0.000041 0.000018
1.829180 0.653399 0.625796 0.066070 0.004872 -0.004943
1.652012 0.636544 0.638171 -0.039588 -0.018855 0.018344
0.655246 0.496436 0.604633 0.000000 -0.615856 0.000008
1.681581 0.804392 0.295559 -0.051129 0.002442 0.002304
2.503258 0.470275 0.616618 0.077710 -0.004268 -0.006030
1.607075 0.446686 0.451982 -0.051129 -0.004435 0.004174
1.064968 0.628917 0.513408 -0.000002 0.922557 -0.000002
1.429165 0.477829 0.583659 0.000001 -0.834391 0.000002
2.157559 0.479508 0.586253 0.000001 -0.815090 0.000002
1.739197 0.750632 0.329626 -0.039587 -0.002851 -0.003064
1.747838 0.467320 0.519977 0.000000 -0.973593 -0.000001
1.755301 0.548749 0.623144 0.000000 -0.022666 0.000019
1.536300 0.735040 0.720257 -0.051128 0.001774 -0.001675
1.505590 0.464123 0.462875 -0.051129 -0.005322 0.005000
2.933369 0.422738 0.433106 0.000000 0.701013 -0.000850
3.047902 0.465197 0.534939 -0.000000 -0.999634 -0.000000
1.800447 0.862741 0.222259 -0.039587 -0.009002 -0.009458
1.667064 0.314525 0.775421 -0.039589 0.005901 0.006289
2.789045 0.652350 0.455693 0.000000 -0.701013 -0.000850
0.882870 0.591855 0.611403 -0.000001 0.475125 0.000006
0.336574 0.597836 0.470893 0.000000 0.572259 -0.000009
1.611264 0.594425 0.468581 0.000000 0.549735 -0.000020
0.473148 0.507347 0.466334 0.000000 -0.503870 -0.000022
3.041912 0.813883 0.799542 0.077711 0.006586 -0.009287
3.041912 0.284184 0.799542 0.077712 -0.006586 -0.009287
1.064968 0.530778 0.621141 0.000000 -0.228137 0.000028
1.779929 0.549388 0.455258 0.000000 0.026858 -0.000032
2.658330 0.505874 0.611206 0.000000 -0.503845 0.000011
1.845328 0.482602 0.615714 0.051162 0.006291 0.006352
1.872690 0.341823 0.347469 0.066072 -0.003132 0.003182
0.200000 0.468141 0.561659 0.021103 -0.000838 0.000220
1.217961 0.547755 0.623117 0.000000 -0.027266 0.000008
1.760950 0.219020 0.869139 -0.039589 0.009001 0.009457
2.006059 0.465108 0.540194 0.000000 -0.999634 0.000000
3.021614 0.741530 0.746473 0.077713 0.006586 -0.009287
1.892427 0.472220 0.455864 0.051163 0.011233 -0.011162
2.339658 0.474601 0.578018 0.000000 -0.889766 0.000013
1.926069 1.050399 0.053363 -0.051128 0.013905 0.012676
1.876133 0.998488 0.986226 -0.039587 -0.005801 0.006185
1.584350 0.394397 0.696816 -0.039589 0.009430 0.009884
2.703855 0.630440 0.559701 0.000001 0.938908 0.000001
1.120941 0.465150 0.536643 0.000000 -0.999634 -0.000000
0.167834 0.531164 0.458019 -0.072465 -0.000120 -0.000484
2.852224 0.611323 0.618482 -0.000000 0.713151 0.000656
2.476232 0.601350 0.604852 -0.000001 0.606170 0.000008
0.291049 0.505691 0.611097 0.000000 -0.527114 0.000083
1.639099 0.655299 0.423520 -0.039588 -0.018855 -0.018344
1.226170 0.550241 0.455281 0.000000 0.027278 -0.000008
2.020985 0.504302 0.610236 -0.000001 -0.526933 0.000042
2.998820 0.798996 0.293492 0.077710 0.006587 0.009287
1.804007 0.822171 0.818677 -0.039587 -0.009802 0.010251
2.339658 0.616648 0.489451 -0.000000 0.804085 -0.000010
1.967336 0.051900 0.053693 0.066072 -0.010206 0.010262
0.461207 0.632889 0.535649 0.000000 0.999628 -0.000000
0.726892 0.546619 0.623087 0.000000 -0.027697 0.000031
1.861476 0.895876 0.890194 0.051165 -0.005841 0.005904
3.172133 0.461069 0.628976 -0.177557 -0.003566 -0.003514
1.677348 0.463012 0.603897 -0.051132 -0.004021 -0.003786
3.043784 0.348877 0.754002 0.000001 -0.701012 -0.000765
1.517525 0.645677 0.639378 -0.039581 -0.003216 0.003453
3.124120 0.385641 0.717863 0.000001 -0.701012 -0.000510
2.844253 0.698306 0.410520 0.077710 -0.009206 -0.006699
2.715288 0.668372 0.412866 0.077711 0.006586 0.009287
3.183012 0.632268 0.595949 -0.239172 0.000152 0.000101
1.688689 0.778902 0.755327 -0.051128 0.002442 -0.002304
2.612806 0.589572 0.612707 -0.000001 0.479582 0.000024
1.656788 0.514821 0.462544 0.000000 -0.407851 -0.000007
2.248609 0.497192 0.473176 0.000000 -0.615584 -0.000017
3.165653 0.477288 0.474600 -0.240310 -0.000140 -0.000115
0.609722 0.597632 0.470751 -0.000000 0.572019 -0.000009
1.733803 0.306323 0.291759 -0.039589 0.005301 -0.005661
3.207581 0.819313 0.804880 -0.177557 -0.002337 0.002454
3.196413 0.368952 0.362184 -0.177556 -0.003382 0.003332
3.196413 0.729114 0.362184 -0.177557 -0.003274 -0.003438
3.198647 0.350912 0.733949 -0.177556 -0.003620 -0.003567
0.564197 0.601406 0.604808 0.000001 0.592925 0.000004
0.746296 0.527948 0.457946 -0.000000 -0.254407 -0.000049
3.061797 0.422405 0.396675 0.000000 -0.701012 0.001275
1.301547 0.632962 0.538348 0.000000 0.999628 -0.000000
1.929936 0.466166 0.525759 0.000000 -0.988918 -0.000001
3.130935 0.600846 0.467886 -0.232522 0.000105 -0.000134
2.503258 0.627792 0.461782 0.077711 0.004267 0.006030
1.649179 0.258103 0.826822 -0.039588 0.005101 0.005451
0.291049 0.497444 0.472979 0.000000 -0.615893 -0.000033
1.811237 0.317550 0.780407 0.051163 0.007489 0.007539
0.200000 0.601630 0.604633 0.021101 0.000552 0.000668
1.976756 0.315657 0.312087 0.066073 -0.002900 0.002947
0.136021 0.495189 0.596043 -0.196084 -0.000116 0.000130
1.616706 0.837922 0.823172 -0.039586 -0.002651 0.002850
2.339658 0.587567 0.613778 -0.000000 0.456144 0.000025
2.840429 0.479750 0.491796 0.000000 -0.819008 -0.000005
2.689061 0.453375 0.463222 0.000000 0.701012 -0.000567
1.517036 0.429231 0.651608 -0.051125 -0.002661 -0.002510
1.095567 0.550738 0.455294 0.000000 0.027057 -0.000008
2.718719 0.395838 0.689788 0.077710 -0.006401 -0.009027
2.385183 0.549388 0.455253 0.000000 0.013422 -0.000016
1.718331 0.938118 0.156737 -0.039589 -0.015600 -0.015639
1.674777 0.202890 0.198947 -0.051128 -0.003560 0.003355
1.878026 1.095568 1.076433 -0.039590 -0.013600 0.013859
1.834473 1.052627 0.044177 -0.039586 -0.009202 -0.009657
1.834473 0.045440 1.034223 -0.051125 -0.007616 -0.007116
1.486046 0.709099 0.381858 -0.039589 -0.012858 -0.013177
1.500564 0.374654 0.367788 -0.051128 -0.005322 0.005000
1.892875 0.221340 0.869114 0.051163 0.012580 0.012429
0.882870 0.517993 0.617202 0.000000 -0.343138 0.000004
3.113577 0.471044 0.570274 -0.233817 -0.000156 0.000065
1.782645 0.182465 0.185368 -0.051128 -0.006457 0.006051
1.973168 0.414852 0.409926 0.066072 -0.007307 0.007389
3.043784 0.348877 0.324398 -0.000000 -0.701012 0.000765
2.157559 0.609685 0.481161 0.000000 0.716584 -0.000006
1.806752 0.479932 0.457290 0.051163 0.008388 -0.008421
1.398940 0.623217 0.466278 -0.039588 -0.008573 -0.009028
1.714082 0.848707 0.239954 -0.039587 -0.002451 -0.002635
2.001427 0.939140 0.922668 0.051164 -0.009286 0.009295
2.001427 0.661046 0.649307 0.051165 -0.004493 0.004554
2.001427 0.072022 1.008093 0.051164 0.011382 0.011304
2.001427 0.367497 0.717647 0.051162 0.008837 0.008859
2.001427 0.263212 0.820157 0.051163 0.012880 0.012707
2.001427 1.026044 0.070307 0.051163 -0.011383 -0.011304
2.910763 0.394832 0.369571 0.000000 -0.701013 0.000425
2.977274 0.371855 0.731415 0.000001 -0.701013 -0.000992
0.057787 0.596359 0.539200 -0.508004 0.000018 0.000000
1.401552 0.550169 0.623121 0.000000 0.027266 0.000237
0.564197 0.474997 0.499627 0.000000 -0.877109 -0.000007
1.565739 0.471261 0.507601 0.000000 -0.923869 -0.000011
3.110295 0.325899 0.301811 0.000000 -0.701012 0.000510
3.110295 0.772167 0.301811 0.077712 0.006586 0.009287
3.173373 0.262413 0.266483 -0.177557 0.001168 -0.001227
3.173373 0.826629 0.257302 -0.177559 0.001207 0.001189
1.194079 0.465122 0.537709 0.000021 -0.004909 -0.000001
1.924275 0.240490 0.230366 0.051164 0.006441 -0.006501
0.183904 0.599892 0.472296 -0.010113 0.002269 -0.002755
3.063899 0.663073 0.633247 0.000003 -0.700860 0.000156
3.113577 0.535451 0.622046 -0.230846 -0.000025 0.000169
2.864311 0.632883 0.535436 0.000000 0.846582 -0.000000
2.567896 0.447944 0.638569 0.077710 -0.004268 -0.006030
2.826450 0.739446 0.352027 0.077711 0.006586 0.009287
1.584350 0.703670 0.381584 -0.039588 -0.009430 -0.009884
1.620073 0.771840 0.325433 -0.051127 0.005215 0.004901
1.933246 0.031778 1.041322 0.066072 -0.008351 -0.008428
1.838887 0.630633 0.558907 0.000000 0.973708 0.000002
2.749380 0.489472 0.480041 0.000000 -0.688293 -0.000002
1.920686 0.623385 0.460314 0.051163 -0.008987 -0.009005
1.292591 0.525210 0.458707 0.000001 -0.261959 -0.000006
1.931452 0.897198 0.874942 0.066072 0.004408 -0.004474
1.934592 0.813915 0.274025 0.051163 -0.006890 -0.006947
2.749380 0.503819 0.609936 -0.000000 -0.549819 0.000020
2.248609 0.588231 0.613437 0.000000 0.456419 0.000013
3.033789 0.620348 0.469099 0.000000 0.713150 -0.000656
1.156017 0.580632 0.616972 0.000000 0.382753 0.000031
1.565739 0.627836 0.510249 0.000000 0.943269 -0.000001
0.473148 0.493667 0.602297 0.000000 -0.657673 0.000015
1.975461 0.622950 0.578991 -0.000000 0.876592 0.000007
1.671124 0.413123 0.657172 -0.051129 -0.007805 -0.007289
0.075425 0.514536 0.493820 -0.432300 -0.000032 -0.000040
1.717585 0.387551 0.368028 -0.039587 0.006101 -0.006497
3.005749 0.456106 0.648598 -0.000000 -0.701012 -0.000248
1.616374 0.726882 0.705651 -0.051128 0.002773 -0.002616
2.066510 0.490765 0.478771 -0.000000 -0.690739 -0.000003
1.934592 0.819418 0.798777 0.066071 0.002668 -0.002712
2.134424 0.547897 0.455279 -0.000000 -0.027266 -0.000062
1.932797 0.291311 0.786163 0.066071 -0.005915 -0.005994
1.809390 0.251386 0.818079 -0.051128 -0.003891 -0.003665
1.804060 0.764037 0.313677 0.051163 -0.002060 -0.002094
2.612806 0.484799 0.485152 -0.000000 -0.770784 -0.000005
1.864168 0.793426 0.789293 0.051163 -0.007639 0.007686
2.066510 0.621487 0.581592 0.000001 0.860285 0.000008
1.201542 0.629706 0.515990 -0.000000 0.959622 -0.000004
1.505590 0.633943 0.462875 -0.051127 0.005322 0.005000
0.200000 0.480848 0.490223 0.021101 -0.000711 -0.000496
0.597035 0.545766 0.623063 0.000000 -0.026858 0.000016
1.696949 0.464488 0.440553 -0.039588 0.018855 -0.018344
1.611264 0.471928 0.572407 0.000001 -0.747996 0.000001
2.944672 0.652350 0.455693 0.000000 -0.701013 -0.000425
2.977003 0.529983 0.620954 -0.000000 -0.228163 0.000055
1.735703 0.696917 0.665033 -0.051129 0.002773 -0.002616
1.952085 0.764725 0.331760 0.066072 0.001595 0.001622
1.888390 0.705653 0.701275 0.051161 -0.009436 0.009441
1.292591 0.563175 0.621946 -0.000001 0.136427 0.000012
2.200099 0.465125 0.537567 0.000000 -0.999628 -0.000000
1.843085 0.816713 0.290778 0.066072 0.005335 0.005410
2.001427 0.176307 0.905583 0.051163 0.009286 0.009295
2.567281 0.474731 0.578271 -0.000000 -0.889497 0.000007
1.804958 0.423219 0.401413 0.051163 0.011233 -0.011162
2.703855 0.472638 0.573996 -0.000000 -0.912667 0.000003
2.999156 0.424653 0.434989 0.000000 0.701012 -0.000496
1.850932 0.950131 0.138419 -0.039588 -0.013201 -0.013494
1.858109 0.124586 0.948677 -0.051128 -0.005132 -0.004824
1.732021 0.734152 0.733090 -0.039586 -0.005702 0.006080
1.842637 0.748369 0.720399 0.066071 0.001566 -0.001593
0.700771 0.487579 0.482015 0.000000 -0.733530 -0.000003
2.977003 0.616606 0.589006 0.000001 0.801842 0.000010
2.840429 0.472667 0.574061 -0.000000 -0.913120 0.000006
1.847344 0.949647 0.924249 -0.051128 0.005795 -0.005439
2.955415 0.346736 0.331320 0.077710 -0.006586 0.009287
1.742880 0.712806 0.397082 -0.051127 0.010099 0.009359
1.720971 0.632981 0.539058 0.000000 0.999628 -0.000000
1.638180 0.308326 0.298787 -0.039587 0.005701 -0.006080
1.750487 0.926859 0.907347 -0.051127 0.006457 -0.006052
3.130935 0.635256 0.557527 -0.232811 0.000167 0.000030
1.750045 0.332038 0.763651 -0.039589 0.005301 0.005661
3.113577 0.513783 0.463007 -0.235413 -0.000068 -0.000153
2.840429 0.575433 0.459512 0.000000 0.303540 -0.000005
1.612814 0.333383 0.745932 -0.051128 -0.002608 -0.002460
1.929936 0.524596 0.458886 -0.000001 -0.261223 -0.000006
1.601967 0.348485 0.347645 -0.051129 -0.005546 0.005209
2.504591 0.546477 0.623083 0.000000 -0.027266 0.000016
0.609722 0.627977 0.567748 0.000000 0.943354 0.000002
2.718035 0.552016 0.455329 0.000000 0.027057 -0.000008
2.248609 0.488902 0.597774 0.000000 -0.714606 0.000003
0.245525 0.613041 0.484878 0.000000 0.770622 -0.000001
0.116538 0.622312 0.539200 -0.279425 0.000056 0.000002
1.750295 0.893814 0.196130 -0.039588 -0.008602 -0.009057
1.800472 0.634131 0.441115 0.051162 -0.004194 -0.004252
1.973616 0.934058 0.163310 0.066073 0.003944 0.004005
2.846437 0.375361 0.377509 0.077710 0.009206 -0.006699
2.617553 0.627869 0.476749 0.000002 0.713135 -0.000229
1.976756 0.754306 0.742752 0.051164 -0.002060 0.002094
0.455236 0.551235 0.623107 0.000068 0.009364 0.001720
1.891081 0.442327 0.633845 0.066070 -0.008699 -0.008774
0.807493 0.546903 0.455306 -0.000000 -0.027057 -0.000008
2.802720 0.698578 0.695226 0.077712 0.006586 -0.009287
2.881711 0.467595 0.441096 0.000000 -0.701013 0.000354
1.917995 0.146280 0.137307 0.051163 0.004643 -0.004704
3.031672 0.707497 0.401485 -0.000000 -0.701012 -0.001275
1.861476 0.895876 0.188206 0.051165 -0.005841 -0.005904
0.791820 0.627797 0.510150 0.000000 0.934035 -0.000001
0.716443 0.632931 0.537211 0.000000 0.999628 -0.000000
0.941828 0.550880 0.455298 0.000000 0.027057 -0.000008
2.749380 0.628496 0.512126 -0.000000 0.943265 -0.000005
1.854520 0.139695 0.130577 -0.039588 0.013201 -0.013494
1.019443 0.573539 0.619494 0.000000 0.280531 0.000022
1.793362 0.605801 0.601040 0.000001 0.653814 0.000004
0.336574 0.476006 0.580610 0.000001 -0.859555 0.000004
1.480742 0.469764 0.621263 -0.039587 0.012859 0.013177
2.977003 0.467547 0.519008 -0.000000 -0.957365 -0.000000
2.789045 0.463765 0.641069 0.000000 -0.701013 -0.000850
3.119947 0.401292 0.412026 0.000000 0.701013 -0.000312
2.157559 0.598439 0.607068 0.000001 0.551660 0.000005
1.728432 0.358195 0.711047 -0.051129 -0.002608 -0.002460
2.444887 0.632918 0.536714 0.000000 0.999640 -0.000000
1.019443 0.467725 0.518321 0.000000 -0.947435 -0.000000
3.119947 0.678725 0.393664 -0.177556 0.003382 0.003332
1.682595 0.619612 0.587158 -0.000001 -0.713148 -0.000662
2.930037 0.486743 0.618482 0.000000 -0.713151 0.000328
0.928394 0.485048 0.593549 0.000000 -0.753304 0.000001
1.884412 0.611757 0.594994 -0.000000 0.753310 0.000023
1.483813 0.612473 0.594420 0.000002 -0.713119 -0.000221
0.897049 0.632927 0.541330 0.000000 0.999639 0.000000
2.567281 0.517040 0.461591 0.000000 -0.382592 -0.000031
1.842637 0.739679 0.366543 0.066072 0.001682 0.001710
1.866859 0.615150 0.486703 -0.000000 -0.713147 0.000251
1.884412 0.528360 0.620562 0.000002 -0.227846 0.000014
1.922032 0.373824 0.361269 0.051163 0.002209 -0.002246
1.921583 0.968717 0.120923 0.051164 -0.004493 -0.004554
1.689772 0.635501 0.474957 -0.051129 0.002010 0.001898
2.862873 0.411249 0.656587 0.000000 0.701013 0.000354
1.747838 0.501046 0.470324 0.000001 -0.568441 -0.000009
1.338116 0.491404 0.478155 0.000000 -0.677792 -0.000007
1.884412 0.469029 0.564619 0.000001 -0.940154 0.000001
0.714951 0.465147 0.536785 -0.000000 -0.999634 -0.000000
2.385183 0.500056 0.607385 0.000000 -0.572956 0.000005
2.997153 0.632874 0.535081 0.000000 0.999628 -0.000000
0.151852 0.562171 0.619337 -0.134536 0.000049 0.000256
2.567281 0.627175 0.508524 -0.000000 0.933318 -0.000002
1.975461 0.540522 0.622714 0.000000 -0.094809 0.000068
1.730394 0.867141 0.856437 -0.039589 -0.004701 0.005030
2.066510 0.609214 0.480677 0.000001 0.713942 -0.000013
1.474690 0.514691 0.462602 -0.000000 -0.406160 -0.000007
1.947600 1.098066 0.004508 -0.051128 0.011257 0.010386
2.658330 0.586524 0.464087 -0.000000 0.456297 -0.000013
1.952085 0.342032 0.738097 0.066071 -0.001566 -0.001593
1.681651 0.256062 0.247928 -0.039588 0.005101 -0.005451
1.611264 0.572857 0.619693 -0.000000 0.280395 0.000044
2.675627 0.687341 0.675154 0.077710 0.006401 -0.009027
1.715877 0.240032 0.837070 -0.051130 -0.003891 -0.003665
0.047585 0.553452 0.579830 -0.540961 0.000004 0.000058
0.882870 0.479832 0.491679 -0.000000 -0.819314 -0.000005
0.609722 0.499542 0.471395 0.000000 -0.594328 -0.000070
3.126206 0.747325 0.716065 -0.177556 -0.003274 0.003438
2.794904 0.600930 0.605180 -0.000000 0.615029 0.000008
1.652808 0.845425 0.249976 -0.051128 0.008443 0.007870
1.952982 0.975638 0.962025 0.051163 -0.004044 0.004102
1.279904 0.465099 0.538561 -0.000002 -0.337378 -0.000000
1.767278 0.649161 0.654444 0.051162 -0.004194 0.004253
2.567281 0.621756 0.581132 0.000000 0.863701 0.000008
0.427623 0.480645 0.490514 0.000000 -0.819989 -0.000018
0.427623 0.617482 0.490601 -0.000000 0.820018 -0.000018
3.113577 0.470231 0.510249 -0.229230 -0.000161 -0.000062
1.672750 0.867289 0.850082 -0.051128 0.001945 -0.001836
2.339658 0.467182 0.520565 0.000000 -0.973613 -0.000012
3.035875 0.469893 0.443354 0.000000 -0.701013 0.000156
2.711231 0.652350 0.622707 0.077712 -0.009205 0.006699
2.930037 0.468694 0.478280 0.000000 -0.713149 -0.000328
0.304483 0.550880 0.455273 0.000000 0.013631 -0.000062
1.962851 0.858082 0.238993 0.066073 0.004871 0.004942
1.962851 0.858082 0.839407 0.066072 0.004871 -0.004942
1.839048 0.379701 0.717315 0.051164 0.004344 0.004403
1.739197 0.334361 0.342925 -0.051128 -0.002442 0.002304
1.917995 0.665002 0.419211 0.051162 -0.011233 -0.011162
1.819324 1.007948 0.988055 -0.051124 0.004471 -0.004207
1.468719 0.465093 0.538774 -0.000003 -0.307635 -0.000000
0.336574 0.613969 0.592399 0.000000 0.770861 0.000043
1.931452 0.891437 0.197597 0.051163 -0.005842 -0.005905
2.703855 0.468141 0.516740 0.000000 -0.967058 -0.000002
2.020985 0.520887 0.460114 0.000001 -0.330089 -0.000018
0.427623 0.472811 0.574386 -0.000001 -0.856616 0.000001
2.979376 0.695575 0.377100 -0.000001 0.701012 0.000992
3.117861 0.679924 0.649811 -0.177556 -0.003274 0.003438
1.541814 0.478819 0.616160 -0.039589 0.008573 0.009027
0.435833 0.549175 0.455250 -0.000001 0.012532 -0.000271
1.860130 0.690733 0.389761 0.051161 -0.004718 -0.004780
1.790370 0.127478 0.950665 -0.051128 -0.005795 -0.005439
2.658330 0.615473 0.590509 0.000001 0.787092 0.000010
0.518672 0.616352 0.489051 0.000000 0.804095 -0.000019
1.835460 0.387941 0.368927 0.051163 0.004344 -0.004403
1.338116 0.621308 0.496501 0.000000 0.857072 -0.000002
2.476232 0.575095 0.459403 0.000000 0.306432 -0.000040
3.022527 0.526574 0.458308 0.000000 -0.280544 -0.000177
1.944908 0.714074 0.696184 0.066070 0.001682 -0.001710
2.476232 0.475680 0.498381 0.000000 -0.877065 -0.000007
1.784324 0.440182 0.661794 0.051165 0.004194 0.004252
2.826450 0.358620 0.726373 0.077711 -0.006586 -0.009287
1.924275 0.257871 0.830949 0.051163 0.012880 0.012707
1.721797 0.465178 0.638550 -0.039586 0.004859 0.005196
1.733803 0.791744 0.786641 -0.039586 -0.005301 0.005661
0.143914 0.612622 0.587539 -0.165384 0.000165 0.000132
0.510463 0.550170 0.455263 0.000000 0.013422 -0.000032
0.329857 0.544914 0.623040 0.000000 -0.026847 0.000016
1.747838 0.605983 0.477529 0.000000 0.677797 -0.000028
1.394089 0.465150 0.541757 0.000000 -0.999634 0.000000
3.183012 0.621150 0.468860 -0.236512 0.000134 -0.000127
2.066510 0.480767 0.588061 0.000000 -0.820019 0.000005
1.502030 0.668183 0.418971 -0.039586 -0.006430 -0.006839
1.861476 0.669925 0.668088 0.051162 -0.011233 0.011162
2.811215 0.660010 0.630236 0.000000 -0.701013 0.001134
3.065955 0.774898 0.335231 0.077711 -0.009205 -0.006699
3.065955 0.774898 0.743169 0.077709 -0.009206 0.006699
3.158033 0.702730 0.699307 -0.177556 0.003382 -0.003332
1.793362 0.466455 0.554286 -0.000001 -0.982939 0.000002
1.793362 0.509491 0.613253 0.000001 -0.477472 0.000012
0.837345 0.466643 0.523101 0.000000 -0.979435 -0.000003
1.946254 0.430983 0.650118 0.066073 -0.008698 -0.008774
2.968290 0.388272 0.679173 0.000000 0.701012 0.000496
2.994664 0.656180 0.626471 0.000000 -0.701012 0.000496
0.245525 0.482200 0.590006 0.000000 -0.804208 0.000076
1.802213 0.267275 0.276605 -0.051130 -0.002028 0.001914
2.909097 0.680256 0.686242 0.000000 0.701012 -0.000425
1.064968 0.465737 0.549617 -0.000000 -0.992580 0.000003
1.702313 0.466542 0.554775 0.000000 -0.984218 0.000002
0.973919 0.465720 0.549476 0.000000 -0.992579 0.000006
0.253734 0.546902 0.623123 0.000000 -0.014260 0.000015
2.339658 0.505751 0.467265 0.000000 -0.527206 -0.000010
2.617553 0.470198 0.601650 -0.000000 -0.713151 0.000229
2.748472 0.611323 0.459918 0.000000 0.713150 -0.000656
1.014966 0.632885 0.535507 0.000000 0.999628 -0.000000
0.040957 0.556837 0.503746 -0.567209 0.000005 -0.000025
0.791820 0.500435 0.607649 0.000000 -0.571955 0.000009
3.113688 0.469893 0.635046 0.000000 -0.701013 -0.000623
0.336574 0.477211 0.495737 0.000000 -0.849925 -0.000001
0.837345 0.500813 0.470486 0.000001 -0.525953 -0.000005
0.382099 0.578780 0.617697 0.000000 0.357535 0.000034
2.658330 0.629997 0.517015 0.000000 0.967096 -0.000003
1.702313 0.479234 0.492562 0.000000 -0.835185 -0.000017
2.522503 0.547045 0.455302 -0.000000 -0.027057 -0.000016
1.927415 0.329300 0.330078 0.066071 -0.001595 0.001622
2.955539 0.682987 0.652822 0.000000 -0.701013 0.000496
3.033789 0.629373 0.600120 0.000000 0.713148 0.000328
3.083952 0.349210 0.717571 -0.000001 0.701010 0.000255
2.931478 0.603597 0.475402 0.000000 0.657076 -0.000007
1.847729 0.095846 0.090245 -0.039587 0.011602 -0.011996
1.652697 0.808412 0.789250 -0.051128 0.004884 -0.004593
1.947600 1.098066 1.073892 -0.051127 0.011257 -0.010386
1.642199 0.693329 0.668206 -0.051127 0.015607 -0.014103
1.019443 0.525142 0.458727 -0.000001 -0.276645 -0.000022
2.256818 0.547471 0.455290 -0.000000 -0.027278 -0.000008
1.975461 0.615407 0.487807 -0.000001 0.785559 -0.000005
1.611264 0.508245 0.612571 0.000001 -0.480229 0.000047
2.294133 0.478109 0.494288 0.000000 -0.849389 -0.000008
1.559473 0.442517 0.427592 -0.039590 0.002143 -0.002306
0.791820 0.465955 0.551236 0.000000 -0.988885 0.000002
0.603005 0.465170 0.535933 0.000000 -0.999634 -0.000000
0.525389 0.465170 0.535933 0.000000 -0.999634 -0.000000
2.203084 0.631022 0.521153 0.000000 0.979435 -0.000003
2.521756 0.493265 0.476453 0.000000 -0.657673 -0.000004
1.789706 0.748508 0.362778 -0.051129 0.002442 0.002304
1.608052 0.495376 0.474027 -0.039588 0.010716 -0.011145
1.702313 0.509491 0.613253 0.000000 -0.480009 0.000024
1.520214 0.580731 0.616931 0.000000 0.382534 0.000031
1.247067 0.617808 0.491068 -0.000000 0.819984 -0.000009
0.791820 0.595909 0.608842 -0.000000 0.549948 0.000010
3.166673 0.781535 0.758719 -0.177556 -0.003274 0.003438
1.860579 0.301285 0.308745 0.066072 -0.005799 0.005877
2.749380 0.619613 0.584651 -0.000001 0.823824 0.000002
1.826583 1.015104 0.083310 -0.051126 0.008940 0.008320
1.430658 0.544772 0.455363 0.000000 -0.027057 -0.000239
2.141887 0.465116 0.537922 0.000000 -0.999634 -0.000000
1.114971 0.547471 0.623110 0.000000 -0.027266 0.000016
1.643534 0.753290 0.746070 -0.039586 -0.003151 0.003384
2.935956 0.545198 0.455352 0.000000 -0.027266 -0.000016
0.928394 0.612271 0.594406 0.000000 0.753336 0.000023
1.789706 0.748508 0.715622 -0.051130 0.002442 -0.002304
3.146101 0.302639 0.796444 -0.177557 -0.002414 -0.002378
1.110493 0.632974 0.539626 -0.000000 0.999628 0.000000
1.959262 0.277472 0.269231 0.051164 0.013778 -0.013536
2.430707 0.619125 0.585393 0.000000 0.835060 0.000017
2.840429 0.617625 0.490805 0.000001 0.818436 -0.000009
0.518672 0.619184 0.585304 0.000000 0.835183 0.000017
3.183012 0.580438 0.603766 1.000000 0.000000 0.000000
0.245525 0.619105 0.585423 -0.000000 0.835212 0.000034
2.856848 0.548181 0.623140 0.000000 -0.013631 0.000124
0.564197 0.506242 0.611421 0.000000 -0.503975 0.000006
3.065018 0.299846 0.303280 0.077711 0.009205 -0.006699
2.294133 0.598467 0.471353 0.000000 0.594331 -0.000035
0.245525 0.469149 0.513408 0.000001 -0.951838 -0.000017
1.973168 0.700596 0.392841 0.066072 0.007307 0.007389
1.973168 0.397471 0.685559 0.066073 -0.007307 -0.007389
2.388168 0.465086 0.539555 0.000000 -0.999910 0.000000
2.612059 0.551306 0.455309 0.000000 0.027057 -0.000008
0.973919 0.504182 0.610161 0.000000 -0.526903 0.000010
1.954328 0.633283 0.625400 0.051167 -0.004493 0.004554
1.569803 0.650042 0.627780 -0.051126 0.003548 -0.003344
1.383641 0.494149 0.602718 0.000000 -0.635540 0.000002
2.112035 0.498228 0.606034 0.000000 -0.594364 0.000018
0.973919 0.601154 0.473395 -0.000000 0.615898 -0.000066
2.567281 0.471751 0.506419 0.000000 -0.923862 -0.000011
3.062828 0.546902 0.623123 0.000000 -0.013422 0.000032
1.768594 0.151534 0.146210 -0.039587 0.007402 -0.007839
1.528483 0.397505 0.690911 -0.039590 0.004287 0.004591
1.110493 0.479078 0.585601 0.000000 -0.834876 0.000009
2.294133 0.630178 0.517702 0.000002 0.687190 -0.000001
2.800348 0.486743 0.459918 -0.000000 -0.713149 -0.000656
1.292591 0.494684 0.603185 0.000000 -0.657673 0.000004
2.248609 0.632752 0.545375 -0.000000 0.997341 0.000001
2.627855 0.459900 0.442557 0.077710 -0.006401 0.009027
0.700771 0.581847 0.461931 0.000000 0.382584 -0.000031
1.732381 0.193465 0.193265 -0.051128 -0.014236 0.012957
2.885953 0.621845 0.580978 -0.000000 0.863692 0.000015
1.519468 0.548749 0.455256 -0.000000 -0.027057 -0.000016
1.716061 0.429943 0.407457 -0.039587 0.018855 -0.018345
3.022527 0.479547 0.492087 0.000000 -0.835211 -0.000034
2.794904 0.485586 0.594165 -0.000001 -0.752890 0.000023
2.955415 0.760355 0.340500 0.077712 -0.009205 -0.006699
2.999444 0.346146 0.357818 0.000000 0.701012 -0.000992
0.882870 0.579543 0.460995 0.000000 0.355051 -0.000009
1.847122 0.222446 0.845902 0.066071 -0.009742 -0.009805
1.821554 0.337711 0.348175 0.066072 -0.003132 0.003182
1.613503 0.544914 0.455360 0.000000 -0.027057 -0.000239
2.689061 0.471425 0.633540 0.000001 -0.701012 -0.000567
2.799912 0.664938 0.407216 0.077710 0.006587 0.009287
1.338116 0.476919 0.582175 -0.000000 -0.863657 0.000008
1.247813 0.632962 0.540052 0.000000 0.999640 0.000000
1.700049 0.660228 0.662750 -0.039587 -0.009430 0.009884
0.518672 0.488828 0.480702 0.000001 -0.716324 -0.000025
2.750872 0.553294 0.623037 0.000000 0.026847 0.000241
2.932934 0.710893 0.362042 0.077710 0.006586 0.009287
1.755456 0.836469 0.811290 -0.051127 0.002028 -0.001914
1.611264 0.632132 0.551096 0.000001 0.988036 0.000004
1.201542 0.600678 0.605377 0.000000 0.611125 0.000004
1.811295 0.210400 0.217075 -0.051128 -0.007119 0.006661
3.113577 0.627023 0.508126 -0.233813 0.000156 -0.000065
1.413457 0.460536 0.452208 -0.051128 -0.014189 0.012917
3.146101 0.810468 0.297257 -0.177556 -0.002337 -0.002454
1.064968 0.599067 0.471796 -0.000001 0.591721 -0.000018
2.600687 0.639671 0.634312 0.077710 0.006401 -0.009027
1.975461 0.475492 0.579677 0.000000 -0.876592 0.000007
0.136021 0.611365 0.491817 -0.196083 0.000139 -0.000100
2.885953 0.484822 0.593275 -0.000000 -0.770761 0.000021
2.430707 0.498599 0.472092 0.000000 -0.593394 -0.000009
3.209815 0.260714 0.822613 -0.177557 -0.002414 -0.002378
2.020985 0.591579 0.466835 -0.000001 0.475759 -0.000003
2.931478 0.594247 0.609936 0.000001 0.547803 0.000010
1.110493 0.617787 0.491038 0.000000 0.820018 -0.000018
3.164586 0.342407 0.327064 -0.177557 -0.003382 0.003332
3.164586 0.764684 0.336245 -0.177557 -0.003274 -0.003438
2.368764 0.547187 0.623102 0.000000 -0.027266 0.000016
2.112035 0.591824 0.466979 0.000000 0.504001 -0.000011
0.410458 0.632889 0.535649 0.000000 0.999628 -0.000000
3.059696 0.724347 0.693478 0.000000 -0.701013 0.001275
1.565783 0.349730 0.737270 -0.039589 0.006701 0.007119
0.700771 0.600455 0.605552 -0.000000 0.615870 0.000033
1.862246 0.081532 1.002225 -0.039589 0.010001 0.010448
0.611961 0.549459 0.455254 0.000000 0.013422 -0.000126
1.383641 0.620182 0.583750 -0.000001 0.845821 0.000004
3.183012 0.599403 0.539200 1.000000 0.000000 0.000000
3.183012 0.549033 0.488830 1.000000 0.000000 0.000000
3.183012 0.498663 0.539200 1.000000 0.000000 0.000000
1.952982 0.105047 0.979110 0.051163 0.004044 0.004102
3.051740 0.727744 0.345479 -0.000000 0.701012 0.000383
2.977003 0.618072 0.491446 -0.000000 0.819997 -0.000036
1.338116 0.579742 0.461071 -0.000000 0.357564 -0.000034
1.828731 0.766371 0.765245 0.051162 -0.002060 0.002094
1.429165 0.590811 0.612012 -0.000000 0.502643 0.000011
2.385183 0.605095 0.601690 -0.000000 0.677788 0.000028
2.671571 0.662294 0.436892 0.077711 -0.009205 -0.006699
1.565739 0.575231 0.459447 -0.000000 0.306454 -0.000040
0.120402 0.517792 0.471673 -0.256867 -0.000054 -0.000109
0.382099 0.579178 0.460855 0.000000 0.357525 -0.000034
1.894158 0.067702 0.061613 -0.039588 0.005001 -0.005346
2.794904 0.594544 0.468659 0.000000 0.549735 -0.000020
3.001546 0.721283 0.690467 0.000002 -0.701011 0.000992
3.029570 0.359933 0.707030 -0.000001 0.701012 0.001275
1.156017 0.473792 0.501963 0.000000 -0.901850 -0.000002
0.112692 0.478625 0.554698 -0.286899 -0.000103 0.000020
2.703855 0.505631 0.467340 0.000000 -0.527055 -0.000021
0.609722 0.482115 0.589891 -0.000000 -0.803869 0.000010
3.068052 0.496409 0.473789 -0.000000 -0.636795 -0.000002
1.681512 0.763013 0.339358 -0.051121 0.002608 0.002460
1.690552 0.279611 0.809096 -0.039589 0.002651 0.002849
2.551972 0.633731 0.452935 0.077712 0.004267 0.006030
1.834563 0.432751 0.440390 0.066070 -0.004872 0.004943
2.703855 0.524460 0.619474 -0.000001 -0.261959 0.000012
1.787912 0.683703 0.426647 0.066074 0.003248 0.003300
2.020985 0.477997 0.494469 -0.000000 -0.849655 -0.000008
2.066510 0.632744 0.532918 0.000001 0.995445 -0.000001
1.521224 0.696570 0.680656 -0.051130 0.003548 -0.003343
2.658330 0.554216 0.622986 0.000000 0.067639 0.000382
1.935937 1.010367 0.081013 0.051166 -0.007788 -0.007833
1.935937 1.010367 0.997387 0.051163 -0.003894 0.003950
3.158033 0.395336 0.379093 -0.177557 -0.003382 0.003332
3.158033 0.711755 0.388274 -0.177557 -0.003274 -0.003438
1.805437 0.074067 0.072317 -0.051127 -0.008940 0.008319
1.471529 0.403281 0.682472 -0.051126 -0.007096 -0.006639
1.863508 0.016812 0.016037 -0.051128 -0.012581 0.011542
1.587671 0.288772 0.283368 -0.051128 -0.002442 0.002304
1.703813 0.174262 0.907593 -0.051127 -0.012912 -0.011827
1.529600 0.346026 0.339648 -0.051127 -0.002773 0.002616
1.747366 0.966745 0.128597 -0.039587 -0.014001 -0.014223
1.558635 0.780667 0.311508 -0.039591 -0.003051 -0.003277
1.685170 0.285730 0.287416 -0.051128 -0.004387 0.004129
1.952982 0.105047 0.099290 0.051163 0.008088 -0.008128
2.435185 0.545340 0.455348 0.000000 -0.027057 -0.000239
1.156017 0.556943 0.455629 -0.000000 0.094550 -0.000068
2.476232 0.465824 0.550322 0.000000 -0.992553 0.000002
0.090045 0.525442 0.598410 -0.375206 -0.000027 0.000063
0.655246 0.619496 0.584829 0.000001 0.825657 0.000004
0.973919 0.594722 0.609624 0.000001 0.549483 0.000039
2.932934 0.387173 0.716357 0.000001 -0.701012 -0.000850
3.059696 0.373719 0.384922 -0.000000 0.701013 -0.001275
1.884412 0.472580 0.504533 0.000000 -0.913120 -0.000006
2.112035 0.505631 0.467340 0.000000 -0.527206 -0.000010
0.518672 0.481017 0.588406 0.000000 -0.803810 0.000001
3.183012 0.512975 0.599555 1.000000 0.000000 0.000000
2.337419 0.632939 0.540904 0.000000 0.999640 0.000000
1.535742 0.710884 0.383674 -0.051130 0.003548 0.003343
2.052330 0.547187 0.623102 0.000000 -0.027266 0.000237
2.886927 0.425469 0.399687 -0.000002 -0.701000 0.000354
1.201542 0.493292 0.476430 0.000000 -0.657673 -0.000004
2.430707 0.468550 0.515342 -0.000001 -0.958969 -0.000004
2.203084 0.503226 0.609546 -0.000000 -0.549933 0.000020
0.791820 0.626792 0.570832 -0.000002 0.891251 0.000003
0.837345 0.609685 0.597239 0.000000 0.716670 0.000003
2.020985 0.629686 0.562478 0.000000 0.958682 0.000002
1.938629 0.190150 0.896487 0.051164 0.010484 0.010449
1.110493 0.596496 0.608442 0.000001 0.570752 0.000019
0.564197 0.582208 0.462081 0.000000 0.407396 -0.000029
0.427623 0.508151 0.612519 -0.000000 -0.479905 0.000012
2.001427 0.211069 0.206987 0.051163 0.005243 -0.005306
2.001427 1.060806 1.042263 0.051165 -0.008986 0.009004
2.001427 0.089403 0.087392 0.051163 0.006890 -0.006947
2.001427 0.973902 0.956838 0.051163 -0.008088 0.008128
2.001427 0.834855 0.820157 0.051164 -0.006441 0.006501
2.001427 0.834855 0.258243 0.051162 -0.012880 -0.012708
2.001427 0.765331 0.326583 0.051164 -0.008238 -0.008274
3.159737 0.811028 0.808771 -0.177557 0.001207 -0.001189
1.793362 0.473009 0.503597 0.000000 -0.901780 -0.000012
1.474690 0.622592 0.498754 -0.000000 0.877065 -0.000007
2.112035 0.611282 0.595523 0.000000 0.735061 0.000001
3.061797 0.675661 0.681725 -0.000000 0.701013 -0.001275
0.700771 0.619281 0.493244 -0.000000 0.834978 -0.000009
1.896464 0.204459 0.210235 0.066073 -0.004871 0.004942
2.385183 0.625226 0.503949 0.000000 0.913049 -0.000001
2.799912 0.433128 0.407216 -0.000000 -0.701012 0.000850
1.413457 0.460536 0.626191 -0.051127 -0.014189 -0.012917
1.762633 0.852358 0.250825 -0.051128 0.007781 0.007267
1.354535 0.632947 0.540620 -0.000000 0.999628 0.000000
0.336574 0.513206 0.463283 -0.000000 -0.432076 -0.000054
3.085664 0.620348 0.469099 0.000000 0.713149 -0.000328
1.573042 0.755493 0.744305 -0.039587 -0.006702 0.007119
1.626187 0.424012 0.671590 -0.039588 0.009430 0.009884
3.153713 0.421202 0.655830 -0.177558 0.003274 0.003438
2.885953 0.590289 0.466085 -0.000001 0.471625 -0.000006
1.730214 0.793955 0.310233 -0.051127 0.004387 0.004129
1.594708 0.742425 0.354680 -0.051126 0.005547 0.005209
0.291049 0.622694 0.498941 0.000000 0.876980 -0.000014
1.883941 0.047341 1.028522 -0.051128 -0.007616 -0.007116
1.947600 0.004432 1.078400 0.051162 0.008987 0.009005
1.645742 0.231517 0.227087 -0.051128 -0.001945 0.001836
3.146101 0.287598 0.297257 -0.177556 0.002337 -0.002454
2.840429 0.504665 0.610461 -0.000001 -0.526904 0.000042
3.083952 0.730807 0.735933 0.000003 0.700974 -0.000255
2.521756 0.612715 0.593897 0.000000 0.753304 0.000011
1.019443 0.617218 0.490223 0.000000 0.819921 -0.000005
2.567281 0.575433 0.618888 0.000000 0.306027 0.000020
1.064968 0.488753 0.597621 -0.000000 -0.716628 0.000013
2.203084 0.510089 0.464833 -0.000001 -0.427757 -0.000003
1.702313 0.529360 0.457592 0.000000 -0.228167 -0.000110
1.383641 0.503463 0.468698 0.000000 -0.549098 -0.000010
2.476232 0.624016 0.501457 0.000000 0.886126 -0.000002
1.201542 0.590040 0.465949 0.000000 0.480161 -0.000003
1.793362 0.593643 0.468089 0.000000 0.527055 -0.000010
1.019443 0.619340 0.585067 0.000000 0.835112 0.000004
1.782645 0.188226 0.898893 -0.039587 0.008202 0.008653
2.891089 0.761777 0.748324 0.077710 0.006401 -0.009027
2.740266 0.388395 0.381295 0.077709 -0.006586 0.009287
3.171189 0.858545 0.843444 0.077712 0.004267 -0.006029
2.675627 0.410726 0.675154 0.077710 -0.006401 -0.009027
2.912635 0.328845 0.755640 0.077710 -0.006586 -0.009287
3.041912 0.813883 0.278858 0.077710 0.006586 0.009287
2.998820 0.299071 0.784908 0.077710 -0.006586 -0.009287
3.171189 0.239522 0.843444 0.077712 -0.004267 -0.006029
2.998820 0.798996 0.784908 0.077709 0.006587 -0.009287
3.085005 0.269296 0.814176 0.077712 -0.006586 -0.009287
3.085005 0.828770 0.814176 0.077713 0.006586 -0.009287
3.128097 0.254409 0.249590 0.077711 -0.004267 0.006030
3.128097 0.843657 0.249590 0.077711 0.004267 0.006030
1.703149 0.686878 0.390747 -0.039589 -0.006701 -0.007119
2.977274 0.726212 0.731415 0.077713 0.006586 -0.009286
2.909097 0.417810 0.686242 0.000000 -0.701012 -0.000425
1.702313 0.585533 0.614794 -0.000000 0.432187 0.000027
1.775353 0.399949 0.701987 0.051164 0.002359 0.002397
1.659817 0.375154 0.359644 -0.039589 0.003051 -0.003277
1.658212 0.701720 0.402505 -0.051127 0.007805 0.007289
3.068052 0.593281 0.610536 0.000001 0.527046 0.000083
2.600118 0.465158 0.542041 0.000000 -0.999628 0.000000
0.382099 0.484233 0.592563 0.000000 -0.770855 0.000011
1.450808 0.632981 0.539342 0.000000 0.999628 0.000000
0.655246 0.608644 0.480091 -0.000001 0.713896 -0.000006
1.019443 0.517040 0.616809 -0.000001 -0.382449 0.000063
0.609722 0.627175 0.508524 0.000000 0.933852 -0.000010
1.847122 0.862916 0.858826 0.051163 -0.006441 0.006501
1.520214 0.521423 0.618474 0.000001 -0.331929 0.000074
1.975461 0.632695 0.532245 -0.000001 0.975916 -0.000001
1.839945 0.859731 0.248783 -0.051128 0.014898 0.013513
0.700771 0.508120 0.612502 0.000001 -0.464916 0.000006
0.473148 0.593583 0.610348 -0.000000 0.527038 0.000042
2.476232 0.509522 0.613270 0.000000 -0.480009 0.000024
0.928394 0.488877 0.480652 -0.000000 -0.716575 -0.000025
1.502030 0.426322 0.422593 -0.051128 -0.005322 0.005000
3.022527 0.516975 0.616782 -0.000000 -0.382689 0.000062
2.248609 0.541654 0.622821 0.000000 -0.094581 0.000136
2.612806 0.540628 0.622724 -0.000001 -0.094376 0.000068
0.245525 0.508743 0.465556 -0.000000 -0.480331 -0.000094
1.569314 0.430802 0.646048 -0.051132 -0.002217 -0.002092
3.063899 0.453042 0.651609 0.000000 -0.701013 -0.000156
3.128293 0.351941 0.750990 -0.000002 -0.701003 -0.000510
0.973919 0.628496 0.512126 -0.000002 0.935531 -0.000005
1.887044 0.800330 0.283963 0.051163 -0.003820 -0.003875
2.888593 0.695575 0.377100 0.077710 0.006586 0.009287
1.656788 0.564854 0.456752 0.000000 0.201677 -0.000016
2.294133 0.575569 0.618844 0.000000 0.306396 0.000040
1.110493 0.497444 0.472979 0.000000 -0.614168 -0.000004
3.151627 0.447077 0.429953 -0.177557 -0.003382 0.003332
3.151627 0.660014 0.439134 -0.177558 -0.003274 -0.003438
