2.210672 0.600981 0.526230 0.000000 -0.958478 0.000001
3.159255 0.772075 0.502880 0.000000 0.999909 0.000000
1.885034 0.169350 0.117128 0.058519 0.012844 -0.017123
2.264182 0.686038 0.588898 0.000000 0.027745 0.000009
1.309113 0.686113 0.588896 0.000000 0.027745 0.000018
2.311206 0.612573 0.452463 -0.000000 -0.829500 -0.000010
1.399296 0.536943 0.607873 -0.058467 -0.006294 -0.007833
1.456670 0.633039 0.571971 0.000000 -0.603102 0.000010
1.205336 0.759468 0.546818 0.000001 0.858735 0.000018
3.218236 0.423458 0.689903 0.025559 0.006752 0.008321
1.657737 0.642046 0.425438 0.000000 -0.487945 -0.000014
1.932037 0.151713 0.895581 0.058519 0.012844 0.017123
0.550246 0.681303 0.588838 0.000000 -0.027745 0.000035
1.753680 1.204207 0.119075 -0.029751 -0.021199 -0.024652
2.009605 0.770318 0.519080 -0.000001 0.974519 0.000002
3.381484 0.387663 0.288125 -0.041377 0.005177 -0.006943
1.506937 0.758274 0.454471 0.000001 0.794168 -0.000001
1.766602 1.099583 0.793664 -0.058469 0.001930 -0.002415
2.462006 0.767018 0.530914 -0.000000 0.941080 0.000005
3.337548 0.510835 0.621674 -0.041376 0.009060 0.011962
1.933554 1.369521 0.006386 -0.000001 0.806649 -0.000264
0.853468 0.708992 0.417704 -0.000001 0.283652 -0.000026
1.802464 1.108231 0.205318 -0.058470 0.001804 0.002257
2.562540 0.604755 0.466590 0.000001 -0.898333 -0.000002
2.813874 0.760315 0.545397 -0.000001 0.857258 0.000005
2.713340 0.608468 0.544086 0.000002 -0.802609 0.000002
3.005115 0.551005 0.602309 0.025561 -0.010578 -0.014305
3.463984 0.975909 0.714926 -0.041376 -0.005178 0.006943
3.446045 0.265978 0.808443 -0.041375 -0.010222 -0.013679
0.702668 0.731955 0.575075 0.000001 0.535084 0.000048
1.443698 0.685813 0.588905 -0.000001 0.012018 0.000020
1.607470 0.771664 0.493042 0.000000 0.995135 -0.000001
3.216008 0.712974 0.418955 -0.000000 0.311431 -0.000023
1.598837 0.884503 0.654523 -0.029752 -0.018400 0.022343
1.620175 0.775503 0.578935 -0.029749 -0.018402 0.022344
0.602134 0.614217 0.553078 -0.000001 -0.724824 0.000002
1.928247 0.839307 0.384674 0.058519 -0.003212 -0.004377
3.397624 1.009270 0.260678 -0.041377 0.005111 0.006992
1.054536 0.725993 0.578582 -0.000001 0.462404 0.000029
1.643000 1.000666 0.723899 -0.058469 0.004868 -0.006072
1.408821 0.874053 0.362907 -0.029751 -0.008522 -0.011695
1.707758 0.580041 0.591910 -0.029749 0.006818 0.009487
0.300534 0.737501 0.432004 0.000001 0.603156 -0.000040
3.452025 1.060998 0.777271 -0.041379 -0.010353 0.013574
1.408025 0.597457 0.502654 0.000000 -0.999615 0.000000
2.411739 0.639027 0.576001 0.000000 -0.535349 0.000024
1.406403 0.727639 0.577674 0.000001 0.467119 0.000004
1.155069 0.603602 0.533835 -0.000000 -0.931613 0.000006
3.404203 0.913707 0.672857 -0.041377 0.015330 -0.019817
1.877453 0.522979 0.605603 0.114662 -0.006556 -0.008933
1.155069 0.627265 0.435869 -0.000000 -0.665856 -0.000004
0.602134 0.721484 0.580830 0.000000 0.414205 0.000033
1.305870 0.598336 0.514117 -0.000000 -0.988256 0.000002
2.864141 0.739810 0.569391 -0.000000 0.625082 0.000002
1.708004 0.724327 0.423749 0.000000 0.463498 -0.000014
3.071571 0.914971 0.670277 0.025561 0.026422 -0.026904
3.210311 0.593713 0.446611 0.025560 0.008164 -0.009914
3.113853 0.686340 0.414291 0.000000 0.013469 -0.000072
0.853468 0.739193 0.569884 0.000001 0.624828 0.000038
1.940377 0.365009 0.730351 0.114663 -0.005393 -0.007352
1.940377 0.982683 0.288846 0.114663 0.002644 0.003607
3.115474 0.733213 0.574251 -0.000000 0.558364 0.000045
1.656994 0.961651 0.691679 -0.058469 0.002476 -0.003096
1.922182 0.566777 0.579912 0.114662 -0.006820 -0.009292
1.871388 0.575841 0.413973 0.058519 0.013361 -0.017780
1.473738 0.575510 0.431723 -0.058469 -0.012587 0.015402
1.004269 0.601410 0.527671 0.000000 -0.958446 0.000002
3.316542 0.736298 0.572102 0.000000 0.580637 0.000011
1.959338 0.657083 0.418779 0.000000 -0.311289 -0.000023
2.059872 0.611287 0.454407 -0.000001 -0.843119 -0.000010
1.831619 0.261517 0.819563 -0.029750 0.006364 0.008883
2.462006 0.621490 0.441415 0.000000 -0.726302 -0.000029
1.506937 0.641094 0.425970 0.000000 -0.511783 -0.000013
1.140476 0.685061 0.588925 0.000000 0.027349 0.000036
0.803202 0.762055 0.460969 0.000000 0.885929 -0.000008
1.356136 0.660997 0.585638 0.000000 -0.285302 0.000102
1.236145 0.683107 0.414315 0.000000 -0.027547 -0.000035
1.758271 0.677025 0.588585 0.000001 -0.096278 0.000313
1.959338 0.747066 0.562790 -0.000000 0.707104 0.000030
3.165741 0.602808 0.471440 -0.000001 -0.941116 -0.000011
2.562540 0.765644 0.468668 0.000001 0.898174 -0.000002
1.909071 0.722032 0.422622 0.000000 0.439111 -0.000015
0.149750 0.615995 0.453921 -0.153464 -0.000204 -0.000150
2.562540 0.629535 0.569250 0.000000 -0.624984 0.000019
1.438833 0.461511 0.665176 -0.058468 -0.006294 -0.007833
1.693931 0.172884 0.876654 -0.058469 -0.005875 -0.007316
1.588890 1.077790 0.789575 -0.029749 -0.015451 0.019575
1.633908 0.240796 0.826894 -0.058468 -0.007217 -0.008966
1.708937 0.155906 0.114110 -0.058469 -0.005875 0.007316
1.528867 1.009878 0.739815 -0.029751 -0.017871 0.021872
1.813977 1.332462 0.976173 -0.029751 -0.006667 0.009286
2.864141 0.640707 0.426201 0.000001 -0.511595 -0.000025
2.311206 0.756780 0.550990 0.000000 0.817830 0.000001
0.501601 0.702901 0.416183 -0.000000 0.205153 -0.000072
3.115474 0.640448 0.576848 -0.000000 -0.511859 0.000025
2.763607 0.742480 0.567133 -0.000000 0.666707 0.000008
3.065208 0.717971 0.420835 -0.000000 0.388993 -0.000036
2.914407 0.762683 0.541035 -0.000000 0.898433 0.000004
0.903735 0.633284 0.431058 0.000000 -0.581098 -0.000021
1.927489 0.019960 0.981325 0.114662 -0.003807 -0.005193
2.260939 0.758375 0.454630 -0.000000 0.844415 -0.000005
1.669554 1.092106 0.794965 -0.058468 0.003945 -0.004926
0.702668 0.702754 0.416152 0.000000 0.205224 -0.000144
3.201862 0.956091 0.304901 0.025560 -0.006752 -0.008321
1.927489 1.344258 0.988562 0.058519 -0.007459 0.010098
0.350800 0.610944 0.548256 0.000001 -0.843360 0.000010
1.901713 0.983915 0.726411 0.058518 -0.005284 0.007182
2.713340 0.765837 0.534045 -0.000000 0.931080 0.000001
1.932037 0.146878 0.114221 0.114662 -0.005499 0.007496
0.853468 0.768261 0.527167 0.000000 0.958426 0.000009
1.205336 0.597592 0.506863 0.000001 -0.862372 0.000000
2.941514 0.536120 0.392693 0.025561 -0.021145 0.023853
1.104802 0.745220 0.564613 -0.000000 0.687415 0.000004
2.964674 0.736145 0.430992 -0.000000 0.578301 -0.000005
1.841436 1.132832 0.165889 -0.029749 -0.011514 -0.015328
2.059872 0.767853 0.474746 0.000000 0.950256 -0.000002
1.858804 0.673810 0.588236 0.000001 -0.123272 0.000122
1.656994 0.407870 0.691679 -0.058468 -0.009902 -0.012221
1.714141 1.044551 0.232364 -0.029752 -0.015146 -0.019270
3.316542 0.743853 0.437299 0.000000 0.665856 -0.000004
1.560233 0.531367 0.402940 -0.058469 -0.002360 0.002952
1.808538 0.715382 0.583389 -0.000000 0.363528 0.000155
1.747767 0.307622 0.764968 -0.058470 -0.002098 -0.002624
2.110138 0.757872 0.549368 -0.000000 0.844574 0.000005
2.110138 0.608909 0.544874 -0.000000 -0.872151 0.000004
2.964674 0.602020 0.529529 0.000000 -0.950218 0.000002
1.657737 0.768218 0.475892 0.000000 0.958369 -0.000002
3.258167 0.597540 0.505661 0.000000 -0.999626 0.000000
1.979040 0.526998 0.617194 0.058518 0.006527 0.008853
1.928247 0.530213 0.384674 0.058518 0.012844 -0.017123
1.734708 0.233949 0.167848 -0.029751 0.003182 -0.004516
1.533761 0.854613 0.371986 -0.029755 -0.004261 -0.006020
0.551868 0.642506 0.425181 0.000000 -0.487945 -0.000027
1.406403 0.636745 0.428658 -0.000000 -0.558467 -0.000045
1.607470 0.731510 0.427846 0.000000 0.535327 -0.000012
0.652401 0.754517 0.449071 0.000000 0.797505 -0.000046
1.825129 1.158120 0.854437 -0.029750 -0.023014 0.025995
3.167284 0.842579 0.610374 0.025560 -0.018148 0.018866
1.934312 0.908150 0.658879 0.114662 0.003120 -0.004256
1.860426 0.684760 0.414270 0.000000 0.027536 -0.000142
1.054536 0.766764 0.471581 -0.000000 0.941103 -0.000003
2.663073 0.756353 0.451594 -0.000001 0.813229 -0.000011
1.758271 0.652457 0.420470 -0.000000 -0.363500 -0.000078
2.964674 0.732399 0.574793 -0.000001 0.533384 0.000012
1.363804 0.823119 0.400226 -0.029751 -0.011362 -0.015152
1.413291 0.833063 0.607212 -0.058469 0.004721 -0.005890
0.501601 0.608285 0.543758 0.000000 -0.872637 0.000008
0.191590 0.761633 0.460000 0.008967 0.002000 -0.001022
0.373501 0.597547 0.497317 0.000000 -0.966955 -0.000000
1.559887 0.432606 0.689826 -0.029750 0.018401 0.022344
1.883518 0.878505 0.650500 0.058519 -0.006527 0.008853
3.165741 0.646003 0.423349 -0.000000 -0.439174 -0.000062
1.506937 0.599156 0.518859 -0.000001 -0.978054 0.000003
2.964674 0.627405 0.435744 -0.000000 -0.646342 -0.000018
1.255603 0.631360 0.570700 0.000000 -0.603354 0.000010
2.210672 0.640578 0.426278 0.000000 -0.511691 -0.000013
1.725527 0.447590 0.685348 -0.029750 0.009393 0.012786
0.085671 0.690028 0.438028 -0.403141 0.000008 -0.000070
1.054536 0.641554 0.577490 0.000001 -0.485041 0.000014
3.332464 0.432928 0.693131 -0.041376 -0.012776 -0.016828
1.557204 0.718040 0.582339 0.000002 0.359993 0.000010
1.787996 0.498691 0.351385 0.058518 0.006527 -0.008853
2.311206 0.611817 0.549617 0.000000 -0.829604 0.000010
3.493882 0.774585 0.464395 -0.131783 0.000341 -0.000146
1.004269 0.643195 0.424795 0.000001 -0.487932 -0.000054
2.813874 0.701503 0.415889 0.000000 0.205252 -0.000036
1.825559 1.252944 0.082318 -0.029749 -0.009091 -0.012410
2.964674 0.635185 0.573495 0.000001 -0.550458 0.000011
1.644013 0.316839 0.229216 -0.029750 0.007727 -0.010676
1.787996 0.890482 0.624997 -0.058466 0.002644 -0.003306
1.913843 0.278952 0.803676 0.058520 0.004455 0.006062
2.864141 0.606458 0.462945 0.000001 -0.896093 -0.000007
1.255603 0.600218 0.479727 0.000000 -0.965938 -0.000002
3.278663 0.537674 0.383314 -0.041378 -0.006090 0.008304
2.914407 0.726982 0.425162 -0.000000 0.487987 -0.000054
1.818321 0.395772 0.278180 0.058519 0.010359 -0.013922
1.592427 1.036767 0.246669 -0.058468 0.004616 0.005760
3.305174 0.409528 0.305197 0.025559 0.011252 -0.013128
1.457297 0.867504 0.631430 -0.058469 0.003147 -0.003934
1.838790 0.484561 0.658480 0.058517 0.006009 0.008158
0.752935 0.651897 0.582514 0.000000 -0.389084 0.000036
1.456670 0.601926 0.473960 0.000000 -0.950256 -0.000001
3.139779 0.559657 0.585602 0.025556 0.008682 0.010479
0.803202 0.613080 0.551486 0.000000 -0.813948 0.000005
1.708004 0.641685 0.577564 0.000000 -0.487773 0.000027
3.370319 0.767698 0.556037 0.014967 0.012755 0.007114
0.954002 0.759276 0.456062 0.000000 0.858854 -0.000009
3.122549 0.540017 0.401633 0.025560 0.017356 -0.018307
0.042181 0.723114 0.501602 -0.580051 0.000012 0.000000
3.329871 0.562293 0.599408 -0.041380 -0.006237 -0.008501
0.339450 0.771972 0.505961 -0.000000 0.999616 0.000000
3.165741 0.741599 0.435306 0.000000 0.646310 -0.000036
0.117061 0.758753 0.485019 -0.280684 0.000118 -0.000023
1.406403 0.729719 0.426740 0.000000 0.511930 -0.000013
3.065208 0.599411 0.520074 -0.000001 -0.976914 0.000003
0.250267 0.762648 0.541101 -0.000001 0.774299 0.000001
2.914407 0.609514 0.545914 0.000000 -0.859027 0.000001
0.117061 0.707396 0.573972 -0.280685 0.000039 0.000114
3.228918 0.978155 0.718325 0.025559 0.010285 -0.013964
3.250594 0.991750 0.274917 0.025560 0.010285 0.013964
2.361472 0.759911 0.457128 -0.000000 0.858336 -0.000005
0.803202 0.663031 0.417020 -0.000000 -0.258759 -0.000056
3.398220 0.581678 0.430823 -0.041376 0.019058 -0.023400
1.518755 0.531886 0.618777 -0.029754 0.003551 0.005033
1.872905 0.199600 0.841892 0.114662 -0.003172 -0.004328
1.889583 0.470432 0.338062 0.058519 0.006112 -0.008297
3.348308 0.872615 0.645904 -0.041377 0.017883 -0.022630
3.310943 0.466804 0.652885 -0.041376 0.007766 0.010316
1.387748 0.611405 0.549247 -0.058468 -0.012587 -0.015403
0.274590 0.597455 0.499646 -0.000000 -0.999904 -0.000000
1.804762 0.091691 0.933215 -0.058468 -0.004532 -0.005656
1.789756 1.260852 0.920775 -0.058466 0.004532 -0.005656
1.885034 1.200171 0.886075 0.058518 -0.012844 0.017123
3.101846 0.786072 0.568170 0.025560 -0.014465 0.016049
1.522800 0.458602 0.341997 -0.058468 -0.010196 0.012573
0.109070 0.622396 0.539937 -0.311830 -0.000090 0.000059
3.426121 0.807987 0.414480 -0.041376 -0.019059 -0.023400
1.806191 0.950362 0.331729 -0.058468 0.009735 0.012019
3.391131 0.682956 0.588909 0.000000 -0.013771 0.001133
3.288220 0.573747 0.430621 -0.041379 0.006168 -0.008245
1.894478 0.772088 0.501752 -0.000000 0.999637 0.000000
3.136911 0.470372 0.661489 0.025560 -0.004115 -0.005945
1.748994 1.163159 0.157424 -0.058469 0.006546 0.008143
3.493882 0.726210 0.476201 1.000000 0.000000 -0.000000
3.493882 0.682216 0.453055 1.000000 -0.000000 0.000000
3.493882 0.726210 0.527002 1.000000 0.000000 0.000000
3.493882 0.640350 0.481829 1.000000 0.000000 -0.000000
3.493882 0.683488 0.550198 1.000000 -0.000000 0.000000
1.457297 0.504942 0.635421 -0.029755 0.002841 0.004036
1.819494 0.132326 0.899645 -0.058469 -0.005203 -0.006487
1.693416 0.491854 0.653171 -0.029750 0.018401 0.022344
3.231091 0.598078 0.552492 0.000000 -0.806649 0.000248
0.984811 0.686264 0.414311 0.000000 0.027547 -0.000035
3.244487 0.571281 0.595866 0.025562 -0.009471 -0.012998
1.775866 0.518959 0.594012 0.114661 -0.003278 -0.004472
1.742128 0.974475 0.307660 -0.058469 0.004868 0.006072
1.712891 0.501391 0.390434 -0.058467 -0.010196 0.012573
1.777353 0.212284 0.151121 -0.029751 0.005758 -0.008069
2.864141 0.729395 0.426547 -0.000001 0.511564 -0.000025
1.979040 0.439682 0.322033 0.058519 0.005698 -0.007740
1.931279 0.482265 0.643136 0.114662 -0.003067 -0.004184
1.858804 0.759738 0.546366 -0.000001 0.756232 0.000001
1.708004 0.597528 0.497993 -0.000000 -0.999626 -0.000000
1.513993 0.824208 0.592588 -0.058470 0.003934 -0.004913
2.411739 0.606508 0.540359 -0.000000 -0.898463 0.000007
0.579433 0.597448 0.500173 -0.000000 -0.999909 -0.000000
3.440073 0.903935 0.342765 -0.041376 -0.007766 -0.010316
1.844854 0.905543 0.673121 0.058518 -0.006112 0.008297
1.979040 1.191786 0.873100 0.058517 -0.012844 0.017124
1.932037 1.200814 0.130215 0.114663 0.003172 0.004328
1.775866 0.829662 0.380667 0.058519 -0.012844 -0.017123
1.637787 0.537429 0.619220 -0.029751 0.018401 0.022344
1.723942 0.138928 0.901533 -0.058468 -0.010406 -0.012824
1.937344 0.950874 0.690617 0.114663 0.002908 -0.003968
1.713823 0.810063 0.606551 -0.029749 -0.006818 0.009487
0.401067 0.636994 0.574713 -0.000000 -0.558318 0.000011
1.305870 0.639027 0.427202 0.000000 -0.535259 -0.000006
1.557204 0.622721 0.563056 0.000000 -0.707107 0.000004
2.361472 0.666435 0.416221 0.000000 -0.205288 -0.000072
3.366839 0.940800 0.683943 -0.041375 -0.006472 0.008642
3.266275 0.761530 0.459971 0.000000 0.870147 -0.000002
1.946442 0.290477 0.217374 0.114663 -0.002274 0.003102
1.959338 0.643861 0.578757 0.000000 -0.463933 0.000014
1.758278 0.451267 0.649414 -0.058468 -0.002602 -0.003253
0.743206 0.597515 0.504759 0.000000 -0.999626 0.000000
3.016562 0.682129 0.414339 -0.000069 -0.001401 -0.001650
1.205336 0.644128 0.424307 0.000000 -0.463738 -0.000058
1.676737 0.797753 0.559251 -0.058468 0.010196 -0.012573
0.853468 0.643428 0.578530 -0.000000 -0.463760 0.000029
3.433798 0.849406 0.624691 -0.041377 0.008944 -0.012051
3.433798 0.849406 0.378512 -0.041376 0.008945 0.012051
1.713133 1.151469 0.845708 -0.029751 -0.006363 0.008882
1.054536 0.599311 0.483608 0.000001 -0.834133 -0.000000
2.462006 0.655448 0.583859 0.000000 -0.337541 0.000005
0.853468 0.615253 0.448741 -0.000001 -0.797370 -0.000023
0.551868 0.636526 0.574398 -0.000001 -0.558328 0.000045
1.872146 0.327611 0.255214 0.114663 -0.002432 0.003319
3.435589 0.435349 0.317105 -0.041376 -0.006389 0.008704
0.602134 0.723383 0.423283 0.000000 0.438526 -0.000015
0.183182 0.599663 0.482531 -0.023644 -0.001677 -0.000327
1.685196 0.916606 0.680152 -0.029751 -0.004697 0.006623
1.600433 0.379868 0.728247 -0.029751 0.008939 0.012220
1.768094 0.926355 0.689994 -0.029752 -0.008787 0.012029
2.009605 0.607605 0.542501 -0.000000 -0.885927 0.000016
0.418904 0.680701 0.414382 -0.000000 -0.027547 -0.000035
1.826660 0.848552 0.403396 0.114662 0.001639 0.002237
1.826660 0.848552 0.599808 0.114663 0.003278 -0.004472
1.907778 0.335863 0.747042 0.114663 -0.002432 -0.003319
1.946442 0.301391 0.777832 0.114662 -0.002221 -0.003030
1.979040 1.060812 0.226068 0.058519 -0.008909 -0.012021
0.461063 0.681002 0.588830 0.000000 -0.027745 0.000070
1.764343 0.431307 0.338297 -0.058468 -0.002476 0.003096
1.889583 0.439401 0.668576 0.114662 -0.005710 -0.007784
1.506937 0.723450 0.423316 0.000000 0.439004 -0.000015
1.755695 0.379152 0.268812 -0.029749 0.008182 -0.011261
3.417075 0.719841 0.421625 -0.127106 0.000151 -0.000331
1.657737 0.618757 0.558785 0.000000 -0.763023 0.000013
3.190064 0.685663 0.588921 0.000000 0.013851 0.000141
1.863049 0.368466 0.286449 0.114661 -0.002644 0.003607
1.783921 0.237245 0.818486 -0.058467 -0.007050 -0.008760
2.763607 0.655377 0.419370 0.000000 -0.337673 -0.000021
1.944167 0.106958 0.083236 0.114661 -0.005499 0.007496
1.676737 0.589841 0.419286 -0.029750 0.003409 -0.004835
2.311206 0.713683 0.419205 0.000000 0.337541 -0.000021
2.160405 0.606029 0.463824 0.000001 -0.896146 -0.000007
3.207787 0.497672 0.371183 0.025560 0.009002 -0.010823
0.954002 0.609398 0.457483 0.000001 -0.857258 -0.000005
0.250267 0.607937 0.543134 0.000000 -0.885707 0.000001
1.818321 0.379239 0.702460 0.114662 -0.005287 -0.007208
2.504165 0.683107 0.588888 0.000000 -0.027745 0.000018
3.316542 0.636121 0.574125 0.000001 -0.558280 0.000045
1.359759 0.757146 0.550571 0.000000 -0.806648 -0.000101
1.506937 0.641094 0.577233 0.000000 -0.511930 0.000013
1.846630 0.079015 0.947966 -0.029750 0.007879 0.010871
1.780036 0.600738 0.534689 0.114662 -0.003701 -0.005049
1.949474 0.225924 0.169643 0.114663 -0.001798 0.002453
1.885034 0.159680 0.872877 0.114662 -0.005499 -0.007496
1.872905 0.199600 0.161311 0.114663 -0.003172 0.004328
3.003687 0.768004 0.446018 -0.000001 0.806638 -0.000121
0.652401 0.605127 0.465768 -0.000000 -0.910053 -0.000007
1.934312 0.925378 0.322050 0.058518 -0.006112 -0.008297
1.553994 0.850281 0.610421 -0.058469 0.004721 -0.005890
2.210672 0.728943 0.576925 0.000000 0.511930 0.000025
1.763736 0.558879 0.440176 0.114662 -0.003701 0.005049
1.669088 0.685061 0.414278 0.000000 0.027547 -0.000035
1.909071 0.628782 0.434577 0.000000 -0.646284 -0.000018
1.933554 0.000000 0.006386 -0.000000 -0.806650 -0.000264
3.216008 0.757952 0.549241 0.000001 0.800571 0.000001
1.726301 0.804671 0.399977 -0.029752 -0.003409 -0.004835
3.083642 0.835549 0.607577 0.025559 -0.028908 0.024427
0.551868 0.763277 0.463384 0.000000 0.898056 -0.000007
1.544377 0.975853 0.711468 -0.058468 0.005287 -0.006591
1.356136 0.761365 0.459675 -0.000001 0.869151 -0.000004
2.411739 0.726326 0.578408 -0.000000 0.487795 0.000014
1.305870 0.729848 0.576386 -0.000001 0.506760 0.000006
2.346879 0.683257 0.588892 0.000000 -0.027745 0.000035
1.763736 0.788495 0.593254 0.058518 -0.003626 0.004939
3.417075 0.670386 0.415461 -0.123495 -0.000067 -0.000368
3.266275 0.644994 0.579349 0.000000 -0.463622 0.000014
3.493882 0.643990 0.528078 1.000000 0.000000 0.000000
3.397025 1.062289 0.222181 -0.041377 0.010222 0.013679
1.543873 0.342665 0.250948 -0.058469 -0.002308 0.002887
2.009605 0.607187 0.461502 0.000000 -0.885337 -0.000004
3.455015 0.329795 0.241518 -0.041377 -0.010222 0.013679
1.650929 0.437656 0.313606 -0.029750 0.004697 -0.006623
3.446045 1.103542 0.808443 -0.041376 -0.010354 0.013575
1.693416 0.892142 0.369789 -0.058467 0.010196 0.012573
1.693416 0.892142 0.633414 -0.058467 0.010196 -0.012573
0.551868 0.764020 0.538257 0.000001 0.905362 0.000003
1.155069 0.765395 0.535124 -0.000001 0.890053 0.000002
3.316542 0.765234 0.535505 -0.000000 0.921145 0.000013
1.909294 0.079840 0.934847 0.114661 -0.004653 -0.006345
1.841729 1.205049 0.872295 -0.058467 0.005707 -0.007109
3.455479 0.776459 0.491270 -0.127554 0.001472 -0.000083
2.864141 0.769490 0.480455 0.000000 0.972753 -0.000002
3.033540 0.547996 0.405000 0.025560 0.023135 -0.021873
1.518755 0.531886 0.384426 -0.029751 0.003551 -0.005033
3.321703 0.446523 0.334758 -0.041376 0.015528 -0.019650
1.979040 0.439682 0.681170 0.058519 0.011394 0.015265
1.557204 0.648687 0.422077 -0.000001 -0.412528 -0.000033
3.455479 0.762895 0.550697 -0.127556 0.001327 0.000733
0.153900 0.684760 0.585959 -0.145457 0.000001 0.000067
1.888771 1.367969 0.998935 -0.058468 0.012084 -0.014812
1.888771 1.367969 0.004268 -0.058468 0.012084 0.014812
1.888771 0.001552 0.998935 -0.000001 -0.806651 0.000260
1.888771 0.001552 0.004268 0.000000 -0.806651 -0.000260
1.205336 0.722978 0.423085 0.000000 0.439182 -0.000062
1.824385 0.994333 0.263539 0.058519 -0.005283 -0.007182
0.752935 0.639156 0.427125 0.000001 -0.506608 -0.000013
1.607470 0.670090 0.587689 0.000000 -0.178310 0.000042
1.798423 0.169264 0.871713 -0.058468 -0.005875 -0.007316
1.761760 1.010953 0.254171 -0.029750 -0.004091 -0.005785
3.401214 0.938322 0.319323 -0.041376 -0.006472 -0.008641
3.493882 0.590221 0.524298 -0.127337 -0.000374 0.000085
2.059872 0.737471 0.571222 -0.000001 0.597800 0.000010
0.245402 0.682655 0.588905 -0.000005 -0.005073 0.000385
2.512273 0.647354 0.422688 -0.000000 -0.438826 -0.000015
1.255603 0.760777 0.458625 -0.000000 0.872075 -0.000004
1.940377 0.375924 0.280849 0.114662 -0.002697 0.003679
1.869114 1.031930 0.740243 0.114663 0.004864 -0.006633
3.165741 0.599795 0.521760 -0.000000 -0.972684 0.000014
0.350800 0.607780 0.460369 0.000000 -0.885448 -0.000004
1.205336 0.727507 0.577747 -0.000001 0.487479 0.000027
0.401067 0.722302 0.580449 -0.000000 0.438850 0.000015
3.331685 0.291409 0.213393 0.025560 -0.016451 0.020249
3.396713 1.118897 0.819693 0.025559 0.016452 -0.020249
3.437979 0.402265 0.707184 -0.041376 0.005178 0.006943
1.104802 0.608835 0.458461 0.000000 -0.872839 -0.000017
1.840839 1.331746 0.029616 -0.058469 0.006378 0.007936
1.840839 0.037774 0.973587 -0.058469 -0.006378 -0.007936
1.840839 0.037774 0.029616 -0.058466 -0.006378 0.007937
1.553448 0.585092 0.445354 -0.058466 -0.003934 0.004913
1.750910 0.529074 0.374019 -0.029753 0.001704 -0.002429
1.138854 0.682806 0.414323 -0.000002 -0.010527 -0.000093
1.571194 0.789159 0.442906 -0.058466 0.001967 0.002461
2.914407 0.604111 0.468114 0.000000 -0.921048 -0.000006
3.143868 0.829826 0.402073 0.025563 -0.008680 -0.010477
1.664501 1.128139 0.824133 -0.058467 0.001804 -0.002258
2.462006 0.742116 0.567459 -0.000000 0.667102 0.000017
2.059872 0.652177 0.582623 0.000001 -0.363090 0.000039
1.657737 0.598529 0.515381 0.000000 -0.988541 0.000001
0.032151 0.684760 0.532305 -0.624288 0.000001 0.000010
1.735747 0.559849 0.564350 -0.058469 -0.003777 -0.004717
1.745160 0.984455 0.703289 -0.058466 0.002308 -0.002887
2.930622 0.687316 0.588863 -0.000002 0.018026 0.000108
2.562540 0.727868 0.577545 0.000000 0.488014 0.000108
1.752663 0.389444 0.727070 -0.029750 0.004091 0.005785
2.160405 0.761034 0.459084 0.000001 0.861020 -0.000004
0.101169 0.631730 0.455417 -0.342643 -0.000072 -0.000059
1.949474 1.110853 0.809569 0.114660 0.002009 -0.002742
0.250267 0.641127 0.425952 0.000001 -0.467119 -0.000004
2.612806 0.728426 0.425970 0.000000 0.511930 -0.000006
2.426333 0.772047 0.503255 0.000000 0.999626 0.000000
1.907778 0.321364 0.230162 0.058519 0.009737 -0.013110
1.872146 1.041910 0.255214 0.114662 0.002432 0.003319
1.959338 0.762299 0.461435 0.000002 0.863931 -0.000004
0.350800 0.700097 0.587568 -0.000000 0.178122 0.000084
3.027102 0.688293 0.588836 0.000000 0.026953 0.000009
1.620175 0.594018 0.424268 -0.029751 0.018400 -0.022343
1.600700 0.814868 0.578626 -0.058467 0.010196 -0.012573
1.761183 0.154096 0.116580 -0.058468 -0.005875 0.007316
2.964674 0.765278 0.535401 0.000001 0.921186 0.000026
1.043185 0.682656 0.588875 0.000000 -0.027349 0.000018
0.830767 0.687016 0.588871 0.000000 0.027349 0.000009
1.771718 0.135627 0.900589 -0.058468 -0.010406 -0.012824
1.784016 0.559950 0.395980 0.058520 0.003626 -0.004939
1.747877 0.849592 0.595336 -0.058464 0.001889 -0.002363
1.687699 0.769142 0.426271 -0.029749 -0.006818 -0.009487
1.496328 0.934689 0.682182 -0.058462 0.001967 -0.002461
1.756762 0.913264 0.357662 -0.058468 0.005203 0.006487
1.812256 0.970321 0.686967 -0.058465 0.002308 -0.002887
1.475760 0.821149 0.397538 -0.029755 -0.005681 -0.007965
3.386265 1.041340 0.766373 -0.041378 0.015330 -0.019816
3.310320 1.007909 0.262026 0.025563 0.008227 0.011462
1.767937 0.519028 0.636841 -0.029751 0.001705 0.002429
1.708004 0.621387 0.441525 0.000000 -0.725673 -0.000007
1.473738 0.582820 0.581458 -0.029749 0.005682 0.007967
1.616662 0.947124 0.699041 -0.029753 -0.009393 0.012785
1.784016 0.829632 0.579843 0.114665 0.001851 -0.002525
1.830450 0.339319 0.733445 0.114663 -0.004864 -0.006633
1.723942 1.230593 0.101670 -0.029751 -0.010302 -0.013896
0.300534 0.724593 0.579315 0.000000 0.463684 0.000029
1.513862 0.376621 0.275828 -0.058467 -0.002476 0.003096
0.078090 0.743455 0.514755 -0.432770 0.000060 0.000015
3.216008 0.749213 0.442677 0.000000 0.744868 -0.000007
3.065208 0.627013 0.567108 -0.000000 -0.667031 0.000017
3.288956 0.943055 0.685245 0.025560 -0.026983 0.023669
1.761183 1.215425 0.886623 -0.058470 0.005875 -0.007316
1.456670 0.762282 0.461402 -0.000001 0.877601 -0.000002
1.582395 0.402226 0.301422 -0.058468 -0.002644 0.003306
2.411739 0.643462 0.424656 0.000000 -0.463630 -0.000029
3.055217 0.835120 0.395039 0.025560 -0.014465 -0.016049
2.512273 0.609206 0.545397 0.000000 -0.859027 0.000005
1.557148 0.991276 0.275392 -0.029752 -0.008938 -0.012220
1.578283 0.685211 0.414282 0.000002 0.011021 -0.000088
1.783418 1.177820 0.136480 -0.029751 -0.011513 -0.015328
3.057877 0.572687 0.589127 0.025563 -0.013220 -0.017187
0.538896 0.681904 0.414344 0.000069 -0.005530 -0.001674
0.250267 0.718767 0.421172 -0.000000 0.389031 -0.000143
1.691260 0.420672 0.324322 -0.058467 -0.002602 0.003253
1.607936 0.371379 0.268737 -0.029753 0.004394 -0.006204
1.693070 0.362532 0.259445 -0.029752 0.004091 -0.005785
2.713340 0.605065 0.465905 -0.000000 -0.908703 -0.000003
1.786101 0.788742 0.453022 0.114662 0.003701 0.005049
3.136600 0.955756 0.700160 0.025560 0.014397 -0.018360
1.944167 1.258975 0.924863 0.058518 -0.009530 0.012838
3.102917 0.549003 0.606706 0.025559 -0.013222 -0.017189
0.903735 0.715099 0.583490 0.000000 0.337604 0.000042
0.483764 0.771989 0.497843 0.000000 0.999626 -0.000000
2.941514 0.833401 0.610510 0.025562 0.021145 -0.023853
1.858804 0.762683 0.462168 0.000000 0.898433 -0.000002
0.032151 0.654057 0.501602 -0.619187 -0.000010 0.000000
1.844761 0.154492 0.123162 -0.058468 -0.005203 0.006487
1.598837 0.475718 0.641831 -0.058468 -0.010196 -0.012573
0.329721 0.680551 0.414386 -0.000000 -0.027547 -0.000018
2.512273 0.762881 0.540629 -0.000001 0.897804 0.000015
3.362953 0.449497 0.668370 -0.041377 0.015528 0.019650
1.677693 0.908117 0.329271 -0.029750 -0.009545 -0.012973
1.597905 0.933270 0.329769 -0.058469 0.005287 0.006591
1.777353 0.212284 0.852082 -0.029750 0.023014 0.025995
3.175824 0.796707 0.574109 0.025561 -0.009077 0.010903
1.763736 0.581026 0.593254 0.058516 0.003626 0.004940
3.385673 0.514305 0.621586 -0.041376 0.004530 0.006086
1.448065 0.887756 0.354900 -0.058469 0.006294 0.007833
3.115474 0.764051 0.465015 0.000000 0.909729 -0.000007
1.708004 0.771685 0.509936 -0.000001 0.994836 0.000003
1.864186 0.903839 0.357517 0.114662 0.003067 0.004184
0.820227 0.772012 0.498670 0.000000 0.999637 -0.000000
1.224794 0.772045 0.503330 -0.000018 0.013264 0.000000
0.149750 0.756048 0.457781 -0.153464 0.000216 -0.000125
3.030880 0.516587 0.376578 0.025558 -0.010580 0.014306
1.979040 1.300931 0.050133 0.058519 -0.007873 -0.010650
0.093367 0.617679 0.497901 -0.380647 -0.000038 -0.000001
3.014941 0.608101 0.459774 0.000000 -0.872695 -0.000002
1.361782 0.790132 0.576774 -0.058468 0.012587 -0.015403
2.032306 0.597433 0.501752 0.000000 -0.999615 0.000000
0.624836 0.681303 0.414365 -0.000009 -0.000652 -0.000374
1.598837 0.884503 0.348680 -0.029750 -0.018401 -0.022344
1.739095 0.405026 0.315407 -0.058469 -0.004868 0.006072
1.854710 1.110041 0.795415 -0.058467 0.007050 -0.008760
2.781443 0.597507 0.498745 -0.000000 -0.999615 -0.000000
0.158060 0.759489 0.542043 -0.121167 0.000291 0.000147
2.260939 0.645194 0.579454 -0.000002 -0.454030 0.000015
3.332464 0.936593 0.310072 -0.041376 0.012776 0.016828
2.361472 0.764854 0.536405 0.000000 0.921202 0.000003
1.909071 0.722978 0.580118 0.000000 0.438954 0.000008
1.305870 0.767571 0.473888 0.000001 0.944262 -0.000002
1.820595 0.579056 0.590565 0.058518 0.013361 0.017780
2.160405 0.645061 0.579384 0.000000 -0.463859 0.000029
3.407785 0.286282 0.795670 -0.041376 -0.010222 -0.013679
1.794061 0.891414 0.336744 0.058518 -0.012015 -0.016065
2.964674 0.763707 0.464263 0.000001 0.847544 -0.000002
2.763607 0.739898 0.433883 -0.000001 0.622261 -0.000009
1.656994 0.952449 0.298965 -0.029750 -0.004697 -0.006623
2.176620 0.597449 0.502353 0.000000 -0.999615 0.000000
0.401067 0.761636 0.460169 -0.000000 0.885868 -0.000016
3.014941 0.763864 0.538599 -0.000001 0.908969 0.000007
0.652401 0.720457 0.581297 0.000000 0.414262 0.000133
1.305870 0.768561 0.526158 -0.000001 0.901354 0.000001
3.434693 0.893795 0.652658 -0.041377 -0.007766 0.010315
3.416754 0.350099 0.748912 -0.041376 -0.015330 -0.019817
3.375504 0.349130 0.251478 -0.041376 -0.015330 0.019817
1.575905 1.014799 0.740221 -0.058474 0.002476 -0.003096
3.366808 0.646408 0.423151 0.000000 -0.439191 -0.000124
2.899814 0.772091 0.501677 0.000000 0.999909 0.000000
1.938102 1.242602 0.098728 0.114662 0.005499 0.007496
1.852264 1.223518 0.116942 -0.058468 0.005203 0.006487
2.361472 0.602859 0.531905 0.000000 -0.940524 0.000003
1.607470 0.646543 0.423085 -0.000000 -0.439004 -0.000015
1.860017 0.378446 0.709007 0.114663 -0.002644 -0.003607
1.943409 1.036320 0.249112 0.114661 0.002485 0.003391
1.635923 0.454634 0.677157 -0.029751 0.018401 0.022344
0.501601 0.617882 0.445451 -0.000000 -0.763116 -0.000026
3.418545 0.265333 0.192884 -0.041375 -0.010222 0.013679
2.846304 0.597495 0.499196 -0.000000 -0.999626 -0.000000
1.948798 0.597439 0.501977 -0.000000 -0.884914 0.000000
1.501727 0.786208 0.582130 -0.029752 -0.011361 0.015151
1.205336 0.647900 0.580768 0.000000 -0.413922 0.000004
3.475944 0.478700 0.652582 -0.041376 -0.007667 -0.010391
1.155069 0.766179 0.470034 0.000001 0.930882 -0.000006
3.455479 0.635665 0.423467 -0.127556 -0.000901 -0.001270
3.288956 0.937707 0.310658 0.025560 0.024664 0.025990
3.099259 0.688594 0.588828 0.000018 0.000284 0.000856
3.266275 0.768143 0.527563 0.000000 0.958409 0.000009
3.366808 0.726259 0.424761 0.000000 0.463622 -0.000004
2.612806 0.600568 0.524784 0.000000 -0.965998 0.000001
1.599930 1.045256 0.762754 -0.058473 0.004616 -0.005759
1.794061 0.459079 0.362714 0.114662 -0.003067 0.004184
0.401067 0.644927 0.423889 0.000000 -0.463708 -0.000014
0.853468 0.744783 0.438176 0.000000 0.687019 -0.000004
1.390188 0.685813 0.588905 0.000000 0.027349 0.000036
1.943409 1.054484 0.775088 0.058518 -0.004869 0.006623
2.713340 0.694890 0.588338 0.000001 0.122945 0.000031
1.560818 0.474003 0.342345 -0.029751 0.018401 -0.022343
2.932244 0.597507 0.504458 0.000000 -0.999615 0.000000
1.678064 0.990011 0.271884 -0.029751 -0.004394 -0.006205
3.191024 0.949294 0.693322 0.025561 -0.013501 0.015219
1.979040 1.038983 0.761141 0.058517 -0.009738 0.013110
3.353688 0.883090 0.349975 -0.041376 0.008945 0.012051
3.018614 0.790466 0.583560 0.025560 0.021146 -0.023854
1.808538 0.770472 0.484859 -0.000000 0.983992 -0.000011
1.950232 0.043340 0.035755 0.114662 -0.003807 0.005193
3.329871 0.807228 0.403795 -0.041374 0.006238 0.008502
1.521868 0.950386 0.310395 -0.058467 0.002644 0.003306
1.794061 0.891414 0.666459 0.058519 -0.012015 0.016065
1.584924 0.343387 0.249962 -0.029750 0.008333 -0.011454
0.717262 0.681603 0.588846 0.000000 -0.027745 0.000035
1.598837 0.475718 0.361372 -0.058468 -0.010196 0.012573
1.792166 0.789480 0.411294 0.058518 -0.003626 -0.004939
1.075615 0.682656 0.414328 -0.000000 -0.027547 -0.000018
3.113496 0.483029 0.351089 0.025559 -0.007935 0.011091
1.506937 0.723450 0.579887 0.000000 0.439046 0.000015
0.944273 0.682505 0.414332 -0.000000 -0.027547 -0.000018
1.931279 0.493180 0.368064 0.114662 -0.003331 0.004544
1.657737 0.698391 0.587856 -0.000000 0.150955 0.000050
1.913843 1.097276 0.794523 0.114664 0.002009 -0.002742
0.954002 0.761420 0.543430 0.000000 0.872827 0.000008
0.085671 0.683003 0.565369 -0.439014 -0.000002 0.000030
2.713340 0.770133 0.483240 0.000000 0.978703 -0.000003
3.417075 0.602973 0.470980 -0.125310 -0.000344 -0.000134
0.166408 0.602016 0.524999 -0.088738 -0.000431 0.000135
1.931279 0.871428 0.641844 0.058519 -0.013051 0.017386
3.417075 0.769420 0.480163 -0.127956 0.000351 -0.000084
1.842580 1.056084 0.783587 0.058520 -0.008701 0.011747
1.318787 0.597336 0.565657 -0.058468 -0.006294 -0.007833
0.538896 0.597491 0.499046 0.000069 -0.133533 -0.000003
2.282018 0.772088 0.501451 0.000000 0.999626 -0.000000
2.200943 0.772063 0.502654 0.000000 0.999615 0.000000
0.670238 0.597503 0.504308 0.000000 -0.999615 0.000000
1.808538 0.641094 0.425970 0.000000 -0.511930 -0.000006
0.602134 0.753490 0.555477 0.000000 0.780487 0.000012
1.808538 0.720936 0.422124 0.000000 0.414579 -0.000004
3.065208 0.629946 0.433625 -0.000001 -0.624344 -0.000019
1.937344 0.422936 0.306733 0.058519 0.005698 -0.007740
1.937344 0.407733 0.698614 0.114662 -0.005816 -0.007928
1.693070 0.362532 0.743759 -0.029751 0.016358 0.020464
1.778708 0.962377 0.287587 -0.029750 -0.008787 -0.012030
3.493882 0.707457 0.407063 -0.128753 0.000093 -0.000368
3.115474 0.608762 0.544611 0.000000 -0.872702 0.000008
1.819494 1.237195 0.899645 -0.058468 0.010406 -0.012823
1.756282 1.126381 0.187355 -0.058470 0.001804 0.002257
3.099283 0.888855 0.648888 0.025569 -0.008677 0.010475
1.943409 0.347780 0.252106 0.058519 0.004869 -0.006623
2.854810 0.779020 0.570666 0.025561 0.021145 -0.023853
1.758013 1.172233 0.861885 -0.029748 -0.005758 0.008070
1.812265 1.286319 0.063768 -0.058467 0.004532 0.005656
3.277650 0.352363 0.743747 0.025560 0.009002 0.010823
1.949474 1.118726 0.181486 0.058519 -0.008080 -0.010925
1.567389 0.950317 0.689341 -0.058468 0.005287 -0.006591
1.551214 0.575563 0.589358 -0.029753 0.007102 0.009860
1.521868 0.419135 0.692808 -0.058467 -0.002644 -0.003306
1.711959 0.461924 0.358831 -0.058468 -0.002644 0.003306
1.655398 0.900700 0.643101 -0.058469 0.010196 -0.012573
1.657262 0.821765 0.423307 -0.058468 0.010196 0.012573
2.562540 0.771810 0.508588 0.000000 0.997621 0.000001
3.115474 0.605065 0.465905 -0.000001 -0.908816 -0.000007
1.599768 0.526415 0.625555 -0.029750 0.018401 0.022344
1.600700 0.567812 0.596586 -0.029750 0.018401 0.022344
1.848645 0.292853 0.798229 0.058520 0.004455 0.006062
1.806191 0.419159 0.331729 0.114663 -0.005710 0.007784
1.806191 0.419159 0.671475 0.114662 -0.005710 -0.007784
1.568554 0.772074 0.502278 0.000000 0.999637 0.000000
0.702668 0.771815 0.494690 0.000000 0.997579 -0.000002
3.404203 0.452471 0.334909 -0.041377 0.007766 -0.010315
2.021766 0.684234 0.588919 0.000000 -0.027745 0.000018
3.316542 0.608505 0.459051 0.000000 -0.872816 -0.000017
1.682828 1.058826 0.767381 -0.058468 0.002140 -0.002677
3.357772 0.540639 0.389512 -0.041375 -0.018816 0.023614
3.357574 0.465320 0.334858 -0.041376 -0.007667 0.010391
3.357574 0.909883 0.660589 -0.041376 -0.015528 0.019650
1.940377 0.993597 0.722354 0.114662 0.002697 -0.003679
0.702668 0.619154 0.443966 -0.000001 -0.674850 -0.000002
3.063586 0.772078 0.502654 0.000000 0.999904 0.000000
3.205097 0.866779 0.375073 0.025560 -0.004501 -0.005651
2.982511 0.772078 0.500549 -0.000009 0.054042 -0.000000
1.791557 0.357948 0.281726 -0.058468 -0.002266 0.002834
1.817254 1.079942 0.229029 -0.058467 0.007721 0.009581
1.559887 0.941828 0.320082 -0.058466 0.002644 0.003306
2.226887 0.683708 0.414299 -0.000000 -0.027745 -0.000009
0.568083 0.772005 0.498444 0.000000 0.999615 -0.000000
1.708004 0.727901 0.577527 0.000000 0.487988 0.000054
3.455479 0.601620 0.461563 -0.127555 -0.001439 -0.000596
0.158060 0.646394 0.577416 -0.121170 -0.000154 0.000284
1.885465 1.294995 0.050681 -0.029752 -0.006666 -0.009285
1.432765 0.564857 0.410650 -0.029752 0.008522 -0.011694
3.310320 1.007909 0.741177 0.025561 0.016451 -0.020249
2.925758 0.687316 0.414340 0.000000 0.027536 -0.000071
1.579362 0.917816 0.662476 -0.058469 0.010196 -0.012573
3.433798 0.520115 0.624691 -0.041377 -0.008944 -0.012051
3.303759 0.576516 0.571334 -0.041379 0.006168 0.008245
1.849024 0.542868 0.416241 0.114662 -0.006820 0.009292
1.849024 0.542868 0.586962 0.114662 -0.006820 -0.009292
3.438579 0.456621 0.670512 -0.041376 -0.006389 -0.008704
1.893753 0.752252 0.445953 0.058519 -0.007770 -0.010512
3.439474 0.955283 0.301987 -0.041377 0.005111 0.006992
1.850919 0.950221 0.677772 0.114663 0.005710 -0.007784
3.256208 0.406408 0.702044 0.025559 0.013502 0.015219
3.256208 0.963113 0.301159 0.025560 -0.013501 -0.015219
1.849024 0.813278 0.605215 0.058518 -0.013361 0.017780
3.413666 0.586016 0.577910 -0.041374 -0.005771 -0.007878
1.702383 1.090774 0.211763 -0.058468 0.003945 0.004926
1.356136 0.626593 0.566732 -0.000001 -0.665220 0.000017
1.802889 1.040767 0.743952 -0.058467 0.004197 -0.005239
3.142291 0.909623 0.334390 0.025560 0.008228 0.011463
1.744734 1.051919 0.757222 -0.058469 0.002098 -0.002624
2.110138 0.723045 0.423118 -0.000000 0.439153 -0.000031
1.830450 0.339319 0.269759 0.114662 -0.004864 0.006633
1.858804 0.602783 0.531693 -0.000001 -0.940548 0.000011
2.361472 0.602922 0.471121 0.000000 -0.940959 -0.000003
1.959338 0.696159 0.415023 0.000000 0.123718 -0.000121
3.353984 0.978492 0.722428 -0.041376 0.005112 -0.006993
3.254141 0.850176 0.613511 0.025560 -0.009002 0.010824
1.863049 1.000038 0.262168 0.058519 -0.005283 -0.007182
3.165741 0.653368 0.583088 0.000000 -0.363579 0.000019
1.406403 0.766220 0.533064 0.000002 0.723367 0.000001
1.671999 0.390892 0.299084 -0.058468 -0.009902 0.012221
1.739095 0.405026 0.687797 -0.058468 -0.002434 -0.003044
1.582395 0.402226 0.701781 -0.058470 -0.002644 -0.003306
1.559887 0.432606 0.313377 -0.029750 0.018401 -0.022344
1.793073 1.002643 0.744348 -0.029749 -0.004091 0.005785
3.223304 1.010136 0.740005 0.025559 0.010285 -0.013964
2.854810 0.779020 0.432537 0.025561 0.021145 0.023853
1.806191 0.932581 0.695741 0.058518 -0.011187 0.014998
1.600433 0.994253 0.281236 -0.058469 0.004952 0.006176
0.637808 0.684610 0.588931 0.000002 -0.009193 0.000212
1.758271 0.763228 0.463283 -0.000000 0.897901 -0.000002
1.004269 0.719287 0.421391 0.000000 0.388221 -0.000009
2.700368 0.597435 0.502053 0.000000 -0.999898 0.000000
1.728560 0.932223 0.310534 -0.029751 -0.004697 -0.006623
2.160405 0.763261 0.539852 -0.000001 0.887361 0.000004
2.826846 0.683858 0.588921 0.000000 -0.013469 0.000036
1.731434 0.883585 0.379476 -0.058468 0.010196 0.012573
1.731434 0.883585 0.623727 -0.058468 0.010196 -0.012573
1.104802 0.651550 0.582368 0.000001 -0.388376 0.000036
1.779221 1.242383 0.096394 -0.058468 0.005203 0.006487
1.913843 0.278952 0.199527 0.058519 0.008909 -0.012021
3.277884 0.973365 0.716568 0.025560 0.020559 -0.023453
2.260939 0.607815 0.460303 0.000000 -0.885930 -0.000008
1.558717 0.802447 0.407625 -0.029751 -0.008522 -0.011694
1.528867 0.359643 0.739815 -0.058467 -0.009903 -0.012221
1.858804 0.602795 0.471475 -0.000001 -0.940693 -0.000011
1.501303 0.898289 0.660637 -0.029751 -0.007102 0.009860
1.772296 0.339787 0.762572 -0.029752 0.007575 0.010479
3.316175 0.504030 0.377594 -0.041376 0.009060 -0.011961
0.790229 0.687767 0.588851 0.000000 0.027745 0.000035
1.897164 0.119760 0.099341 0.114662 -0.005499 0.007496
1.919908 1.139065 0.826009 0.114664 0.001798 -0.002453
0.350800 0.717728 0.420733 0.000000 0.389226 -0.000009
1.878211 1.072784 0.231724 0.114663 0.002221 0.003030
1.694348 0.852675 0.401392 -0.058468 0.010196 0.012573
1.694348 0.852675 0.601811 -0.058469 0.010196 -0.012573
1.758271 0.763740 0.538873 -0.000000 0.910231 0.000003
1.950232 1.326180 0.035755 0.114663 0.003807 0.005193
1.979040 0.046761 0.969064 0.058519 0.006216 0.008436
2.864141 0.647866 0.580752 -0.000001 -0.410419 0.000008
1.812256 0.416356 0.710382 0.058518 0.005698 0.007740
3.433798 0.517775 0.381705 -0.041377 0.009060 -0.011961
1.618178 0.959483 0.310346 -0.058467 0.005204 0.006487
1.779221 0.129555 0.093095 -0.029751 0.009393 -0.012786
1.749978 0.487677 0.658153 -0.029751 0.018401 0.022344
1.607470 0.605781 0.538873 0.000000 -0.898357 0.000002
1.769610 0.438020 0.693655 -0.029751 0.008787 0.012030
1.611661 0.603647 0.464544 -0.058469 -0.009441 0.011666
3.309647 0.838541 0.605331 -0.041376 -0.012634 0.016332
3.115474 0.762578 0.541235 -0.000000 0.885337 0.000004
1.664790 1.025591 0.755763 -0.029752 -0.004091 0.005785
1.848645 0.292853 0.204975 0.058519 0.004455 -0.006062
1.485073 0.449393 0.675346 -0.029750 0.014201 0.018296
2.411739 0.721758 0.422498 0.000000 0.414266 -0.000033
3.165741 0.764456 0.465905 -0.000000 0.910117 -0.000014
2.059872 0.698391 0.415347 0.000002 0.138975 -0.000027
0.300534 0.762160 0.461169 -0.000000 0.885868 -0.000016
1.694348 0.533252 0.624202 -0.029751 0.018401 0.022344
1.728931 1.014117 0.750055 -0.029747 -0.004092 0.005786
2.148244 0.683934 0.414292 -0.000004 -0.003246 -0.000151
3.460002 0.785587 0.429309 -0.041376 -0.005845 -0.007822
3.398220 0.787843 0.572380 -0.041376 -0.019059 0.023400
1.456670 0.764020 0.538257 0.000001 0.905362 0.000003
0.300534 0.653928 0.419896 -0.000000 -0.362880 -0.000019
2.846304 0.681678 0.414355 0.000000 -0.027745 -0.000004
1.714141 0.324970 0.232364 -0.029749 0.003788 -0.005364
1.842959 0.770866 0.428623 0.058519 -0.013361 -0.017780
1.631457 0.285318 0.211696 -0.058469 -0.002140 0.002677
1.631457 1.084203 0.791507 -0.058474 0.002140 -0.002677
1.711723 0.779065 0.584757 -0.029749 -0.006818 0.009487
3.493882 0.588732 0.486392 -0.129764 -0.000373 -0.000054
3.493882 0.745946 0.577160 -0.128348 0.000243 0.000293
1.909071 0.605594 0.464741 0.000000 -0.910053 -0.000007
1.758278 0.467994 0.330960 -0.029751 0.009393 -0.012786
1.477571 0.457882 0.334077 -0.029749 0.007103 -0.009861
1.675805 0.821078 0.390318 -0.029750 -0.018401 -0.022344
1.675805 0.548443 0.390318 -0.029751 0.018400 -0.022343
1.356136 0.602351 0.530489 -0.000000 -0.940871 0.000005
3.234363 0.819277 0.393275 0.025560 0.016588 0.020368
1.662051 0.289569 0.793748 -0.029752 0.003788 0.005363
1.759794 0.923244 0.653287 -0.058469 0.005203 -0.006487
2.763607 0.648379 0.580986 -0.000001 -0.411935 0.000017
3.164116 0.588216 0.581806 0.025559 -0.003968 -0.005738
2.095545 0.684009 0.588913 0.000000 -0.027745 0.000009
1.695280 0.556313 0.432994 -0.058468 -0.010196 0.012573
3.366808 0.601996 0.529458 -0.000000 -0.950080 0.000010
3.187532 0.793962 0.412023 0.025560 0.016588 0.020367
1.855297 0.142963 0.903480 -0.029750 0.018174 0.022143
0.200000 0.713117 0.584202 0.008968 0.000762 0.002117
1.557204 0.715733 0.419951 -0.000001 0.363495 -0.000078
1.054536 0.652247 0.420552 0.000000 -0.363370 -0.000039
3.343224 0.411978 0.295423 -0.041377 -0.012776 0.016828
1.899818 0.816494 0.399324 0.058519 -0.013361 -0.017780
2.429576 0.683107 0.588888 0.000000 -0.027349 0.000036
1.432765 0.804663 0.410650 -0.029749 -0.008523 -0.011695
1.959338 0.715733 0.583252 0.000001 0.361240 0.000019
0.300534 0.602211 0.473103 -0.000000 -0.940936 -0.000001
0.671859 0.681603 0.414357 0.000000 -0.027536 -0.000018
1.893753 0.586667 0.561271 0.114662 -0.006820 -0.009292
2.713340 0.722978 0.423085 -0.000000 0.439175 -0.000031
0.451334 0.606838 0.462168 0.000000 -0.898355 -0.000007
1.638718 0.806310 0.568939 -0.058467 0.010196 -0.012573
1.907778 1.026327 0.757047 0.058520 -0.004869 0.006623
3.246382 0.781032 0.559519 0.000000 -0.591032 0.000270
1.532456 0.772736 0.429395 -0.029753 -0.007102 -0.009860
3.350095 0.585077 0.421360 -0.041376 -0.012474 0.016463
3.350095 0.791313 0.430734 -0.041376 -0.012634 -0.016332
1.506937 0.766700 0.531799 0.000000 0.940936 0.000003
1.542275 0.880326 0.649541 -0.029751 -0.018401 0.022344
3.246070 0.534555 0.401362 0.025561 0.009002 -0.010823
1.638718 0.790694 0.412951 -0.029751 -0.018400 -0.022343
1.490766 0.838127 0.618105 -0.029752 -0.003551 0.005033
1.750910 0.859572 0.400121 -0.058468 0.010196 0.012573
1.732366 0.525404 0.411079 -0.058467 -0.010196 0.012573
1.637787 0.523743 0.402662 -0.058468 -0.010196 0.012573
1.600700 0.814868 0.424577 -0.058467 0.010196 0.012573
3.222655 0.822213 0.592597 0.025559 -0.009077 0.010904
2.009605 0.672765 0.415097 -0.000000 -0.123645 -0.000030
2.009605 0.742340 0.435945 0.000000 0.662484 -0.000004
2.813874 0.618320 0.558268 0.000000 -0.762935 0.000013
1.824385 1.010241 0.717952 -0.058466 0.002140 -0.002677
1.731434 0.502868 0.356367 -0.029751 0.018401 -0.022343
1.575905 0.354722 0.740221 -0.058468 -0.004952 -0.006176
1.818321 0.973749 0.725023 0.058519 -0.010359 0.013922
0.427011 0.771980 0.497542 0.000000 0.999615 -0.000000
1.664790 0.337653 0.747195 -0.058466 -0.004532 -0.005656
3.165741 0.713223 0.584164 0.000001 0.320580 0.000011
1.363804 0.546402 0.602977 -0.058467 -0.006295 -0.007833
0.954002 0.649200 0.581360 -0.000001 -0.352321 0.000005
3.020041 0.521666 0.619298 0.025563 0.011572 0.013439
3.316542 0.765614 0.468599 -0.000001 0.898333 -0.000002
3.047039 0.579484 0.419057 0.025559 -0.010579 0.014306
1.137233 0.772080 0.502053 0.000000 0.999615 0.000000
0.300534 0.646341 0.580019 0.000000 -0.439165 0.000062
0.602134 0.649957 0.421508 0.000000 -0.388993 -0.000036
2.663073 0.670312 0.587729 0.000001 -0.172199 0.000022
2.210672 0.716784 0.420361 -0.000001 0.362692 -0.000019
1.599930 0.324264 0.762754 -0.058469 -0.002308 -0.002887
1.618472 1.016922 0.748007 -0.029750 -0.008333 0.011454
1.828745 0.583688 0.554152 0.114659 -0.001851 -0.002525
1.830450 1.030201 0.269759 -0.058469 0.008392 0.010398
1.785863 0.310714 0.219770 -0.029751 0.003485 -0.004941
3.377599 0.412785 0.705435 -0.041376 -0.006389 -0.008704
2.904912 0.793045 0.423163 0.025561 -0.023133 -0.021873
3.180186 0.429030 0.691079 0.025560 -0.014397 -0.018360
0.451334 0.663468 0.416907 0.000000 -0.232085 -0.000016
1.949474 0.236839 0.825563 0.114662 -0.004124 -0.005625
1.979040 1.126299 0.825117 0.058520 -0.008080 0.010924
2.260939 0.667061 0.416090 0.000001 -0.205031 -0.000072
2.110138 0.648927 0.421968 -0.000000 -0.413544 -0.000017
1.730448 1.029205 0.263057 -0.058469 0.004280 0.005343
1.452241 0.778458 0.574902 -0.029751 -0.008522 0.011695
1.624962 0.402715 0.713132 -0.029751 0.008939 0.012220
3.417075 0.636994 0.574713 -0.128142 -0.000193 0.000305
3.266275 0.634998 0.429834 0.000000 -0.581084 -0.000042
0.350800 0.763162 0.540055 -0.000000 0.898219 0.000007
1.406403 0.604784 0.466521 0.000000 -0.921202 -0.000003
1.772296 0.328168 0.256489 -0.058468 -0.004196 0.005239
1.775328 1.051333 0.248743 -0.058467 0.004196 0.005239
1.832725 0.501009 0.387903 0.114662 -0.006556 0.008933
1.741276 0.260118 0.199795 -0.058467 -0.001805 0.002258
1.772643 0.427728 0.302228 -0.029750 0.008788 -0.012030
0.166408 0.641766 0.427133 -0.088739 -0.000236 -0.000384
1.072372 0.772051 0.503105 0.000000 0.999615 0.000000
3.411974 0.410918 0.303762 -0.041375 0.006472 -0.008642
3.435589 0.934172 0.686098 -0.041377 0.006389 -0.008704
2.663073 0.610602 0.547716 0.000000 -0.844688 0.000005
3.357772 0.540639 0.613691 -0.041377 -0.018816 -0.023614
0.652401 0.604243 0.535401 -0.000001 -0.921186 0.000026
1.979040 0.777036 0.569212 0.058519 -0.007770 0.010512
1.522800 0.462989 0.667193 -0.029751 0.018400 0.022343
3.216008 0.676351 0.414684 0.000000 -0.096286 -0.000156
1.607470 0.757788 0.453711 0.000000 0.829221 -0.000005
1.774159 0.962418 0.683509 -0.058468 0.004868 -0.006072
1.943409 0.333200 0.754091 0.114664 -0.002485 -0.003391
1.836515 0.334020 0.234257 0.058519 0.004869 -0.006623
1.836515 0.334020 0.768946 0.058519 0.004869 0.006623
0.141486 0.691542 0.419765 -0.185550 0.000014 -0.000305
3.020041 0.847855 0.619298 0.025561 -0.011573 0.013440
3.041718 0.859731 0.371597 0.025561 0.010578 0.014305
3.018614 0.579054 0.583560 0.025561 -0.010578 -0.014305
1.802464 0.261290 0.797885 -0.058467 -0.001805 -0.002257
1.711959 0.461924 0.644372 -0.058468 -0.005287 -0.006591
1.104802 0.742620 0.436195 -0.000000 0.666942 -0.000017
3.401210 0.763551 0.442288 0.014968 0.008503 -0.005418
1.432765 0.804663 0.592553 -0.029749 -0.008523 0.011695
3.167284 0.526942 0.610374 0.025562 0.009076 0.010903
3.355458 0.689271 0.588809 0.000000 0.027349 0.000018
3.199239 0.569230 0.407336 0.025561 -0.016587 0.020367
