1.371567 0.590750 0.472344 -0.067208 -0.009658 0.011408
2.099421 0.782238 0.504178 0.000000 0.646116 -0.000008
2.440343 0.648888 0.602589 -0.000000 -0.921235 0.000012
0.833140 0.644291 0.549322 -0.000001 -0.970831 -0.000003
2.635155 0.681900 0.641126 -0.000001 -0.534808 0.000023
0.126113 0.681602 0.507114 -0.238168 -0.000088 -0.000113
1.709796 0.749085 0.651224 -0.000000 0.258698 0.000027
1.446242 1.079360 0.290151 -0.060193 -0.005432 -0.007378
1.696340 0.984410 0.774168 0.067247 -0.005711 0.007282
1.588186 0.356989 0.871552 0.067247 0.004656 0.005945
1.583049 0.255638 0.927916 -0.067206 -0.004101 -0.004884
2.829967 0.787844 0.509394 -0.000001 0.636785 -0.000002
1.636745 0.918834 0.429441 0.075087 0.005350 0.006830
1.758499 0.805953 0.536975 -0.000000 0.931587 -0.000022
1.758499 0.709627 0.652303 -0.000000 -0.205224 0.000272
1.661093 0.768819 0.494827 -0.000000 0.487658 -0.000013
3.104966 0.873219 0.470327 -0.000000 -0.615724 -0.001262
1.363854 0.518900 0.411453 -0.067208 -0.001663 0.001984
2.391640 0.674183 0.635671 0.000000 -0.623549 0.000009
1.563687 0.681404 0.497199 0.000001 -0.518940 -0.000006
1.612390 0.772749 0.640832 0.000000 0.535460 0.000011
1.457615 0.853357 0.455016 -0.060192 -0.009926 -0.013358
2.294234 0.805040 0.534814 0.000000 0.921214 -0.000003
3.122186 0.805040 0.534814 0.000000 0.921197 -0.000003
2.391640 0.788481 0.627958 -0.000000 0.726339 0.000007
2.829967 0.734340 0.653811 0.000000 0.096253 0.000074
2.342937 0.808872 0.592588 -0.000001 0.800738 0.000001
1.125359 0.681126 0.640635 -0.000000 -0.535341 0.000045
2.878671 0.693644 0.647267 -0.000000 -0.388941 0.000034
1.222765 0.797756 0.616442 -0.000000 0.829673 0.000005
2.927374 0.810683 0.585035 -0.000001 0.815655 0.000000
1.514984 0.773769 0.640181 0.000000 0.557845 0.000011
1.904609 0.675397 0.636617 0.000000 -0.603247 0.000009
2.829967 0.650985 0.530901 0.000001 -0.894133 -0.000004
1.271468 0.688399 0.493195 0.000000 -0.463806 -0.000027
0.540922 0.770123 0.495573 0.000000 0.511807 -0.000048
1.462775 0.500058 0.757269 -0.060194 0.001616 0.002202
1.174062 0.706910 0.486323 0.000001 -0.220632 -0.000008
1.483747 0.401527 0.306926 -0.060192 0.005432 -0.007378
2.391640 0.646256 0.542378 0.000001 -0.949269 -0.000005
2.440343 0.681590 0.497081 -0.000001 -0.535199 -0.000045
1.567622 1.342248 1.049697 -0.060193 -0.011236 0.015065
0.346109 0.763616 0.645885 -0.000000 0.439147 0.000029
3.359055 0.747814 0.659792 -0.186691 0.000312 0.001082
0.833140 0.681373 0.640792 -0.000000 -0.535271 0.000045
1.744163 1.287439 1.006869 0.067249 -0.005095 0.006502
3.268296 0.734632 0.484228 0.000000 0.096311 -0.000295
1.612390 0.681714 0.641008 -0.000001 -0.502568 0.000003
3.268296 0.651673 0.529566 0.000001 -0.885863 -0.000030
3.354592 0.824710 0.653039 -0.140248 0.004675 -0.006199
2.196827 0.801985 0.609452 -0.000001 0.880027 0.000004
2.196827 0.655305 0.614724 -0.000001 -0.841819 0.000005
1.568335 0.293379 0.240431 -0.067207 -0.004465 0.005316
2.732561 0.723576 0.654026 0.000000 -0.027643 0.000258
1.320171 0.801289 0.610700 -0.000000 0.872048 0.000004
3.170889 0.747773 0.486442 -0.000000 0.228770 -0.000008
3.239706 0.461352 0.761151 -0.000001 0.615726 0.000763
2.148124 0.675514 0.501305 0.000000 -0.602443 -0.000009
1.648530 0.038501 1.104128 -0.067210 -0.007654 -0.009074
3.256504 0.620784 0.636569 0.000000 0.615725 0.000422
0.540922 0.807028 0.598230 0.000001 0.933179 0.000003
1.563687 0.646835 0.597333 0.000001 -0.937095 0.000003
0.248703 0.647008 0.540195 -0.000001 -0.941043 -0.000020
2.537749 0.658862 0.619882 0.000000 -0.797527 0.000022
0.881843 0.679504 0.498444 -0.000000 -0.558339 -0.000021
3.240747 0.565909 0.458562 -0.000000 0.615725 -0.001806
3.192761 0.620933 0.470543 0.000000 -0.615725 0.000736
3.179000 0.586045 0.694729 0.000000 -0.615724 -0.001473
0.669749 0.724308 0.483965 -0.000000 -0.027440 -0.000067
1.390869 0.812189 0.569738 -0.000000 0.999640 0.000000
3.380501 0.515622 0.734251 -0.140247 -0.004675 -0.006199
3.331837 0.977729 0.380908 -0.140246 -0.004889 -0.006032
3.170889 0.799586 0.613610 0.000000 0.844598 0.000001
1.125359 0.764373 0.492496 -0.000001 0.438538 -0.000029
3.338385 0.935864 0.413622 -0.140247 -0.004889 -0.006032
3.228122 0.431469 0.345754 0.070303 0.011041 -0.010884
2.635155 0.646760 0.597126 0.000001 -0.929359 0.000001
2.824889 0.832965 0.478521 0.070302 0.008272 0.013701
1.466281 0.701684 0.650242 0.000000 -0.311834 0.000022
3.250179 1.025160 0.328337 0.070302 0.008020 0.013291
1.439233 0.903897 0.693629 -0.067207 0.003372 -0.004018
3.243528 0.523546 0.425458 0.000001 0.615722 -0.000286
0.930547 0.754937 0.488574 -0.000000 0.337473 -0.000040
1.618351 1.064769 0.317163 0.075086 0.004406 0.005629
1.627180 0.360811 0.272781 0.067248 0.004656 -0.005945
1.466281 0.684030 0.495592 -0.000000 -0.511371 -0.000012
2.050718 0.664822 0.510984 -0.000000 -0.726353 -0.000014
1.514984 0.809387 0.547296 0.000001 0.958531 -0.000002
1.563687 0.807917 0.595668 0.000000 0.948061 0.000002
3.272926 0.411221 0.808078 0.070303 0.007591 0.007531
0.394812 0.682395 0.641440 0.000000 -0.523746 0.000003
0.589625 0.654736 0.613827 -0.000001 -0.842711 0.000009
2.852589 0.566059 0.694839 0.070303 -0.008021 -0.013291
1.701490 0.140587 1.023232 0.075088 -0.005036 -0.006430
1.744163 0.105086 0.082960 0.067248 0.008785 -0.011148
1.466092 0.439385 0.802006 -0.060192 0.011611 0.015550
0.833140 0.805069 0.603129 -0.000002 0.839978 0.000002
1.709796 0.686581 0.494147 0.000000 -0.488058 -0.000006
1.654402 1.037708 0.803147 0.075087 0.002203 -0.002818
2.440343 0.802835 0.607828 0.000002 0.804278 0.000002
1.660288 1.069963 0.293907 0.067247 -0.005008 -0.006391
2.732561 0.647965 0.600353 0.000001 -0.930373 0.000006
2.779693 0.641984 0.569665 0.000005 -0.188759 0.000000
2.959300 0.560477 0.706955 0.070303 -0.008021 -0.013291
2.959300 0.901232 0.440684 0.070302 -0.011041 -0.010884
3.138515 0.974697 0.770241 0.070301 0.008021 -0.013291
2.050718 0.811148 0.555648 0.000000 0.988489 -0.000002
2.391640 0.805725 0.536435 0.000000 0.921214 -0.000003
2.683858 0.684345 0.495404 0.000000 -0.511921 -0.000024
1.536713 0.287953 0.918323 -0.060193 0.008615 0.011631
1.517555 0.882045 0.469578 -0.067209 0.006743 0.008006
3.107365 0.521159 0.714417 0.000000 0.615724 0.000631
1.477488 0.466768 0.355231 -0.060192 0.001545 -0.002107
0.492219 0.751518 0.650534 0.000000 0.285296 0.000096
0.551919 0.642074 0.572595 0.000000 -0.999618 0.000000
1.320171 0.683243 0.496061 0.000001 -0.496843 -0.000006
3.325290 0.434591 0.789817 -0.140248 0.003597 0.004440
2.878671 0.649016 0.602893 -0.000000 -0.921105 0.000012
2.374358 0.728851 0.483937 0.000000 0.027440 -0.000017
2.966324 0.939524 0.403008 0.070302 0.008271 0.013701
2.966324 0.939524 0.735002 0.070301 0.008272 -0.013701
2.981357 0.550509 0.423267 0.070302 -0.008021 0.013291
2.966324 0.514661 0.735002 0.070300 -0.008272 -0.013702
3.242818 0.957885 0.764857 -0.000000 0.615726 -0.000763
2.342937 0.682771 0.496342 0.000000 -0.511829 -0.000024
2.635155 0.683841 0.495704 0.000000 -0.511848 -0.000024
0.979250 0.683526 0.495892 0.000001 -0.511817 -0.000048
1.707376 1.353223 1.054757 0.075086 0.008812 -0.011201
2.960830 0.610869 0.644316 0.000000 0.615724 0.001262
2.989070 0.504381 0.394976 0.070302 -0.008021 0.013291
2.936553 0.563233 0.448717 0.070302 0.011041 -0.010884
0.881843 0.697592 0.648842 -0.000001 -0.335978 0.000020
0.649325 0.812133 0.571789 0.000000 0.999618 0.000000
1.368874 0.646587 0.541368 0.000000 -0.950257 -0.000002
0.979250 0.642322 0.576618 -0.000001 -0.994954 0.000003
1.744163 0.392831 0.307809 0.067247 0.010015 -0.012677
0.589625 0.761284 0.646953 -0.000000 0.413742 0.000008
1.491448 0.582278 0.438884 -0.060193 0.003465 -0.004718
1.607334 0.132254 0.108830 -0.067208 -0.006014 0.007148
2.891750 0.863181 0.683101 0.070302 0.008021 -0.013291
1.612390 0.771975 0.496689 -0.000000 0.535336 -0.000011
2.891750 0.591004 0.454910 0.070302 -0.008021 0.013291
0.845709 0.729510 0.483955 -0.000001 0.022808 -0.000081
1.345460 0.864125 0.682504 -0.060192 -0.009926 0.013357
2.846946 0.603728 0.657651 0.070302 0.011041 0.010884
1.644102 0.798801 0.615477 -0.000001 -0.787962 -0.000279
1.466281 0.642709 0.580115 0.000000 -0.992278 0.000001
1.612390 0.803457 0.531428 0.000000 0.898299 -0.000001
0.297406 0.802053 0.609322 -0.000000 0.884417 0.000004
1.576414 0.396166 0.841945 0.067247 0.005008 0.006391
3.141217 0.898043 0.419915 -0.000001 0.615723 0.000631
1.483747 1.060545 0.820992 -0.067207 0.005558 -0.006610
3.034564 0.483822 0.378910 0.070302 -0.008021 0.013291
2.430916 0.725774 0.654086 0.000000 -0.027248 0.000034
1.271468 0.802291 0.529143 -0.000001 0.885311 -0.000007
1.417578 0.734194 0.484186 0.000000 0.096363 -0.000037
1.705169 1.106282 0.868646 0.067247 -0.009312 0.011805
3.264739 0.908264 0.442942 -0.000000 -0.615725 -0.001806
3.016739 0.818300 0.655784 0.000000 0.615726 -0.000841
3.219593 0.648205 0.537043 0.000000 -0.931564 -0.000022
1.510576 0.946342 0.415082 -0.067209 0.006378 0.007577
0.325685 0.722843 0.654005 0.000000 -0.027654 0.000017
1.544794 0.349792 0.285637 -0.067207 -0.004921 0.005856
1.174062 0.770155 0.642419 0.000000 0.511877 0.000048
2.196827 0.802206 0.528981 0.000001 0.884591 -0.000007
1.409088 0.495863 0.756331 -0.060192 0.001639 0.002234
0.327257 0.812092 0.564756 0.000000 0.999618 -0.000000
2.342937 0.644274 0.588617 0.000000 -0.972658 0.000007
2.342937 0.767604 0.494147 0.000000 0.487963 -0.000026
1.642263 0.639467 0.491818 0.067248 0.007643 -0.009719
3.160572 0.461996 0.768402 0.070302 0.011041 0.010884
1.501402 1.097886 0.287277 -0.067208 0.005194 0.006179
1.277797 0.850130 0.662758 -0.067206 0.003098 -0.003693
1.289566 0.868399 0.460976 -0.067209 0.003098 0.003693
3.107365 0.917978 0.733674 0.000000 0.615724 -0.000631
0.638328 0.768275 0.494523 0.000000 0.487998 -0.000051
1.027953 0.649752 0.533480 -0.000000 -0.910137 -0.000007
2.099421 0.646233 0.542447 0.000001 -0.949269 -0.000005
1.491448 0.582278 0.699126 -0.060194 0.001733 0.002362
1.630123 0.330720 0.867839 0.075088 -0.007553 -0.009618
2.878671 0.784167 0.632141 0.000000 0.666985 0.000008
1.613220 1.341002 0.093365 -0.067210 0.010568 0.012459
1.579392 0.093667 0.074038 -0.067208 -0.010569 0.012459
1.613220 1.341002 1.044646 -0.067210 0.010568 -0.012459
1.953312 0.651146 0.607439 0.000000 -0.885979 0.000007
1.368874 0.683274 0.641969 -0.000000 -0.511695 0.000012
3.359055 0.661245 0.634852 -0.186692 -0.000784 0.000877
3.037349 0.642068 0.565635 0.000000 -0.999618 -0.000000
3.171045 0.422144 0.807296 0.070301 -0.008021 -0.013291
2.050718 0.752501 0.487769 0.000000 0.311650 -0.000022
1.524912 0.630514 0.514490 0.075086 -0.005036 0.006430
1.638952 1.162348 0.899067 0.075088 0.003462 -0.004426
1.904609 0.801182 0.527119 0.000001 0.869133 -0.000008
0.575485 0.730169 0.483973 0.000000 0.027654 -0.000033
2.440343 0.766045 0.493331 0.000000 0.463806 -0.000055
3.024780 0.765328 0.645048 0.000000 0.439147 0.000015
0.930547 0.648717 0.535827 0.000001 -0.920497 -0.000006
1.627180 1.093374 0.272781 0.067248 -0.004656 -0.005945
1.417578 0.653604 0.526069 -0.000001 -0.858575 -0.000009
0.484363 0.730756 0.483989 0.000000 0.027643 -0.000017
1.717308 0.562057 0.442611 0.075085 -0.002872 0.003673
3.359055 0.757849 0.481109 -0.186690 0.000431 -0.001040
1.361286 0.475076 0.374502 -0.067207 -0.001572 0.001875
1.076656 0.642655 0.579678 -0.000000 -0.992311 0.000004
0.079513 0.667456 0.569005 -0.427175 -0.000029 0.000001
1.517933 0.488971 0.738097 -0.067206 -0.001572 -0.001875
1.699283 1.018701 0.345427 0.075087 0.004800 0.006130
2.002015 0.650180 0.532548 0.000000 -0.898456 -0.000002
3.085308 0.531127 0.431382 0.000000 0.615724 -0.001052
0.158640 0.656259 0.525464 -0.111672 -0.000293 -0.000169
3.219593 0.791182 0.512995 0.000000 0.745071 -0.000003
1.600693 0.984672 0.782554 0.067248 -0.005710 0.007282
1.214542 0.660023 0.621414 -0.067208 -0.006196 -0.007362
0.394812 0.803038 0.530572 -0.000001 0.895646 -0.000004
3.122186 0.767344 0.494011 -0.000000 0.463810 -0.000014
1.430030 0.821931 0.512263 -0.067206 0.003280 0.003910
1.535213 0.514926 0.423183 0.075087 -0.005350 0.006830
1.642263 0.630514 0.634735 0.075086 -0.006845 -0.008724
2.586452 0.809801 0.589080 -0.000001 0.971532 0.000003
0.134164 0.802906 0.590443 -0.206827 0.000165 0.000042
3.129756 0.843316 0.493694 0.000000 -0.615724 -0.000631
1.501402 1.090516 0.860165 -0.060193 -0.005057 0.006873
1.618351 1.063991 0.843025 0.067247 -0.005008 0.006391
1.709796 0.764406 0.492512 0.000000 0.439375 -0.000004
1.904609 0.706875 0.486331 -0.000000 -0.231544 -0.000030
1.449889 0.629151 0.661649 -0.060193 0.003371 0.004591
1.699283 0.414931 0.329366 0.075087 -0.004406 0.005629
1.463896 0.347420 0.869274 -0.060192 0.005057 0.006873
1.439233 0.550288 0.693629 -0.067207 -0.001686 -0.002011
3.049057 0.868139 0.694729 0.000000 0.615726 -0.000421
3.165239 0.903027 0.721991 0.000000 0.615724 -0.000736
1.320171 0.765785 0.493195 0.000000 0.463806 -0.000027
3.183319 0.459240 0.351948 0.070301 -0.008021 0.013291
3.311830 0.620521 0.501236 0.000001 0.615724 -0.000913
3.138515 0.982221 0.377398 0.070301 -0.011041 -0.010884
3.125552 0.442704 0.346780 0.070302 -0.008021 0.013291
1.422702 0.421817 0.811643 -0.060193 0.005806 0.007882
3.073483 0.735799 0.484341 -0.000000 0.096310 -0.000295
1.904609 0.645092 0.546199 -0.000000 -0.965727 -0.000002
3.401111 0.669322 0.652006 -0.189193 -0.000160 0.000236
3.080058 0.463263 0.775166 0.070300 -0.008021 -0.013292
3.173535 0.506303 0.380970 -0.000001 -0.615725 0.000763
3.080058 0.990922 0.362845 0.070301 0.008021 0.013291
3.296268 0.521018 0.714527 0.000000 0.615726 0.000382
1.577886 0.637908 0.652919 0.067249 0.001406 0.001798
1.661093 0.651554 0.529793 0.000001 -0.876013 -0.000004
3.291862 0.641999 0.570764 -0.000002 -0.987215 0.000000
1.709796 0.647592 0.538614 0.000000 -0.931598 -0.000011
1.855906 0.775106 0.498731 0.000000 0.558448 -0.000042
2.878671 0.809758 0.548752 -0.000000 0.972658 -0.000014
3.370196 0.449729 0.352270 -0.140246 -0.005160 0.006842
3.370196 1.004455 0.785741 -0.140246 -0.005396 0.006657
2.283236 0.726799 0.483896 0.000000 -0.027654 -0.000017
3.048908 0.941726 0.409041 0.070302 -0.011041 -0.010884
3.048908 0.519982 0.738598 0.070302 -0.008021 -0.013291
1.027953 0.770186 0.495611 -0.000000 0.511806 -0.000012
1.588186 1.097196 0.871552 0.067247 -0.004656 0.005945
1.493321 0.288125 0.908576 -0.067209 -0.008929 -0.010562
1.638952 0.301081 0.227114 0.067248 0.003866 -0.004939
1.705169 1.099432 0.281780 0.075085 0.004170 0.005329
1.599590 0.627335 0.478687 0.067248 0.004217 -0.005386
1.504690 0.543430 0.409410 -0.060190 0.003278 -0.004464
1.701490 1.334151 0.098718 0.075086 0.008812 0.011201
0.699600 0.642052 0.566221 0.000000 -0.999629 -0.000000
2.972625 0.813412 0.620949 0.000000 0.787962 0.000248
2.489046 0.684982 0.642969 -0.000000 -0.487459 0.000013
1.707376 0.100962 1.054757 0.075087 -0.008812 -0.011200
0.200000 0.724747 0.483921 0.009093 -0.000044 -0.001068
1.222765 0.651452 0.529988 0.000000 -0.886150 -0.000001
3.335272 0.948241 0.749568 -0.140246 0.004675 -0.006199
3.397676 0.625444 0.489576 -0.140248 -0.005160 0.006841
1.579392 0.093667 1.063973 -0.067208 -0.010569 -0.012459
1.567953 0.491055 0.401401 0.075088 -0.001259 0.001611
1.705169 0.344476 0.864261 0.075087 -0.008340 -0.010608
1.677946 1.175653 0.913189 0.075086 0.006924 -0.008824
1.379293 0.890950 0.688047 -0.067208 0.009658 -0.011408
2.869693 0.853213 0.462699 0.070302 0.008021 0.013291
0.540922 0.682960 0.496230 0.000001 -0.504326 -0.000006
2.976077 0.692568 0.646802 0.000001 -0.413834 0.000031
1.523819 0.984285 0.753562 -0.067208 0.003007 -0.003585
3.305605 0.580720 0.470135 0.000000 0.615724 -0.000457
3.394241 0.850705 0.472413 -0.140247 -0.004889 -0.006032
3.311830 0.818616 0.656031 0.000002 0.615723 -0.000913
0.200000 0.669444 0.631628 0.016663 -0.000802 0.000846
1.559508 1.142135 0.882709 -0.067208 0.004556 -0.005424
1.709796 0.647280 0.598575 -0.000001 -0.938151 0.000005
1.594072 1.129972 0.268532 -0.067208 0.009111 0.010774
3.082910 0.590934 0.478116 0.000000 0.615726 -0.001052
3.152245 0.551158 0.416020 0.000000 -0.615725 0.000736
1.713997 1.210252 0.943671 0.075085 0.003147 -0.004024
1.744163 1.184673 0.211445 0.067248 -0.007907 -0.010049
1.497006 0.221554 0.964040 -0.067208 -0.007472 -0.008861
3.024780 0.792654 0.514727 -0.000001 0.759748 -0.000006
0.784437 0.716710 0.653479 -0.000000 -0.123608 0.000115
3.282838 0.905790 0.693135 0.000004 -0.615611 0.000286
0.200000 0.805040 0.534814 0.016660 0.001075 -0.000453
0.881843 0.802223 0.529014 0.000000 0.885979 -0.000007
1.489633 0.381938 0.845888 -0.060191 0.005432 0.007378
3.170889 0.647552 0.538716 0.000000 -0.929666 -0.000003
0.881843 0.642915 0.581566 0.000000 -0.988554 0.000001
2.294234 0.651843 0.529241 0.000000 -0.884092 -0.000002
1.271468 0.679504 0.639567 0.000001 -0.557094 0.000021
3.154545 0.640772 0.620949 0.000000 -0.787962 0.000496
0.297406 0.801951 0.528494 0.000000 0.885937 -0.000030
1.512424 0.434811 0.783970 -0.067209 -0.005649 -0.006718
1.953312 0.686069 0.494433 0.000000 -0.487885 -0.000013
1.609522 1.014055 0.333252 0.067246 -0.005359 -0.006837
0.154534 0.644509 0.569005 -0.135591 -0.000139 0.000004
1.532314 1.287439 1.006869 -0.060193 -0.006930 0.009389
1.647781 0.261421 0.941132 0.067247 0.003514 0.004491
3.278500 0.595855 0.687064 0.000000 -0.615723 -0.000422
3.179000 0.570998 0.462538 0.000000 0.615725 -0.001473
3.202993 0.903175 0.446919 -0.000001 -0.615725 -0.001806
3.202993 0.551010 0.691091 0.000001 0.615724 0.001806
1.718780 0.932864 0.727372 0.075085 0.002715 -0.003472
2.050718 0.646587 0.596643 0.000000 -0.950257 0.000002
2.949369 0.641981 0.569445 0.000000 -0.999904 0.000000
3.242818 0.496300 0.373153 0.000000 -0.615725 0.000763
3.245930 0.937984 0.388704 -0.000001 0.615721 0.000382
0.638328 0.652234 0.528494 0.000000 -0.885937 -0.000015
0.087036 0.761615 0.516165 -0.390522 0.000039 -0.000056
1.580829 0.840423 0.496056 0.075088 0.003777 0.004827
1.260471 0.728118 0.483916 0.000000 0.027654 -0.000033
3.264739 0.545920 0.695068 0.000000 0.615725 0.001806
3.216754 0.853240 0.683087 0.000001 0.615724 -0.001806
3.254508 0.838341 0.466566 -0.000000 0.615725 0.000422
3.166773 0.848300 0.648211 0.000000 -0.615724 0.000736
3.240747 0.580956 0.698706 0.000001 -0.615724 -0.001806
1.524195 1.047580 0.331438 -0.067211 0.005558 0.006610
0.881843 0.748625 0.651347 0.000000 0.258574 0.000027
1.707376 1.370543 0.063056 0.067245 -0.008785 -0.011148
1.707376 0.083641 0.063056 0.067247 0.008785 -0.011148
1.285158 0.550406 0.707071 -0.067211 -0.003098 -0.003693
0.126113 0.741818 0.644391 -0.238168 0.000024 0.000145
1.511669 0.862973 0.652967 -0.067209 0.003280 -0.003910
1.612390 0.686165 0.494380 -0.000000 -0.487948 -0.000026
1.708112 0.307278 0.900138 0.067246 0.004305 0.005498
1.609890 0.540151 0.435758 0.075087 -0.002872 0.003673
1.414621 0.349441 0.273903 -0.067208 -0.010387 0.012249
1.544794 1.104393 0.285637 -0.067208 0.009840 0.011618
0.735734 0.643945 0.587188 -0.000001 -0.977873 0.000003
1.661093 0.771162 0.641818 0.000000 0.511863 0.000048
0.200000 0.643554 0.585323 0.016662 -0.001148 0.000207
1.368874 0.768115 0.643577 0.000001 0.405671 0.000004
1.962738 0.812197 0.568566 0.000000 0.999618 -0.000000
3.316999 0.667740 0.630016 -0.185813 -0.000182 0.000193
0.443516 0.690437 0.492190 0.000000 -0.439155 -0.000058
2.864739 0.630805 0.509272 -0.000000 0.615726 -0.000841
1.497695 0.843065 0.459566 -0.060190 -0.003372 -0.004591
1.505783 0.631228 0.473705 0.067247 0.005623 -0.007171
1.431530 0.398945 0.316875 -0.067208 -0.005558 0.006610
2.781265 0.685014 0.495023 0.000000 -0.485950 -0.000006
1.363842 0.826029 0.655945 -0.060193 -0.009926 0.013357
2.294234 0.689482 0.645354 -0.000000 -0.438526 0.000015
1.744163 0.084533 1.071111 0.067245 0.007380 0.009388
1.713262 0.040784 0.035667 0.075087 -0.006295 0.008027
1.744163 1.369652 1.071111 0.067244 -0.007380 0.009388
2.537749 0.688659 0.493059 0.000000 -0.463799 -0.000055
2.570741 0.729290 0.654062 0.000000 0.027654 0.000008
1.466281 0.764801 0.492705 -0.000000 0.439147 -0.000015
3.202993 0.903175 0.691091 -0.000001 -0.615724 0.001806
0.346109 0.769619 0.495274 0.000001 0.462555 -0.000003
3.359055 0.785153 0.641811 -0.186692 0.000750 0.000839
2.635155 0.801772 0.609837 0.000000 0.872629 0.000004
1.611730 1.175550 0.930765 0.067249 -0.003953 0.005051
1.271468 0.646760 0.597126 0.000001 -0.940374 0.000005
2.815828 0.730169 0.483973 0.000000 0.027440 -0.000067
1.389949 0.828635 0.503122 -0.067209 0.009658 0.011408
3.095137 0.883091 0.706413 0.000003 0.615710 -0.000526
1.271468 0.647779 0.538136 0.000000 -0.931104 -0.000006
1.076656 0.795279 0.518070 0.000000 0.797474 -0.000022
1.416056 0.821351 0.626490 -0.067209 0.009658 -0.011408
1.392180 0.426736 0.332257 -0.060192 0.006087 -0.008260
1.473468 0.258093 0.935488 -0.067208 -0.008200 -0.009714
1.525687 1.221269 0.951999 -0.067209 0.004100 -0.004884
1.519057 1.128374 0.248767 -0.060191 -0.009365 -0.012620
1.320171 0.645149 0.545986 0.000001 -0.953017 -0.000002
1.571278 1.161097 0.917142 -0.060192 -0.004308 0.005860
0.394812 0.646686 0.541092 -0.000001 -0.937913 -0.000003
1.478608 1.138255 0.886567 -0.067208 0.009658 -0.011408
1.478608 0.315930 0.251443 -0.067208 -0.009658 0.011408
1.571278 1.170341 0.232698 -0.067209 0.004192 0.004992
1.547737 0.350534 0.873260 -0.060192 0.005057 0.006873
1.565010 0.932715 0.745006 0.067245 -0.001494 0.001911
2.914805 0.723869 0.654034 0.000000 -0.027643 0.000033
1.953312 0.721087 0.653902 -0.000001 -0.067982 0.000052
1.666174 0.357781 0.287873 0.075087 -0.008183 0.010410
1.708112 0.293834 0.233896 0.075087 -0.003462 0.004426
1.437414 1.064375 0.828274 -0.067209 0.011115 -0.013086
3.003745 0.620837 0.636527 0.000000 0.615726 0.000421
2.864739 0.823380 0.628738 0.000001 -0.615724 0.000841
3.170889 0.770249 0.642363 0.000000 0.511835 0.000096
1.529327 0.901311 0.723519 0.067247 -0.001603 0.002051
1.637527 0.641979 0.568859 0.000000 -0.999618 -0.000000
0.699600 0.729583 0.654054 0.000000 0.027643 0.000067
0.280124 0.642004 0.566880 0.000000 -0.999904 -0.000000
1.410933 1.018300 0.791989 -0.067209 0.002961 -0.003530
2.796211 0.619965 0.657885 0.070302 -0.008272 -0.013701
2.807096 0.586618 0.459237 0.070302 -0.008272 0.013701
2.773464 0.823940 0.488158 0.070302 0.005515 0.009170
1.598250 0.812203 0.568786 0.000000 0.999618 -0.000000
1.664703 0.102338 0.074016 0.067247 0.009839 -0.012459
3.189232 0.923015 0.400401 -0.000000 0.615724 0.001806
3.049057 0.570998 0.462538 -0.000001 0.615722 -0.000421
2.732561 0.722550 0.484013 -0.000000 -0.027654 -0.000258
2.537749 0.794616 0.620818 -0.000001 0.736609 0.000001
1.481206 0.812191 0.569665 0.000010 0.046957 0.000000
1.397675 0.598034 0.657268 -0.067208 -0.009658 -0.011408
1.405400 0.883666 0.458363 -0.067208 0.009658 0.011408
2.975024 0.858172 0.686940 0.000000 0.615725 -0.001262
0.200000 0.777502 0.637590 0.016657 0.000704 0.000930
2.196827 0.652270 0.528430 0.000000 -0.872811 -0.000002
1.665071 0.537870 0.723632 0.067246 0.002987 0.003819
1.556181 0.550852 0.415209 0.067248 0.001603 -0.002051
1.452475 0.529111 0.402815 -0.060193 0.003418 -0.004654
3.122186 0.778554 0.636794 -0.000000 0.603231 0.000019
1.653667 1.230580 0.953790 0.075088 0.002833 -0.003622
0.346109 0.653379 0.526447 0.000000 -0.872735 -0.000004
1.527855 0.639984 0.655576 0.067248 0.005623 0.007171
1.566482 0.958362 0.405267 0.075088 0.001259 0.001611
1.556565 0.331605 0.250211 -0.060193 0.004683 -0.006367
0.735734 0.762051 0.491407 0.000001 0.413741 -0.000031
1.574943 0.632833 0.511521 0.075085 -0.002518 0.003221
2.428560 0.812163 0.567320 0.000000 0.999618 -0.000000
2.586452 0.692901 0.646953 0.000000 -0.414385 0.000016
2.489046 0.805753 0.536502 0.000001 0.918357 -0.000003
1.586715 0.845660 0.675124 0.067247 -0.007643 0.009719
3.076580 0.655820 0.640206 0.000000 -0.787962 0.000248
3.034864 0.615949 0.671362 0.000000 -0.615726 -0.000841
2.148124 0.689186 0.645209 -0.000000 -0.439125 0.000058
0.368104 0.812100 0.565049 0.000000 0.999618 -0.000000
1.387018 0.918465 0.427584 -0.067208 0.001686 0.002011
0.758515 0.730096 0.483971 0.000010 0.000700 -0.000327
1.807202 0.759595 0.647666 0.000000 0.388951 0.000068
2.179546 0.727972 0.654098 -0.000000 0.027654 0.000017
1.583036 0.895077 0.423957 0.067248 -0.003207 -0.004099
1.557653 0.529568 0.705531 0.075087 -0.002675 -0.003421
2.041291 0.727825 0.654102 0.000000 0.027654 0.000008
0.833140 0.807263 0.540436 -0.000000 0.941200 -0.000010
1.606591 1.257720 0.147379 -0.060193 -0.003559 -0.004845
1.544084 1.305709 0.116866 -0.060193 -0.003184 -0.004337
2.148124 0.643092 0.582725 -0.000001 -0.988353 0.000004
3.206522 0.655820 0.497805 0.000000 -0.787962 -0.000248
1.560254 1.223679 0.175805 -0.060193 -0.003933 -0.005353
3.008876 0.838236 0.466649 -0.000000 0.615725 0.000421
0.443516 0.703861 0.650890 0.000001 -0.237954 0.000007
1.552870 0.979665 0.782732 0.067248 -0.005710 0.007282
1.560254 0.225205 0.955422 -0.067208 -0.007472 -0.008861
1.466281 0.784954 0.631427 0.000000 0.687322 0.000015
3.122186 0.647433 0.598987 0.000000 -0.931638 0.000003
0.248703 0.767539 0.643898 0.000001 0.391379 0.000004
3.170889 0.707908 0.486084 0.000000 -0.232105 -0.000239
0.638328 0.648179 0.600899 -0.000001 -0.930774 0.000006
1.633066 0.321185 0.262440 0.075087 -0.007553 0.009618
2.829967 0.656695 0.616837 -0.000001 -0.798099 0.000002
1.615408 0.410265 0.827593 0.067247 0.009839 0.012459
2.930910 0.615949 0.671362 0.000000 -0.615725 -0.000841
1.716940 0.205959 0.159456 0.067247 0.003251 -0.004155
0.443516 0.768787 0.494809 0.000001 0.485887 -0.000013
1.744163 1.410759 1.103233 0.067247 -0.005974 0.007615
0.087036 0.752447 0.626808 -0.390522 0.000029 0.000061
0.087036 0.782603 0.599046 -0.390518 0.000064 0.000032
1.174062 0.794262 0.516725 0.000000 0.797554 -0.000005
3.268296 0.809605 0.548110 0.000000 0.972623 -0.000001
0.589625 0.802495 0.529533 0.000000 0.885895 -0.000004
1.417578 0.671611 0.633548 -0.000001 -0.644837 0.000017
0.930547 0.713517 0.484983 0.000000 -0.151003 -0.000047
0.608478 0.726799 0.654118 0.000000 -0.013825 0.000133
2.002015 0.716565 0.484550 0.000000 -0.123634 -0.000014
3.103333 0.812205 0.568712 0.000000 0.999904 -0.000000
2.867673 0.642064 0.565782 0.000000 -0.999618 -0.000000
2.927374 0.648346 0.601306 0.000000 -0.921107 0.000006
3.380083 0.705480 0.474317 -0.186686 -0.000326 -0.001130
2.342937 0.700430 0.649830 -0.000000 -0.311648 0.000044
2.002015 0.683621 0.642175 0.000000 -0.511642 0.000024
0.072105 0.725552 0.513112 -0.456128 -0.000000 -0.000012
1.436667 0.958672 0.379360 -0.060192 -0.001616 -0.002202
1.514984 0.749934 0.487014 0.000000 0.258639 -0.000053
1.563687 0.745132 0.652183 -0.000000 0.205188 0.000136
1.417578 0.745991 0.651994 0.000001 0.230960 0.000060
0.030513 0.723140 0.540505 -0.611832 -0.000002 -0.000020
2.635155 0.804281 0.533146 0.000000 0.909966 -0.000003
1.384451 0.972225 0.382306 -0.067208 0.001572 0.001875
1.536684 0.592371 0.483559 0.075086 -0.002518 0.003220
3.230515 0.833400 0.636569 0.000000 -0.615725 0.000422
3.192761 0.620933 0.667468 0.000001 -0.615723 -0.000368
1.953312 0.763813 0.492222 -0.000001 0.434478 -0.000007
1.505090 1.181162 0.926906 -0.060190 -0.004308 0.005861
1.505090 1.181162 0.211105 -0.060190 -0.004308 -0.005861
1.584875 0.569821 0.676678 0.075085 -0.006845 -0.008724
1.505090 0.269855 0.215159 -0.067208 -0.004465 0.005316
1.705169 0.347902 0.269365 0.067247 0.009312 -0.011805
1.702226 1.079620 0.840468 0.075087 0.004092 -0.005228
1.702226 0.378250 0.845183 0.067248 0.005008 0.006391
1.454322 0.996531 0.787730 -0.060190 -0.006181 0.008386
1.670589 1.371435 1.078798 0.067246 -0.008785 0.011148
2.245530 0.688923 0.492930 0.000000 -0.439392 -0.000007
3.318420 1.055999 0.833772 -0.140245 0.001720 -0.002282
2.245530 0.643384 0.553625 -0.000000 -0.982174 -0.000001
0.540922 0.694826 0.647766 0.000001 -0.387462 0.000034
1.708112 1.126353 0.253933 0.067248 -0.004305 -0.005498
1.936816 0.641977 0.568932 0.000000 -0.999618 -0.000000
1.463896 1.106765 0.268737 -0.060192 -0.005057 -0.006873
3.024780 0.648546 0.601779 0.000000 -0.921144 0.000012
1.648530 1.412969 0.030408 -0.060192 -0.008241 -0.011135
1.584875 0.884364 0.676678 0.075087 0.006845 -0.008724
2.489046 0.763583 0.645901 0.000001 0.437582 0.000015
0.346109 0.690866 0.646027 -0.000000 -0.414382 0.000016
1.661093 0.806113 0.537385 0.000000 0.931583 -0.000006
2.927374 0.671863 0.504249 0.000000 -0.645903 -0.000008
1.641895 0.282301 0.906799 0.075087 -0.003462 -0.004426
3.294607 0.600708 0.652256 0.000000 0.615726 0.000457
3.294607 0.838429 0.466498 -0.000000 0.615725 0.000457
2.586452 0.650647 0.531593 -0.000001 -0.897972 -0.000014
2.148124 0.758303 0.489825 -0.000000 0.363481 -0.000018
1.535213 0.920900 0.399688 0.067247 -0.005974 -0.007615
1.585992 1.199614 0.191525 -0.060192 -0.007866 -0.010638
0.287980 0.731488 0.484009 0.000000 0.027451 -0.000017
2.258884 0.812179 0.567906 0.000000 0.999618 -0.000000
1.536316 0.591272 0.445095 0.067246 0.004217 -0.005386
1.699283 1.014758 0.797630 0.067247 -0.005359 0.006837
1.638584 0.590050 0.685123 0.067247 0.007643 0.009719
1.471226 0.915684 0.437316 -0.067208 0.003371 0.004018
1.125359 0.642623 0.558587 0.000000 -0.992278 -0.000002
1.478608 0.315930 0.886567 -0.067207 -0.004829 -0.005748
3.359055 0.634556 0.558579 -0.186690 -0.001073 -0.000060
3.380083 0.639587 0.611146 -0.193839 -0.001034 0.000572
3.208595 0.642092 0.573255 0.000000 -0.999618 0.000000
0.443516 0.647646 0.599533 -0.000000 -0.931534 0.000011
1.449889 0.825033 0.661649 -0.060193 -0.003371 0.004591
3.269498 0.833400 0.501442 0.000000 -0.615723 -0.000422
3.254508 0.838341 0.671444 0.000000 0.615726 -0.000844
1.630875 0.075842 1.074387 -0.067209 -0.009111 -0.010774
1.614700 1.415326 1.106802 -0.060192 -0.008241 0.011135
1.630875 1.378343 0.063624 -0.067210 0.009111 0.010774
0.881843 0.806699 0.599124 0.000000 0.931611 0.000006
1.855906 0.647699 0.599670 -0.000000 -0.929837 0.000003
1.542202 0.882501 0.430291 0.067247 -0.004217 -0.005386
2.683858 0.649251 0.534581 0.000000 -0.909876 -0.000007
3.316999 0.729438 0.654090 -0.177226 0.000011 0.000278
2.148124 0.763418 0.645982 -0.000000 0.439385 0.000007
1.591865 0.509172 0.752319 0.067249 0.001516 0.001939
1.618351 0.379140 0.309133 0.075087 -0.004092 0.005228
0.511072 0.812117 0.572376 0.000000 0.999618 0.000000
1.514984 0.707802 0.486110 0.000001 -0.231996 -0.000060
1.541099 0.958330 0.730293 -0.067207 0.001572 -0.001875
1.653667 0.241833 0.182076 0.067247 0.003602 -0.004603
3.106165 0.551062 0.691050 0.000000 0.615724 0.000631
3.084109 0.878107 0.435493 -0.000001 0.615725 0.001052
1.514984 0.690174 0.645692 0.000001 -0.438754 0.000029
1.309424 0.878114 0.683430 -0.067206 0.004647 -0.005532
2.016155 0.641995 0.569738 0.000000 -0.999618 0.000000
2.578597 0.729144 0.483945 0.000000 0.027643 -0.000017
1.500276 0.552895 0.721331 -0.060193 0.001733 0.002362
1.661093 0.648916 0.602656 0.000000 -0.921287 0.000006
1.343984 0.636772 0.489868 -0.060191 0.004776 -0.006494
0.061228 0.776982 0.569005 -0.498384 0.000021 0.000001
0.027297 0.753250 0.569005 -0.630722 0.000008 0.000000
0.735734 0.693070 0.647025 0.000000 -0.390383 0.000004
2.683858 0.808100 0.595111 0.000001 0.949410 0.000005
1.174062 0.650309 0.605726 0.000001 -0.860070 0.000001
3.084481 0.731049 0.654013 -0.000000 0.027654 0.000008
1.482997 0.943890 0.723298 -0.067207 0.003189 -0.003801
2.650866 0.726799 0.654118 0.000000 -0.013825 0.000067
2.654008 0.727532 0.483894 -0.000019 0.000237 -0.000962
2.895952 0.728118 0.483902 0.000000 0.013820 -0.000033
1.644838 1.191696 0.215449 0.075087 0.003147 0.004024
2.920648 0.798365 0.497805 0.000000 0.615726 0.000841
0.030513 0.724716 0.597680 -0.611857 -0.000002 0.000028
0.410523 0.723136 0.654013 0.000000 -0.027654 0.000017
2.342937 0.748271 0.651442 -0.000000 0.258750 0.000107
1.511669 0.611639 0.679109 0.067248 0.005623 0.007171
1.517555 0.862134 0.693912 0.067246 -0.004217 0.005386
1.368874 0.807004 0.539712 -0.000000 0.941121 -0.000005
1.718780 0.495630 0.747448 0.075086 -0.002518 -0.003220
3.116761 0.625917 0.663573 0.000000 -0.615726 -0.000631
3.103767 0.625917 0.474438 0.000000 -0.615725 0.000631
3.029733 0.635884 0.482227 0.000000 -0.615725 0.000421
1.676475 0.063161 1.093601 0.067248 0.008434 0.010709
0.394812 0.803167 0.607175 0.000000 0.898456 0.000003
0.930547 0.765262 0.645080 0.000000 0.439144 0.000029
1.552870 0.996473 0.376788 -0.067207 0.002961 0.003530
1.546985 0.494108 0.370082 0.067247 0.005623 -0.007171
0.492219 0.804555 0.533747 -0.000000 0.909993 -0.000007
0.200000 0.666082 0.509653 0.016666 -0.000847 -0.000801
2.976077 0.647379 0.539160 0.000000 -0.941115 -0.000001
1.387018 0.535719 0.710426 -0.067206 -0.001686 -0.002011
1.694132 0.651823 0.632101 0.067246 0.002987 0.003819
3.286932 0.461317 0.376832 0.000000 0.615725 -0.000763
3.359055 0.810992 0.528601 -0.186691 0.001029 -0.000569
3.359055 0.661245 0.503158 -0.186690 -0.000877 -0.000784
3.264875 0.486332 0.772646 -0.000000 -0.615724 -0.000763
1.667278 0.836309 0.660925 0.067247 -0.007643 0.009719
3.401111 0.762846 0.507970 1.000000 0.000000 0.000000
3.220761 0.506268 0.757068 0.000001 -0.615723 -0.000382
0.443516 0.777619 0.637501 0.000001 0.600239 0.000009
1.855906 0.701335 0.650127 0.000001 -0.310076 0.000022
1.571278 0.283844 0.905312 -0.067209 -0.004192 -0.004992
2.537749 0.764999 0.492802 0.000000 0.439383 -0.000007
3.073080 0.581062 0.698624 0.000000 -0.615724 -0.000526
1.713997 0.243933 0.194340 0.075086 -0.003147 0.004024
1.744163 1.225779 0.179324 0.067247 -0.007204 -0.009167
1.744163 1.225779 0.958687 0.067248 -0.007204 0.009167
1.334804 0.933034 0.410787 -0.067208 0.001686 0.002011
1.583049 0.264365 0.198927 -0.060192 0.003933 -0.005353
1.855906 0.653307 0.526575 -0.000000 -0.872146 -0.000004
1.595108 0.641983 0.568712 0.000000 -0.999629 -0.000000
3.269498 0.620784 0.501442 0.000000 0.615726 -0.000422
1.431507 0.863130 0.688208 -0.060192 -0.009926 0.013358
1.720251 0.992052 0.359917 0.067247 -0.002855 -0.003651
1.583049 1.198547 0.927916 -0.067207 0.004101 -0.004884
0.687031 0.692301 0.491331 0.000000 -0.414212 -0.000031
2.829967 0.805554 0.601981 0.000001 0.920497 0.000006
1.298383 0.660940 0.622587 -0.000000 0.787961 -0.000078
1.708112 1.139797 0.888054 0.075089 0.003855 -0.004927
1.368874 0.761013 0.490943 -0.000001 0.388763 -0.000034
1.717308 0.556919 0.699415 0.075085 -0.001436 -0.001837
0.094667 0.674727 0.528248 -0.360729 -0.000063 -0.000046
1.320171 0.722696 0.654001 0.000000 -0.027654 0.000258
1.587450 0.807002 0.644853 0.067251 -0.001406 0.001798
3.170889 0.802988 0.530475 0.000000 0.886150 -0.000001
1.091581 0.728924 0.483939 0.000000 0.027654 -0.000017
1.653667 0.231556 0.963965 0.067247 0.003602 0.004603
1.546985 0.494108 0.767929 0.067247 0.005623 0.007171
0.784437 0.652306 0.609645 0.000000 -0.872146 0.000004
0.465510 0.641998 0.570691 0.000000 -0.999904 0.000000
1.271468 0.806592 0.599397 -0.000000 0.931584 0.000003
1.668014 0.951800 0.386902 0.067248 -0.001516 -0.001939
1.468283 0.891474 0.711742 -0.060193 -0.003465 0.004718
1.594808 0.499378 0.378290 0.067247 0.005623 -0.007171
2.099421 0.804266 0.533113 -0.000001 0.908809 -0.000007
1.343984 0.817413 0.489868 -0.060193 -0.004776 -0.006494
1.449889 0.825033 0.476362 -0.060191 -0.003372 -0.004591
1.423782 0.605318 0.489141 -0.067208 -0.009658 0.011408
1.457615 0.600828 0.455016 -0.060192 0.009926 -0.013357
1.904609 0.762151 0.646559 -0.000001 0.391533 0.000004
0.027297 0.700934 0.569005 -0.630713 -0.000008 0.000000
2.099421 0.804555 0.604264 -0.000000 0.910394 0.000002
3.019137 0.576078 0.702518 0.000000 -0.615723 -0.000421
3.279726 0.910643 0.410069 -0.000000 0.615724 0.000572
1.719148 0.815874 0.502020 0.075086 0.002675 0.003421
1.667278 0.611121 0.485731 0.075086 -0.006845 0.008724
1.719148 0.597204 0.668112 0.075087 -0.006845 -0.008724
1.719148 0.617757 0.485960 0.075085 -0.002675 0.003422
1.719148 0.836428 0.652051 0.075091 0.002675 -0.003421
1.719148 0.856981 0.469899 0.075087 0.006845 0.008724
1.345102 0.951504 0.741797 -0.067210 0.003326 -0.003964
3.286721 0.655644 0.497667 -0.007896 -0.068564 -0.006153
1.744163 0.022873 0.018718 0.067247 0.005974 -0.007615
1.558021 0.580699 0.699321 0.067247 0.007643 0.009719
1.446242 0.374824 0.847860 -0.060191 0.005432 0.007378
1.519802 1.212135 0.193150 -0.067206 0.004101 0.004884
1.271468 0.755903 0.649090 -0.000000 0.337586 0.000040
1.648525 0.726799 0.483896 -0.000000 -0.027451 -0.000067
1.485940 0.939786 0.389524 -0.060191 -0.003278 -0.004464
1.205483 0.812165 0.570617 0.000000 0.999618 0.000000
3.042728 0.620837 0.636527 0.000000 0.615725 0.000421
3.056921 0.863251 0.659894 0.000000 -0.615724 0.000526
3.056921 0.848204 0.458860 -0.000000 0.615724 0.000526
2.952967 0.863251 0.478116 0.000000 -0.615725 -0.000841
2.938773 0.635884 0.482227 0.000000 -0.615725 0.000841
3.041194 0.888075 0.427704 -0.000001 0.615725 0.000841
1.491448 0.871907 0.438884 -0.060191 -0.001733 -0.002362
0.061228 0.727092 0.618895 -0.498491 0.000000 0.000010
3.238445 0.731488 0.654001 0.000000 0.027248 0.000017
0.815859 0.812137 0.571643 0.000000 0.999618 0.000000
1.497710 0.472553 0.384377 -0.067209 -0.003007 0.003585
1.320171 0.807164 0.540160 -0.000000 0.941121 -0.000005
1.629387 1.234316 0.162836 0.067246 -0.006326 -0.008060
2.294234 0.797203 0.617263 0.000000 0.829414 0.000005
1.555813 0.612602 0.640471 0.075090 -0.002518 -0.003220
2.504757 0.812207 0.569225 -0.000000 0.999905 0.000000
1.549927 0.805445 0.491165 0.067249 -0.002811 -0.003595
3.401111 0.752374 0.594287 1.000000 0.000000 0.000000
3.401111 0.701811 0.594287 1.000000 0.000000 0.000000
3.401111 0.752374 0.543724 1.000000 0.000000 0.000000
3.401111 0.701811 0.543724 1.000000 0.000000 -0.000000
1.693397 0.505938 0.401044 0.075087 -0.002715 0.003472
1.708112 1.160351 0.233896 0.075088 0.003462 0.004426
3.232511 0.655820 0.640206 0.000000 -0.787962 0.000248
3.066750 0.838332 0.497589 -0.000000 -0.615724 -0.001052
2.986819 0.843316 0.644316 0.000000 -0.615724 0.001262
3.092739 0.838332 0.640422 0.000000 -0.615725 0.000526
3.130955 0.580966 0.667683 0.000000 0.615726 0.000631
3.130955 0.858172 0.686940 0.000000 0.615725 -0.000631
3.179000 0.868139 0.443282 -0.000000 0.615725 0.001473
0.126113 0.798257 0.540101 -0.238169 0.000134 -0.000050
1.570528 1.053687 0.330393 -0.067208 0.010569 0.012459
1.570528 0.400498 0.330393 0.075087 -0.004406 0.005629
2.732561 0.657401 0.520147 -0.000000 -0.813835 -0.000005
1.563687 0.709483 0.652273 0.000000 -0.204863 0.000017
1.612390 0.806006 0.600899 0.000000 0.931584 0.000003
1.603648 0.198824 0.164294 -0.067209 -0.003463 0.004126
3.193145 0.815808 0.484174 -0.000000 0.615724 0.000736
3.165623 0.553554 0.689103 -0.000004 0.615676 0.000368
1.520545 1.269170 0.145418 -0.060193 -0.003559 -0.004845
1.555112 0.177305 0.996016 -0.067208 -0.006743 -0.008006
3.147881 0.848204 0.458860 0.000000 0.615725 0.000631
3.130955 0.596013 0.451071 0.000000 -0.615724 0.000631
3.050591 0.798365 0.640206 0.000000 0.615726 -0.000421
0.784437 0.694792 0.490259 0.000000 -0.389075 -0.000034
3.122186 0.705348 0.651290 -0.000000 -0.258708 0.000053
1.588922 0.938582 0.719431 0.075087 0.002675 -0.003421
2.814005 0.654566 0.499409 -0.000000 -0.787960 -0.000274
0.158640 0.720226 0.651867 -0.111680 -0.000037 0.000336
1.125359 0.680971 0.497473 0.000001 -0.526873 -0.000006
1.482997 0.510294 0.414713 -0.067208 -0.003189 0.003801
3.325290 1.012070 0.338566 -0.140247 0.003440 0.004563
1.542202 0.900246 0.685011 0.075088 0.003777 -0.004827
1.642631 0.937905 0.724035 0.075087 0.005350 -0.006830
1.367170 0.465942 0.770647 -0.067208 -0.006287 -0.007470
1.367170 0.988243 0.770647 -0.067207 0.003144 -0.003747
0.518927 0.728631 0.654101 0.000000 0.013820 0.000033
2.133199 0.725993 0.483919 0.000000 -0.027654 -0.000008
3.294607 0.853477 0.652256 0.000000 -0.615726 0.000457
3.290044 0.972967 0.392383 -0.000000 -0.615724 -0.000763
3.296268 0.536066 0.404227 -0.000001 -0.615721 0.000382
3.299381 0.555966 0.718233 0.000000 -0.615723 -0.000572
3.293156 0.953067 0.730078 -0.000001 -0.615725 0.000763
3.245930 0.953032 0.730050 0.000000 -0.615726 0.000382
3.290044 0.496265 0.373126 0.000000 -0.615725 0.000763
3.293156 0.516165 0.749334 0.000000 -0.615724 -0.000763
1.290321 0.642012 0.567687 0.000000 -0.999618 -0.000000
3.217649 0.982865 0.753362 0.000000 -0.615726 0.000763
3.217649 0.967817 0.365392 0.000000 0.615724 0.000763
2.886796 0.818300 0.655784 0.000002 0.615724 -0.000841
3.107365 0.933026 0.423593 0.000000 -0.615725 -0.000631
2.986819 0.625917 0.474438 0.000000 -0.615725 0.001262
3.283819 0.997721 0.795986 -0.000001 0.615723 -0.000763
2.952967 0.863251 0.659894 0.000001 -0.615724 0.000841
3.085308 0.546174 0.725885 -0.000001 -0.615724 -0.001052
3.153012 0.883187 0.675472 0.000000 -0.615725 0.000736
2.997081 0.570998 0.675472 0.000002 0.615720 0.000631
3.239706 0.461352 0.376860 -0.000001 0.615726 -0.000763
2.960830 0.610869 0.493694 0.000000 0.615724 -0.001262
3.173535 0.962929 0.400226 -0.000000 -0.615726 -0.000763
2.975024 0.580966 0.470327 0.000000 0.615724 -0.001262
2.938773 0.833348 0.501483 0.000000 -0.615725 -0.000841
2.986819 0.843316 0.493694 0.000000 -0.615724 -0.001262
3.063251 0.913090 0.439171 0.000000 -0.615725 -0.000526
3.119160 0.903122 0.446960 0.000000 -0.615725 -0.000631
2.886796 0.635884 0.482227 -0.000001 -0.615725 0.000841
3.082910 0.848204 0.679151 0.000000 0.615725 -0.000526
3.107365 0.536206 0.404337 0.000000 -0.615724 0.000631
3.189232 0.531170 0.400401 0.000000 -0.615725 0.001806
0.589625 0.649144 0.534814 0.000000 -0.921360 -0.000002
1.855906 0.797817 0.616350 -0.000000 0.829673 0.000005
1.663599 0.885726 0.699855 0.067248 -0.001603 0.002051
1.744163 0.166745 1.006869 0.067248 0.005096 0.006502
1.423782 0.848867 0.648869 -0.067208 0.009658 -0.011408
1.423782 0.848867 0.489141 -0.067209 0.009658 0.011408
2.391640 0.759393 0.647752 0.000001 0.371339 0.000009
0.314688 0.642092 0.573255 0.000000 -0.999618 0.000000
1.417578 0.807780 0.541925 0.000000 0.950297 -0.000001
1.586715 0.594691 0.480591 0.075087 -0.007553 0.009618
0.567630 0.812117 0.572376 0.000000 0.999618 0.000000
3.226986 0.908116 0.725967 0.000001 0.615725 -0.001806
2.002015 0.755868 0.649102 0.000001 0.336677 0.000020
1.570528 1.038431 0.827142 0.067246 -0.009839 0.012459
1.713997 0.213103 0.967762 0.075086 -0.002833 -0.003622
0.150436 0.791766 0.619343 -0.143551 0.000211 0.000155
1.519802 0.242050 0.193150 -0.067209 -0.008200 0.009713
0.079513 0.689180 0.615040 -0.419897 -0.000039 0.000044
2.537749 0.809605 0.548110 0.000000 0.972623 -0.000001
0.200000 0.745706 0.652062 0.016664 0.000271 0.001135
3.268296 0.648246 0.601070 -0.000000 -0.890487 0.000001
0.492219 0.650055 0.532813 0.000000 -0.910102 -0.000003
1.027953 0.653660 0.612036 0.000000 -0.858782 0.000002
2.489046 0.652538 0.527950 -0.000000 -0.872825 -0.000032
2.976077 0.805283 0.535388 -0.000001 0.920382 -0.000006
0.784437 0.647082 0.539988 0.000000 -0.941247 -0.000005
0.833140 0.659171 0.517719 -0.000002 -0.792945 -0.000011
1.315309 0.883952 0.443223 -0.060188 -0.002388 -0.003255
1.588922 0.924942 0.401124 0.067247 -0.002987 -0.003819
3.226986 0.531021 0.706711 -0.000001 0.615724 0.001806
3.240747 0.873229 0.439305 0.000000 0.615725 0.001806
3.216754 0.600944 0.454924 0.000000 -0.615725 0.001806
3.254508 0.615843 0.671444 0.000000 -0.615726 -0.000422
0.248703 0.707944 0.486076 0.000001 -0.232058 -0.000120
2.990216 0.725627 0.654102 0.000000 -0.013820 0.000067
3.401111 0.791561 0.537052 1.000000 0.000000 -0.000000
3.042728 0.833348 0.636527 0.000000 -0.615725 0.000421
3.165239 0.918074 0.435277 0.000000 -0.615724 -0.000736
1.499897 0.824831 0.622037 -0.067208 0.006560 -0.007792
1.612465 0.646145 0.643524 0.067249 0.004217 0.005386
0.638328 0.804722 0.603897 -0.000001 0.909226 0.000013
1.642644 0.060804 0.045211 -0.060192 0.008241 -0.011135
1.417578 0.808329 0.594414 0.000000 0.950257 0.000005
2.203112 0.728411 0.483925 0.000000 0.027643 -0.000033
0.291122 0.731488 0.654001 0.000000 0.027248 0.000017
2.245530 0.759663 0.490373 0.000000 0.389202 -0.000017
0.735734 0.805511 0.602082 0.000000 0.921102 0.000012
1.526762 0.460364 0.761295 -0.067209 -0.003007 -0.003585
1.208626 0.642016 0.567540 0.000000 -0.999618 -0.000000
2.278523 0.725774 0.654086 0.000000 -0.027643 0.000017
1.314945 0.535834 0.421346 -0.067208 -0.004647 0.005532
1.609890 0.550427 0.694223 0.075087 -0.001436 -0.001837
1.350022 0.641999 0.569885 0.000000 -0.999629 0.000000
1.576414 1.058019 0.296066 0.067247 -0.005008 -0.006391
1.444003 0.631674 0.513005 -0.067204 -0.001640 0.001957
2.586452 0.759325 0.647780 -0.000001 0.388323 0.000034
1.617615 0.247927 0.931339 0.075087 -0.006294 -0.008027
1.717308 0.915460 0.419515 0.067249 -0.003207 -0.004099
1.405400 0.581282 0.444589 -0.060192 0.009926 -0.013358
0.187566 0.812317 0.569005 -0.007446 0.002615 0.000068
0.142275 0.707331 0.490968 -0.175280 -0.000046 -0.000205
3.401111 0.666057 0.604759 1.000000 0.000000 0.000000
3.401111 0.666057 0.533252 1.000000 0.000000 0.000000
2.099421 0.702070 0.487654 -0.000000 -0.285207 -0.000048
0.589625 0.699179 0.488599 0.000000 -0.337898 -0.000010
2.635155 0.642190 0.563073 0.000001 -0.996081 -0.000001
1.711054 1.166977 0.915570 0.067247 -0.003954 0.005051
1.606579 0.437835 0.781887 0.075086 -0.004721 -0.006030
1.419012 0.930253 0.717493 -0.067210 0.001663 -0.001984
1.528233 0.470303 0.354029 -0.060192 0.001545 -0.002107
1.254258 0.811393 0.500992 -0.060190 -0.006368 -0.008637
3.272926 0.418745 0.320304 0.070301 -0.005515 0.009170
2.683858 0.762151 0.491452 0.000000 0.414244 -0.000063
1.586715 0.608525 0.675124 0.067247 0.007643 0.009719
3.295353 1.029686 0.792534 -0.140245 -0.003597 0.004440
3.306886 0.407580 0.808339 -0.140247 0.001799 0.002220
1.416056 0.647702 0.492494 -0.060192 0.006743 -0.009139
1.558021 0.889841 0.459620 0.075086 0.003777 0.004827
2.878671 0.649402 0.534247 0.000002 -0.897211 -0.000007
1.586715 0.845660 0.462887 0.067247 -0.007643 -0.009719
1.623501 0.228856 0.191207 0.075088 -0.002833 0.003622
1.711054 0.274022 0.919878 0.075087 -0.003541 -0.004526
1.644838 0.262489 0.215449 0.075087 -0.003147 0.004024
3.271099 0.943099 0.415722 -0.000001 -0.615723 -0.000382
0.166878 0.793436 0.517368 -0.079685 0.000387 -0.000285
0.383815 0.642084 0.572962 0.000000 -0.999629 0.000000
3.245930 0.501153 0.730050 -0.000001 0.615725 0.000763
3.223873 0.526168 0.396493 0.000000 -0.615722 0.000382
1.717308 0.881851 0.687370 0.075087 0.005744 -0.007329
1.636745 0.565342 0.433423 0.067249 0.001603 -0.002051
1.582300 0.362355 0.838548 0.075087 -0.008183 -0.010410
3.122186 0.690635 0.492093 -0.000000 -0.439222 -0.000058
2.878671 0.699317 0.488550 -0.000000 -0.337697 -0.000040
0.228279 0.642007 0.566733 0.000000 -0.999905 -0.000000
1.709796 0.805482 0.602150 -0.000000 0.921170 0.000003
0.897554 0.812141 0.566514 0.000000 0.999618 -0.000000
0.930547 0.654279 0.613075 -0.000001 -0.858834 0.000017
1.540399 0.205110 0.974007 -0.067208 -0.003736 -0.004451
1.540399 1.249075 0.164003 -0.067206 0.003736 0.004451
1.572023 0.212236 0.161529 -0.060190 0.003559 -0.004845
2.342937 0.811602 0.558914 -0.000000 0.992320 -0.000001
0.540922 0.795301 0.518099 -0.000001 0.796963 -0.000011
2.927374 0.755006 0.649412 0.000001 0.337116 0.000040
1.672876 0.812208 0.568932 0.000000 0.999640 -0.000000
1.439233 0.550288 0.444382 -0.067209 -0.003371 0.004018
0.998102 0.729290 0.654062 0.000000 0.027643 0.000008
1.560254 1.228980 0.955422 -0.067208 0.003736 -0.004451
1.436667 0.958672 0.758650 -0.060191 -0.001616 0.002203
1.688246 0.023984 0.014803 0.067248 0.007028 -0.008946
2.683858 0.776070 0.638612 0.000000 0.580969 0.000010
2.829967 0.759798 0.490430 -0.000000 0.389050 -0.000068
1.546284 1.255559 0.984537 -0.060193 -0.003559 0.004845
1.665439 0.861017 0.457621 0.067247 -0.007643 -0.009719
3.316999 0.669444 0.506383 -0.181226 -0.000182 -0.000203
1.594072 0.324213 0.869479 0.075086 -0.007553 -0.009618
1.588186 1.097196 0.266459 0.067248 -0.004656 -0.005945
3.307527 0.360467 0.282518 0.070301 -0.005515 0.009170
1.669117 0.811600 0.496550 0.067245 -0.002987 -0.003819
2.002015 0.784304 0.505991 0.000000 0.667110 -0.000016
2.245530 0.806299 0.537863 -0.000000 0.929666 -0.000003
