3.205750 0.838193 0.662274 0.166238 0.002497 -0.006418
3.696457 1.060222 0.258242 0.166237 0.001234 0.003173
3.352962 0.904802 0.380821 0.166238 0.002496 0.006418
3.622851 1.026918 0.284509 0.166236 0.001234 0.003173
3.254821 0.525736 0.415843 0.166237 -0.002497 0.006418
3.107609 0.592345 0.627252 0.166238 -0.001234 -0.003173
3.548975 0.820149 0.430398 0.000001 0.619264 0.001553
1.972034 0.646493 0.626767 0.000000 -0.520159 0.000014
1.732762 0.790135 0.632382 -0.069102 -0.009470 0.012986
1.968537 0.820388 0.470377 0.072100 0.003578 0.004531
0.408475 0.764831 0.490789 -0.000000 0.790499 -0.000026
3.431356 0.612270 0.591092 0.000001 -0.881560 0.000018
2.169497 0.353868 0.284772 0.072100 -0.005877 0.007427
2.218150 1.184696 0.935557 0.070616 -0.007827 0.009864
2.218150 1.096348 0.865878 0.070618 -0.009913 0.012448
2.218150 0.046826 0.038132 0.070616 0.007305 -0.009213
2.218150 0.831302 0.656839 0.070616 -0.003653 0.004625
2.218150 0.400220 0.316850 0.070615 0.003000 -0.003801
2.218150 0.400220 0.778778 0.070617 0.006001 0.007581
2.218150 1.339306 1.057497 0.070616 -0.007305 0.009213
2.218150 1.339306 0.038132 0.070615 -0.007305 -0.009213
2.218150 1.007999 0.796198 0.070618 -0.006001 0.007581
2.218150 0.267697 0.212331 0.070615 0.004435 -0.005613
2.218150 0.046826 1.057497 0.070617 0.007305 0.009213
2.218150 0.488569 0.709099 0.070617 0.007044 0.008888
2.218150 0.267697 0.883298 0.070616 0.008870 0.011159
1.242373 0.648028 0.627644 -0.000000 -0.492926 0.000007
2.067959 0.791587 0.456571 0.070616 -0.009392 -0.011805
1.607204 0.656770 0.631978 0.000001 -0.394666 0.000019
1.138136 0.741080 0.625889 0.000001 0.518496 0.000014
2.180509 0.664544 0.634922 0.000000 -0.316603 0.000013
3.107609 0.793787 0.627252 0.166237 0.001234 -0.003173
2.701695 0.700129 0.639200 -0.000000 0.069715 0.000060
1.185043 0.601423 0.548617 0.000000 -0.999603 0.000000
0.877542 0.767777 0.494705 0.000001 0.788281 -0.000003
1.398729 0.781968 0.570125 0.000000 0.971446 0.000004
3.504809 0.586148 0.649327 0.000003 -0.619237 -0.000436
0.616949 0.616150 0.597662 0.000000 -0.839002 0.000005
1.138136 0.639568 0.473388 -0.000000 -0.590044 -0.000011
2.244788 0.691942 0.456180 -0.000009 -0.001005 -0.000278
1.242373 0.773294 0.503474 0.000000 0.881932 -0.000004
1.297966 0.601410 0.548136 0.000000 -0.999603 0.000000
3.181215 0.559040 0.442110 0.166239 -0.001234 0.003173
2.081709 0.964411 0.346369 0.072101 0.006899 0.008708
1.398729 0.617897 0.495366 -0.000001 -0.788157 -0.000003
0.929661 0.775654 0.587586 -0.000000 0.906827 0.000002
2.910170 0.773294 0.503474 0.000000 0.881932 -0.000004
1.949541 0.428439 0.323657 -0.069103 0.005863 -0.008085
2.163151 1.253420 0.984695 0.072101 0.006644 -0.008388
1.932519 0.856441 0.697360 -0.069104 -0.003382 0.004676
2.182189 1.131088 0.205662 0.072100 0.004855 0.006142
2.388983 0.653294 0.630402 0.000000 -0.446620 0.000008
2.910170 0.616587 0.497292 -0.000001 -0.823916 -0.000003
2.023537 0.364578 0.271193 0.070615 0.006001 -0.007581
0.981780 0.761171 0.486467 -0.000000 0.736201 -0.000015
2.441102 0.744687 0.472076 0.000000 0.567158 -0.000049
1.919915 0.777500 0.512145 -0.000000 0.918355 -0.000014
1.941277 0.338225 0.836447 -0.069102 0.005412 0.007467
1.917852 0.370638 0.303256 -0.070551 -0.006151 0.007118
1.842563 0.974853 0.331220 -0.070552 0.007135 0.008246
0.773305 0.766592 0.493084 0.000001 0.806521 -0.000012
1.815678 0.767825 0.600859 0.000000 0.807344 0.000049
1.242373 0.634175 0.477575 -0.000000 -0.634328 -0.000020
2.336865 0.745581 0.472691 0.000000 0.567347 -0.000012
0.839322 0.784644 0.544682 0.000000 0.999624 -0.000000
1.346610 0.645052 0.625889 -0.000001 -0.519707 0.000028
3.014407 0.617533 0.495895 -0.000000 -0.823616 -0.000023
0.771568 0.601415 0.548859 0.000000 -0.999901 0.000000
2.493221 0.664315 0.634845 -0.000001 -0.281976 0.000007
0.616949 0.727846 0.632621 -0.000000 0.369724 0.000042
3.327119 0.782702 0.566955 0.000000 0.977951 0.000004
1.398729 0.743925 0.471554 0.000001 0.537642 -0.000007
0.877542 0.609014 0.584369 0.000000 -0.918424 0.000014
1.138136 0.643286 0.624774 -0.000001 -0.543689 0.000052
0.825424 0.631157 0.615403 -0.000000 -0.676630 0.000018
3.483475 0.647679 0.627444 -0.000001 -0.495889 0.000117
1.763559 0.707071 0.638395 -0.000001 0.153214 0.000054
2.545339 0.741560 0.625597 -0.000000 0.519994 0.000014
2.336865 0.776832 0.585033 -0.000000 0.918311 0.000007
0.564830 0.688890 0.639363 0.000000 -0.028200 0.000297
2.093343 0.295256 0.222814 0.070616 0.005479 -0.006926
0.721186 0.643960 0.625211 0.000000 -0.543290 0.000013
2.171612 0.111004 1.002595 0.072101 -0.006644 -0.008388
2.171612 1.275128 0.093033 0.072101 0.006644 0.008388
2.218150 1.273045 1.005237 0.070614 -0.011479 0.014366
3.207246 0.784619 0.543799 0.000000 0.999602 -0.000000
0.825424 0.625043 0.486378 -0.000000 -0.723897 -0.000002
1.800725 0.797201 0.452334 -0.069101 -0.003157 -0.004365
0.929661 0.671810 0.636973 -0.000000 -0.236215 0.000069
1.888945 0.273219 0.216686 -0.070551 -0.005167 0.005986
1.346610 0.635914 0.476147 0.000000 -0.634439 -0.000020
2.015075 0.999096 0.807486 0.070617 -0.013043 0.016264
2.910170 0.612838 0.592155 0.000000 -0.868357 0.000005
3.588628 0.725709 0.461741 -0.007345 0.007957 -0.017323
1.242373 0.738662 0.627325 0.000000 0.495929 0.000029
1.033898 0.642679 0.471248 0.000001 -0.543764 -0.000052
0.347669 0.784701 0.549984 0.000000 0.999911 0.000000
2.232627 0.641875 0.623849 0.000000 -0.567134 0.000024
3.251441 0.606191 0.599145 0.000000 -0.785184 0.000619
3.465171 0.869070 0.391815 0.000000 0.619264 0.001744
0.252119 0.612878 0.503404 0.000000 -0.850962 -0.000001
3.483475 0.741835 0.625430 0.000000 0.543858 0.000207
2.336865 0.620366 0.603633 -0.000001 -0.749662 0.000002
2.753814 0.664010 0.460885 0.000000 -0.317229 -0.000013
1.659322 0.753540 0.478938 -0.000000 0.655546 -0.000010
1.346610 0.783922 0.535718 -0.000000 0.991632 -0.000001
2.040460 0.319662 0.237294 0.070616 0.005479 -0.006926
1.725281 0.605661 0.624760 -0.069101 0.003157 0.004365
1.086017 0.615669 0.498708 -0.000001 -0.837373 -0.000011
0.721186 0.647958 0.468025 -0.000000 -0.495762 -0.000007
0.340720 0.697724 0.456280 0.000000 0.028004 -0.000020
3.557049 0.970866 0.749725 -0.000000 -0.619264 0.001044
1.972034 0.712206 0.637450 0.000000 0.209225 0.000020
0.304237 0.759284 0.484437 -0.000000 0.716833 -0.000016
1.555085 0.648098 0.467945 0.000000 -0.495805 -0.000029
2.128390 0.732692 0.630470 -0.000000 0.421220 0.000009
3.431356 0.769545 0.497292 -0.000000 0.839190 -0.000011
0.929661 0.621960 0.489979 0.000000 -0.772795 -0.000014
2.120843 1.003733 0.801607 0.070615 -0.003000 0.003801
1.450848 0.772816 0.502637 -0.000000 0.868287 -0.000005
0.460593 0.771914 0.501070 -0.000000 0.853848 -0.000005
0.148082 0.622139 0.497489 -0.173677 -0.000196 -0.000147
0.981780 0.602375 0.534524 0.000000 -0.988139 -0.000001
0.041696 0.732606 0.547814 -0.596056 0.000014 0.000000
2.805933 0.781978 0.570086 0.000000 0.971725 0.000004
1.033898 0.605933 0.576261 -0.000000 -0.948412 0.000011
1.861758 0.381098 0.307027 -0.070550 -0.013285 0.015166
1.659322 0.748186 0.621056 -0.000000 0.612270 0.000011
1.842563 0.411279 0.764409 -0.070551 -0.007136 -0.008246
3.588628 0.782447 0.525784 -0.007349 0.025486 -0.002201
2.388983 0.784463 0.540911 0.000001 0.962458 -0.000000
2.336865 0.740634 0.626161 0.000001 0.519187 0.000028
3.519554 0.601186 0.458162 0.000000 -0.619264 0.001553
3.014407 0.644983 0.625848 -0.000000 -0.511955 0.000003
3.014407 0.737685 0.467746 0.000000 0.496009 -0.000029
2.805933 0.746694 0.473482 0.000001 0.588306 -0.000011
2.753814 0.725114 0.633687 0.000001 0.340680 0.000012
2.649577 0.667075 0.635711 0.000001 -0.290084 0.000111
2.910170 0.772576 0.593410 -0.000000 0.868245 0.000010
2.036229 0.546687 0.646513 0.072098 -0.005366 -0.006785
2.545339 0.718481 0.459743 0.000000 0.290069 -0.000007
2.597458 0.640022 0.622573 0.000000 -0.590028 0.000046
3.118644 0.651281 0.466231 -0.000000 -0.445498 -0.000008
0.721186 0.752206 0.617850 -0.000000 0.655756 0.000019
0.512712 0.714947 0.458808 0.000000 0.236158 -0.000069
1.555085 0.606959 0.579221 0.000001 -0.937239 0.000003
0.098171 0.630118 0.513024 -0.368160 -0.000080 -0.000047
1.607204 0.782727 0.566837 -0.000000 0.977158 0.000002
3.327119 0.639243 0.622004 -0.000001 -0.589585 0.000023
2.018248 0.440968 0.728237 0.072100 -0.003705 -0.004692
3.620061 0.464910 0.385058 0.000000 0.619265 -0.000522
3.628122 0.942237 0.368483 -0.000001 -0.619265 -0.000696
1.972034 0.644162 0.470286 0.000000 -0.543866 -0.000013
1.711441 0.612998 0.503195 0.000000 -0.868357 -0.000010
0.356356 0.615116 0.596034 0.000000 -0.854104 0.000041
1.033898 0.769982 0.597662 0.000001 0.838959 0.000022
3.327119 0.646772 0.468702 0.000000 -0.495779 -0.000007
2.173727 1.076249 0.249692 0.072101 0.005366 0.006785
2.173727 0.597016 0.476151 0.072100 -0.003578 0.004531
2.034114 0.878451 0.385010 0.070616 -0.003783 -0.004790
1.964702 0.296440 0.226990 -0.069102 0.009920 -0.013592
1.659322 0.602696 0.563169 0.000000 -0.983356 0.000001
0.200000 0.774506 0.505742 -0.005859 0.003417 -0.001473
1.815678 0.710277 0.457786 0.000000 0.181318 -0.000182
1.710004 0.801096 0.457272 -0.069100 -0.003157 -0.004365
0.114457 0.771123 0.547814 -0.312645 0.000058 0.000002
0.564830 0.637724 0.620884 -0.000000 -0.612562 0.000022
0.512712 0.608760 0.583779 -0.000000 -0.918307 0.000007
3.275000 0.771977 0.501173 -0.000001 0.845796 -0.000003
1.294492 0.780542 0.575190 0.000000 0.956975 0.000003
3.327119 0.751336 0.618564 0.000000 0.634107 0.000020
1.908682 0.565744 0.470377 -0.070551 -0.003937 0.004566
2.128390 0.610444 0.587514 0.000002 -0.852434 0.000002
1.816002 0.593811 0.485892 -0.070551 -0.006890 0.007965
2.003091 0.235330 0.916073 -0.069102 0.008117 0.011158
3.170763 0.711931 0.458120 -0.000000 0.208723 -0.000039
3.407777 0.595678 0.641810 -0.000001 -0.619263 -0.001642
3.389662 0.688569 0.456275 -0.000000 -0.028004 -0.000020
2.441102 0.625858 0.485491 0.000000 -0.736202 -0.000031
1.867797 0.649859 0.466981 0.000000 -0.471399 -0.000125
2.076421 1.047474 0.281345 0.072100 0.011753 0.014709
2.858051 0.774108 0.504998 0.000000 0.881930 -0.000004
1.607204 0.606545 0.517539 0.000000 -0.948386 -0.000006
1.932264 0.820081 0.424562 -0.069102 -0.003608 -0.004987
3.170763 0.741252 0.625785 0.000001 0.519618 0.000028
0.721186 0.741835 0.470199 0.000000 0.543866 -0.000013
1.769859 0.502483 0.692672 -0.070551 -0.009350 -0.010766
1.724342 0.900324 0.711276 -0.069102 -0.004735 0.006539
1.710004 0.585036 0.457272 -0.069102 0.003157 -0.004365
1.919915 0.601437 0.549099 0.000000 -0.999613 0.000000
2.136708 0.949211 0.757176 0.070617 -0.003522 0.004460
3.222882 0.739011 0.627126 0.000000 0.495769 0.000029
3.247204 0.691299 0.639455 0.000000 -0.014094 0.000079
2.120843 1.003733 0.294022 0.070616 -0.012000 -0.015001
1.450848 0.677395 0.457502 0.000000 -0.181274 -0.000182
0.098171 0.712977 0.478703 -0.368160 0.000023 -0.000090
3.170763 0.606022 0.576527 -0.000000 -0.948336 0.000011
1.900221 0.610319 0.636344 -0.069102 0.007215 0.009933
0.773305 0.661319 0.633798 0.000001 -0.343293 0.000046
1.932816 1.034821 0.807615 -0.070551 0.012301 -0.014077
1.918873 1.151565 0.909428 -0.069104 -0.004510 0.006228
2.031998 1.060506 0.820472 -0.070552 0.010825 -0.012429
0.191297 0.605032 0.522452 -0.005859 -0.003684 -0.000851
0.385890 0.601522 0.543478 0.000000 -0.999603 -0.000000
3.535594 0.750219 0.619481 -0.004173 0.006910 0.004353
3.431356 0.648797 0.467549 -0.000000 -0.471373 -0.000008
2.336865 0.616347 0.497663 -0.000000 -0.838261 -0.000005
1.102521 0.784666 0.545485 0.000000 0.999603 -0.000000
1.917852 0.380009 0.804255 -0.069101 0.005863 0.008085
1.968537 0.798272 0.653294 0.070616 -0.003653 0.004625
2.858051 0.687445 0.456327 0.000000 -0.070060 -0.000477
3.434708 0.522252 0.395908 -0.000001 -0.619263 0.000993
1.555085 0.765274 0.604268 0.000000 0.790495 0.000006
1.659322 0.642139 0.471597 0.000000 -0.567347 -0.000012
2.189592 0.907355 0.376233 0.070616 -0.003522 -0.004460
2.004498 0.589441 0.609873 0.072101 -0.003577 -0.004530
2.701695 0.610478 0.587586 -0.000000 -0.906938 0.000016
2.130362 0.912537 0.382803 0.072102 0.001853 0.002348
3.142967 0.693869 0.639468 0.000000 0.014094 0.000040
0.252119 0.771329 0.595520 -0.000000 0.854110 0.000041
2.218150 0.985912 0.316850 0.070617 -0.006001 -0.007581
2.163151 0.137586 0.104755 0.070616 0.006783 -0.008562
2.984873 0.601477 0.550545 0.000004 -0.471665 0.000000
2.024153 0.746629 0.622194 0.000000 0.590221 0.000011
0.131119 0.625309 0.595890 -0.239692 -0.000137 0.000091
3.359262 0.802403 0.478769 0.000000 -0.619264 -0.000528
0.564830 0.774411 0.505564 0.000000 0.881930 -0.000004
2.180509 0.782718 0.528753 -0.000001 0.976813 -0.000004
2.015075 0.999096 0.288142 0.070617 -0.013043 -0.016264
2.232627 0.738837 0.627225 0.000001 0.481085 0.000008
1.770172 0.846322 0.660506 -0.070551 0.010333 -0.011876
2.701695 0.609666 0.509791 -0.000000 -0.905463 -0.000002
1.972034 0.739982 0.469071 -0.000002 0.512111 -0.000014
1.919915 0.661018 0.461941 -0.000001 -0.343472 -0.000092
3.118644 0.613316 0.502637 0.000000 -0.867726 -0.000005
1.933597 0.460560 0.747401 -0.069101 0.006314 0.008702
2.110266 0.239296 0.180204 0.070616 0.004435 -0.005613
1.859017 0.311872 0.848458 -0.070550 -0.011317 -0.012980
1.919915 0.725152 0.461955 -0.000001 0.343467 -0.000092
1.815678 0.673336 0.637324 0.000000 -0.208824 0.000157
2.545339 0.613038 0.592503 -0.000001 -0.867773 0.000010
2.805933 0.632834 0.478727 0.000000 -0.655191 -0.000010
2.169497 1.027953 0.816323 0.070615 -0.006001 0.007581
2.129305 0.337854 0.259652 0.070615 0.005479 -0.006926
0.356356 0.612346 0.504395 -0.000001 -0.881249 -0.000009
0.233008 0.698045 0.456289 0.000000 0.028189 -0.000020
1.846794 0.985708 0.773359 -0.070553 0.006643 -0.007682
0.564830 0.603414 0.528753 -0.000000 -0.977843 -0.000007
1.956241 1.067234 0.851689 -0.069100 -0.004961 0.006849
1.138136 0.772935 0.502846 0.000000 0.868307 -0.000019
2.120843 0.373777 0.790675 0.072099 -0.006388 -0.008068
3.606692 0.392804 0.767440 -0.000000 0.619264 0.001392
3.483475 0.773254 0.503404 -0.000000 0.850962 -0.000001
2.910170 0.738244 0.468065 0.000000 0.495868 -0.000029
2.073367 0.105103 0.089159 -0.070551 -0.012793 0.014622
3.656974 0.438871 0.330146 -0.000001 -0.619263 0.000696
0.616949 0.648447 0.467746 0.000001 -0.491832 -0.000007
1.450848 0.610622 0.587874 0.000000 -0.894527 0.000008
3.483475 0.670795 0.458903 -0.000001 -0.236149 -0.000138
1.450848 0.732255 0.630673 -0.000001 0.421097 0.000072
3.528517 0.479625 0.362289 0.000000 -0.619264 0.000696
0.281653 0.601433 0.545484 -0.000009 -0.064964 -0.000000
3.275000 0.770441 0.596954 0.000001 0.824590 0.000003
2.649577 0.740600 0.469447 0.000001 0.518910 -0.000028
2.531441 0.694833 0.639430 -0.000004 0.007123 0.000157
3.066526 0.610640 0.507719 -0.000000 -0.894776 -0.000017
1.878129 0.529743 0.659098 -0.070551 -0.004675 -0.005418
2.180509 0.645189 0.469656 -0.000000 -0.520021 -0.000028
1.502966 0.653006 0.465370 0.000000 -0.446472 -0.000034
3.014407 0.611088 0.588809 0.000000 -0.894739 0.000017
0.554407 0.689051 0.456262 0.000000 -0.028014 -0.000020
0.651695 0.689532 0.456248 -0.000000 -0.028189 -0.000040
3.483475 0.605345 0.521246 0.000000 -0.956941 -0.000020
2.712119 0.690657 0.456217 0.000000 -0.028004 -0.000020
2.042575 0.458622 0.379075 0.072100 -0.003705 0.004692
1.129449 0.690978 0.456208 0.000000 -0.028200 -0.000020
1.894426 0.974460 0.759230 -0.070550 0.003322 -0.003854
1.859017 0.311872 0.247171 -0.070551 -0.005659 0.006552
2.096517 0.372422 0.283960 0.070617 0.003000 -0.003801
1.242373 0.739220 0.468623 -0.000001 0.479077 -0.000004
2.295170 0.601428 0.548778 0.000000 -0.999603 0.000000
3.066526 0.739325 0.626946 0.000000 0.495950 0.000059
3.118644 0.777873 0.582595 -0.000000 0.929072 0.000007
1.940980 0.878899 0.381319 -0.069100 -0.003382 -0.004676
1.294492 0.614113 0.501241 0.000000 -0.868357 -0.000019
0.929661 0.777372 0.511850 0.000000 0.918357 -0.000004
1.881615 0.827203 0.633645 -0.070550 0.004675 -0.005418
3.431356 0.646081 0.626516 -0.000000 -0.520203 0.000027
3.532228 0.426497 0.740867 0.000000 0.619265 0.001392
3.673095 0.380126 0.318190 -0.000000 0.619265 -0.000696
3.673095 0.380126 0.777439 0.000000 0.619266 0.000696
1.763559 0.746240 0.473150 0.000001 0.588571 -0.000011
1.964307 0.521784 0.389840 0.070618 0.003653 -0.004625
0.460593 0.664734 0.634985 -0.000000 -0.317033 0.000100
2.171612 0.093040 0.070385 0.070616 0.011478 -0.014366
3.477582 0.891400 0.687051 0.000001 -0.619264 0.000872
3.673095 1.006006 0.777439 0.000001 -0.619262 0.000696
3.624731 0.522931 0.396444 -0.000000 -0.619264 0.001044
3.540927 0.928836 0.379052 0.000001 -0.619263 -0.000696
3.014407 0.654460 0.464685 0.000000 -0.420915 -0.000009
0.408475 0.643083 0.624643 -0.000000 -0.543774 0.000026
2.493221 0.608696 0.511998 -0.000000 -0.918170 -0.000007
0.981780 0.641941 0.623895 -0.000001 -0.566211 0.000024
2.024153 0.774354 0.505458 -0.000000 0.881622 -0.000009
2.388983 0.603060 0.530484 0.000001 -0.955436 -0.000001
1.607204 0.681328 0.456912 0.000000 -0.125715 -0.000066
2.067959 1.014722 0.787674 0.072099 0.012775 -0.015950
3.327119 0.742240 0.470461 -0.000000 0.543604 -0.000013
2.040460 0.303917 0.838372 0.072100 -0.010731 -0.013459
3.118644 0.777627 0.512440 0.000000 0.918417 -0.000007
3.684756 0.462144 0.729940 -0.318802 -0.002524 -0.002606
3.640852 0.905231 0.732334 0.000001 0.619263 -0.000696
3.436474 0.829762 0.422816 -0.000001 0.619264 0.000993
1.867797 0.773900 0.504608 0.000001 0.867401 -0.000002
3.431356 0.777500 0.583484 0.000000 0.918424 0.000007
1.788819 0.941825 0.354640 -0.070551 0.001907 0.002214
1.711441 0.772557 0.593445 0.000001 0.867966 0.000010
1.763559 0.653877 0.464956 0.000000 -0.421212 -0.000072
3.288899 0.688729 0.456271 0.000000 -0.028189 -0.000010
3.541566 0.860308 0.398726 0.000001 0.619264 0.001553
3.569779 0.452272 0.340715 -0.000000 -0.619264 0.000522
1.033898 0.774793 0.506317 0.000000 0.893864 -0.000004
3.475081 0.517619 0.426629 0.000001 0.619263 -0.000872
2.089113 1.091080 0.849844 0.072101 0.005366 -0.006785
1.979666 0.277114 0.883881 -0.069102 0.009019 0.012378
1.823994 0.858961 0.689906 -0.069100 -0.008568 0.011769
2.082767 1.178761 0.152546 0.070617 -0.008870 -0.011159
3.344717 0.583729 0.616860 0.000000 0.619264 0.000528
2.858051 0.724737 0.633825 -0.000001 0.343426 0.000092
0.356356 0.710949 0.637718 -0.000000 0.209225 0.000010
3.436474 0.539656 0.651620 0.000000 0.619265 0.000993
3.389725 0.807593 0.620954 0.000001 -0.619264 0.000821
1.607204 0.715962 0.636574 -0.000000 0.263337 0.000061
2.180073 1.315550 0.053436 0.070617 -0.009392 -0.011805
2.180073 0.070582 1.042193 0.070615 0.009392 0.011805
2.805933 0.688890 0.639363 0.000000 -0.027819 0.000301
2.137766 1.114911 0.207863 0.070617 -0.004957 -0.006270
2.002581 1.089889 0.247114 -0.070550 0.005167 0.005986
3.556382 0.589427 0.612366 0.000001 0.619263 0.001236
2.011553 1.173260 0.933023 -0.069102 -0.008117 0.011158
1.346610 0.743318 0.624468 0.000001 0.534416 0.000007
3.710801 0.991890 0.312136 -0.318804 -0.001807 -0.002842
3.553272 0.632194 0.479104 0.002114 -0.065282 -0.002121
0.148082 0.769182 0.589882 -0.173679 0.000214 0.000110
1.138136 0.773597 0.591588 0.000000 0.881890 0.000018
0.564830 0.774685 0.589528 0.000002 0.890995 0.000008
3.570950 0.660469 0.633766 -0.007346 -0.007933 0.017301
1.200678 0.784677 0.545887 0.000000 0.999613 -0.000000
0.408475 0.733701 0.629972 0.000000 0.446385 0.000034
2.076271 0.648726 0.628042 0.000000 -0.495939 0.000015
1.068644 0.691942 0.639448 0.000000 -0.027829 0.000040
2.022479 0.441929 0.332104 0.070616 0.003522 -0.004460
2.128390 0.607373 0.515275 0.000000 -0.939164 -0.000003
2.024153 0.652970 0.630241 0.000000 -0.446620 0.000017
1.915111 0.301411 0.852229 -0.070550 -0.005659 -0.006552
2.022755 1.121431 0.896532 -0.069101 -0.004510 0.006229
0.616949 0.737685 0.467746 0.000000 0.495805 -0.000029
1.242373 0.614531 0.595074 0.000000 -0.853468 0.000005
2.101805 0.251446 0.885404 0.072100 -0.009709 -0.012201
2.065844 1.133845 0.186445 0.070615 -0.009914 -0.012448
3.676075 0.901354 0.383540 -0.318804 -0.001807 -0.002842
2.097574 1.113149 0.890000 0.070616 -0.004957 0.006270
2.441102 0.608633 0.583484 0.000000 -0.918424 0.000007
2.067959 0.804894 0.622185 0.072099 0.010731 -0.013459
1.932816 1.025449 0.276131 -0.069101 -0.010822 -0.014799
1.859017 1.074260 0.247171 -0.069099 -0.005412 -0.007468
2.173727 1.072313 0.850927 0.070616 -0.005479 0.006926
0.122745 0.715409 0.625369 -0.272311 0.000042 0.000133
2.493221 0.682006 0.456826 0.000001 -0.124689 -0.000033
1.438687 0.784700 0.546690 0.000000 0.999603 -0.000000
1.874643 0.515082 0.702969 -0.069101 0.004284 0.005918
2.011902 0.928883 0.714812 0.072099 0.007410 -0.009347
2.441102 0.775134 0.507000 -0.000000 0.894694 -0.000004
0.304237 0.735635 0.628989 0.000000 0.471377 0.000031
0.252119 0.613476 0.593271 0.000001 -0.868273 0.000038
3.014407 0.771141 0.499800 -0.000001 0.844454 -0.000003
0.052306 0.713521 0.505338 -0.547615 0.000018 -0.000034
2.003091 1.150802 0.179556 -0.069102 -0.008117 -0.011158
3.242906 0.802403 0.478769 0.000000 -0.619264 -0.001055
2.002581 1.078081 0.863487 -0.069103 -0.004961 0.006848
1.778123 0.597945 0.634851 -0.069104 0.004735 0.006538
1.968537 0.565744 0.470377 0.072100 -0.003578 0.004531
1.964307 0.886839 0.677271 -0.070551 0.007382 -0.008527
2.336865 0.702170 0.456611 -0.000000 0.098001 -0.000170
1.878129 0.856389 0.436531 -0.070552 0.004675 0.005418
1.839271 0.547796 0.419319 -0.069102 0.008568 -0.011769
3.623985 0.707083 0.591793 1.000000 0.000000 0.000000
3.623985 0.655421 0.574525 1.000000 0.000000 0.000000
3.623985 0.739061 0.551694 1.000000 0.000000 0.000000
3.623985 0.714252 0.506805 1.000000 0.000000 0.000000
3.623985 0.656978 0.519035 1.000000 0.000000 -0.000000
3.623985 0.602054 0.563278 -0.016021 -0.002810 0.000510
1.763559 0.601820 0.539150 0.000001 -0.986130 -0.000001
2.067959 0.371410 0.787674 0.072100 -0.006388 -0.008068
2.024153 0.608982 0.511333 0.000001 -0.821097 -0.000001
3.535594 0.720903 0.460478 -0.000618 0.021305 -0.002041
1.711441 0.773407 0.503687 0.000000 0.881676 -0.000009
0.825424 0.737685 0.627883 0.000000 0.495939 0.000029
2.232627 0.611501 0.589635 0.000000 -0.894724 0.000002
2.154689 0.176508 0.949375 0.072100 -0.007666 -0.009665
2.182189 0.244000 0.196952 0.072101 -0.004344 0.005498
1.555085 0.777245 0.511555 0.000000 0.918761 -0.000001
3.327647 0.538805 0.443338 0.000000 0.619264 -0.000528
1.502966 0.730100 0.463969 0.000000 0.395488 -0.000039
0.773305 0.774900 0.589096 0.000000 0.894772 0.000017
1.739775 0.863660 0.417359 -0.070551 0.010334 0.011876
1.934306 1.114902 0.876421 -0.070554 0.005167 -0.005986
1.930461 0.774515 0.637991 0.070616 -0.007305 0.009213
1.778123 0.788187 0.634851 -0.069102 -0.004735 0.006539
0.241695 0.690656 0.639446 0.000000 -0.014094 0.000079
2.005556 0.912602 0.394242 0.072100 0.003705 0.004692
1.711441 0.698927 0.456344 -0.000000 0.070053 -0.000477
2.096517 0.543597 0.418964 0.070616 0.009392 -0.011805
3.519554 0.801660 0.479354 0.000000 -0.619265 -0.001553
3.375548 0.819382 0.431004 0.000001 0.619264 0.000821
2.073367 0.105103 1.006470 -0.070551 -0.012793 -0.014622
2.073367 1.281029 0.089159 -0.070551 0.012793 0.014622
2.073367 1.281029 1.006470 -0.070551 0.012793 -0.014622
1.522076 0.601423 0.548617 0.000000 -0.999613 0.000000
3.080424 0.601486 0.550866 0.000000 -0.999603 0.000000
0.460593 0.772138 0.594178 0.000000 0.868608 0.000002
2.030941 0.966661 0.780474 0.070615 -0.003522 0.004461
3.592488 0.779141 0.632888 0.000001 0.619264 -0.001236
3.389725 0.578539 0.474675 0.000001 0.619264 -0.000821
2.753814 0.784094 0.537073 0.000000 0.992065 -0.000001
1.972768 0.477584 0.400458 0.072100 -0.001853 0.002348
3.379424 0.538673 0.686769 0.000002 -0.619263 -0.000821
1.047797 0.690817 0.456212 0.000000 -0.028004 -0.000020
2.145763 0.692424 0.639462 0.000000 -0.028189 0.000010
1.291017 0.692263 0.456171 -0.000000 -0.028004 -0.000040
1.923802 0.821051 0.471218 -0.070552 0.003937 0.004566
2.024153 0.738069 0.467965 -0.000001 0.495539 -0.000029
2.284746 0.672044 0.458599 0.000000 -0.236247 -0.000034
1.763559 0.748313 0.620958 0.000000 0.611781 0.000005
3.719483 0.371609 0.801344 -0.318804 -0.002524 -0.002606
3.222882 0.654897 0.631147 0.000000 -0.421318 0.000036
3.170763 0.659704 0.633185 -0.000000 -0.369522 0.000021
1.940980 0.507233 0.714309 -0.069100 0.003382 0.004676
3.409887 0.852649 0.690863 -0.000000 0.619264 -0.000700
0.031485 0.661657 0.547814 -0.635917 -0.000009 0.000000
2.048921 1.103923 0.239356 -0.070551 0.009842 0.011322
1.935812 0.987523 0.303278 -0.069101 -0.005863 -0.008085
3.623985 0.635508 0.475639 -0.010565 -0.002749 -0.003241
1.989691 0.951964 0.364657 -0.070552 0.006643 0.007683
1.867797 0.772019 0.594387 0.000000 0.868345 0.000038
3.213817 0.583729 0.616860 0.000000 0.619264 0.001055
3.066526 0.653042 0.630277 0.000000 -0.446620 0.000008
0.139568 0.707332 0.463851 -0.206809 0.000038 -0.000193
3.184728 0.802403 0.478769 0.000000 -0.619264 -0.001055
3.284014 0.847327 0.443338 0.000000 -0.619264 -0.001583
1.555085 0.679776 0.638506 0.000000 -0.153721 0.000108
1.867797 0.652144 0.629828 0.000000 -0.446452 0.000134
0.082336 0.678668 0.610894 -0.430027 -0.000018 0.000068
3.209549 0.813634 0.625718 0.000000 -0.619264 0.000528
0.669068 0.667190 0.635746 0.000000 -0.290370 0.000055
1.502966 0.650037 0.628743 -0.000000 -0.471029 0.000016
1.921885 0.920986 0.710629 -0.070553 0.007135 -0.008246
1.398729 0.656179 0.631723 0.000001 -0.394752 0.000039
1.981230 0.852951 0.443527 0.072100 0.007155 0.009028
3.592488 0.606991 0.632888 0.000001 -0.619264 -0.001236
3.230285 0.536838 0.671030 0.166238 -0.001234 -0.003173
2.063103 0.178000 0.962623 -0.069101 0.003608 0.004987
2.004498 0.531066 0.694845 0.070617 0.009392 0.011805
1.861758 0.386159 0.795018 -0.069102 0.012174 0.016595
1.941277 0.338225 0.259182 -0.069102 0.010822 -0.014799
0.981780 0.730579 0.631451 0.000001 0.417565 0.000009
3.259192 0.836096 0.643433 0.000000 -0.619264 0.001055
3.379238 0.774972 0.506676 0.000001 0.893485 -0.000008
0.408475 0.730063 0.463953 -0.000000 0.395549 -0.000019
0.616949 0.763306 0.606706 -0.000000 0.768792 0.000003
1.880952 0.355604 0.276893 -0.069102 0.005637 -0.007776
3.284014 0.555520 0.673483 0.000000 -0.619265 -0.001583
2.035171 0.850889 0.688785 0.070616 -0.009392 0.011805
3.184728 0.583729 0.478769 0.000000 0.619264 -0.001055
1.915111 1.084721 0.243400 -0.070549 0.005659 0.006553
2.165266 0.424626 0.331331 0.070617 0.006522 -0.008235
1.991806 0.841434 0.643992 0.072095 0.003578 -0.004531
1.885100 0.776463 0.460107 -0.069102 -0.003608 -0.004987
1.982407 0.338469 0.814044 -0.070551 -0.005659 -0.006552
1.934306 0.275167 0.881412 -0.069103 0.004735 0.006538
1.934306 1.110965 0.214217 -0.069099 -0.004736 -0.006539
1.901711 0.524802 0.397370 -0.069103 0.004284 -0.005918
1.941787 0.261567 0.211586 -0.070551 -0.010334 0.011876
3.606692 0.993328 0.767440 -0.000000 -0.619264 0.001392
3.606692 0.993328 0.328188 0.000000 -0.619264 -0.001392
2.962289 0.733234 0.630205 -0.000000 0.446420 0.000017
3.599590 0.877877 0.384869 0.000001 0.619262 0.000522
2.098632 0.588133 0.476058 0.072100 -0.009199 0.011570
2.085940 0.417060 0.318211 0.070616 0.003261 -0.004131
1.989691 0.931722 0.756638 0.070615 -0.001761 0.002232
3.474345 0.591338 0.450395 0.000001 -0.619265 0.000993
1.989889 1.057327 0.273964 -0.070552 0.005659 0.006552
1.659322 0.778645 0.514975 0.000001 0.925483 -0.000003
3.358478 0.864305 0.395573 -0.000000 0.619265 0.001055
0.669068 0.607179 0.515804 0.000000 -0.939164 -0.000025
0.825424 0.606986 0.579297 0.000000 -0.939164 0.000006
2.137766 0.293309 0.870346 0.070616 0.009913 0.012448
2.088433 0.784718 0.547333 0.000000 0.999602 -0.000000
1.634559 0.601766 0.475807 -0.070551 -0.006889 0.007964
0.460593 0.680651 0.456998 -0.000000 -0.125745 -0.000017
1.972034 0.781126 0.573267 0.000000 0.957006 0.000001
1.867797 0.737406 0.628042 0.000001 0.495889 0.000117
3.383299 0.510596 0.386715 0.000001 -0.619264 0.000821
3.524709 0.982512 0.776097 0.166238 0.001234 -0.003173
3.524709 0.982512 0.319532 0.166237 0.001234 0.003173
2.046806 0.934226 0.342166 0.070617 -0.001761 -0.002232
3.728164 1.037157 0.276433 -0.318806 -0.000973 -0.001531
3.408120 0.886767 0.377858 0.000000 0.619264 0.001400
3.500174 0.414721 0.328287 0.166238 -0.002496 0.006418
1.842563 0.416714 0.324328 -0.069102 0.006314 -0.008702
1.770115 0.468465 0.721936 -0.070551 -0.003814 -0.004424
2.128390 0.738837 0.468404 -0.000000 0.495229 -0.000007
2.910170 0.648168 0.467905 -0.000000 -0.495788 -0.000029
2.566187 0.601450 0.549581 0.000000 -0.999603 0.000000
3.426568 0.448026 0.741075 0.166241 -0.001234 -0.003172
2.649577 0.655116 0.464381 -0.000000 -0.421138 -0.000072
0.601314 0.601504 0.551509 0.000000 -0.999613 0.000000
3.482585 0.448958 0.372477 -0.000001 0.619265 -0.001744
3.431356 0.730579 0.631451 0.000000 0.421172 0.000144
0.252119 0.735139 0.466375 0.000000 0.471389 -0.000251
2.173727 0.343014 0.819807 0.072100 -0.005877 -0.007427
2.336865 0.653731 0.630605 0.000000 -0.421220 0.000018
3.482585 0.448958 0.723152 -0.000000 0.619265 0.001744
3.431356 0.737825 0.467826 -0.000000 0.495862 -0.000029
1.778123 0.597945 0.460778 -0.069103 0.004735 -0.006538
2.169497 1.027953 0.279306 0.070617 -0.006001 -0.007581
2.962289 0.727436 0.462844 0.000001 0.368963 -0.000021
3.588628 0.774577 0.590595 -0.007346 0.024385 0.003167
3.641348 0.575313 0.640684 -0.318805 -0.002343 -0.002420
2.177958 1.109190 0.872307 0.072100 0.004855 -0.006142
2.053152 0.595195 0.455748 0.070615 0.005479 -0.006926
2.284746 0.667075 0.635711 0.000002 -0.199986 0.000010
3.014407 0.776398 0.585983 -0.000001 0.906559 0.000008
2.962289 0.609649 0.585801 -0.000001 -0.904735 0.000008
2.180509 0.733126 0.465370 0.000000 0.446472 -0.000034
2.232627 0.652180 0.465783 0.000000 -0.446459 -0.000034
2.096793 1.322063 1.039613 -0.070551 0.010825 -0.012429
3.383299 0.493882 0.687721 0.000001 0.619263 0.000821
0.356356 0.776195 0.509208 0.000000 0.906963 -0.000008
2.144112 0.602251 0.626115 0.070616 0.003653 0.004625
1.502966 0.776077 0.586676 -0.000000 0.906926 0.000016
2.186419 0.200015 0.933756 0.072101 -0.003833 -0.004853
2.186419 0.202827 0.158308 0.070616 0.003914 -0.004955
0.074611 0.750356 0.567861 -0.460239 0.000054 0.000017
0.877542 0.777627 0.583188 -0.000000 0.918491 0.000004
1.953183 0.479943 0.360559 -0.069103 0.003157 -0.004365
3.118644 0.612384 0.591304 -0.000001 -0.880226 0.000004
3.379238 0.612176 0.504714 -0.000001 -0.880017 -0.000009
3.622851 0.359214 0.284509 0.166238 -0.001234 0.003173
2.063103 1.216566 0.143699 -0.070549 0.003691 0.004281
2.157862 0.834180 0.431083 0.070616 -0.009392 -0.011805
1.784198 0.408503 0.772246 -0.070553 -0.007135 -0.008246
2.187477 0.523044 0.410955 0.070614 0.001892 -0.002398
1.972034 0.601545 0.552954 0.000000 -0.997546 0.000002
3.284014 0.555520 0.422146 0.000000 -0.619265 0.001583
3.222882 0.649293 0.467284 0.000000 -0.471377 -0.000016
2.187477 0.863088 0.684674 0.070616 -0.001892 0.002398
3.556382 0.589427 0.483263 0.000000 0.619264 -0.001236
1.190254 0.654642 0.464601 0.000001 -0.420914 -0.000036
3.616670 0.842186 0.413018 -0.000000 0.619264 0.000696
0.156653 0.688105 0.636155 -0.148710 -0.000004 0.000144
3.713342 0.339766 0.260577 -0.318805 -0.000631 0.000652
1.777576 0.520815 0.419460 -0.070550 -0.006890 0.007965
3.581870 0.420749 0.315854 -0.000000 -0.619264 0.001044
3.607650 0.470526 0.706142 -0.000001 0.619265 0.001044
3.594600 0.945091 0.331858 -0.000001 0.619263 0.001044
2.858051 0.611835 0.505352 -0.000000 -0.881890 -0.000002
1.979666 1.116890 0.221729 -0.070550 0.005167 0.005986
2.493221 0.762364 0.487825 0.000000 0.754914 -0.000029
1.157246 0.695154 0.639421 0.000000 0.028189 0.000040
2.597458 0.778496 0.581027 0.000000 0.928114 0.000002
0.173922 0.603715 0.562996 -0.073277 -0.000596 0.000084
3.574449 0.493578 0.722335 0.000001 -0.619263 -0.000696
3.575088 0.545393 0.681470 -0.000001 -0.619263 -0.000696
1.988128 0.247534 0.203829 -0.070551 -0.004675 0.005418
0.460593 0.612497 0.504112 0.000000 -0.881930 -0.000009
1.086017 0.729178 0.632057 -0.000001 0.395403 0.000039
2.774661 0.601468 0.550224 0.000000 -0.999603 0.000000
3.118644 0.752691 0.478200 -0.000000 0.655191 -0.000010
2.203094 0.601423 0.548617 0.000000 -0.999603 0.000000
0.773305 0.610478 0.508042 0.000000 -0.906996 -0.000008
2.187477 0.509283 0.689938 0.072102 -0.001853 -0.002348
2.180509 0.756501 0.613976 0.000001 0.693793 0.000009
2.128390 0.775169 0.588557 -0.000000 0.894754 0.000008
1.953730 0.588510 0.654117 0.070616 0.003653 0.004625
0.867119 0.601484 0.544843 0.000000 -0.999602 -0.000000
1.909192 0.497708 0.683779 -0.070553 -0.001907 -0.002214
2.064786 0.890840 0.717624 0.070617 -0.003783 0.004790
2.064786 0.495292 0.717624 0.070616 0.003783 0.004790
0.512712 0.626624 0.484668 0.000000 -0.704408 -0.000002
3.367797 0.779941 0.599145 0.029978 0.012760 0.009261
2.104068 0.601419 0.548457 0.000000 -0.999603 0.000000
3.097797 0.784727 0.547493 0.000000 0.999901 -0.000000
1.607204 0.623267 0.607227 0.000000 -0.754846 0.000015
1.450848 0.607428 0.515124 0.000000 -0.939164 -0.000003
3.607331 0.461332 0.747767 0.000001 -0.619264 -0.000522
3.438241 0.812358 0.470917 -0.000001 -0.619264 -0.000993
3.452760 0.505963 0.678193 0.000001 0.619264 0.000993
1.893405 0.567236 0.428738 -0.069102 0.008568 -0.011769
2.165266 0.413582 0.773008 0.070616 0.006522 0.008235
2.135651 0.149835 0.983693 0.070615 0.003392 0.004296
2.135651 1.236297 0.111936 0.070616 -0.003392 -0.004296
3.504809 0.799984 0.649327 0.000000 0.619264 -0.001744
3.493281 0.592108 0.610252 -0.000001 0.619262 0.000497
2.838941 0.784673 0.545726 0.000000 0.999602 -0.000000
0.304237 0.651281 0.629398 0.000000 -0.446472 0.000017
1.998152 0.954180 0.322042 0.070616 -0.007044 -0.008888
2.065844 0.525925 0.665614 0.072099 -0.009199 -0.011570
2.065844 0.860207 0.430014 0.072099 0.009199 0.011570
2.188535 0.810540 0.637738 0.072101 0.003577 -0.004530
2.188535 0.023413 0.022393 0.072099 -0.009199 0.011570
2.188535 1.362719 0.022393 0.072099 0.009199 0.011570
2.188535 0.023413 1.073236 0.072098 -0.009199 -0.011570
2.188535 1.362719 1.073236 0.072098 0.009199 -0.011570
2.188535 0.788453 0.475310 0.072100 0.003578 0.004531
2.218150 0.576918 0.639419 0.070616 0.007305 0.009213
2.218150 0.576918 0.456209 0.070617 0.007305 -0.009213
2.015075 0.387036 0.807486 0.070616 0.013043 0.016264
3.451103 0.949208 0.749830 0.166237 0.002497 -0.006418
3.451103 0.949208 0.345798 0.166238 0.002497 0.006418
2.006614 0.822028 0.427031 0.070616 -0.007305 -0.009213
3.087373 0.689532 0.456248 0.000000 -0.028014 -0.000020
1.793441 0.900210 0.378530 -0.069103 -0.004284 -0.005918
2.012960 0.800219 0.650825 0.070619 -0.001826 0.002315
1.755208 0.567008 0.440384 -0.069100 0.004735 -0.006539
1.867797 0.740737 0.469530 -0.000001 0.500617 -0.000004
1.242373 0.609531 0.510083 0.000001 -0.906529 -0.000008
2.284746 0.713149 0.637249 0.000000 0.208740 0.000078
2.006614 0.409494 0.305092 0.070616 0.006522 -0.008235
3.222882 0.728292 0.463190 0.000000 0.395597 -0.000019
2.146228 0.220303 0.181573 0.072100 -0.004344 0.005498
1.854547 0.568420 0.662714 -0.069103 0.004284 0.005918
1.932264 0.820081 0.671067 -0.069099 -0.003608 0.004987
3.632666 0.788185 0.622833 -0.318805 -0.000973 0.001531
2.161035 0.922207 0.723277 0.072100 0.003450 -0.004369
0.943559 0.784655 0.550545 -0.000000 0.999624 0.000000
1.998152 0.412459 0.748872 0.072100 -0.006899 -0.008708
3.483475 0.781159 0.573152 0.000000 0.964867 0.000001
1.933836 1.170892 0.170959 -0.069103 -0.008568 -0.011769
1.933836 0.215240 0.924670 -0.070551 -0.009350 -0.010766
2.022755 0.264701 0.896532 -0.069104 0.004510 0.006228
3.354602 0.852942 0.656720 -0.000001 -0.619263 0.001055
2.128247 0.818761 0.638671 0.072099 0.009199 -0.011570
0.582203 0.784628 0.544120 0.000000 0.999603 -0.000000
2.177958 0.265898 0.881016 0.072100 -0.004855 -0.006142
1.488199 0.693468 0.456160 0.000000 0.028057 -0.000040
3.342191 0.555520 0.673483 0.000000 -0.619264 -0.000528
3.242906 0.600443 0.457577 0.000000 -0.619265 0.001055
3.359262 0.785689 0.638052 0.000000 0.619264 -0.000528
2.625255 0.601464 0.550063 0.000000 -0.999602 0.000000
2.038698 0.232579 0.174526 -0.069103 0.008117 -0.011158
2.701695 0.777754 0.582893 0.000001 0.928830 0.000013
1.960076 0.798680 0.607351 0.072099 0.007155 -0.009028
2.189592 0.465203 0.724898 0.072100 -0.001725 -0.002186
2.218150 0.963825 0.761358 0.070617 -0.006522 0.008235
2.479322 0.601450 0.549581 0.000000 -0.999603 0.000000
3.624731 0.522931 0.699185 -0.000001 -0.619263 -0.001044
3.624731 0.863201 0.699185 0.000000 0.619264 -0.001044
0.098171 0.621596 0.555867 -0.367863 -0.000181 0.000011
2.962289 0.607000 0.516294 0.000001 -0.939043 -0.000012
3.287161 0.694432 0.639461 -0.000000 0.014103 0.000158
2.023537 1.038798 0.293057 -0.070552 0.005659 0.006552
2.180509 0.608230 0.582520 0.000000 -0.927594 0.000003
0.773305 0.707508 0.638327 0.000001 0.153302 0.000108
3.343309 0.498837 0.403222 0.166238 0.005661 -0.003921
3.582190 0.939476 0.759342 0.000001 0.619264 -0.000522
0.304237 0.662263 0.461486 0.000000 -0.343470 -0.000046
0.686441 0.601500 0.551348 0.000000 -0.999613 0.000000
1.568983 0.693869 0.456171 -0.000002 0.012112 -0.000092
1.816002 0.593811 0.609736 -0.070551 -0.006890 -0.007965
1.694415 0.524461 0.414837 -0.070551 -0.006890 0.007965
1.732293 0.532135 0.670649 -0.070551 -0.010334 -0.011876
1.747883 0.789485 0.462424 -0.069101 -0.004735 -0.006539
0.929661 0.653294 0.465227 0.000000 -0.446471 -0.000017
2.055267 0.415016 0.343515 0.072099 -0.003450 0.004369
3.170763 0.777388 0.511887 0.000001 0.918248 -0.000014
3.344717 0.583729 0.478769 0.000000 0.619264 -0.001055
3.321637 0.808151 0.655768 0.000000 0.619264 -0.001055
3.472579 0.845626 0.650949 0.000000 -0.619264 0.001987
2.649577 0.754827 0.615539 -0.000000 0.676807 0.000018
1.086017 0.656843 0.632009 0.000001 -0.395358 0.000078
2.649577 0.784614 0.543638 0.000000 0.999602 -0.000000
2.004498 0.873996 0.670842 0.072101 0.002683 -0.003400
2.180509 0.607992 0.513706 -0.000001 -0.905694 -0.000002
1.964307 0.886839 0.418358 -0.070551 0.007382 0.008527
2.034114 0.491374 0.405686 0.072100 -0.003705 0.004692
2.046806 0.451906 0.753463 0.070617 0.001761 0.002232
3.588628 0.660423 0.461741 -0.007345 -0.010962 -0.013561
3.599590 0.491541 0.406061 0.000001 0.619263 -0.000522
0.156653 0.645992 0.622732 -0.140358 -0.000157 0.000266
2.122959 1.202610 0.137360 0.070615 -0.003914 -0.004955
0.981780 0.728993 0.463492 -0.000000 0.395585 -0.000039
2.284746 0.609014 0.511260 -0.000000 -0.918389 -0.000014
2.066902 0.819149 0.660891 0.070617 -0.009392 0.011804
1.815678 0.776449 0.509755 0.000000 0.906963 -0.000016
3.644243 0.401865 0.335335 0.000000 0.619264 -0.000696
3.656974 0.963975 0.744290 -0.000003 -0.619255 0.000696
3.656974 0.963975 0.351338 -0.000001 -0.619263 -0.000696
3.608609 0.564961 0.429592 0.000002 -0.619262 0.000696
3.575088 0.857453 0.660277 -0.000001 -0.619265 0.000696
3.516106 0.900891 0.728911 0.000002 0.619262 -0.000696
3.541566 0.860308 0.696903 -0.000001 0.619263 -0.000776
1.800923 0.476259 0.370909 -0.069102 0.003495 -0.004831
3.411653 0.835245 0.642762 0.000000 -0.619264 0.001642
3.523188 0.555986 0.673115 0.000001 -0.619264 -0.001553
3.574761 0.559266 0.459475 0.000001 0.619264 -0.001553
3.515779 0.499114 0.683595 -0.000001 0.619264 0.000776
2.232627 0.775891 0.587076 -0.000001 0.906862 0.000016
2.962289 0.662338 0.461459 0.000000 -0.343470 -0.000046
2.218150 0.135174 0.987817 0.070614 0.011479 0.014366
2.218150 1.250958 0.107812 0.070615 -0.011478 -0.014366
2.218150 1.206783 0.142651 0.070617 -0.006783 -0.008561
2.218150 0.179349 0.952977 0.070616 0.006783 0.008561
2.026517 1.192587 0.147364 -0.069102 -0.007215 -0.009933
1.711441 0.642510 0.624272 -0.000000 -0.543889 0.000052
0.165269 0.649676 0.469306 -0.106874 -0.000207 -0.000351
3.472579 0.557220 0.672142 -0.000001 -0.619264 -0.001987
3.581870 0.420749 0.779775 -0.000000 -0.619263 -0.001044
3.497401 0.840143 0.680999 0.000003 0.619259 -0.000872
3.656334 0.999076 0.289281 -0.000001 0.619263 0.000696
3.308835 0.841843 0.413288 -0.000001 0.619265 0.000791
3.507406 0.454442 0.753202 0.000000 -0.619264 -0.001392
3.259192 0.550036 0.643433 0.000000 0.619264 0.001055
3.358478 0.864305 0.700056 -0.000001 0.619265 -0.001055
3.434708 0.880594 0.678528 0.000001 -0.619263 0.000993
3.532228 0.942921 0.333569 0.000000 0.619264 0.001392
3.432942 0.897998 0.726629 -0.000003 0.619261 -0.000993
3.631513 0.398287 0.797490 0.000000 -0.619264 -0.001392
3.209549 0.796920 0.448719 0.000000 0.619264 0.000528
3.411653 0.835245 0.452866 0.000002 -0.619262 -0.000821
3.457763 0.476903 0.735487 0.000001 -0.619264 -0.001744
3.457763 0.476903 0.360142 0.000001 -0.619265 0.001744
3.184728 0.785689 0.638052 0.000000 0.619264 -0.001055
3.284014 0.830613 0.673483 0.000000 0.619264 -0.001583
3.383299 0.892250 0.407907 0.000002 -0.619262 -0.000821
3.606692 0.392804 0.328188 0.000000 0.619265 -0.001392
2.095459 0.880968 0.684715 0.072101 0.001853 -0.002348
0.148082 0.773413 0.514533 -0.173677 0.000224 -0.000100
2.031998 0.325626 0.275156 0.072099 -0.011753 0.014709
2.031998 0.342120 0.841385 0.070615 0.012000 0.015001
1.916987 0.860760 0.659235 -0.070551 0.004675 -0.005418
0.512712 0.781551 0.523911 0.000000 0.964314 -0.000005
2.098632 0.598723 0.632998 0.070617 0.009392 0.011805
3.195239 0.574191 0.650163 0.166238 -0.002496 -0.006418
2.545339 0.784008 0.536395 0.000000 0.992022 -0.000002
2.131420 0.153379 0.130154 0.072099 -0.007666 0.009666
2.002622 1.213915 0.955291 -0.070548 0.004183 -0.004850
2.002622 0.172217 0.955291 -0.070551 -0.004183 -0.004850
1.893405 0.818896 0.428738 -0.069102 -0.004284 -0.005918
1.846242 0.775278 0.631345 -0.069101 -0.004284 0.005918
1.955845 0.544243 0.688839 0.070616 0.003653 0.004625
2.076271 0.630684 0.480661 -0.000000 -0.676677 -0.000009
2.076271 0.729030 0.632121 0.000000 0.395560 0.000019
1.634559 0.784366 0.619822 -0.069102 -0.006314 0.008702
1.933814 0.784729 0.547895 0.000000 0.999602 0.000000
1.346610 0.729695 0.463794 -0.000000 0.395504 -0.000039
3.535594 0.609395 0.585255 -0.001749 -0.023568 0.000810
3.411653 0.567601 0.431674 0.000001 -0.619264 0.000821
3.408120 0.499365 0.717771 -0.000000 -0.619265 -0.001400
0.408475 0.653294 0.465227 0.000000 -0.446620 -0.000008
3.516106 0.468527 0.707719 0.000000 0.619265 0.000696
2.075363 0.948129 0.735834 0.072100 0.003450 -0.004369
0.460593 0.703489 0.638883 -0.000001 0.124899 0.000067
3.145882 0.797966 0.473675 0.166237 -0.005661 -0.003921
3.107609 0.592345 0.468377 0.166238 -0.001234 0.003173
3.584427 0.611293 0.500508 0.029980 -0.027945 -0.016130
3.681156 1.010307 0.815206 0.000000 0.619262 -0.000696
3.681156 0.375825 0.280423 0.000000 -0.619264 0.000696
3.648913 0.443172 0.367913 0.000001 0.619262 -0.000696
3.640852 0.905231 0.363295 -0.000001 0.619263 0.000696
3.574449 0.909268 0.394486 0.000001 -0.619262 -0.000696
3.648913 0.443172 0.727716 0.000001 0.619262 0.000696
3.600548 0.816870 0.628270 0.000001 -0.619263 0.001236
3.592488 0.779141 0.462741 0.000001 0.619264 0.001236
3.632791 0.900930 0.694567 -0.000000 -0.619264 0.001044
3.607331 0.461332 0.347862 -0.000000 -0.619264 0.000522
3.582509 0.455849 0.377911 -0.000000 0.619264 -0.000522
3.600548 0.569262 0.628270 0.000001 0.619263 0.001236
2.207437 0.692986 0.639477 0.000000 -0.028179 0.000079
3.548975 0.820149 0.665231 0.000002 0.619265 -0.001553
3.587818 0.820447 0.430163 0.000002 0.619253 0.000348
1.874643 0.500556 0.411077 -0.070550 -0.003814 0.004424
3.379238 0.660003 0.633304 -0.000000 -0.369522 0.000021
0.738559 0.690175 0.456230 0.000000 -0.028004 -0.000020
2.182189 0.232957 0.907386 0.072100 -0.008688 -0.010936
2.388983 0.655189 0.464347 0.000001 -0.421022 -0.000036
3.632666 0.597947 0.472795 -0.318803 -0.001262 0.001303
2.132478 0.470238 0.731281 0.070615 0.001761 0.002232
3.275000 0.611797 0.505423 0.000000 -0.881930 -0.000004
1.190254 0.731053 0.464398 -0.000000 0.421048 -0.000018
3.379238 0.734384 0.629631 -0.000001 0.446390 0.000067
3.170763 0.627353 0.483919 0.000000 -0.717052 -0.000008
1.372670 0.601441 0.549260 0.000000 -0.999613 0.000000
2.161035 0.928190 0.357225 0.070617 -0.003522 -0.004460
2.048921 0.282209 0.239356 0.072100 -0.010731 0.013459
2.805933 0.764831 0.604840 -0.000001 0.786907 0.000007
2.441102 0.774649 0.589600 0.000000 0.894724 0.000004
3.616670 0.527232 0.661418 -0.000003 0.619255 0.000696
3.616670 0.858900 0.661418 -0.000003 -0.619259 0.000696
3.603620 0.888385 0.719047 -0.000002 0.619253 -0.000522
3.532228 0.942921 0.762060 0.000001 0.619263 -0.001392
3.574449 0.909268 0.701143 0.000003 -0.619256 0.000696
3.507406 0.454442 0.342427 -0.000000 -0.619265 0.001392
3.453644 0.863110 0.430890 0.000003 -0.619248 -0.000497
3.493281 0.592108 0.485377 -0.000001 0.619264 -0.000993
3.417458 0.784709 0.546208 0.000000 0.999901 -0.000000
1.862852 0.874390 0.676021 -0.070551 0.004675 -0.005418
2.441102 0.709211 0.457590 0.000000 0.181111 -0.000023
2.103920 0.449402 0.750288 0.070616 0.001761 0.002232
1.867797 0.621399 0.604967 0.000000 -0.773428 0.000002
1.767034 0.784727 0.547975 0.000000 0.999602 0.000000
2.103920 0.471490 0.362761 0.070616 0.001761 -0.002232
0.098171 0.645141 0.601443 -0.368156 -0.000061 0.000064
2.035171 0.535243 0.406844 0.070616 0.009392 -0.011805
2.830255 0.601464 0.550063 0.000000 -0.999613 0.000000
2.006780 0.784722 0.548136 -0.000008 0.067162 0.000000
1.459534 0.694190 0.639448 0.000000 0.027829 0.000040
0.901865 0.691299 0.456199 -0.000000 -0.028004 -0.000040
1.294492 0.664048 0.634756 -0.000000 -0.316822 0.000025
0.304237 0.607428 0.515124 0.000000 -0.939164 -0.000002
1.830966 0.811647 0.470650 -0.070550 0.004675 0.005418
2.091228 0.173667 0.149855 0.072099 -0.003833 0.004853
2.096793 1.317940 0.050788 -0.069103 -0.009019 -0.012378
2.096793 0.068192 0.050788 -0.069103 0.009019 -0.012378
2.096793 0.068192 1.044841 -0.069102 0.009019 0.012378
1.919915 0.622240 0.605992 -0.000000 -0.771989 0.000007
1.937828 0.433774 0.359478 -0.070550 -0.006890 0.007965
1.937828 0.936801 0.339753 -0.069102 -0.006314 -0.008702
1.949541 0.972875 0.752722 -0.070551 0.006644 -0.007683
1.972034 0.767961 0.494969 -0.000000 0.822283 -0.000006
1.398729 0.645704 0.469342 -0.000000 -0.519912 -0.000014
3.497401 0.545989 0.414629 -0.000001 -0.619263 0.000872
0.491864 0.601518 0.551990 0.000000 -0.999603 0.000000
0.825424 0.776669 0.510228 -0.000001 0.903327 -0.000004
0.533559 0.601516 0.551910 0.000000 -0.999602 0.000000
3.431356 0.619972 0.492504 0.000000 -0.790157 -0.000006
2.753814 0.757192 0.613304 0.000000 0.697115 0.000017
0.356356 0.776415 0.585947 0.000000 0.906972 0.000031
2.038344 0.806220 0.475125 0.072100 0.005366 0.006785
3.535594 0.774506 0.589887 -0.006780 0.005999 0.002242
1.724968 0.825670 0.646945 -0.070550 0.006890 -0.007965
1.702209 0.834008 0.439382 -0.070551 0.006890 0.007965
1.702209 0.552124 0.439382 -0.070550 -0.003445 0.003997
1.702209 0.552124 0.656247 -0.070551 -0.006890 -0.007965
2.232627 0.777357 0.511813 -0.000000 0.918170 -0.000007
2.004498 0.589441 0.485756 0.072100 -0.003578 0.004531
1.190254 0.778274 0.581587 0.000000 0.929177 0.000007
3.583148 0.524378 0.397585 0.000002 -0.619262 0.000696
2.048921 0.297203 0.875284 0.070616 0.010957 0.013729
0.721186 0.619635 0.492954 0.000000 -0.807338 -0.000012
0.981780 0.663096 0.461191 -0.000000 -0.316960 -0.000050
1.913423 0.899278 0.402900 -0.070552 0.003691 0.004281
1.871001 0.463578 0.739871 -0.069103 0.003382 0.004676
0.067025 0.638841 0.532192 -0.489936 -0.000051 -0.000013
3.588628 0.601681 0.536718 -0.007346 -0.026578 -0.000428
3.570950 0.768719 0.495595 -0.007345 0.020994 -0.005433
1.294492 0.609173 0.584738 -0.000000 -0.918311 0.000007
1.981230 0.533181 0.652102 0.072097 -0.007155 -0.009028
3.297585 0.784610 0.543478 0.000000 0.999613 -0.000000
0.045190 0.670649 0.583491 -0.575536 -0.000016 0.000024
1.577670 0.601405 0.547654 0.000000 -0.999603 -0.000000
2.129305 0.783232 0.468691 0.070616 -0.009392 -0.011805
0.773305 0.670326 0.459016 -0.000000 -0.236020 -0.000034
2.082767 0.195375 0.927873 0.072100 -0.008688 -0.010937
3.515779 0.887018 0.412033 0.000000 -0.619265 -0.000776
2.701695 0.775080 0.506892 0.000000 0.894791 -0.000017
