3.177581 0.594872 0.506842 0.020990 -0.001988 0.000026
0.831792 0.741874 0.576776 0.000000 0.650473 0.000016
1.759176 0.778340 0.571258 0.093199 0.001072 -0.001445
2.817426 0.594133 0.482636 0.000000 -0.963703 -0.000004
2.788731 0.896438 0.349290 0.014988 -0.012254 -0.011944
2.546658 0.626014 0.434669 0.000000 -0.610329 -0.000009
1.743540 0.862367 0.367589 0.064982 -0.001307 -0.001761
1.816033 0.983615 0.283523 0.064982 -0.007994 -0.010696
1.594296 1.211011 0.114836 -0.045241 -0.009792 -0.013646
1.509957 0.512566 0.370894 -0.045238 0.007254 -0.010213
2.050250 0.748034 0.442633 0.000001 0.705325 -0.000013
1.719376 1.074613 0.805502 0.064983 -0.003690 0.004966
1.736433 0.961577 0.720267 0.064982 -0.004305 0.005790
2.911000 0.890228 0.657120 0.014991 -0.010502 0.010828
2.945808 0.490896 0.369924 0.014989 0.020997 -0.015365
1.524965 0.814510 0.427381 -0.064934 0.005242 0.006508
1.283073 0.747199 0.571886 0.000000 0.707107 0.000027
2.419412 0.680507 0.598488 0.000000 -0.025446 0.000017
1.642619 0.513981 0.611695 0.093198 -0.002144 -0.002889
2.921261 0.905413 0.338522 0.014988 0.019207 0.017088
2.296604 0.774222 0.508760 0.000000 0.999676 0.000000
1.472647 0.903517 0.662128 -0.064934 0.003618 -0.004499
3.108734 0.524273 0.387935 -0.034621 -0.020345 0.024198
3.106072 0.643133 0.424945 0.051476 -0.000395 -0.000719
1.692846 1.345764 0.014874 -0.045240 -0.010880 -0.015083
1.355738 0.588910 0.443988 -0.064936 -0.004725 0.005870
0.876921 0.744203 0.438952 0.000000 0.669369 -0.000015
1.736433 0.988054 0.289507 0.093198 0.006003 0.008075
2.654620 0.785076 0.587055 0.014989 0.026872 -0.018940
1.645700 1.081872 0.202566 -0.045240 -0.006257 -0.008837
0.967177 0.743162 0.438013 0.000001 0.669114 -0.000015
1.463585 0.595730 0.477415 -0.000000 -0.948577 -0.000009
0.967177 0.622037 0.437964 0.000000 -0.669756 -0.000059
1.753490 0.264344 0.203881 0.093197 -0.002358 0.003178
1.753490 0.055898 0.049252 0.093198 -0.005145 0.006926
1.594290 0.598578 0.587129 0.064982 0.006149 0.008253
1.619048 0.945716 0.714148 -0.045240 -0.002108 0.003003
0.741536 0.616190 0.570094 0.000000 -0.724605 0.000013
0.606152 0.746118 0.572944 0.000000 0.688282 0.000004
2.682042 0.713289 0.420447 -0.000000 0.340633 -0.000037
2.431149 0.787073 0.429321 0.014987 0.035803 0.020020
3.123949 0.738748 0.436400 0.044623 0.002697 -0.003013
0.062675 0.686728 0.453156 -0.508196 0.000003 -0.000059
2.729992 0.829066 0.401685 0.014988 -0.019601 -0.014994
2.546658 0.617215 0.571156 0.000000 -0.707107 0.000002
1.557812 1.009109 0.739796 -0.064934 0.001447 -0.001802
2.185634 0.644372 0.590198 0.000000 -0.411976 0.000004
2.431149 0.578071 0.584363 0.014990 -0.035798 -0.020022
1.237945 0.770455 0.480684 -0.000001 0.954904 -0.000004
1.102561 0.691707 0.415603 0.000000 0.090062 -0.000147
0.371635 0.774165 0.502712 0.000000 0.999666 -0.000000
1.651147 0.406876 0.724728 0.064981 0.009224 0.012311
0.425640 0.747773 0.571312 -0.000001 0.706672 0.000027
1.418457 0.626160 0.579128 -0.000000 -0.610382 0.000035
1.654705 1.250178 0.925252 -0.064938 0.003307 -0.004114
1.418457 0.713046 0.420359 -0.000000 0.340564 -0.000037
1.453340 0.487420 0.657295 -0.045240 0.007254 0.010213
2.140506 0.593745 0.529587 0.000001 -0.948232 0.000002
2.817426 0.733945 0.430887 0.000000 0.568808 -0.000010
1.779481 0.748034 0.442633 0.000001 0.705325 -0.000013
1.787604 1.117848 0.187260 0.093199 0.002144 0.002889
2.976683 0.569172 0.598843 -0.034621 -0.010444 -0.013790
1.495201 0.765279 0.549262 0.000002 -0.803139 -0.000417
2.170838 0.774245 0.507875 0.000000 0.999666 0.000000
2.608270 0.580421 0.434578 0.014988 0.012254 -0.011944
1.192817 0.627533 0.580186 0.000000 -0.610481 0.000017
2.456402 0.617998 0.441746 0.000000 -0.706995 -0.000013
3.042178 0.398470 0.298349 -0.034621 0.014520 -0.017648
2.862554 0.633577 0.429333 -0.000001 -0.514452 -0.000006
2.908584 0.434248 0.692560 0.014987 -0.007687 -0.009887
0.425640 0.620475 0.439373 0.000000 -0.663977 -0.000004
1.689225 0.591240 0.514948 -0.000001 -0.994742 0.000001
1.381324 0.881815 0.357503 -0.045241 -0.003627 -0.005155
0.786664 0.621105 0.438804 0.000001 -0.668101 -0.000015
0.183970 0.657034 0.419108 -0.035717 -0.000322 -0.001009
3.095378 0.963477 0.715222 -0.034620 -0.007262 0.009366
3.102851 0.944343 0.312655 -0.034621 -0.014520 -0.017648
2.940171 0.972504 0.291765 0.014989 0.023041 0.018174
3.031473 0.879275 0.356783 -0.034622 0.014100 0.018012
2.966422 0.777184 0.428026 -0.034622 0.010444 0.013790
2.727170 0.646123 0.590982 -0.000000 -0.388493 0.000032
1.167663 0.590911 0.505367 -0.000010 -0.042492 -0.000000
2.411274 0.716053 0.421482 0.000000 0.364729 -0.000068
2.801223 0.505950 0.379115 0.014987 0.012255 -0.011944
0.062675 0.697621 0.558542 -0.508247 0.000011 0.000036
1.734353 0.637406 0.586646 0.000000 -0.503645 0.000011
1.824609 0.746038 0.573021 0.000000 0.687010 0.000007
1.446472 1.008881 0.264780 -0.045242 -0.008160 -0.011450
1.360241 0.474172 0.352247 -0.064935 -0.004725 0.005870
1.286329 0.789908 0.427218 -0.045241 -0.007254 -0.010212
2.563937 0.529698 0.393437 0.014989 -0.022402 0.018019
2.696726 0.481325 0.357553 0.014987 -0.035803 0.020020
2.829514 0.932193 0.692015 0.014989 0.019206 -0.017088
3.006565 0.996691 0.273823 0.014989 0.015368 0.015515
1.484137 0.391626 0.717370 -0.064936 -0.001654 -0.002059
1.710847 1.036383 0.235850 0.064982 -0.007994 -0.010696
1.380376 0.804546 0.601934 -0.045242 -0.005440 0.007701
1.668208 0.053069 0.039865 -0.064935 -0.009921 0.012217
0.606152 0.745877 0.440511 -0.000001 0.687467 -0.000014
0.759292 0.774203 0.509497 0.000000 0.999666 0.000000
1.824609 0.615078 0.568911 -0.000001 -0.718031 0.000003
2.005121 0.616495 0.443269 0.000000 -0.725030 -0.000013
1.584583 0.227136 0.172635 -0.064935 -0.009095 0.011219
3.159704 0.745151 0.569421 0.038126 0.000814 0.000732
0.425640 0.616165 0.570067 -0.000000 -0.725064 0.000051
1.737312 0.774165 0.502712 0.000000 0.999666 -0.000000
1.742119 0.346498 0.762141 0.064981 0.003997 0.005378
1.885273 0.774229 0.508465 0.000000 0.999666 0.000000
2.275890 0.612019 0.448272 -0.000000 -0.775718 -0.000003
2.079842 0.680950 0.415185 0.000000 -0.025648 -0.000260
2.978703 0.678294 0.415253 -0.000000 -0.025850 -0.000017
2.932028 0.553637 0.403288 0.014992 -0.005763 0.007776
2.385381 0.590923 0.508760 0.000000 -0.999676 0.000000
1.305267 0.590892 0.506104 0.000000 -0.999666 -0.000000
0.922049 0.749056 0.569987 -0.000000 0.725060 0.000025
0.786664 0.752674 0.447736 -0.000001 0.758950 -0.000011
2.860802 0.879107 0.364438 0.014988 -0.012604 -0.012145
2.862554 0.632277 0.583508 -0.000001 -0.547484 0.000081
1.816033 0.495227 0.645818 0.064983 0.004920 0.006613
1.816033 0.173083 0.884790 0.064982 0.004920 0.006613
1.816033 0.381529 0.730161 0.064983 0.007994 0.010696
0.245128 0.612158 0.565584 0.000000 -0.776058 0.000087
2.140506 0.645851 0.422817 0.000000 -0.412304 -0.000029
1.483428 0.305731 0.227294 -0.064934 -0.001344 0.001673
2.608270 0.580421 0.579106 0.014988 0.024494 0.016104
0.676434 0.679917 0.415211 0.000000 -0.025648 -0.000136
1.495747 0.288887 0.798885 -0.064935 -0.005375 -0.006672
2.456402 0.737552 0.580230 0.000000 0.589612 0.000005
1.646883 0.863355 0.654665 0.064982 -0.001307 0.001761
1.057433 0.592924 0.487581 0.000000 -0.976111 -0.000001
3.036603 0.888669 0.663494 -0.034621 0.014100 -0.018012
0.290256 0.749056 0.443697 0.000000 0.725098 -0.000025
0.200000 0.758653 0.558032 -0.004636 0.003417 0.001800
2.753516 0.535868 0.611716 0.014987 0.009805 0.010330
1.869737 0.707490 0.418600 0.000001 0.262231 -0.000012
1.747804 0.458260 0.348395 0.093198 -0.001715 0.002312
2.744925 0.774180 0.510382 0.000000 0.999666 0.000000
1.642619 0.834765 0.379882 0.064985 -0.001537 -0.002072
1.520384 1.109946 0.189808 -0.045240 -0.013055 -0.017885
1.557812 1.001582 0.263741 -0.045242 -0.001972 -0.002809
3.123949 0.662523 0.594682 0.044623 -0.001111 0.003854
3.043066 0.619401 0.440384 0.000001 -0.688560 -0.000056
0.711944 0.590942 0.509497 0.000000 -0.999676 0.000000
2.636914 0.755511 0.451277 0.000000 0.792010 -0.000021
1.736433 0.403567 0.293417 0.064983 0.004305 -0.005790
3.060715 0.786996 0.588738 -0.034621 0.020345 -0.024197
1.644097 0.737611 0.433498 0.000000 0.610413 -0.000004
1.606018 0.457188 0.326740 -0.045240 0.002244 -0.003196
2.851645 0.424889 0.315688 0.014989 -0.019205 0.017088
1.816033 0.983615 0.730161 0.064981 -0.003997 0.005378
1.816033 1.078363 0.800447 0.064984 -0.006764 0.009069
1.705161 1.027698 0.749941 0.093196 0.002787 -0.003756
2.952810 0.630836 0.582545 0.000001 -0.568765 0.000039
1.642148 0.202661 0.146225 -0.045239 0.005169 -0.007322
0.200000 0.748243 0.442841 -0.004639 0.002959 -0.002369
0.719342 0.685375 0.598469 0.000000 0.025446 0.000069
1.596068 0.474740 0.641302 -0.064935 -0.006821 -0.008450
3.060715 0.578148 0.588738 -0.034622 -0.020344 -0.024197
0.537351 0.685818 0.415227 0.000000 0.025850 -0.000017
1.463585 0.772757 0.490257 0.000001 0.976811 -0.000001
1.012305 0.772502 0.524730 0.000000 0.981426 0.000001
1.753490 1.309247 0.964432 -0.064934 0.009095 -0.011219
1.483307 0.913953 0.329322 -0.045240 -0.004625 -0.006560
1.869737 0.607457 0.454256 0.000001 -0.821713 -0.000009
1.527843 0.866588 0.653606 -0.045240 -0.002380 0.003389
1.644097 0.643700 0.589894 -0.000001 -0.435518 0.000110
0.380512 0.704493 0.595875 -0.000000 0.242294 0.000053
1.355738 0.770858 0.436740 -0.045241 -0.003627 -0.005155
0.651280 0.772859 0.522845 -0.000002 0.896505 0.000001
1.644097 0.636386 0.427632 0.000001 -0.495358 -0.000006
1.618934 0.120446 0.089846 -0.064935 -0.006615 0.008197
2.586069 0.843509 0.387456 0.014991 0.011206 0.012976
3.042178 0.400632 0.718250 -0.034620 -0.014101 -0.018013
1.147689 0.726315 0.587428 -0.000002 0.394680 0.000007
2.342472 0.680507 0.598488 0.000000 -0.025850 0.000017
1.508713 0.659506 0.418095 -0.000001 -0.241481 -0.000054
1.779481 0.624661 0.435753 0.000000 -0.630316 -0.000016
1.511903 0.501020 0.627226 -0.064934 -0.005242 -0.006508
1.380376 0.560598 0.601934 -0.045239 0.005441 0.007702
1.816033 1.324708 0.030493 0.064982 -0.004920 -0.006613
1.770547 1.213547 0.118256 0.093197 0.006860 0.009223
3.072070 0.475004 0.658561 -0.034621 0.014520 0.017649
1.642619 0.530380 0.379882 0.064985 0.003075 -0.004140
1.705165 1.362608 1.011305 -0.045241 -0.009792 0.013646
3.006565 0.996691 0.739861 0.014988 0.015369 -0.015515
3.177581 0.651981 0.475425 1.000000 -0.000000 0.000000
1.530686 0.876173 0.353198 -0.045239 -0.004761 -0.006751
2.755283 0.590961 0.503449 -0.000000 -0.999666 -0.000000
1.283073 0.634111 0.584681 -0.000001 -0.521024 0.000011
0.515896 0.641574 0.588866 0.000000 -0.458566 0.000026
1.665838 0.147476 0.907474 -0.045241 0.004625 0.006559
1.733590 0.223656 0.853959 0.064982 0.003075 0.004140
1.651147 0.973861 0.309976 -0.064935 0.005995 0.007435
2.984433 0.376516 0.279804 0.014987 -0.015369 0.015515
1.679576 0.298121 0.237553 0.093198 -0.002573 0.003467
1.532584 1.094053 0.810098 -0.064936 0.002481 -0.003088
0.120976 0.660159 0.583840 -0.280607 -0.000034 0.000108
2.907682 0.770315 0.533459 0.000000 0.956075 0.000004
2.689209 0.571833 0.429306 0.014988 0.017152 -0.014212
2.738970 0.523002 0.385615 0.014990 -0.008966 0.011124
1.622718 0.785950 0.560999 0.093196 0.004288 -0.005774
1.791869 0.524589 0.387688 0.064982 0.001307 -0.001761
0.515896 0.628427 0.432845 0.000001 -0.589632 -0.000036
1.816033 0.888867 0.353809 0.064981 -0.004920 -0.006613
0.407145 0.678884 0.415238 -0.000000 -0.025850 -0.000068
1.387484 0.474907 0.662428 -0.045240 0.007254 0.010212
1.647834 1.186493 0.874696 -0.064935 0.003721 -0.004627
1.142510 0.774229 0.505219 0.000000 0.999666 -0.000000
1.656833 0.387706 0.275197 0.064982 0.004305 -0.005790
2.529418 0.761415 0.568404 0.000001 0.803118 0.000074
1.784761 0.275562 0.805125 0.093197 -0.004717 -0.006350
1.530167 0.682130 0.598530 0.000000 -0.022237 0.000020
2.817426 0.742379 0.576344 -0.000000 0.650361 0.000016
3.036705 0.765715 0.451076 0.000002 0.802968 -0.000058
1.816033 0.059386 0.969134 0.064981 0.006150 0.008253
1.841625 0.590908 0.508170 0.000000 -0.999666 0.000000
3.074588 0.569463 0.419241 -0.034622 -0.006918 0.009356
0.335384 0.605300 0.556211 -0.000001 -0.825802 0.000002
2.564413 0.679769 0.598469 0.000000 -0.025850 0.000017
1.647834 1.181654 0.132465 -0.045240 -0.005169 -0.007322
2.990540 0.678294 0.598431 0.000000 -0.025850 0.000034
0.848068 0.685080 0.598476 0.000000 0.025850 0.000034
1.959993 0.705102 0.595723 0.000000 0.242066 0.000013
2.880438 0.809018 0.405951 0.014988 0.020166 0.017397
0.651280 0.593718 0.484205 -0.000000 -0.970219 -0.000007
1.500717 0.574582 0.598784 -0.045239 0.007254 0.010213
1.721983 1.282452 0.068135 -0.064935 0.005374 0.006672
1.722219 1.093070 0.213261 0.093196 0.002573 0.003467
0.606152 0.637827 0.586877 -0.000000 -0.480906 0.000012
1.553841 0.593593 0.484706 0.000000 -0.969934 -0.000001
0.515896 0.774147 0.502085 0.000000 0.996591 -0.000000
1.759176 1.119433 0.824287 0.093197 0.004717 -0.006350
1.759176 0.567855 0.585315 0.093198 -0.004717 -0.006350
2.140506 0.757876 0.559155 0.000000 0.822346 0.000009
1.355095 0.759843 0.556590 0.000002 -0.803056 -0.000104
2.501530 0.764427 0.465516 0.000000 0.888621 -0.000002
1.381019 0.826314 0.405892 -0.064934 0.002363 0.002941
1.715111 0.541779 0.619468 0.064982 0.006764 0.009070
0.972355 0.684490 0.598492 -0.000000 0.025850 0.000068
1.533056 0.351881 0.745197 -0.064936 -0.002894 -0.003601
1.959993 0.599585 0.545847 0.000000 -0.900246 0.000003
2.366146 0.771948 0.527328 -0.000001 0.968077 0.000001
0.049264 0.640408 0.490947 -0.560785 -0.000029 -0.000010
2.456402 0.633797 0.584487 0.000000 -0.525521 0.000022
3.123949 0.770413 0.526891 0.044623 0.003890 0.001116
1.584106 0.428663 0.679293 -0.064935 -0.001654 -0.002059
2.630332 0.859633 0.638189 0.014988 0.013449 -0.014472
2.788731 0.468706 0.664394 0.014991 0.012252 0.011944
3.177581 0.619739 0.568024 0.043379 -0.000698 0.000662
1.959993 0.719157 0.422759 -0.000001 0.387449 -0.000016
0.919089 0.590911 0.508317 0.000000 -0.999666 0.000000
1.418457 0.718885 0.591039 -0.000000 0.388599 0.000016
1.237945 0.598897 0.469348 0.000000 -0.908168 -0.000002
0.144254 0.609820 0.553117 -0.189996 -0.000158 0.000095
3.177581 0.712316 0.474622 1.000000 0.000000 0.000000
1.739276 0.826824 0.604905 0.093197 0.004717 -0.006350
2.005121 0.754475 0.563751 -0.000000 0.791782 0.000003
1.601754 0.909037 0.655786 -0.064934 0.003411 -0.004243
2.972264 0.901417 0.673327 0.014988 0.030703 -0.019494
1.959993 0.595847 0.477065 0.000000 -0.948023 -0.000004
1.779076 0.360519 0.272244 0.093197 -0.002787 0.003756
0.335384 0.698794 0.416592 -0.000000 0.166270 -0.000039
1.566574 0.827432 0.385398 -0.045240 -0.007254 -0.010213
2.230762 0.718817 0.422616 -0.000001 0.384198 -0.000008
2.230762 0.773013 0.521936 0.000000 0.985775 0.000002
1.456657 0.434630 0.685137 -0.064935 -0.003514 -0.004371
2.050250 0.664322 0.596701 0.000001 -0.190940 0.000034
1.599744 0.200975 0.860786 -0.064935 -0.008268 -0.010216
2.887969 0.844521 0.621252 0.014985 -0.011031 0.011184
1.702319 0.751808 0.446262 0.064979 -0.003075 -0.004141
1.561361 0.748131 0.441306 0.000001 -0.803142 0.000313
2.570897 0.794084 0.421924 0.014989 0.017926 0.016628
2.611761 0.774199 0.504039 0.000000 0.999666 -0.000000
0.876921 0.769181 0.536969 -0.000000 0.948683 0.000002
2.517066 0.590942 0.509497 0.000000 -0.999666 0.000000
1.656833 0.802997 0.436063 0.093197 0.002144 0.002889
2.980616 0.506875 0.630400 -0.034622 0.010754 0.013535
3.061810 0.493072 0.369279 -0.034622 0.014520 -0.017648
2.050250 0.602917 0.552263 -0.000001 -0.860758 0.000008
2.537780 0.681687 0.415154 0.000000 -0.012923 -0.000017
1.382207 0.774195 0.503892 0.000000 0.999666 -0.000000
0.606152 0.622878 0.437244 0.000001 -0.649673 -0.000031
0.876921 0.643700 0.423790 0.000000 -0.435704 -0.000014
2.636914 0.593629 0.529121 -0.000001 -0.969957 0.000007
2.724494 0.793627 0.583953 0.014988 -0.017153 0.014212
3.108734 0.840871 0.387935 -0.034621 0.020345 0.024198
1.695450 1.212575 0.905540 -0.045240 -0.004625 0.006560
0.967177 0.610241 0.563196 -0.000001 -0.788365 0.000010
1.702319 0.762561 0.552926 0.000000 -0.803141 -0.000381
1.706583 0.437012 0.676247 0.093197 -0.003430 -0.004621
2.939574 0.776630 0.586406 -0.034623 0.010443 -0.013790
2.691227 0.516764 0.628085 0.014991 0.017148 0.014212
0.840670 0.590949 0.509792 0.000000 -0.999666 0.000000
2.409018 0.779011 0.578382 0.014989 0.017926 -0.016628
1.554002 0.531096 0.414118 -0.064935 -0.010482 0.012890
2.411274 0.657939 0.418521 0.000000 -0.267165 -0.000024
1.477978 0.400048 0.302561 -0.064934 -0.003308 0.004114
1.541941 0.296300 0.224606 -0.064935 -0.002687 0.003344
0.599494 0.590961 0.510235 0.000000 -0.999666 0.000000
2.997938 0.597602 0.472365 0.000000 -0.931069 -0.000021
1.182460 0.681392 0.598511 0.000000 -0.025850 0.000068
3.003531 0.796527 0.598096 -0.034621 0.005223 -0.007122
2.727170 0.608357 0.452995 -0.000000 -0.807530 -0.000005
3.116207 0.543407 0.611555 -0.034625 -0.003459 -0.004747
2.409018 0.586134 0.435302 0.014989 -0.017927 0.016628
2.140506 0.761800 0.460688 -0.000000 0.857781 -0.000002
1.160265 0.684785 0.415200 0.000000 0.025860 -0.000257
1.739276 1.170133 0.138936 0.064982 -0.002767 -0.003727
1.616324 0.357627 0.757343 -0.045240 0.003673 0.005219
1.057433 0.730500 0.428673 -0.000000 0.525141 -0.000011
2.833702 0.681023 0.415163 0.000000 -0.012923 -0.000017
0.831792 0.632246 0.583488 0.000001 -0.545439 0.000010
1.550110 0.818215 0.620910 -0.045241 -0.007254 0.010212
1.730747 0.138493 0.096319 0.064982 0.009838 -0.013114
1.662638 1.067996 0.802322 -0.045242 -0.003128 0.004450
1.747804 0.327327 0.237783 0.064982 0.003690 -0.004966
1.651147 0.471819 0.369719 0.093198 -0.001822 0.002456
1.605661 0.804907 0.614649 0.064980 -0.003075 0.004141
1.759176 0.573232 0.421121 0.064982 0.006764 -0.009070
1.553274 0.560788 0.575789 -0.064935 -0.005316 -0.006599
1.454980 0.585060 0.564506 -0.064935 -0.004725 -0.005870
2.689209 0.788897 0.423356 0.014991 0.015685 0.015670
0.167991 0.611958 0.450952 -0.097746 -0.000293 -0.000245
2.223364 0.685818 0.598457 0.000000 0.025850 0.000258
1.764861 0.208129 0.160855 0.093198 -0.004288 0.005774
0.120976 0.752364 0.467343 -0.280604 0.000103 -0.000055
0.120976 0.756055 0.538956 -0.280605 0.000105 0.000049
0.741536 0.649950 0.421145 0.000000 -0.364765 -0.000034
1.044116 0.684637 0.598488 -0.000000 0.025850 0.000258
2.683522 0.685891 0.598455 -0.000010 0.001265 0.000346
0.191982 0.694341 0.597745 -0.008430 0.000691 0.004421
0.245128 0.659470 0.595580 0.000000 -0.242107 0.000053
0.120976 0.602485 0.502714 -0.288048 -0.000055 -0.000001
1.276415 0.679179 0.415230 0.000000 -0.025648 -0.000260
1.373329 0.668097 0.416297 0.000001 -0.166074 -0.000040
1.644097 0.602200 0.550973 0.000000 -0.876567 0.000029
2.862554 0.713983 0.592986 0.000000 0.340835 0.000018
0.235511 0.590991 0.502269 0.000000 -0.999666 -0.000000
1.763440 0.820739 0.410477 0.093198 0.004717 0.006350
0.425640 0.758065 0.454802 -0.000001 0.821186 -0.000009
1.372102 0.543268 0.408710 -0.064936 -0.003544 0.004407
0.525514 0.590953 0.509940 0.000000 -0.999676 0.000000
1.609326 0.774203 0.504187 0.000000 0.999666 -0.000000
2.837622 0.578371 0.576343 0.014988 0.012254 0.011944
1.496657 0.540481 0.416867 -0.064935 -0.010482 0.012890
1.701847 0.075448 0.959984 -0.045240 0.007073 0.009963
1.508713 0.633296 0.584175 0.000000 -0.547598 0.000010
1.057433 0.614065 0.567788 0.000002 -0.720088 0.000006
0.470768 0.601192 0.464598 0.000001 -0.886514 -0.000007
1.599744 1.161481 0.864410 -0.045239 -0.005441 0.007702
1.446827 0.965934 0.299290 -0.064935 0.006615 0.008197
1.444100 0.815709 0.400396 -0.045241 -0.014504 -0.019695
1.563262 0.264944 0.819412 -0.045241 0.013055 0.017885
2.887969 0.526103 0.385044 0.014988 -0.010088 0.012098
2.860802 0.489281 0.653618 0.014990 -0.011527 -0.013210
1.914865 0.617476 0.571417 -0.000001 -0.696684 0.000007
1.434153 0.992037 0.736409 -0.045242 -0.002108 0.003003
2.321018 0.759946 0.556056 -0.000000 0.850575 0.000004
1.642386 1.233334 0.100927 -0.064934 0.006615 0.008197
0.922049 0.633358 0.584215 0.000000 -0.547597 0.000010
2.181195 0.682130 0.415154 -0.000000 -0.025648 -0.000034
2.727170 0.601361 0.549414 0.000001 -0.885268 0.000003
0.316889 0.774161 0.502564 0.000000 0.999666 -0.000000
1.734353 0.600002 0.546711 0.000001 -0.886150 0.000002
1.438753 0.812188 0.591633 -0.064937 0.002362 -0.002941
1.749226 0.916280 0.672424 0.093198 0.001715 -0.002312
0.696408 0.734369 0.431181 -0.000000 0.568912 -0.000039
0.290256 0.668388 0.416248 0.000000 -0.165347 -0.000020
2.275890 0.718817 0.591068 0.000002 0.345521 0.000009
1.566221 0.958950 0.720508 -0.045240 -0.004217 0.005986
1.300828 0.683605 0.598514 -0.000000 0.025840 0.000008
2.275890 0.744368 0.439101 -0.000001 0.516951 -0.000002
2.275890 0.616902 0.570843 0.000000 -0.725098 0.000025
2.943392 0.451669 0.332541 0.014988 -0.030703 0.019495
2.578483 0.546348 0.608994 0.014989 -0.011207 -0.012976
2.879523 0.525193 0.617784 0.014990 0.022044 0.015612
0.335384 0.601412 0.464172 0.000000 -0.887381 -0.000003
0.786664 0.761109 0.554174 0.000001 0.846104 0.000004
2.755917 0.848959 0.627305 0.014990 -0.022044 0.015612
1.408599 0.578676 0.440183 -0.064937 -0.003544 0.004407
2.079102 0.590900 0.507875 0.000000 -0.999666 0.000000
2.952810 0.725046 0.425580 -0.000001 0.458512 -0.000103
1.695211 0.862443 0.626192 0.093197 0.003645 -0.004910
1.869737 0.718240 0.591312 0.000002 0.377535 0.000016
2.952070 0.590991 0.502269 0.000000 -0.999666 -0.000000
2.816743 0.460591 0.343380 0.014991 0.006127 -0.007140
2.050250 0.768691 0.538322 -0.000000 0.939790 0.000002
1.588604 0.617748 0.440314 0.064982 0.006149 -0.008253
0.922049 0.762376 0.461676 0.000000 0.876518 -0.000004
1.012305 0.603511 0.460401 -0.000000 -0.862783 -0.000004
2.185634 0.743436 0.438261 -0.000000 0.669604 -0.000015
1.679576 0.311025 0.793527 0.064983 0.003690 0.004966
1.057433 0.642404 0.424417 0.000000 -0.435549 -0.000007
3.088194 0.596768 0.539189 0.044576 -0.000890 0.000323
1.463585 0.748138 0.442737 0.000000 0.705375 -0.000007
3.002333 0.848681 0.389615 -0.034622 -0.005378 -0.007003
3.091299 0.781117 0.437014 -0.034621 -0.004863 -0.006347
1.734353 0.593197 0.486356 0.000000 -0.976154 -0.000003
2.772298 0.761012 0.554330 0.000001 0.828657 0.000002
1.347922 0.874128 0.648942 -0.045241 -0.005441 0.007702
1.557812 0.356035 0.273888 -0.064936 -0.001447 0.001802
0.470768 0.727738 0.427038 0.000000 0.481113 -0.000006
3.095378 0.401668 0.298462 -0.034622 -0.007052 0.009529
1.938539 0.774252 0.506104 0.000005 0.174755 -0.000000
0.290256 0.687735 0.598391 0.000001 0.064153 0.000207
1.793290 0.885398 0.654651 0.093196 0.001715 -0.002312
2.456402 0.740455 0.435730 -0.000000 0.630387 -0.000016
1.459146 0.678737 0.415242 0.000000 -0.025850 -0.000258
0.696408 0.638570 0.587286 0.000001 -0.480127 0.000024
3.141826 0.602116 0.468096 0.044624 -0.003511 -0.001935
2.802685 0.784495 0.438482 0.014989 -0.022045 -0.015612
1.508713 0.729141 0.585829 -0.000000 0.503821 0.000011
0.470768 0.725275 0.587986 0.000000 0.458807 0.000003
2.321018 0.649573 0.421293 -0.000000 -0.364557 -0.000034
1.604479 0.991485 0.291932 -0.064933 0.002998 0.003730
1.645461 0.409916 0.324460 0.093197 -0.001608 0.002167
1.536608 0.463749 0.358597 -0.064934 -0.001757 0.002188
1.598913 1.040879 0.251811 -0.064933 0.002687 0.003345
2.636914 0.596140 0.476229 0.000000 -0.940123 -0.000002
2.050250 0.638538 0.426416 -0.000000 -0.481265 -0.000024
2.784277 0.855110 0.382035 0.014991 -0.005514 -0.006514
2.547374 0.570850 0.422207 0.014987 -0.017929 0.016628
2.005121 0.620284 0.574139 0.000000 -0.688495 0.000007
0.741536 0.731159 0.584603 -0.000001 0.524634 0.000022
2.820327 0.587744 0.428919 0.014990 -0.005044 0.006911
3.042178 0.966675 0.298349 -0.034621 -0.014520 -0.017648
1.645461 0.599412 0.465032 0.093197 -0.004288 0.005774
2.230762 0.591815 0.493790 -0.000001 -0.987856 -0.000002
1.508713 0.763919 0.464533 0.000000 0.888639 -0.000014
2.905791 0.597423 0.453781 0.000001 -0.803129 -0.000148
2.636914 0.709683 0.594435 -0.000001 0.286533 0.000011
2.682042 0.623326 0.576824 0.000001 -0.650336 0.000062
3.043066 0.695552 0.597610 -0.000001 0.141144 0.000374
1.598913 1.040879 0.761873 -0.064935 0.002687 -0.003344
1.493731 0.943204 0.692232 -0.064933 0.001654 -0.002059
1.634090 0.917963 0.353430 -0.064936 0.001654 0.002059
2.907682 0.607583 0.559610 0.000000 -0.821611 0.000005
1.695211 0.862443 0.387492 0.093196 0.000911 0.001228
0.290256 0.631629 0.583084 0.000000 -0.547315 0.000010
1.423636 0.590968 0.510530 0.000000 -0.999676 0.000000
2.939723 0.532519 0.610812 0.014987 0.025193 0.016226
2.762681 0.683458 0.598530 0.000000 0.012519 0.000070
1.328201 0.726412 0.587374 0.000000 0.480906 0.000012
1.393981 0.505595 0.380291 -0.064937 -0.001477 0.001839
1.508301 1.017417 0.263086 -0.064930 0.001447 0.001802
1.465184 0.855934 0.642667 -0.045241 -0.014504 0.019695
1.790447 1.172119 0.872071 0.064983 -0.002767 0.003727
1.644097 0.741314 0.577256 -0.000001 0.650331 0.000062
2.682042 0.742351 0.576368 -0.000001 0.650242 0.000062
1.699476 0.376577 0.743286 0.064981 0.004305 0.005790
2.824781 0.825981 0.607734 0.014995 -0.006125 0.007138
0.741536 0.599649 0.467704 -0.000000 -0.900174 -0.000006
0.973835 0.685965 0.415230 0.000000 0.025850 -0.000258
1.689225 0.668133 0.597393 0.000001 -0.166181 0.000079
2.772298 0.625926 0.434736 -0.000001 -0.598364 -0.000004
1.343420 0.611131 0.564449 -0.045240 0.007254 0.010212
2.866253 0.774169 0.502859 0.000000 0.999676 -0.000000
2.501530 0.602768 0.461676 0.000000 -0.876518 -0.000004
1.547032 0.923792 0.341485 -0.064935 0.003411 0.004243
1.147689 0.609701 0.562495 0.000000 -0.791969 0.000021
1.328201 0.644238 0.423547 0.000000 -0.412144 -0.000015
0.290256 0.765560 0.545847 -0.000001 0.847490 0.000002
1.414252 0.514277 0.636297 -0.045240 0.003627 0.005155
2.907682 0.735824 0.581492 0.000000 0.589855 0.000036
1.702319 0.234344 0.165118 0.064982 0.003075 -0.004140
1.816033 1.229960 0.100779 0.064981 -0.008609 -0.011505
1.770547 0.454791 0.670513 0.093197 -0.003430 -0.004621
2.501530 0.772116 0.526572 -0.000000 0.976128 0.000006
3.177581 0.722504 0.524961 1.000000 0.000000 0.000000
2.721251 0.679622 0.415219 -0.000000 -0.025648 -0.000068
1.816033 1.343658 0.997248 0.064983 -0.004920 0.006613
1.605661 0.540344 0.587831 0.093197 -0.002144 -0.002889
1.644097 0.694346 0.597782 0.000001 0.141125 0.000374
2.946912 0.952384 0.708123 0.014988 0.011528 -0.013211
1.102561 0.632370 0.583569 0.000000 -0.547598 0.000003
1.147689 0.603734 0.460019 -0.000000 -0.863911 -0.000004
1.754328 0.683310 0.415162 0.000000 0.025850 -0.000258
1.869737 0.601378 0.549447 0.000001 -0.875054 0.000003
1.283073 0.739481 0.434939 0.000000 0.610413 -0.000004
1.824609 0.729268 0.427930 0.000000 0.503654 -0.000046
1.744961 0.175841 0.888507 0.064981 0.005535 0.007434
1.695211 0.504652 0.648623 0.064981 0.001307 0.001761
0.036424 0.713431 0.489377 -0.611158 0.000019 -0.000010
1.553841 0.702986 0.417451 -0.000000 0.217165 -0.000060
1.869737 0.760663 0.554895 -0.000000 0.850465 0.000008
0.651280 0.727415 0.586824 -0.000001 0.449526 0.000003
1.309680 0.574331 0.428440 -0.064935 -0.004725 0.005870
2.596508 0.784618 0.579247 0.014987 -0.012255 0.011944
2.369105 0.686703 0.415249 0.000000 0.025850 -0.000258
0.380512 0.634237 0.584759 -0.000000 -0.525700 0.000022
2.975784 0.422657 0.697393 0.014988 0.012604 0.012145
2.099077 0.678589 0.598438 0.000000 -0.025446 0.000262
2.997938 0.768188 0.539670 0.000000 0.931126 0.000005
1.520620 1.034262 0.763093 -0.064935 0.002894 -0.003601
1.631012 0.310234 0.770459 -0.064934 -0.005168 -0.006417
2.095377 0.742491 0.576248 -0.000001 0.649981 0.000016
1.696161 1.270527 0.946225 -0.045239 -0.007073 0.009963
3.053387 0.935812 0.696959 -0.034623 0.005289 -0.007210
0.036424 0.661290 0.535203 -0.611156 -0.000012 0.000015
1.959993 0.667442 0.416408 0.000000 -0.166587 -0.000079
2.952810 0.715572 0.592391 -0.000000 0.364799 0.000136
2.898980 0.853607 0.385425 0.014988 -0.006303 -0.007314
1.652975 0.685523 0.415219 0.000000 0.025648 -0.000260
2.005121 0.761633 0.460401 -0.000000 0.863824 -0.000016
1.534122 0.418747 0.709929 -0.045242 0.008432 0.011819
3.106072 0.692750 0.416514 0.069206 0.000008 -0.000610
1.192817 0.761670 0.460465 0.000000 0.863616 -0.000004
2.591786 0.634676 0.585030 -0.000000 -0.525774 0.000043
2.274410 0.684047 0.415181 0.000000 0.025850 -0.000034
3.043806 0.590902 0.509055 0.000000 -0.999916 0.000000
3.122607 0.849557 0.631453 -0.034621 0.003459 -0.004747
2.321018 0.603511 0.553283 0.000000 -0.863911 0.000008
0.967177 0.762079 0.552518 -0.000000 0.864189 0.000002
2.668400 0.842773 0.386465 0.014990 0.015686 0.015670
3.074857 0.439244 0.324831 -0.034621 -0.010577 0.013951
1.709426 0.942186 0.326680 0.093198 0.003216 0.004333
1.237945 0.730280 0.585146 0.000000 0.525854 0.000011
1.917825 0.678442 0.598435 0.000000 -0.025850 0.000258
0.561024 0.728758 0.427632 0.000000 0.503796 -0.000011
1.663231 0.236510 0.844885 -0.045241 0.005713 0.008081
3.117797 0.459068 0.672641 -0.034622 -0.005289 -0.007210
3.170108 0.772141 0.440398 -0.034622 -0.012321 -0.015299
3.087905 0.382534 0.729416 -0.034620 -0.014101 -0.018012
3.087905 0.982610 0.284268 -0.034622 -0.014519 -0.017648
3.123949 0.767615 0.477084 0.044622 0.003855 -0.001107
0.831792 0.726833 0.426541 0.000000 0.480736 -0.000012
2.185634 0.727092 0.587001 -0.000000 0.481291 0.000024
1.012305 0.757393 0.453831 0.000000 0.821193 -0.000005
3.159704 0.635487 0.431907 0.041556 -0.000566 -0.000829
0.105814 0.672945 0.432482 -0.339706 -0.000014 -0.000088
0.876921 0.724423 0.588426 -0.000001 0.457606 0.000026
1.420090 0.856471 0.384941 -0.064936 0.002953 0.003674
2.501530 0.604404 0.554770 0.000000 -0.848817 0.000002
1.573782 0.569199 0.446358 -0.064936 -0.002658 0.003308
1.012305 0.599459 0.545580 0.000001 -0.856721 0.000002
1.742119 0.100152 0.944885 0.064981 0.008609 0.011505
1.553841 0.607751 0.559853 0.000001 -0.819574 0.000005
2.003642 0.681835 0.598522 0.000000 -0.025850 0.000017
0.380512 0.763371 0.550197 0.000000 0.876316 0.000004
0.651280 0.758855 0.455960 0.000000 0.836604 -0.000004
1.773390 0.430558 0.316435 0.064982 0.009224 -0.012311
1.613482 0.367212 0.263221 -0.045239 0.001836 -0.002616
1.764861 0.023472 0.999924 0.064982 0.006149 0.008253
1.764861 0.023472 0.013760 0.064982 0.006150 -0.008253
1.092203 0.774252 0.507580 -0.000000 0.999676 0.000000
1.734353 0.736717 0.580839 0.000001 0.585669 0.000009
1.816033 1.078363 0.213237 0.064982 -0.006764 -0.009070
0.786664 0.604210 0.554456 0.000001 -0.848601 0.000008
1.683843 1.253682 0.079955 -0.045240 -0.004081 -0.005795
1.869737 0.763158 0.463099 0.000000 0.872503 -0.000002
1.759176 1.322503 0.027520 0.064981 -0.006150 -0.008253
0.651280 0.639088 0.426114 -0.000001 -0.474029 -0.000006
0.515896 0.706565 0.595340 -0.000001 0.265766 0.000024
1.611825 1.115539 0.820736 -0.064936 0.004548 -0.005651
2.967134 0.473121 0.666735 0.014988 -0.015369 -0.015514
1.801819 0.793567 0.590333 0.064983 -0.003075 0.004140
2.636914 0.765715 0.545513 0.000000 0.911195 0.000003
2.501530 0.642737 0.424256 -0.000001 -0.432731 -0.000014
1.606139 0.268238 0.207433 -0.064935 -0.004961 0.006162
0.335384 0.760877 0.459134 0.000000 0.850575 -0.000004
2.870257 0.909409 0.676996 0.014986 0.009609 -0.011694
1.461461 0.568442 0.436378 -0.064934 -0.001477 0.001839
3.159704 0.702265 0.593123 0.037103 0.000801 0.004713
3.088194 0.625663 0.578745 0.044483 -0.000598 0.000736
1.283073 0.600955 0.548627 0.000000 -0.886810 0.000003
2.997938 0.634362 0.428848 0.000000 -0.525772 -0.000043
2.050250 0.771748 0.485494 -0.000001 0.965783 -0.000003
0.245128 0.760566 0.458632 0.000000 0.850604 -0.000033
2.967134 0.896347 0.352778 0.014989 -0.016801 -0.014084
0.183970 0.708110 0.419108 -0.035717 0.000322 -0.001009
3.088194 0.758653 0.558032 0.049213 0.000705 0.000488
0.876921 0.770315 0.480225 -0.000001 0.934344 -0.000002
1.457899 0.768100 0.580661 -0.045241 -0.007254 0.010212
1.660152 0.161808 0.126493 -0.064934 -0.007441 0.009209
1.057433 0.750066 0.568911 0.000001 0.740616 0.000012
1.801819 0.793567 0.423351 0.064980 -0.003075 -0.004141
1.734353 0.640066 0.425597 -0.000000 -0.458620 -0.000026
0.876921 0.700714 0.416962 -0.000000 0.191506 -0.000017
0.470768 0.765685 0.545580 0.000000 0.911126 0.000003
0.290256 0.733884 0.582839 -0.000001 0.563540 0.000010
2.997938 0.740340 0.435637 -0.000001 0.630292 -0.000033
2.819249 0.541179 0.407445 0.014988 0.012254 -0.011944
2.411274 0.771248 0.483489 0.000000 0.970190 -0.000001
1.421835 0.389951 0.723914 -0.064935 -0.006615 -0.008197
1.397197 0.423640 0.314761 -0.064935 -0.007028 0.008703
1.458791 1.025725 0.761400 -0.045242 -0.001972 0.002809
1.458791 0.339419 0.252285 -0.064934 -0.001447 0.001802
1.618934 0.120446 0.923838 -0.064935 -0.006615 -0.008197
1.680527 0.036225 0.986315 -0.064933 -0.008268 -0.010217
1.668208 1.312075 0.039865 -0.045240 -0.013055 -0.017886
1.372560 0.907817 0.673933 -0.045240 -0.007254 0.010212
1.643571 0.086757 0.064855 -0.064935 -0.005788 0.007181
1.604479 0.991485 0.721752 -0.064935 0.002997 -0.003730
0.200000 0.601632 0.549938 -0.004638 -0.003628 0.001474
0.561024 0.643969 0.423668 -0.000000 -0.412201 -0.000029
3.028696 0.360392 0.745842 0.014987 -0.015369 -0.015515
2.519675 0.819322 0.608286 0.014988 0.035801 -0.020021
2.475412 0.803198 0.417360 0.014987 0.026875 0.018939
2.895908 0.956380 0.303727 0.014989 0.015367 0.015515
3.028696 0.360392 0.267842 0.014987 -0.015370 0.015514
2.475412 0.561947 0.596324 0.014990 -0.026871 -0.018941
2.718857 0.891882 0.662112 0.014988 0.017928 -0.016628
2.453280 0.570009 0.423341 0.014987 -0.035803 0.020020
2.862554 0.763353 0.550229 -0.000000 0.875474 0.000004
1.959993 0.764207 0.548594 0.000001 0.875359 0.000002
2.321018 0.638409 0.587197 -0.000002 -0.480480 0.000049
1.742119 0.093163 0.078222 0.093197 -0.006003 0.008076
1.656833 0.562147 0.436063 0.093197 -0.002144 0.002889
0.561024 0.765496 0.545980 -0.000001 0.847490 0.000002
2.897519 0.436838 0.326058 0.014989 0.016802 -0.014084
3.052438 0.984742 0.729491 -0.034623 -0.014519 0.017648
1.569421 1.108622 0.188024 -0.045241 -0.006257 -0.008837
2.095377 0.734430 0.431223 0.000000 0.568897 -0.000019
1.147689 0.648301 0.591893 0.000000 -0.364765 0.000017
1.418457 0.670872 0.597790 0.000000 -0.115361 0.000029
3.043066 0.662086 0.417467 0.000000 -0.217116 -0.000120
1.683843 0.107698 0.928656 -0.064935 -0.005788 -0.007181
1.102561 0.759218 0.456516 -0.000000 0.836817 -0.000017
2.501530 0.722674 0.589299 0.000000 0.435483 0.000055
1.463585 0.622710 0.437388 0.000001 -0.602327 -0.000004
2.321018 0.755872 0.451745 0.000000 0.791933 -0.000003
2.970356 0.524943 0.397440 -0.034622 0.010754 -0.013536
2.862554 0.719123 0.422745 0.000000 0.388165 -0.000004
1.824609 0.638700 0.426327 -0.000000 -0.481127 -0.000012
0.380512 0.597575 0.541250 -0.000000 -0.930984 0.000010
2.185634 0.631139 0.430929 0.000000 -0.568860 -0.000039
3.043127 0.919907 0.333795 -0.034622 -0.005446 -0.007090
0.606152 0.703921 0.596018 -0.000000 0.242038 0.000053
0.781486 0.678884 0.415238 0.000000 -0.025850 -0.000258
1.539807 0.391512 0.300868 -0.064934 -0.001550 0.001931
0.922049 0.609949 0.450868 -0.000001 -0.791710 -0.000021
0.561024 0.733269 0.583246 -0.000000 0.547191 0.000020
0.831792 0.609858 0.450985 0.000001 -0.755850 -0.000003
2.740988 0.899944 0.345591 0.014987 0.040257 0.020350
2.997938 0.618206 0.572147 0.000000 -0.707107 0.000013
0.651280 0.720100 0.423182 0.000000 0.412144 -0.000059
1.373329 0.640197 0.588155 0.000000 -0.458807 0.000013
1.690947 0.962167 0.699672 0.093199 0.003216 -0.004333
2.366146 0.732281 0.429792 0.000000 0.545439 -0.000005
0.876921 0.647483 0.591556 0.000001 -0.388576 0.000063
0.561024 0.762376 0.461676 0.000000 0.876518 -0.000007
0.922049 0.728758 0.427632 0.000000 0.503821 -0.000006
2.185634 0.607583 0.559610 -0.000001 -0.821322 0.000009
2.230762 0.630563 0.582356 -0.000003 -0.259604 0.000005
0.470768 0.628069 0.580578 0.000000 -0.589866 0.000018
1.689225 0.623438 0.436764 0.000000 -0.650388 -0.000031
2.591786 0.723931 0.425005 -0.000000 0.458502 -0.000026
1.529622 1.052000 0.237101 -0.064937 0.001344 0.001673
1.373329 0.727544 0.426931 -0.000001 0.389081 -0.000004
1.237945 0.771677 0.528477 -0.000000 0.970190 0.000002
2.682042 0.763801 0.464303 0.000000 0.888554 -0.000007
1.779076 1.010606 0.260504 0.064982 -0.003997 -0.005378
0.741536 0.761410 0.460019 -0.000000 0.857781 -0.000002
1.553841 0.645246 0.423090 0.000000 -0.412209 -0.000059
2.140506 0.617215 0.571156 0.000000 -0.707107 0.000007
2.140506 0.594311 0.481996 -0.000000 -0.963582 -0.000007
1.869737 0.659828 0.418015 0.000000 -0.242191 -0.000107
2.772298 0.720941 0.423562 0.000000 0.412188 -0.000059
1.702319 1.130800 0.848566 0.064982 -0.003075 0.004140
1.660388 1.127652 0.187276 -0.064935 0.004341 0.005395
2.185634 0.591240 0.514948 0.000000 -0.995814 0.000001
2.636914 0.623326 0.436860 0.000000 -0.650384 -0.000031
1.914865 0.692954 0.415740 0.000000 0.115602 -0.000114
1.209092 0.682130 0.415154 -0.000000 -0.025648 -0.000009
1.333031 0.791720 0.584023 -0.064937 0.004725 -0.005870
1.649608 0.334908 0.238565 -0.045243 0.003400 -0.004834
1.826089 0.683089 0.598528 -0.000000 0.022236 0.000020
2.862554 0.597387 0.540769 -0.000001 -0.929711 0.000005
1.779481 0.625548 0.578652 0.000000 -0.630376 0.000008
2.321018 0.603790 0.459923 0.000002 -0.857803 -0.000008
2.501530 0.725308 0.425715 0.000000 0.456718 -0.000006
2.050250 0.598188 0.470971 -0.000001 -0.918375 -0.000003
1.784761 0.294512 0.222616 0.093197 -0.002573 0.003467
2.411274 0.600259 0.547242 0.000002 -0.898366 0.000013
1.237945 0.616954 0.570895 0.000000 -0.707107 0.000003
2.411274 0.725863 0.587676 0.000001 0.478778 0.000024
1.816033 0.267832 0.199180 0.064983 0.003075 -0.004140
1.816033 0.059386 0.044550 0.064982 0.006149 -0.008253
1.816033 0.945716 0.311637 0.064982 -0.008609 -0.011505
1.816033 1.248910 0.926962 0.064983 -0.007379 0.009884
1.690947 0.402978 0.314012 0.093198 -0.003216 0.004333
2.907682 0.645717 0.422878 0.000000 -0.412172 -0.000059
1.732874 0.686998 0.598427 -0.000000 0.025446 0.000262
2.591786 0.762962 0.462743 0.000000 0.876468 -0.000015
0.425640 0.595163 0.479131 -0.000000 -0.956112 -0.000004
2.591786 0.637056 0.427242 0.000000 -0.503792 -0.000011
1.598969 0.730814 0.584817 0.000001 0.507294 0.000006
0.380512 0.611600 0.448787 0.000000 -0.776053 -0.000011
1.734353 0.724554 0.425326 -0.000000 0.458025 -0.000013
0.290256 0.608618 0.452637 -0.000000 -0.807469 -0.000019
1.441496 0.904354 0.348284 -0.064935 0.003618 0.004499
1.824609 0.600887 0.465188 -0.000001 -0.881034 -0.000003
2.793672 0.568921 0.597301 0.014988 -0.010088 -0.012098
0.786664 0.720167 0.590472 0.000001 0.412130 0.000059
0.337604 0.590983 0.511120 0.000000 -0.999666 0.000000
2.772298 0.635303 0.585418 0.000000 -0.525854 0.000005
3.043066 0.603920 0.553984 0.000001 -0.856075 0.000004
2.140506 0.657370 0.595005 -0.000001 -0.262601 0.000024
3.043066 0.746599 0.572486 0.000000 0.706298 0.000002
2.862554 0.598016 0.471379 0.000001 -0.918375 -0.000003
1.541902 0.767091 0.546820 0.000000 -0.803143 -0.000521
2.654620 0.580068 0.587055 0.014988 -0.013449 -0.014472
2.831741 0.786720 0.576414 0.014987 -0.012255 0.011944
1.959993 0.624947 0.435521 -0.000001 -0.628466 -0.000008
2.758318 0.498395 0.645445 0.014990 -0.020163 -0.017397
3.177581 0.640941 0.520614 1.000000 0.000000 0.000000
1.192817 0.598608 0.543698 0.000000 -0.910974 0.000003
1.508713 0.591568 0.495618 -0.000001 -0.981759 -0.000001
1.744961 0.779133 0.443495 0.093200 0.002144 0.002889
3.126518 0.777941 0.575791 -0.034622 -0.016563 0.019695
3.102334 0.813052 0.605851 -0.034620 0.003459 -0.004747
2.975784 0.422657 0.316291 0.014989 0.012603 -0.012145
1.776233 1.232180 0.909913 0.093197 0.006860 -0.009223
1.776233 0.966885 0.300572 0.093196 0.003002 0.004044
1.192817 0.728822 0.427670 -0.000000 0.503770 -0.000006
1.742119 0.999697 0.748084 0.064980 -0.003997 0.005379
0.696408 0.604753 0.555335 -0.000002 -0.844508 0.000008
1.776233 0.136728 0.914986 0.064981 0.008609 0.011505
1.649726 0.872940 0.352139 0.064980 -0.002614 -0.003521
0.470768 0.763513 0.463746 0.000000 0.876472 -0.000002
2.005121 0.728503 0.427484 -0.000000 0.503565 -0.000011
1.553841 0.643301 0.589701 -0.000000 -0.435595 0.000028
2.773246 0.812926 0.405201 0.014989 0.020165 0.017397
0.425640 0.593682 0.529336 -0.000000 -0.970227 0.000013
2.952810 0.600452 0.547641 -0.000000 -0.900167 0.000006
2.185634 0.763300 0.550326 -0.000001 0.818459 0.000001
2.929314 0.767931 0.454064 -0.000000 0.803143 -0.000132
1.914865 0.602093 0.462905 -0.000000 -0.876496 -0.000007
2.230762 0.618786 0.440968 0.000000 -0.688696 -0.000007
0.651280 0.629440 0.581579 0.000000 -0.589875 0.000009
2.275890 0.594015 0.530622 0.000000 -0.963599 0.000002
1.192817 0.738254 0.579691 -0.000001 0.593286 0.000004
0.245128 0.752938 0.565640 -0.000001 0.650361 0.000002
0.335384 0.713601 0.593124 0.000000 0.340434 0.000037
1.237945 0.630684 0.431244 -0.000001 -0.567826 -0.000019
1.553841 0.720907 0.590137 0.000000 0.412266 0.000059
0.245128 0.656450 0.418948 0.000001 -0.291713 -0.000087
1.283073 0.767400 0.472025 -0.000000 0.921412 -0.000006
2.792211 0.876808 0.648734 0.014992 -0.012251 0.011943
2.990876 0.494573 0.361356 -0.034619 -0.010445 0.013791
0.967177 0.728631 0.586126 0.000000 0.503645 0.000023
1.558878 1.056715 0.777927 -0.064933 0.002687 -0.003345
2.275890 0.755151 0.562875 -0.000000 0.791969 0.000021
2.321018 0.726283 0.587445 0.000001 0.480879 0.000024
0.425640 0.720369 0.423303 0.000000 0.412144 -0.000015
1.569659 1.177323 0.139827 -0.045241 -0.010880 -0.015083
2.772298 0.727961 0.586516 -0.000000 0.503731 0.000023
1.959993 0.757048 0.453352 0.000001 0.806875 -0.000010
1.328201 0.647483 0.591556 0.000000 -0.388454 0.000008
1.545022 1.143634 0.164818 -0.045241 -0.011967 -0.016497
0.083752 0.727010 0.458831 -0.425825 0.000040 -0.000041
1.102561 0.594829 0.480225 -0.000000 -0.956312 -0.000008
1.012305 0.635876 0.427930 0.000000 -0.503469 -0.000006
1.816033 1.362608 0.002379 -0.000002 0.803139 -0.000244
2.817426 0.639673 0.425800 0.000000 -0.456718 -0.000006
2.411274 0.770262 0.533635 -0.000001 0.956085 0.000008
0.515896 0.603233 0.552805 0.000001 -0.853913 0.000004
2.691227 0.518445 0.383333 0.014986 -0.015690 0.015669
1.463585 0.638441 0.587214 -0.000001 -0.479506 0.000012
2.636914 0.718682 0.422559 -0.000000 0.388615 -0.000063
2.817426 0.627712 0.580317 0.000001 -0.534089 0.000003
1.147689 0.763885 0.549217 -0.000000 0.888697 0.000003
1.656833 0.992494 0.718193 -0.064937 0.001447 -0.001802
0.606152 0.603567 0.553379 0.000001 -0.862736 0.000016
1.747804 0.301926 0.781261 0.093196 -0.005145 -0.006926
2.772298 0.768414 0.474599 0.000001 0.924201 -0.000002
1.192817 0.601124 0.464729 0.000001 -0.886948 -0.000007
0.741536 0.763513 0.549938 -0.000000 0.888536 0.000003
2.411274 0.629804 0.581831 0.000000 -0.568790 0.000010
0.470768 0.632246 0.430196 0.000000 -0.547490 -0.000041
3.003531 0.802958 0.424258 -0.034621 -0.005378 -0.007004
2.953652 0.932264 0.319357 0.014988 0.030703 0.019494
1.283073 0.770617 0.532471 -0.000000 0.963703 0.000002
0.696408 0.773460 0.518981 0.000001 0.778708 0.000000
1.147689 0.642272 0.424481 0.000000 -0.435545 -0.000014
1.373329 0.729778 0.585457 -0.000000 0.525708 0.000022
1.824609 0.761336 0.459891 -0.000001 0.817394 -0.000002
2.546658 0.598375 0.470529 0.000000 -0.921319 -0.000011
2.932028 0.819074 0.600195 0.014989 -0.012603 0.012145
1.286329 0.789908 0.586466 -0.045242 -0.007254 0.010212
1.779481 0.597672 0.472194 0.000000 -0.921179 -0.000001
1.102561 0.728886 0.585977 -0.000000 0.503625 0.000023
2.727170 0.763087 0.550715 -0.000000 0.876316 0.000004
1.611347 0.843433 0.411368 -0.064935 0.007235 0.008956
1.779481 0.738692 0.579353 -0.000000 0.605992 0.000004
2.546658 0.720772 0.590198 -0.000001 0.411489 0.000029
1.598969 0.762447 0.461805 0.000000 0.876518 -0.000004
2.095377 0.639804 0.425732 -0.000001 -0.432084 -0.000003
0.561024 0.640525 0.588324 0.000000 -0.458489 0.000013
2.682042 0.603158 0.461007 0.000000 -0.863466 -0.000004
1.440667 0.957512 0.708147 -0.064934 0.001654 -0.002059
1.773390 0.421083 0.704277 0.064981 0.004612 0.006202
2.976683 0.561632 0.425005 -0.034620 0.010755 -0.013536
1.364149 0.839337 0.625438 -0.045242 -0.002720 0.003872
2.907682 0.734612 0.431349 -0.000000 0.568897 -0.000019
1.648304 0.558583 0.612419 0.064983 0.003075 0.004140
3.177581 0.659498 0.591452 0.037624 -0.000306 0.001066
2.817426 0.593245 0.527544 0.000001 -0.970514 0.000001
1.488873 0.812353 0.400272 -0.045241 -0.014504 -0.019695
1.465184 0.509211 0.371017 -0.045241 0.014504 -0.019695
1.642619 0.851164 0.611695 0.093189 0.001072 -0.001445
2.923582 0.814505 0.416957 0.014987 -0.011029 -0.011184
1.698054 0.479173 0.369707 0.093195 -0.001822 0.002456
1.773390 0.948094 0.698841 0.093199 0.003216 -0.004333
2.997938 0.767919 0.473327 -0.000000 0.931070 -0.000010
0.515896 0.599874 0.467239 0.000000 -0.900099 -0.000013
1.700897 0.884400 0.665897 0.064984 -0.001307 0.001761
1.560416 0.496751 0.656673 -0.045240 0.004761 0.006750
2.952810 0.765913 0.545076 0.000000 0.911059 0.000024
2.940678 0.859810 0.643968 0.014993 0.009604 -0.011691
3.020118 0.580808 0.437667 -0.034621 0.005378 -0.007004
2.907682 0.641443 0.588798 0.000000 -0.458807 0.000006
1.598969 0.642703 0.589412 0.000004 -0.185509 0.000008
1.639776 0.936596 0.674739 -0.064935 0.006408 -0.007943
1.644097 0.765624 0.467970 0.000000 0.900006 -0.000001
0.922049 0.602768 0.552008 0.000000 -0.876472 0.000004
3.177581 0.729090 0.432496 0.044807 0.000505 -0.000783
1.690947 0.260856 0.208583 0.093197 -0.002358 0.003178
1.611347 0.521711 0.411368 0.093197 -0.002144 0.002889
1.816033 0.438378 0.325694 0.064983 0.004612 -0.006202
1.563262 0.261718 0.198620 -0.064935 -0.009921 0.012217
2.095377 0.763885 0.464467 0.000000 0.888554 -0.000007
1.696633 0.969508 0.284307 0.064982 -0.004305 -0.005790
0.831792 0.759259 0.456578 0.000000 0.836742 -0.000009
1.520384 0.255198 0.823876 -0.064935 -0.009921 -0.012217
1.598969 0.728981 0.427763 -0.000001 0.502169 -0.000023
1.690947 0.402978 0.699672 0.093196 -0.003216 -0.004333
2.684338 0.820793 0.606302 0.014988 -0.017152 0.014212
2.546658 0.765431 0.467571 0.000001 0.791698 -0.000001
2.817426 0.769391 0.477345 -0.000001 0.947085 -0.000004
2.636914 0.617111 0.571051 0.000000 -0.707107 0.000003
3.119045 0.568070 0.423699 -0.034620 0.009726 -0.012340
1.506494 0.774260 0.507285 -0.000000 0.999666 0.000000
2.652463 0.497449 0.644170 0.014988 -0.031342 -0.019571
1.767704 0.525527 0.627260 0.064982 0.001307 0.001761
1.779076 0.360519 0.741440 0.093197 -0.002787 -0.003756
1.636698 0.291601 0.228740 -0.064934 -0.004961 0.006162
1.408599 0.578676 0.573501 -0.064937 -0.003544 -0.004407
2.727170 0.722242 0.424176 0.000001 0.433848 -0.000014
1.554730 0.515922 0.370770 -0.045242 0.002380 -0.003389
3.177581 0.682572 0.506842 1.000000 0.000000 0.000000
0.290256 0.712139 0.420047 0.000000 0.316319 -0.000040
2.366146 0.598547 0.470121 0.000001 -0.920520 -0.000011
1.679576 1.067024 0.237553 -0.064936 0.004961 0.006162
1.463585 0.725144 0.588053 0.000001 0.458272 0.000052
1.573782 0.795946 0.446358 -0.064933 0.002658 0.003308
1.373329 0.627772 0.433324 0.000000 -0.589839 -0.000018
3.141826 0.598284 0.536336 0.044621 -0.003855 0.001107
1.790447 0.200081 0.861781 0.093197 -0.003859 -0.005198
1.759176 0.245711 0.824287 0.093198 -0.002358 -0.003178
2.849384 0.779206 0.427140 0.014988 0.011208 0.012977
0.831792 0.602484 0.551491 0.000000 -0.876557 0.000007
1.619048 0.405315 0.695122 -0.064933 -0.001550 -0.001931
1.601754 0.893579 0.337059 -0.045240 -0.004489 -0.006369
2.095377 0.600292 0.547309 0.000000 -0.900169 0.000003
1.563259 0.891689 0.645071 -0.064935 0.001757 -0.002188
2.655409 0.679253 0.415229 0.000000 -0.022171 -0.000020
1.689225 0.628010 0.580535 0.000001 -0.589588 0.000036
0.831792 0.767400 0.541660 0.000000 0.921438 0.000006
0.083752 0.733870 0.547442 -0.425826 0.000046 0.000034
1.012305 0.724619 0.425360 0.000000 0.458808 -0.000006
1.719851 0.039433 0.027445 -0.045241 0.011967 -0.016497
1.719851 1.325711 0.986239 -0.045240 -0.011967 0.016497
1.779481 0.770208 0.533812 0.000001 0.762005 0.000001
1.716533 0.300116 0.215062 0.064982 0.003690 -0.004966
1.767704 0.492532 0.371499 0.093198 -0.000911 0.001228
