-1.375578 -0.041509 0.111426 0.000430 -0.391470 0.919529
0.367600 -0.164970 0.207401 0.108032 -0.786196 -0.608461
1.326210 -0.136635 0.155862 0.000000 -0.790825 -0.612043
0.249832 0.242013 0.327738 0.061138 -0.789345 0.610898
0.120328 -0.156197 0.171190 -0.061068 -0.817630 -0.572497
0.589808 0.017471 0.117616 -0.000188 0.185732 0.982007
-0.467408 0.031644 -0.114619 -0.000205 0.257849 -0.965583
-1.056936 -0.019257 0.117337 0.000272 -0.184572 0.982210
1.059812 0.127695 0.164995 -0.160522 -0.631810 0.758320
-0.020745 0.231759 -0.294154 -0.061068 0.817630 0.572497
1.450660 -0.108963 0.047601 -0.000012 -0.932006 0.360847
0.191917 0.437434 0.565211 -0.061068 0.817630 -0.572497
0.450090 0.034291 -0.113855 0.000053 0.329847 -0.943421
0.083703 -0.251856 -0.332431 -0.034493 0.773584 -0.632754
1.109179 -0.118046 -0.014283 -0.001096 -0.992700 -0.115360
1.535142 0.094100 -0.121587 0.262292 0.791785 0.551615
-0.521101 -0.071052 0.095344 -0.000021 -0.605159 0.795371
0.249806 0.194686 -0.224884 0.108032 0.786196 0.608461
-1.571156 -0.076540 0.060598 -0.388730 -0.732628 0.557531
1.495368 0.226090 -0.292133 0.262292 0.791785 0.551615
0.002171 -0.288692 0.373021 -0.061068 -0.817630 -0.572497
-0.027083 0.129654 -0.149006 -0.061068 0.817630 0.572497
0.075621 0.346269 0.447417 -0.061068 0.817630 -0.572497
0.258429 -0.402091 -0.525628 -0.034493 0.773584 -0.632754
1.271754 0.130272 -0.189011 0.000000 -0.790825 -0.612043
0.301945 -0.325537 -0.403214 0.108032 -0.786196 0.608461
1.059826 0.044385 -0.110312 -0.000054 0.415459 -0.909047
-1.297639 -0.117047 0.020949 -0.000370 -0.984879 0.170143
-0.220000 -0.023750 0.116511 0.000316 -0.164865 0.985795
0.194311 -0.421326 0.541950 -0.061068 -0.817630 -0.572497
-0.756411 0.013152 -0.118177 0.000074 0.154132 -0.987567
0.400025 -0.470534 -0.607980 0.061138 0.789345 -0.610898
0.400025 -0.476653 0.615887 0.108032 -0.786196 -0.608461
-1.152669 -0.117721 0.016754 -0.001072 -0.995030 0.093533
1.347015 0.132207 0.191511 -0.000000 -0.790825 0.612043
0.993327 0.016505 0.117756 0.000601 0.131559 0.990558
-0.354950 -0.118907 0.000000 -0.002351 -0.998802 -0.028860
1.250072 0.051192 0.086831 0.000000 -0.612043 -0.790825
-0.917608 -0.076043 -0.091413 -0.000756 -0.665459 -0.745525
0.352940 0.301775 0.394637 0.061138 -0.789345 0.610898
0.115396 0.251401 0.307684 -0.061068 0.817630 -0.572497
-0.936177 0.109838 0.045547 -0.000019 0.905531 0.422892
0.224587 0.357924 -0.448172 -0.061068 0.817630 0.572497
0.302532 -0.176001 -0.210102 0.108032 -0.786196 0.608461
-1.556248 -0.073800 -0.072771 -0.343887 -0.712744 -0.609140
0.654112 0.112029 0.039854 -0.000086 0.954993 0.294676
0.447911 -0.117795 -0.016226 -0.000033 -0.987152 -0.156291
1.538758 0.082100 0.106082 0.262292 0.791785 -0.551615
1.538758 -0.082100 -0.106082 0.262292 0.732569 -0.628128
-1.450320 0.118595 -0.008612 0.000178 0.992107 -0.119869
-0.628799 -0.115630 0.027723 0.000448 -0.968225 0.247248
-0.789144 -0.085863 0.082258 0.000140 -0.690013 0.723006
1.091846 -0.142470 0.184087 -0.160522 -0.892544 -0.421424
-1.580743 0.093163 -0.000000 -0.426962 0.901948 -0.037236
0.380723 0.118610 0.008403 0.000416 0.992269 0.118691
-1.195657 0.092442 0.074788 0.000193 0.799763 0.599311
1.457847 0.242126 0.297310 0.262292 0.791785 -0.551615
0.061525 0.133075 0.144441 -0.061068 0.817630 -0.572497
0.183337 0.129050 -0.128274 0.108032 0.786196 0.608461
1.491753 -0.238090 0.307637 0.262292 -0.791785 -0.551615
1.491753 -0.238090 -0.307637 0.262292 0.732569 -0.628128
0.265367 0.495011 -0.639607 -0.000000 0.612043 -0.790825
0.905385 -0.100342 -0.063799 -0.000081 -0.863114 -0.503856
0.294149 0.185662 0.221096 0.108032 0.786196 -0.608461
0.140514 -0.104727 -0.056312 -0.000021 -0.876256 -0.480630
-1.091686 -0.079276 -0.088624 0.000275 -0.685878 -0.726884
-0.194973 0.000000 -0.118907 -0.000266 -0.021886 -0.999074
0.073774 0.108964 -0.047600 0.000173 0.897477 -0.439807
0.246605 -0.017996 -0.117537 -0.000111 -0.172230 -0.984496
-0.322505 0.078923 0.088939 0.000786 0.630555 0.775330
0.698726 -0.111562 0.041143 0.000015 -0.921037 0.387994
-0.073488 -0.113512 -0.035410 0.000156 -0.946271 -0.321730
0.241248 -0.186046 0.212200 0.108032 -0.786196 -0.608461
0.002016 -0.130252 0.146756 -0.061068 -0.817630 -0.572497
1.155241 0.114588 0.031755 -0.000001 0.950742 0.308088
0.728805 0.008533 -0.118600 0.001104 0.120272 -0.992122
0.645527 -0.096846 -0.068991 -0.000581 -0.803468 -0.594409
1.173924 0.101339 -0.110256 -0.000000 0.790825 0.612043
0.237580 0.031730 0.114595 -0.000016 0.259724 0.965119
-0.499695 0.114759 -0.031133 -0.000281 0.966111 -0.255942
1.243037 -0.074010 0.093067 -0.000000 -0.623312 0.781245
0.096811 0.243621 -0.323078 -0.034493 -0.773584 -0.632754
1.126763 -0.133527 -0.151846 -0.053999 -0.829883 0.551666
0.112346 0.375058 -0.484615 -0.061068 0.817630 0.572497
0.148499 -0.095227 0.071209 -0.000359 -0.802800 0.595254
-0.101431 0.087325 0.121188 -0.034493 -0.773584 0.632754
0.820075 -0.111636 0.040943 -0.000042 -0.952001 0.304188
-0.891823 -0.117380 0.018996 -0.000060 -0.977339 0.208720
1.392383 0.266829 -0.332995 -0.160522 0.892544 0.421424
1.282827 0.030440 -0.114945 0.000125 0.254546 -0.966471
-1.300629 0.051497 0.107177 0.000101 0.424840 0.904657
0.858589 -0.016399 0.117771 -0.000711 -0.185148 0.982125
0.466768 0.057312 0.104184 -0.000274 0.467400 0.883396
0.045017 -0.322279 -0.416418 -0.061068 -0.817630 0.572497
-0.218180 0.115959 -0.149832 -0.061068 0.817630 0.572497
0.513650 -0.068093 -0.097479 -0.000606 -0.561994 -0.826521
-0.777464 0.040321 0.111862 -0.000002 0.344798 0.938056
0.034939 -0.066922 -0.098287 -0.000100 -0.592472 -0.804876
-1.450284 -0.047612 -0.108959 0.000047 -0.400463 -0.915694
0.346145 -0.108326 0.049035 -0.000129 -0.926095 0.375813
0.305346 0.430391 0.543052 -0.061068 0.817630 -0.572497
1.492849 -0.023735 0.113164 0.254004 -0.196471 0.942066
0.313252 0.247028 -0.303780 0.108032 0.786196 0.608461
0.372668 -0.325921 0.416268 0.108032 -0.786196 -0.608461
0.083391 -0.177383 -0.241365 -0.034493 0.773584 -0.632754
-1.348150 -0.087341 -0.080687 -0.000096 -0.736094 -0.676116
0.761588 0.088887 0.078981 -0.000090 0.746355 0.664676
0.308841 -0.427164 0.559030 -0.034493 0.773584 0.632754
1.400039 -0.105056 -0.055696 -0.000259 -0.861899 -0.505955
0.608118 0.102268 -0.060663 0.000124 0.878528 -0.476519
1.339581 0.106639 0.052601 -0.000017 0.877291 0.478751
-0.604549 0.115560 0.028012 -0.000342 0.968675 0.245967
0.872074 0.113593 -0.035150 -0.001317 0.965021 -0.260190
1.045227 -0.093896 0.072955 0.000009 -0.762581 0.645986
1.371006 0.095203 -0.102327 0.000000 0.790825 0.612043
0.111923 -0.291193 0.364886 -0.061068 -0.817630 -0.572497
0.149071 -0.403847 -0.521813 -0.061068 -0.817630 0.572497
-1.005111 0.108279 -0.049138 0.000063 0.913390 -0.405700
0.293789 -0.277155 0.339252 0.108032 -0.786196 -0.608461
0.103540 -0.216986 0.259799 -0.061068 -0.817630 -0.572497
1.227992 0.205267 0.265226 -0.160522 -0.631810 0.758320
0.400025 0.158447 0.204730 0.108032 0.786196 -0.608461
0.053135 0.195253 0.234137 -0.061068 0.817630 -0.572497
-0.068016 0.106702 -0.052475 -0.000733 0.895365 -0.444034
-0.961331 -0.073283 0.093640 -0.000008 -0.653428 0.756235
-1.398984 0.087690 0.080307 0.000076 0.735306 0.676891
0.352613 -0.015285 -0.117920 0.000702 -0.157072 -0.987078
1.281268 -0.073969 -0.093099 0.000041 -0.653685 -0.756037
0.235602 0.134822 0.145011 0.108032 0.786196 -0.608461
-0.108005 -0.202326 0.261426 -0.061068 -0.817630 -0.572497
0.400025 0.458295 0.592166 0.108032 0.786196 -0.608461
-0.301639 0.066169 -0.098796 -0.000103 0.517213 -0.855177
-0.716317 0.098540 -0.066549 0.000693 0.809315 -0.586805
-0.824681 0.110980 0.042687 0.000092 0.915853 0.400060
-0.866927 0.015323 -0.117915 0.000198 0.162411 -0.986132
1.429619 0.106686 0.117165 0.000000 0.790825 -0.612043
-0.419591 0.046964 0.109240 0.000334 0.395511 0.917897
0.836299 -0.021607 -0.116927 -0.001014 -0.179806 -0.983167
0.283041 0.107894 0.049978 0.000156 0.887632 0.459312
0.299958 0.311475 -0.384691 0.108032 0.786196 0.608461
-1.605907 0.019956 0.076461 -0.552361 0.240171 0.796758
1.085582 0.056690 0.093935 -0.000000 -0.790825 0.612043
0.020958 0.045544 -0.109839 0.000147 0.381058 -0.923844
0.998046 -0.117008 -0.021166 -0.000534 -0.983526 -0.177709
-1.606336 0.019250 -0.076358 -0.540149 0.136196 -0.828873
-1.484793 -0.047777 0.108886 -0.062216 -0.447864 0.890851
-0.277851 -0.099528 0.065062 -0.000087 -0.860346 0.508578
-0.134478 -0.085675 -0.117370 -0.034493 0.773584 -0.632754
-0.564921 0.000000 -0.118907 -0.000463 -0.058996 -0.997610
1.515255 0.160095 -0.206860 0.262292 0.791785 0.551615
-0.150850 0.168739 0.218028 -0.061068 0.817630 -0.572497
-0.113339 -0.103066 0.059297 -0.000045 -0.887774 0.459023
-0.092086 -0.178150 -0.225201 -0.061068 -0.817630 0.572497
1.387002 -0.164537 0.233284 0.000000 0.790825 0.612043
0.327463 -0.015830 0.117849 0.000092 -0.177144 0.983555
0.400025 -0.182924 -0.236358 0.061138 0.789345 -0.610898
1.417640 -0.093795 0.141879 -0.000000 0.790825 0.612043
1.533671 0.099003 0.000000 0.378630 0.923809 0.038785
1.194839 -0.116252 0.170896 -0.000000 0.790825 0.612043
-0.273433 0.118461 0.010289 0.000297 0.995505 0.089478
1.081116 -0.051192 -0.086831 0.000000 0.612043 0.790825
-1.283345 0.083027 -0.085120 -0.000274 0.724288 -0.688801
0.149404 0.297829 0.392218 -0.034493 -0.773584 0.632754
-0.417628 -0.057681 -0.103980 0.000033 -0.444184 -0.895249
0.400025 0.115612 -0.149382 0.108032 0.786196 0.608461
0.259196 -0.123646 -0.134759 0.108032 -0.786196 0.608461
0.149648 0.085865 0.133090 -0.034493 -0.773584 0.632754
-0.077400 0.226316 0.292425 -0.061068 0.817630 -0.572497
-0.426069 -0.098525 0.066571 0.000260 -0.833318 0.551892
0.529486 -0.060016 0.102650 0.000188 -0.469931 0.882063
1.204042 -0.110951 -0.042765 -0.000488 -0.931912 -0.360946
0.400025 -0.323670 -0.418215 0.061138 0.789345 -0.610898
-0.611504 0.052786 0.106548 -0.000332 0.400068 0.915814
1.537363 -0.097212 -0.007479 0.378244 -0.917347 -0.119011
1.221979 -0.110874 -0.163946 -0.000000 0.790825 -0.612043
0.142291 0.316618 -0.397958 -0.061068 0.817630 0.572497
-1.108989 0.013566 -0.118131 0.000460 0.157381 -0.986990
-0.985989 0.048389 0.108616 0.000194 0.407089 0.912771
-0.002445 0.041117 0.111572 -0.000010 0.386289 0.921744
-0.187347 0.103888 0.057846 -0.000065 0.874187 0.484395
1.387002 -0.164537 -0.233284 0.000000 0.790825 -0.612043
0.631690 -0.068179 0.097419 0.000118 -0.535396 0.843958
1.416893 -0.103647 -0.154608 0.000000 0.790825 -0.612043
1.343134 -0.076757 0.078493 -0.000000 -0.790825 -0.612043
0.283851 0.440472 -0.559743 -0.061068 0.817630 0.572497
-0.237232 -0.093503 -0.121339 -0.034493 0.773584 -0.632754
-0.119665 0.104194 -0.140818 -0.034493 -0.773584 -0.632754
1.386179 0.192786 -0.269785 -0.000000 -0.790825 -0.612043
0.310684 0.358222 0.471802 0.061138 -0.789345 0.610898
1.286409 -0.180013 -0.253281 -0.000000 0.790825 -0.612043
1.213642 0.193592 -0.245967 -0.160522 0.892544 0.421424
0.313504 -0.217579 0.265774 0.108032 -0.786196 -0.608461
0.079159 0.109104 0.047277 -0.000896 0.915042 0.401795
0.989770 0.095420 -0.070950 -0.000983 0.800487 -0.598578
0.239298 0.113557 -0.035267 -0.000139 0.954851 -0.295209
1.388164 0.279145 0.360685 -0.160522 -0.631810 0.758320
1.399811 0.180926 0.254461 0.000000 -0.790825 0.612043
0.174450 0.205636 -0.280870 -0.034493 -0.773584 -0.632754
0.152574 0.384866 0.494331 -0.061068 0.817630 -0.572497
1.298939 -0.199496 0.237085 -0.000000 -0.790825 -0.612043
0.171675 -0.287952 -0.353882 -0.061068 -0.817630 0.572497
1.051803 0.124001 -0.160222 -0.160522 0.892544 0.421424
0.095622 0.101843 -0.149680 -0.034493 -0.773584 -0.632754
0.516236 0.090485 -0.077145 -0.000055 0.788661 -0.613883
1.531527 -0.106099 0.137091 0.262292 -0.791785 -0.551615
1.494568 -0.000000 -0.114926 0.253587 -0.024506 -0.962123
-1.374378 0.097235 -0.068441 -0.000098 0.817267 -0.575293
0.087218 -0.111942 -0.161569 -0.034493 0.773584 -0.632754
-0.722197 -0.116665 0.022981 0.000871 -0.969977 0.240699
-0.437412 0.112504 0.038492 0.000035 0.944259 0.327430
-1.133521 0.034806 0.113699 0.000012 0.295819 0.954629
0.355571 -0.102974 -0.059458 -0.000284 -0.840471 -0.540741
-1.078210 -0.096222 0.069858 -0.000042 -0.791893 0.609747
0.169356 -0.211867 -0.245467 -0.061068 -0.817630 0.572497
1.168404 0.082733 0.127585 0.000000 -0.790825 0.612043
0.008421 0.171299 -0.229841 -0.034493 -0.773584 -0.632754
0.965933 0.094164 0.072609 0.000592 0.768638 0.638813
0.321242 -0.217866 -0.289391 0.061138 0.789345 -0.610898
-0.093549 -0.110384 0.149810 -0.034493 0.773584 0.632754
0.991219 -0.018486 -0.117461 0.000599 -0.201801 -0.978813
0.313631 0.135782 -0.184091 0.061138 -0.789345 -0.610898
1.415980 -0.261882 -0.352190 -0.160522 0.631810 -0.758320
0.316799 -0.445589 -0.581989 -0.034493 0.773584 -0.632754
-1.219388 0.118591 -0.008666 -0.000547 0.995403 -0.091666
0.683231 0.051588 0.107133 -0.000105 0.395845 0.917682
0.347313 -0.105839 0.142031 0.061138 0.789345 0.610898
0.400025 0.433818 -0.560539 0.108032 0.786196 0.608461
0.824569 0.068402 -0.097263 0.000019 0.583827 -0.811155
0.400025 0.342028 -0.441936 0.108032 0.786196 0.608461
-0.662991 0.022587 -0.116742 0.000820 0.216312 -0.975662
1.108554 0.108143 -0.049435 -0.000178 0.917889 -0.395403
-0.052917 -0.245509 0.317223 -0.061068 -0.817630 -0.572497
0.210279 -0.451828 -0.583810 -0.061068 -0.817630 0.572497
-0.010071 -0.279096 -0.360621 -0.061068 -0.817630 0.572497
1.166290 -0.103812 0.057982 -0.000050 -0.851117 0.523860
-0.001662 -0.202756 -0.250698 -0.061068 -0.817630 0.572497
-0.378693 0.023108 -0.116640 -0.000042 0.237759 -0.970788
-0.930552 0.072574 -0.094191 0.000271 0.645886 -0.762678
0.079488 -0.086627 0.130198 -0.034493 0.773584 0.632754
-1.264824 0.000000 -0.118907 -0.000203 -0.020203 -0.999252
0.400025 0.231879 -0.299613 0.108032 0.786196 0.608461
-1.004851 -0.066053 -0.098873 0.000112 -0.568390 -0.822104
0.207002 -0.304522 0.373780 -0.061068 -0.817630 -0.572497
-1.092528 0.104001 -0.057643 -0.000493 0.851323 -0.523548
1.131889 0.160940 0.207951 -0.160522 -0.631810 0.758320
-1.622913 -0.066513 -0.009450 -0.589790 -0.792615 -0.144812
-0.580048 -0.110370 -0.044240 -0.000077 -0.917600 -0.396019
-0.271695 -0.111806 -0.040475 -0.001390 -0.942937 -0.331648
-0.101765 0.115306 0.029042 0.000183 0.968845 0.245295
-1.386679 -0.105768 0.054332 -0.000238 -0.872452 0.487754
0.571949 0.092114 0.075192 -0.000070 0.746986 0.664051
1.407647 -0.275869 0.362079 -0.160522 0.631810 0.758320
0.183711 -0.360038 0.470142 -0.034493 0.773584 0.632754
0.316483 -0.374166 0.491823 0.061138 0.789345 0.610898
1.468720 0.071216 -0.071334 -0.000000 0.790825 0.612043
0.432178 0.100912 -0.062893 0.000094 0.852052 -0.522361
0.184627 -0.082340 -0.127949 0.061138 0.789345 -0.610898
0.242051 -0.109355 0.046695 -0.000155 -0.901733 0.430975
1.293124 0.114935 0.127823 -0.000000 0.790825 -0.612043
-0.023208 0.125004 0.141952 -0.061068 0.817630 -0.572497
-0.230421 -0.106363 0.137432 -0.061068 -0.817630 -0.572497
0.044575 -0.240916 0.316923 -0.034493 0.773584 0.632754
-0.695570 0.061932 0.101505 -0.000013 0.553078 0.832424
-0.029720 -0.090876 0.076684 0.000009 -0.738955 0.673002
-0.046040 -0.091243 -0.128998 -0.034493 0.773584 -0.632754
0.243541 -0.348718 -0.459565 -0.034493 0.773584 -0.632754
-0.493859 0.008278 0.118618 0.000471 0.115972 0.992691
-1.293311 -0.066975 0.098251 0.000733 -0.588575 0.807715
-1.524283 -0.113110 0.000000 -0.237440 -0.969783 0.033483
0.064203 0.292189 0.371399 -0.061068 0.817630 -0.572497
-0.725193 -0.063927 -0.100260 -0.000034 -0.554354 -0.831623
-0.877809 -0.075971 0.091472 -0.000102 -0.663677 0.747209
0.271206 0.312997 0.381553 0.108032 0.786196 -0.608461
0.686989 0.077948 -0.089794 -0.000279 0.649918 -0.759345
0.175262 -0.023518 0.116558 -0.000600 -0.234463 0.971567
0.194718 0.228729 0.266844 -0.061068 0.817630 -0.572497
-0.825632 -0.055680 -0.105065 0.000179 -0.488327 -0.872022
-0.143271 0.013608 0.118126 0.000596 0.117045 0.992641
1.304843 -0.014510 0.118018 0.000104 -0.162122 0.986086
0.323168 -0.373078 -0.468410 0.108032 -0.786196 0.608461
0.192910 0.049272 -0.108218 0.000038 0.374471 -0.926624
-0.060373 -0.164673 0.202571 -0.061068 -0.817630 -0.572497
0.330411 0.258502 0.321653 0.108032 0.786196 -0.608461
0.238974 0.392229 0.512511 -0.034493 -0.773584 0.632754
1.317447 0.190186 -0.225055 -0.000000 0.790825 0.612043
-1.226277 -0.103340 0.058819 0.000018 -0.889140 0.456455
1.553222 -0.054028 0.061525 1.000000 0.000000 -0.000000
0.175589 0.177159 -0.195233 -0.061068 0.817630 0.572497
-1.430357 0.048501 -0.108566 -0.000567 0.424025 -0.905076
1.314760 0.196484 0.233193 -0.000000 0.790825 -0.612043
-0.539170 -0.116066 0.025836 0.000015 -0.966871 0.252951
0.034463 0.231197 0.304490 -0.034493 -0.773584 0.632754
0.193696 -0.122488 0.178916 0.061138 0.789345 0.610898
-0.601800 -0.063632 0.100448 -0.000095 -0.542701 0.839232
-1.136211 -0.048547 0.108545 -0.000414 -0.388378 0.920948
-0.498220 -0.051655 -0.107101 -0.000384 -0.457547 -0.888507
0.153912 0.104736 -0.056296 0.000001 0.879082 -0.475467
-1.224841 -0.115957 -0.026321 -0.000389 -0.968075 -0.248528
0.473923 -0.103427 0.058666 0.000231 -0.872311 0.487868
0.400025 -0.207402 0.267985 0.108032 -0.786196 -0.608461
1.451942 0.096257 -0.145060 0.000000 -0.790825 -0.612043
-0.095763 0.211922 -0.273826 -0.061068 0.817630 0.572497
-0.010071 0.279096 -0.360621 -0.061068 0.817630 0.572497
0.944868 0.118907 -0.000000 -0.000758 0.998793 -0.028683
0.564091 -0.109183 -0.047096 -0.000058 -0.910626 -0.411842
1.458887 -0.068935 -0.096886 -0.000032 -0.613469 -0.788992
0.397068 0.021900 0.116873 0.000564 0.217795 0.975324
-0.536270 0.071882 -0.094720 -0.000468 0.642385 -0.765547
1.356387 0.116277 -0.024871 0.000475 0.967848 -0.249150
1.421526 -0.225702 -0.270946 0.000000 -0.790825 0.612043
0.913562 -0.038630 -0.112457 -0.000139 -0.366389 -0.929883
0.093983 -0.360664 -0.466016 -0.061068 -0.817630 0.572497
0.240883 0.475819 0.614808 -0.061068 0.817630 -0.572497
0.808884 0.118326 0.011738 -0.000439 0.988413 0.146218
-0.423746 0.088142 -0.079811 0.000142 0.729677 -0.682963
-0.066889 0.166626 -0.206055 -0.061068 0.817630 0.572497
-1.433465 0.020666 0.117097 -0.000588 0.174418 0.984106
0.330643 -0.269818 -0.355577 0.061138 0.789345 -0.610898
-0.677257 -0.111456 -0.041430 0.000346 -0.945539 -0.323659
0.169543 -0.174324 0.242322 -0.034493 0.773584 0.632754
0.021636 -0.036168 0.113273 -0.000029 -0.340549 0.939603
0.434595 -0.046870 -0.109280 0.000044 -0.435772 -0.899430
-0.234398 0.052663 0.106609 0.000080 0.478449 0.877465
0.324603 0.189283 -0.252122 0.061138 -0.789345 -0.610898
0.049017 -0.173425 0.203401 -0.061068 -0.817630 -0.572497
1.232592 0.111964 0.040037 0.000004 0.926479 0.374781
-1.061076 0.066318 0.098695 -0.000002 0.590651 0.806231
1.553222 0.040692 -0.066224 1.000000 -0.000000 0.000000
1.344042 0.139827 -0.159986 -0.000000 0.790825 0.612043
-0.779492 0.116187 -0.025289 0.000080 0.968533 -0.246527
1.208068 -0.009733 0.118508 -0.000241 -0.130579 0.990682
1.251102 0.104954 -0.114926 0.000000 0.790825 0.612043
1.027777 -0.112919 0.145903 -0.160522 -0.892544 -0.421424
-1.515915 0.106216 0.043727 -0.213107 0.899305 0.379415
1.140075 0.030731 -0.114867 -0.000037 0.297138 -0.954222
-1.184835 0.000000 -0.118907 -0.000646 -0.020155 -0.999174
0.399589 0.090223 0.077452 0.000019 0.754126 0.655892
0.524331 0.011315 -0.118367 -0.000312 0.142504 -0.989125
-0.294959 -0.000000 0.118907 0.001082 -0.040044 0.998480
0.302321 0.359663 -0.447375 0.108032 0.786196 0.608461
0.666536 -0.035468 -0.113494 0.000026 -0.344787 -0.938065
-1.520321 0.102316 -0.050221 -0.182090 0.879206 -0.438146
0.228713 -0.157908 -0.221178 0.061138 0.789345 -0.610898
0.255174 0.389967 -0.510628 -0.034493 -0.773584 -0.632754
-0.189855 -0.094713 0.071891 -0.000010 -0.800007 0.599010
0.916002 0.039706 0.112082 -0.000057 0.293744 0.955274
0.801793 -0.066097 0.098844 -0.000517 -0.563865 0.825255
-1.082856 -0.116625 -0.023181 0.000175 -0.969720 -0.241866
0.246572 -0.280998 -0.376937 -0.034493 0.773584 -0.632754
0.287254 -0.144686 0.166927 0.108032 -0.786196 -0.608461
1.265088 -0.141015 0.202891 0.000000 0.790825 0.612043
-0.929849 0.115150 -0.029654 0.000470 0.964416 -0.262383
0.062851 0.215100 -0.261445 -0.061068 0.817630 0.572497
-1.144861 0.117701 0.016895 0.000414 0.988133 0.149929
1.421526 -0.205678 0.286444 -0.000000 0.790825 0.612043
-1.157913 -0.102292 -0.060623 0.000256 -0.835226 -0.548884
1.471268 0.267453 -0.350436 0.262292 -0.732569 -0.628128
0.892334 -0.118627 0.008153 0.000502 -0.994247 0.101758
0.374786 0.063503 -0.100530 -0.000029 0.566656 -0.823241
1.476133 0.106818 0.052237 0.128228 0.886726 0.433418
0.002868 -0.109834 -0.045557 -0.000113 -0.919983 -0.390473
-0.941732 -0.008564 -0.118598 -0.000456 -0.119458 -0.992248
1.349443 -0.079817 -0.123818 -0.000000 0.790825 -0.612043
0.298898 -0.067878 -0.097826 0.061138 0.789345 -0.610898
-1.467726 -0.104428 0.056866 0.000041 -0.897297 0.440116
1.382376 -0.117435 0.018654 -0.000292 -0.979469 0.198674
1.192114 0.114267 -0.032891 -0.000127 0.966948 -0.252883
0.711965 -0.113961 -0.033939 0.000046 -0.945863 -0.323071
-0.411243 -0.108958 -0.047614 0.000053 -0.906135 -0.421623
-0.881867 0.075802 0.091613 -0.000833 0.667439 0.743766
1.202157 0.146188 -0.168205 0.000000 0.790825 0.612043
0.934780 -0.037944 0.112690 -0.000524 -0.322408 0.945797
1.053004 -0.032767 0.114303 -0.000010 -0.276385 0.960439
0.804458 0.034201 0.113882 -0.000093 0.289355 0.956620
1.454021 0.174512 -0.246173 0.000000 -0.790825 -0.612043
0.180451 -0.118716 0.006744 -0.000117 -0.995642 0.087997
1.235961 -0.114622 0.031634 0.000037 -0.951172 0.306768
1.359094 0.082019 0.126662 -0.000000 -0.790825 0.612043
1.467865 -0.115375 -0.028764 -0.000028 -0.958500 -0.283078
0.245080 -0.393326 0.496546 -0.061068 -0.817630 -0.572497
-0.654141 0.115827 -0.026889 -0.000329 0.962959 -0.267348
0.238670 0.241369 -0.283225 0.108032 0.786196 0.608461
-0.106078 -0.136085 -0.166617 -0.061068 -0.817630 0.572497
-1.228773 0.037396 0.112873 0.000129 0.356042 0.933837
0.338000 0.462685 -0.604046 0.029272 -0.784736 -0.618696
-0.252185 0.103425 -0.058670 0.000372 0.886909 -0.461173
0.054366 -0.320887 0.415226 -0.034493 0.773584 0.632754
-0.954306 -0.112238 -0.039261 -0.000881 -0.956602 -0.290103
1.125159 -0.113386 0.125822 -0.000000 -0.790825 -0.612043
0.331386 -0.121352 -0.163669 0.061138 0.789345 -0.610898
1.553222 0.018055 0.074458 1.000000 -0.000000 0.000000
0.311724 0.115678 -0.027521 0.000292 0.961631 -0.272315
0.070693 0.067658 0.106528 -0.034493 -0.773584 0.632754
-0.788278 0.073666 -0.093339 0.000199 0.627106 -0.778208
-0.750205 -0.027027 0.115795 0.000044 -0.271365 0.961872
-0.681509 -0.090380 0.077268 -0.000332 -0.730855 0.681822
-0.177437 0.075449 -0.102526 -0.034493 -0.773584 -0.632754
0.243995 0.150942 -0.167330 0.108032 0.786196 0.608461
-0.868134 -0.108156 -0.049409 -0.000328 -0.918923 -0.392873
-1.637715 0.052210 0.017539 -0.646223 0.730406 0.212251
1.019147 0.086261 0.121866 -0.160522 -0.631810 0.758320
-0.433764 -0.031757 0.114588 0.000237 -0.311808 0.949523
-1.543919 -0.000000 0.107831 -0.277952 -0.024701 0.959518
0.724683 0.117933 0.015188 -0.000538 0.995854 0.085077
0.585943 -0.064998 -0.099570 -0.000443 -0.508850 -0.860226
0.110137 -0.301495 -0.394559 -0.034493 0.773584 -0.632754
1.277008 0.141741 0.203830 0.000000 -0.790825 0.612043
0.048918 0.151412 -0.171973 -0.061068 0.817630 0.572497
-1.484793 -0.099534 -0.065052 -0.030737 -0.810787 -0.583096
-0.564921 -0.000000 0.118907 0.001210 -0.043136 0.998516
0.149302 -0.319445 0.418639 -0.034493 0.773584 0.632754
0.378353 -0.425641 -0.552143 0.061138 0.789345 -0.610898
0.179840 0.387879 -0.503969 -0.034493 -0.773584 -0.632754
0.096821 0.147130 0.205112 -0.034493 -0.773584 0.632754
1.148960 -0.085614 -0.082517 -0.000769 -0.746749 -0.664185
-0.817874 -0.117898 0.015455 0.000255 -0.986198 0.162084
-0.339863 -0.096539 -0.069419 -0.000959 -0.782380 -0.621853
1.450435 0.038256 0.112585 -0.000028 0.321515 0.946297
1.284052 -0.231124 0.298637 -0.160522 -0.892544 -0.421424
-1.532905 -0.017938 -0.109537 -0.233883 -0.188952 -0.952754
0.341915 -0.498719 -0.636738 0.004783 -0.807359 0.587933
0.234983 -0.456499 0.587845 -0.061068 -0.817630 -0.572497
0.111756 -0.069328 -0.110807 -0.034493 0.773584 -0.632754
0.592013 0.118750 0.006114 -0.000824 0.996161 0.082202
-0.269175 0.006589 -0.118724 -0.001104 0.086063 -0.995777
1.428966 -0.051192 0.086831 -0.000000 0.790825 0.612043
0.116749 0.194875 0.264569 -0.034493 -0.773584 0.632754
-0.049804 0.058925 -0.103279 -0.000058 0.502952 -0.863674
-1.003420 0.116814 0.022210 -0.000376 0.981516 0.188290
0.004842 0.116281 -0.024854 0.000609 0.986687 -0.157334
0.482656 -0.009694 0.118511 0.000396 -0.088085 0.995670
-0.190525 -0.098201 -0.067049 -0.000019 -0.851677 -0.522949
0.182269 0.255224 0.341922 -0.034493 -0.773584 0.632754
0.400025 0.335908 0.434029 0.108032 0.786196 -0.608461
1.504408 0.196092 0.253372 0.262292 0.791785 -0.551615
-0.146196 0.122672 0.161962 -0.034493 -0.773584 0.632754
0.136829 -0.394251 0.509414 -0.061068 -0.817630 -0.572497
0.297338 0.129573 0.177700 0.061138 -0.789345 0.610898
0.400025 -0.433818 0.560539 0.108032 -0.786196 -0.608461
0.400025 0.268595 0.347054 0.108032 0.786196 -0.608461
1.415034 0.148510 0.171206 -0.000000 0.790825 -0.612043
0.330439 -0.480215 0.611535 -0.061068 -0.817630 -0.572497
1.504408 -0.196092 0.253372 0.262292 -0.791785 -0.551615
1.504408 -0.196092 -0.253372 0.262292 0.732569 -0.628128
0.969236 -0.081537 -0.086548 0.000291 -0.653047 -0.756661
0.867631 -0.083900 0.084259 0.000198 -0.706419 0.707064
-0.819407 -0.018783 0.117414 0.000150 -0.172675 0.984425
1.112622 0.094693 -0.143038 -0.000000 -0.790825 -0.612043
0.634911 -0.118907 -0.000000 -0.000617 -0.999343 -0.021861
1.209485 0.036000 -0.113326 -0.000092 0.344104 -0.938307
0.073983 -0.112842 -0.037490 -0.000021 -0.945857 -0.322794
-1.365582 -0.118421 -0.010739 0.000488 -0.991120 -0.128768
-1.279438 -0.098956 -0.065928 0.000184 -0.833706 -0.551164
0.020620 -0.235235 -0.308672 -0.034493 0.773584 -0.632754
0.016631 0.146828 0.200371 -0.034493 -0.773584 0.632754
-0.348947 -0.094761 0.071828 0.000018 -0.822077 0.568314
1.480905 0.274087 0.354150 0.262292 0.791785 -0.551615
-0.571575 -0.067591 -0.097828 0.000036 -0.548558 -0.835412
1.526103 0.124098 0.160347 0.262292 0.791785 -0.551615
1.526103 -0.124098 -0.160347 0.262292 0.732569 -0.628128
1.253278 -0.165141 -0.192695 0.000000 -0.790825 0.612043
-0.367933 0.113023 0.036941 -0.000052 0.950567 0.308720
0.221689 0.093944 0.089722 0.108032 0.786196 -0.608461
0.246238 -0.231089 0.271287 0.108032 -0.786196 -0.608461
-0.014947 0.202267 0.266428 -0.034493 -0.773584 0.632754
0.447034 0.113993 0.033831 -0.000098 0.956217 0.290689
0.234885 0.151932 0.212840 0.061138 -0.789345 0.610898
0.162715 -0.230840 -0.311044 -0.034493 0.773584 -0.632754
-0.139992 -0.058301 0.103633 0.000004 -0.484531 0.874115
0.840433 -0.110137 -0.044819 -0.001386 -0.909263 -0.414595
-0.131660 0.026565 -0.115902 -0.000285 0.269346 -0.962464
0.168820 0.147969 0.154266 -0.061068 0.817630 -0.572497
-1.272552 0.101622 0.061740 0.001067 0.830593 0.555925
0.675818 0.114460 -0.032213 -0.000086 0.951461 -0.305899
0.306154 0.048807 0.108428 -0.000029 0.449318 0.892744
0.242852 0.091637 -0.134134 0.061138 -0.789345 -0.610898
-1.416101 -0.093967 -0.072864 -0.000050 -0.790111 -0.612031
0.217211 0.317912 -0.391814 -0.061068 0.817630 0.572497
1.553222 -0.027055 -0.064518 1.000000 0.000000 0.000000
0.730204 -0.060140 -0.102577 0.000056 -0.527557 -0.848879
-0.535737 0.115373 0.028776 -0.000372 0.968818 0.245418
-0.952974 -0.009761 0.118506 0.000878 -0.105676 0.993731
0.260567 -0.211797 -0.248903 0.108032 -0.786196 0.608461
0.699361 -0.066913 0.098293 -0.000093 -0.530272 0.847146
1.408218 0.106767 0.052341 0.000070 0.878875 0.475866
1.054664 -0.104900 -0.055989 -0.000320 -0.898304 -0.438043
1.306934 0.085258 -0.082885 -0.000028 0.686273 -0.726550
0.350496 0.195627 0.257727 0.061138 -0.789345 0.610898
0.112118 -0.117609 0.017524 0.000210 -0.989593 0.138146
-0.566618 0.113619 -0.035064 0.000277 0.952801 -0.301731
0.143785 0.345487 0.439028 -0.061068 0.817630 -0.572497
-1.382342 0.117561 0.017839 -0.000142 0.986741 0.158978
0.034578 0.110865 -0.115594 -0.061068 0.817630 0.572497
-1.126370 0.090436 0.077203 0.000407 0.760313 0.648682
0.655477 -0.009622 0.118517 0.000079 -0.118416 0.992496
-1.367750 0.030547 0.114916 0.000146 0.258494 0.965507
-0.450691 -0.118626 0.008176 -0.000743 -0.994506 0.098046
0.305224 -0.316236 0.391778 0.108032 -0.786196 -0.608461
0.514928 -0.118907 -0.000000 0.000454 -0.998913 -0.028286
-1.642315 -0.026921 0.043225 -0.664784 -0.438152 0.601730
0.209712 -0.098749 -0.066238 -0.001019 -0.856378 -0.515013
1.348915 0.030968 -0.114804 -0.000045 0.300460 -0.953222
1.147906 -0.168328 0.217497 -0.160522 -0.892544 -0.421424
-1.057350 0.066224 -0.098758 -0.000080 0.590593 -0.806209
0.117744 -0.241626 0.321780 -0.034493 0.773584 0.632754
-1.384766 -0.040951 -0.111633 0.000684 -0.382300 -0.923439
0.145739 -0.089039 0.136758 -0.034493 0.773584 0.632754
0.990582 -0.056065 0.083060 -0.000000 0.612043 -0.790825
0.293754 0.225919 0.273043 0.108032 0.786196 -0.608461
-1.151259 -0.054839 -0.105506 -0.000322 -0.441609 -0.896620
0.108023 -0.227911 -0.274923 -0.061068 -0.817630 0.572497
0.301526 0.025507 -0.116139 -0.000026 0.200722 -0.978919
1.093523 0.107003 0.051857 -0.000818 0.877858 0.477508
0.760731 -0.118005 0.014617 0.000320 -0.985737 0.164840
1.295214 -0.084947 0.130446 0.000000 0.790825 0.612043
0.232243 0.461324 -0.595029 -0.061068 0.817630 0.572497
-1.567650 0.071751 0.068412 -0.366114 0.690402 0.622443
0.752791 0.065638 -0.099149 -0.000012 0.589937 -0.806728
0.124983 0.118907 -0.000000 -0.000405 0.998868 -0.028317
1.079083 -0.091511 -0.138927 -0.053999 0.742173 -0.664996
1.119771 0.123680 0.139123 -0.000000 0.790825 -0.612043
1.284052 -0.231124 -0.298637 -0.160522 0.631810 -0.758320
1.494898 -0.083290 0.086935 0.088234 -0.795988 -0.595462
0.314067 -0.074048 0.093050 -0.000000 0.612043 -0.790825
-1.459013 0.097008 -0.068762 0.000056 0.790003 -0.612156
1.420277 -0.154617 0.179096 -0.000000 -0.790825 -0.612043
0.529974 0.040138 0.111928 -0.000313 0.377149 0.925525
1.332586 -0.099837 -0.064586 -0.000175 -0.861532 -0.506567
1.398277 0.231181 0.319396 -0.000000 -0.790825 0.612043
0.204231 -0.387275 -0.492261 -0.061068 -0.817630 0.572497
1.347761 0.240916 -0.295108 -0.160522 0.892544 0.421424
1.319642 0.051192 0.086831 0.000000 -0.612043 -0.790825
-0.082157 0.136053 0.164020 -0.061068 0.817630 -0.572497
-1.335849 0.093722 0.073178 0.000322 0.763064 0.645536
-1.316674 -0.036651 -0.113117 -0.000019 -0.312760 -0.949220
-0.355583 0.023814 0.116498 -0.000056 0.238089 0.970621
1.433103 0.238462 -0.287434 -0.000000 0.790825 0.612043
0.993598 0.045339 -0.109924 -0.000028 0.423593 -0.905213
0.083635 0.287728 -0.376283 -0.034493 -0.773584 -0.632754
0.083648 0.063471 -0.100550 -0.000141 0.490980 -0.870396
1.230499 0.090765 0.137963 -0.000000 -0.790825 0.612043
-0.025098 -0.118013 0.014551 0.000133 -0.985398 0.167059
0.384946 -0.118907 -0.000000 0.001070 -0.996623 -0.069442
-0.136308 -0.115705 -0.027409 0.000030 -0.966707 -0.253681
1.416552 0.048148 -0.108723 0.000199 0.405354 -0.913561
-0.879823 0.118561 0.009065 0.000294 0.991120 0.127152
0.034542 0.255643 -0.322368 -0.061068 0.817630 0.572497
-0.661226 0.103515 0.058512 0.000005 0.867572 0.496130
0.380609 0.496680 0.638316 0.108032 0.786196 -0.608461
-0.264871 0.096904 0.068910 -0.000062 0.813287 0.581088
1.182389 -0.159185 -0.184999 -0.053999 -0.829883 0.551666
0.323840 -0.414851 -0.522506 0.108032 -0.786196 0.608461
0.138942 -0.125611 -0.125522 -0.061068 -0.817630 0.572497
0.177554 -0.020753 -0.117082 -0.000157 -0.193090 -0.980551
0.359972 -0.289402 0.366827 0.108032 -0.786196 -0.608461
0.367870 0.425367 0.543910 0.108032 0.786196 -0.608461
0.263306 -0.027584 0.115663 -0.000222 -0.268209 0.962797
1.470592 -0.128190 0.144949 -0.000000 -0.790825 -0.612043
-1.278650 -0.006043 0.118753 0.000557 -0.077636 0.996592
0.058208 -0.007752 -0.118654 -0.001431 -0.098353 -0.994630
0.408167 -0.104430 0.056862 -0.000285 -0.897857 0.438832
-1.054922 -0.031898 -0.114549 0.000084 -0.299373 -0.953546
-0.167884 -0.103787 0.137692 -0.034493 0.773584 0.632754
-0.951017 -0.112446 0.038663 -0.000362 -0.951145 0.307158
-1.021195 -0.106074 -0.053733 -0.000064 -0.880422 -0.472993
0.112453 -0.165227 -0.184926 -0.061068 -0.817630 0.572497
-0.431416 0.116559 -0.023513 -0.000019 0.969561 -0.242324
0.749609 -0.093802 0.073076 -0.000578 -0.785434 0.618007
1.469405 -0.278531 0.355060 0.262292 -0.791785 -0.551615
-0.163272 0.084932 0.114892 -0.034493 -0.773584 0.632754
0.335304 0.465387 0.589838 -0.004641 0.809227 -0.586013
0.037155 -0.087813 0.082397 -0.061068 -0.817630 -0.572497
-1.230687 0.050631 -0.107589 0.000307 0.385452 -0.922140
1.149942 0.024611 0.116332 0.000413 0.213135 0.976360
0.199986 -0.111330 0.108333 0.108032 -0.786196 -0.608461
0.089602 0.340864 -0.438205 -0.061068 0.817630 0.572497
0.156024 0.256548 -0.310702 -0.061068 0.817630 0.572497
-0.160854 0.138520 -0.175938 -0.061068 0.817630 0.572497
1.244936 -0.023330 -0.116596 0.000312 -0.180627 -0.982998
0.339487 -0.241473 0.318067 0.061138 0.789345 0.610898
0.213862 0.290901 0.387261 -0.034493 -0.773584 0.632754
1.212388 -0.094717 -0.101700 0.000000 -0.790825 0.612043
0.284739 0.108053 0.119147 0.108032 0.786196 -0.608461
0.400025 -0.127850 0.165196 0.108032 -0.786196 -0.608461
0.164446 0.343453 -0.448816 -0.034493 -0.773584 -0.632754
0.308597 -0.180412 0.216878 0.108032 -0.786196 -0.608461
0.215814 -0.328569 -0.407183 -0.061068 -0.817630 0.572497
0.323716 -0.118560 -0.009081 -0.000968 -0.991522 -0.125092
-0.048215 0.076736 0.090832 -0.000058 0.647265 0.761481
-1.458868 0.096674 0.069231 0.000039 0.836479 0.546955
1.192078 0.169964 0.228211 -0.160522 -0.631810 0.758320
0.663877 0.027193 -0.115756 0.000124 0.233248 -0.971816
1.190441 0.071216 0.071334 0.000000 -0.612043 -0.790825
-1.025217 -0.074786 0.092444 -0.000326 -0.590280 0.806515
0.356166 0.313369 -0.409295 0.061138 -0.789345 -0.610898
1.186926 -0.075256 0.117924 -0.000000 0.790825 0.612043
-0.096005 0.188473 0.245145 -0.034493 -0.773584 0.632754
0.563888 0.056193 -0.104791 0.000134 0.475568 -0.879016
1.054099 -0.118245 0.012528 -0.000104 -0.993483 0.108803
0.421985 -0.097627 -0.067881 -0.000071 -0.811969 -0.582713
0.920839 0.093859 -0.073003 0.000209 0.765992 -0.642137
-1.580027 0.073426 -0.057908 -0.422369 0.691480 -0.584739
-0.767994 0.095087 0.071395 -0.000009 0.775543 0.630370
0.857293 -0.073860 -0.093186 -0.000147 -0.585164 -0.810198
-1.167712 -0.090421 0.077220 -0.000469 -0.786586 0.616456
-0.007699 -0.019568 -0.117286 -0.000355 -0.195310 -0.980092
0.342195 0.272452 -0.357824 0.061138 -0.789345 -0.610898
0.382128 -0.146683 -0.186352 0.108032 -0.786196 0.608461
1.323570 -0.025152 -0.116216 0.000164 -0.252929 -0.966898
-1.646315 -0.016031 -0.044332 -0.710286 -0.180775 -0.677953
1.105780 -0.101744 0.061539 0.000067 -0.855379 0.516875
1.445797 -0.173583 -0.244973 0.000000 0.790825 -0.612043
0.285031 -0.259590 -0.315001 0.108032 -0.786196 0.608461
1.051642 0.097847 -0.067564 -0.000066 0.848982 -0.527308
0.266426 0.274211 -0.330589 0.108032 0.786196 0.608461
0.373159 0.106890 -0.052090 -0.000938 0.876775 -0.479596
1.264724 -0.109197 -0.047063 0.000056 -0.917254 -0.396895
-0.126864 0.100324 -0.063827 -0.000170 0.870026 -0.491506
1.420198 0.293921 -0.379777 -0.160522 0.892544 0.421424
1.236001 -0.208961 -0.269999 -0.160522 0.631810 -0.758320
1.003752 0.101837 -0.131585 -0.160522 0.892544 0.421424
0.020964 0.101344 0.103449 -0.061068 0.817630 -0.572497
1.251906 -0.125246 0.141146 0.000000 -0.790825 -0.612043
1.379634 -0.150687 -0.174018 0.000000 -0.790825 0.612043
0.129547 0.090876 0.076684 -0.000325 0.770587 0.636387
-1.424720 -0.076840 0.090744 0.000046 -0.612812 0.789509
1.329248 -0.149887 0.214355 0.000000 0.790825 0.612043
-0.123856 -0.166105 0.216280 -0.034493 0.773584 0.632754
0.400025 0.115612 0.149382 0.108032 0.786196 -0.608461
0.400025 -0.286953 -0.370774 0.061138 0.789345 -0.610898
-0.237651 0.055741 -0.105032 0.000146 0.459179 -0.887680
0.343315 0.102311 0.060592 0.000067 0.855460 0.516768
-0.079863 0.030847 0.114836 0.000052 0.296186 0.954557
-0.358722 0.080511 -0.087504 -0.000113 0.641745 -0.766156
0.993811 -0.112527 0.038425 0.000213 -0.931318 0.362689
-1.274787 0.113786 -0.034518 -0.000329 0.943554 -0.329532
1.480905 -0.274087 -0.354150 0.262292 0.732569 -0.628128
1.331798 -0.182019 -0.214502 0.000000 -0.790825 0.612043
-0.296342 -0.057788 0.103920 -0.000004 -0.451539 0.891602
0.129643 0.153085 -0.165752 -0.061068 0.817630 0.572497
0.512377 0.090158 0.077526 0.000125 0.757038 0.652421
1.286923 -0.102554 0.060180 -0.000067 -0.840037 0.541433
0.048563 -0.288328 -0.367553 -0.061068 -0.817630 0.572497
1.500307 0.129229 -0.155446 0.262292 0.791785 0.551615
-0.578058 0.091772 0.075609 0.000006 0.793394 0.607772
1.365008 0.150595 -0.215269 -0.000000 -0.790825 -0.612043
1.416792 0.099698 -0.064801 0.000048 0.860201 -0.508828
0.622924 0.063517 0.100521 0.000041 0.533902 0.844857
0.066157 -0.123462 0.174504 -0.034493 0.773584 0.632754
0.140610 0.074625 -0.118857 -0.034493 -0.773584 -0.632754
1.392317 0.105874 -0.157485 -0.000000 -0.790825 -0.612043
1.299817 0.098030 -0.147350 -0.000000 -0.790825 -0.612043
-0.484380 -0.102815 0.059733 -0.000111 -0.845496 0.532901
0.240757 0.206092 0.238015 0.108032 0.786196 -0.608461
1.359668 -0.087769 0.134092 -0.000000 0.790825 0.612043
0.027454 -0.119940 -0.129316 -0.061068 -0.817630 0.572497
1.437780 -0.193608 0.229477 -0.000000 -0.790825 -0.612043
-1.007364 0.092094 0.075217 0.000110 0.798257 0.601360
0.480499 -0.101411 -0.062087 0.000296 -0.843378 -0.536245
1.230195 0.071216 -0.071334 -0.000000 0.790825 0.612043
0.547222 0.114696 -0.031364 0.000002 0.964706 -0.261103
1.472442 -0.122140 -0.137133 0.000000 -0.790825 0.612043
-0.991303 0.071419 -0.095069 -0.000559 0.634548 -0.772027
1.287092 -0.098603 -0.148090 0.000000 0.790825 -0.612043
0.812171 0.107646 -0.050509 0.000053 0.907269 -0.419071
-0.036397 -0.162791 -0.216995 -0.034493 0.773584 -0.632754
1.487621 0.087415 0.133634 0.175664 -0.756650 0.626562
0.048353 -0.147914 -0.203427 -0.034493 0.773584 -0.632754
0.400025 0.378744 -0.489377 0.108032 0.786196 0.608461
0.248965 0.428574 0.557489 -0.034493 -0.773584 0.632754
0.794043 0.018413 -0.117473 -0.000417 0.187988 -0.981525
-0.714316 0.051677 -0.107090 -0.000362 0.436841 -0.898796
-1.121954 0.070493 -0.095758 -0.000032 0.561296 -0.826990
0.213229 -0.117453 -0.170457 0.061138 0.789345 -0.610898
0.374127 -0.074311 0.092826 -0.000134 -0.627458 0.777915
0.143890 0.031213 0.114737 -0.000042 0.301684 0.952819
-0.314936 0.105165 -0.055491 0.000074 0.878754 -0.476064
0.121391 0.221093 -0.263759 -0.061068 0.817630 0.572497
-0.838023 0.043272 0.110754 -0.000031 0.399201 0.916222
0.380696 -0.067737 -0.097727 -0.000150 -0.607821 -0.793349
0.236363 -0.257957 0.348211 -0.034493 0.773584 0.632754
1.384243 0.061204 0.079082 0.000000 -0.612043 -0.790825
0.579144 -0.086227 0.081877 -0.000687 -0.727549 0.685246
-0.087166 -0.083736 -0.084422 -0.000218 -0.735247 -0.677037
1.051692 -0.012852 -0.118210 -0.001065 -0.127445 -0.990995
1.294317 0.117435 0.018654 -0.000444 0.988280 0.146809
1.169588 -0.092445 -0.140134 0.000000 0.790825 -0.612043
1.400658 -0.066426 -0.098623 0.000378 -0.556804 -0.830012
1.164838 -0.118907 -0.000000 0.001285 -0.998268 -0.047223
0.379178 -0.217428 -0.277238 0.108032 -0.786196 0.608461
0.370393 -0.363536 0.464466 0.108032 -0.786196 -0.608461
0.342038 0.427898 -0.558693 0.061138 -0.789345 -0.610898
0.319460 -0.336850 0.443309 0.061138 0.789345 0.610898
0.109129 -0.164307 0.226782 -0.034493 0.773584 0.632754
-0.250254 -0.117964 0.014947 -0.000237 -0.985849 0.164139
0.642071 -0.105395 0.055052 -0.000349 -0.868313 0.494944
-0.005366 0.087162 -0.080881 -0.000299 0.727699 -0.685152
0.889091 0.117342 0.019225 -0.000826 0.989010 0.142130
1.036884 0.100274 0.063907 -0.001057 0.815657 0.577223
0.786480 -0.052130 -0.106871 -0.000121 -0.435619 -0.899491
1.365826 -0.212818 0.254299 0.000000 -0.790825 -0.612043
0.743988 0.038952 0.112346 0.000043 0.327013 0.944388
1.553222 0.077073 0.048460 1.000000 -0.000000 -0.000000
1.123880 -0.157246 -0.203178 -0.160522 0.631810 -0.758320
1.268347 0.188059 -0.259432 -0.160522 -0.631810 -0.758320
-1.150723 0.112278 -0.039146 0.000054 0.927935 -0.371197
-0.004347 -0.156124 0.210592 -0.034493 0.773584 0.632754
1.424428 -0.257071 0.311478 -0.000000 -0.790825 -0.612043
-0.045128 0.194838 -0.255699 -0.034493 -0.773584 -0.632754
0.158769 -0.230434 0.273114 -0.061068 -0.817630 -0.572497
1.024137 -0.064250 -0.100054 0.000157 -0.575044 -0.817465
0.471082 0.117210 -0.020018 0.000301 0.977868 -0.206333
-1.573246 -0.094476 -0.020584 -0.433979 -0.883663 -0.168042
1.431760 -0.137700 -0.198609 -0.000000 0.790825 -0.612043
-1.329838 -0.097406 0.068198 0.000419 -0.841921 0.538563
0.278672 0.347102 0.426946 -0.004641 0.809227 -0.586013
0.089892 -0.098641 0.066399 -0.000182 -0.826149 0.562470
-1.231924 0.098098 -0.067199 -0.000605 0.801896 -0.596422
1.507942 0.029942 0.105306 0.377408 0.257970 0.888741
0.819630 0.100390 0.063723 0.000238 0.864596 0.501157
-0.180145 -0.055674 -0.105068 -0.000765 -0.442168 -0.896486
-0.926706 0.047285 0.109101 0.000048 0.360638 0.932083
0.165878 -0.280758 0.344227 -0.061068 -0.817630 -0.572497
1.160212 0.122438 0.178888 -0.000000 -0.790825 0.612043
-1.053078 0.117952 -0.015039 0.000233 0.984860 -0.170220
1.075829 -0.135082 -0.174541 -0.160522 0.631810 -0.758320
0.339089 0.155683 0.207257 0.061138 -0.789345 0.610898
1.122447 -0.027379 -0.115712 -0.000023 -0.274098 -0.961096
1.465147 0.137204 -0.197967 0.000000 -0.790825 -0.612043
1.135220 0.085894 0.082226 -0.000068 0.719371 0.693790
1.512074 -0.091607 -0.056820 0.377134 -0.766641 -0.518746
0.699169 0.096885 0.068936 0.000242 0.789404 0.612873
0.250588 -0.426607 0.543491 -0.061068 -0.817630 -0.572497
0.118101 0.132374 0.137404 -0.061068 0.817630 -0.572497
1.277893 0.222543 0.282809 -0.160522 0.892544 -0.421424
-0.211857 0.118729 0.006499 0.000032 0.995304 0.092048
1.105963 0.061204 -0.079082 -0.000000 -0.612043 0.790825
1.216076 -0.164821 0.192281 -0.000000 -0.790825 -0.612043
1.151358 0.119013 -0.174463 -0.000000 -0.790825 -0.612043
0.367521 0.148685 -0.186346 0.108032 0.786196 0.608461
0.204216 -0.415991 -0.539666 -0.034493 0.773584 -0.632754
0.172573 -0.159954 -0.224919 -0.034493 0.773584 -0.632754
1.448936 0.199752 0.237416 0.000000 0.790825 -0.612043
-0.485484 0.089567 -0.078208 0.000043 0.750775 -0.659676
-0.120349 -0.032367 -0.114417 -0.000128 -0.294844 -0.954938
0.858722 0.028953 -0.115328 -0.000009 0.253470 -0.966744
-0.054992 0.118907 -0.000000 0.001108 0.999022 -0.022550
1.072357 -0.082691 0.127530 -0.000000 0.790825 0.612043
-0.284854 -0.079999 -0.087972 -0.000059 -0.636011 -0.770922
-0.460442 0.082117 0.085998 -0.000096 0.663415 0.747702
1.484793 0.112478 -0.038570 0.128176 0.946317 -0.280479
0.345635 0.393280 0.498502 0.108032 0.786196 -0.608461
-0.039945 -0.092399 0.130744 -0.034493 0.773584 0.632754
-0.676946 -0.030686 -0.114879 -0.000009 -0.304932 -0.951736
0.624771 0.062866 -0.100930 -0.000150 0.490804 -0.870620
0.156921 0.273565 -0.362963 -0.034493 -0.773584 -0.632754
0.117044 -0.053608 0.106137 -0.000387 -0.488284 0.872012
0.583279 -0.036868 0.113047 -0.000100 -0.347646 0.937012
-0.622685 -0.021106 -0.117019 0.000023 -0.223345 -0.974085
-1.466920 0.008828 -0.118579 -0.001875 0.120699 -0.992058
0.261811 0.318605 -0.423745 -0.034493 -0.773584 -0.632754
-0.180770 -0.108768 -0.135571 -0.061068 -0.817630 0.572497
-0.607521 0.042227 -0.111156 0.000038 0.396913 -0.917267
0.349428 -0.335477 -0.438536 0.061138 0.789345 -0.610898
-0.731187 -0.114287 -0.032822 0.001071 -0.966954 -0.252537
-0.810202 0.022882 -0.116685 -0.000752 0.233085 -0.971782
-0.582819 -0.100009 0.064320 0.000004 -0.815379 0.577934
-0.891501 -0.033679 -0.114038 0.001331 -0.318867 -0.947402
0.053795 -0.194346 0.260490 -0.034493 0.773584 0.632754
0.349967 -0.413706 0.525664 0.108032 -0.786196 -0.608461
-0.383787 0.086254 0.081849 0.000085 0.749520 0.661108
1.356082 -0.033750 0.114017 0.000044 -0.323485 0.945620
1.289065 0.095908 0.070289 0.000100 0.806239 0.590668
-0.731173 -0.073168 0.093730 -0.000038 -0.650511 0.758727
0.243150 -0.071670 -0.108305 0.061138 0.789345 -0.610898
-0.153050 0.118428 0.010660 -0.000106 0.990558 0.132784
0.404944 0.000000 -0.118907 0.000574 -0.046583 -0.998112
0.097557 0.314103 0.409287 -0.034493 -0.773584 0.632754
0.260740 -0.437551 -0.569106 -0.034493 0.773584 -0.632754
0.266614 -0.135855 -0.188890 0.061138 0.789345 -0.610898
1.089252 0.008305 0.118617 0.000398 0.121360 0.991983
-0.027643 0.241303 0.308521 -0.061068 0.817630 -0.572497
0.940526 -0.117680 -0.017037 0.000020 -0.989948 -0.137024
0.238220 0.117103 0.020632 -0.000595 0.984747 0.170680
0.058409 -0.283269 0.369456 -0.034493 0.773584 0.632754
-1.174836 -0.000000 0.118907 -0.000329 -0.020929 0.999157
0.278702 0.204679 -0.276609 0.061138 -0.789345 -0.610898
-1.003158 -0.030052 0.115047 0.000178 -0.225490 0.973602
0.200299 -0.337646 0.421802 -0.061068 -0.817630 -0.572497
1.398918 -0.094071 0.072730 -0.000150 -0.764194 0.644084
-0.233213 -0.071683 0.094881 -0.034493 0.773584 0.632754
-0.082157 0.136053 -0.164020 -0.061068 0.817630 0.572497
0.347313 0.105839 -0.142031 0.061138 -0.789345 -0.610898
-1.603332 -0.048697 -0.064281 -0.524930 -0.572617 -0.627088
1.364936 0.220886 0.264723 0.000000 0.790825 -0.612043
0.476425 -0.013647 -0.118121 0.000181 -0.123157 -0.991730
1.372166 -0.124463 0.181505 -0.000000 0.790825 0.612043
0.179307 0.124450 -0.181880 -0.034493 -0.773584 -0.632754
0.173509 -0.172363 0.188605 -0.061068 -0.817630 -0.572497
1.468245 0.133976 0.152426 0.000000 0.790825 -0.612043
0.228108 0.087550 -0.082600 0.108032 0.786196 0.608461
1.343256 -0.190152 -0.266382 0.000000 0.790825 -0.612043
0.112897 0.272822 0.359654 -0.034493 -0.773584 0.632754
0.347317 -0.186846 -0.246700 0.061138 0.789345 -0.610898
-1.520782 -0.096949 0.059744 -0.187900 -0.829702 0.523682
-0.325648 0.015194 -0.117932 -0.001136 0.116436 -0.992601
-0.233966 -0.036270 -0.113240 0.000020 -0.327549 -0.944213
0.051872 -0.206956 -0.275802 -0.034493 0.773584 -0.632754
-0.621807 -0.006294 0.118740 -0.001356 -0.090022 0.995490
1.240220 0.171590 -0.201027 0.000000 0.790825 0.612043
-0.055796 -0.210836 0.268011 -0.061068 -0.817630 -0.572497
-0.454427 -0.019972 -0.117218 -0.000047 -0.191770 -0.980799
0.288392 0.268420 0.357999 0.061138 -0.789345 0.610898
0.259795 -0.288830 0.387233 -0.002605 0.779482 0.625981
1.246783 0.183661 0.216625 -0.000000 0.790825 -0.612043
-1.324306 0.106409 -0.053065 0.000057 0.895777 -0.443355
0.347188 0.341521 0.431900 0.108032 0.786196 -0.608461
-0.051398 -0.135915 -0.160541 -0.061068 -0.817630 0.572497
-0.664086 0.078133 -0.089633 0.000237 0.627274 -0.778194
-1.631740 0.046317 -0.038431 -0.653455 0.605060 -0.450695
-0.053611 -0.202811 -0.264985 -0.034493 0.773584 -0.632754
1.382201 0.173990 0.204128 -0.000000 0.790825 -0.612043
-1.340950 0.068089 -0.097482 0.000079 0.540387 -0.840679
-0.845262 0.060933 -0.102108 -0.001187 0.532053 -0.845903
1.508552 -0.101902 0.039340 0.377163 -0.848061 0.370771
0.032553 0.116882 0.021850 0.000946 0.973593 0.225714
-0.144730 -0.173537 -0.224228 -0.061068 -0.817630 0.572497
0.282191 0.459033 0.586429 -0.061068 0.817630 -0.572497
-0.830846 0.118418 -0.010777 -0.001112 0.994428 -0.101099
0.038896 0.317481 0.410219 -0.061068 0.817630 -0.572497
0.217324 -0.060688 0.102254 0.000193 -0.547602 0.836023
-0.844919 -0.102646 0.060023 -0.000168 -0.869378 0.492941
1.356129 -0.264369 -0.341593 -0.160522 0.631810 -0.758320
1.150603 -0.144523 0.166054 -0.107506 -0.863789 -0.488126
-0.530815 -0.092234 -0.075045 -0.000005 -0.804908 -0.592408
-1.581857 -0.030323 0.087509 -0.446668 -0.229373 0.863523
0.154999 -0.370135 -0.473034 -0.061068 -0.817630 0.572497
0.186724 0.117653 -0.017223 0.000317 0.989123 -0.142720
-0.135677 0.098866 0.066064 -0.000021 0.832608 0.552829
0.856005 0.043825 0.110536 0.000045 0.370339 0.928272
-0.324955 0.118907 -0.000000 -0.000626 0.999318 -0.020452
0.205860 0.168930 -0.237707 0.029272 -0.784736 -0.618696
-0.456396 -0.085759 -0.082367 -0.000033 -0.703224 -0.710152
