1.564564 0.545902 0.449179 -0.000000 0.369696 -0.000045
0.800408 0.587295 0.482491 0.000000 0.823528 -0.000025
0.636660 0.474837 0.621066 -0.000001 -0.361236 0.000006
1.534453 0.623062 0.630753 -0.053252 0.009842 -0.008443
1.673729 0.464571 0.616003 -0.000001 -0.494730 0.000016
1.127903 0.460117 0.457252 0.000000 -0.543835 -0.000055
1.509981 0.468623 0.452349 0.000000 -0.446458 -0.000071
2.547050 0.598513 0.504552 0.000000 0.948418 -0.000012
3.311205 0.430156 0.488830 0.000000 -0.868263 -0.000020
3.233296 0.643297 0.674474 0.034454 0.022457 -0.020469
2.710797 0.548863 0.620094 -0.000001 0.417239 0.000019
3.529536 0.588634 0.484488 -0.000000 0.839094 -0.000012
1.237069 0.540092 0.447032 0.000000 0.317017 -0.000053
0.418330 0.593430 0.492728 0.000000 0.894758 -0.000018
0.582078 0.434714 0.588854 0.000000 -0.823401 0.000003
3.272761 0.408307 0.648602 0.034451 -0.029933 -0.024592
3.157268 0.405417 0.424689 0.034451 -0.029933 0.024592
3.785587 0.503795 0.463408 0.220247 -0.000022 -0.000193
0.714132 0.417739 0.534128 0.000000 -0.999903 -0.000000
3.430935 0.508853 0.442291 0.000000 -0.014253 -0.000040
3.038293 0.599624 0.507962 0.000000 0.956957 -0.000005
0.309165 0.590537 0.487529 0.000001 0.853724 -0.000011
2.983710 0.600015 0.561290 -0.000001 0.956464 0.000005
3.638701 0.597617 0.502102 0.000000 0.939152 -0.000002
3.147458 0.456250 0.610640 0.000000 -0.590033 0.000049
0.854991 0.457982 0.611860 0.000000 -0.567020 0.000026
1.189529 0.512357 0.442311 0.000000 0.028153 -0.000010
1.237069 0.533403 0.625461 0.000000 0.236165 0.000018
1.653436 0.287965 0.322856 0.072191 -0.003328 0.003166
1.567265 0.360588 0.399113 -0.053253 -0.009842 0.008443
3.365788 0.420671 0.558500 0.000000 -0.971713 0.000002
0.182426 0.521087 0.627211 -0.044412 0.000143 0.001016
3.714810 0.815941 0.214781 0.034451 0.018719 0.017893
3.714810 0.205514 0.214781 0.034452 -0.018718 0.017893
3.489533 0.711094 0.742048 0.034450 -0.021249 0.015072
3.489533 0.313972 0.745488 0.034452 -0.018718 -0.017893
3.584118 0.601673 0.554690 0.000000 0.977949 0.000008
1.765158 0.744363 0.282735 0.053302 -0.018488 -0.016637
3.365788 0.600763 0.558579 0.000000 0.964764 0.000001
1.400816 0.461246 0.456520 0.000000 -0.544024 -0.000007
1.073321 0.592435 0.490857 -0.000001 0.840754 -0.000001
0.254583 0.418849 0.520899 0.000000 -0.988104 -0.000011
1.718607 0.681758 0.700203 0.072190 0.008192 -0.007752
1.546829 0.370197 0.662069 -0.053251 -0.009842 -0.008444
1.300948 0.416697 0.637609 -0.039313 0.012945 0.012490
1.400816 0.590664 0.582802 0.000000 0.854153 0.000011
3.723647 0.719514 0.749081 -0.074600 -0.014578 0.013530
3.723647 0.301941 0.749081 -0.074600 0.014578 0.013530
3.768366 0.792821 0.239058 -0.074600 -0.009720 -0.009114
3.768366 0.228634 0.239058 -0.074599 -0.009654 0.009184
3.243887 0.618204 0.426753 0.034451 -0.033977 -0.020171
3.420371 0.561303 0.613310 -0.000000 0.543600 0.000014
3.311205 0.551081 0.619064 0.000000 0.446482 0.000036
2.929128 0.475136 0.449344 -0.000000 -0.395555 -0.000041
1.807054 0.300680 0.759792 0.053303 0.010170 0.009514
2.601632 0.562935 0.458309 -0.000000 0.567122 -0.000052
1.509981 0.600269 0.510152 -0.000000 0.964731 -0.000005
2.601632 0.460972 0.456698 0.000000 -0.543842 -0.000055
1.782894 0.543895 0.448380 0.000000 0.369562 -0.000022
3.489039 0.515290 0.628146 -0.000000 0.027787 0.000041
1.477463 0.380438 0.414582 -0.053252 -0.019679 0.016107
3.147458 0.421428 0.509289 -0.000001 -0.909532 -0.000001
1.737228 0.884448 0.133478 0.053303 -0.012481 -0.011574
1.892059 0.466314 0.453562 -0.000001 -0.471257 -0.000067
1.319749 0.396613 0.420330 -0.053252 -0.010270 0.008798
1.811709 0.923496 0.963810 0.072191 0.007851 -0.007433
1.811709 0.097959 0.106729 0.072191 -0.007851 0.007433
1.728311 0.554421 0.617361 -0.000000 0.471139 0.000017
3.360011 0.332725 0.348359 0.034451 -0.011001 0.011398
3.092875 0.538113 0.624143 -0.000000 0.290278 0.000059
2.110389 0.430500 0.488229 -0.000000 -0.868280 -0.000010
3.567780 0.282306 0.771507 0.034453 0.012486 0.009781
3.567780 0.739149 0.771507 0.034453 -0.012486 0.009781
1.557443 0.145533 0.151798 -0.053252 -0.016430 0.013698
1.073321 0.423838 0.502102 0.000000 -0.939152 -0.000002
2.819963 0.461803 0.456181 -0.000000 -0.519524 -0.000007
1.811709 0.774769 0.807640 0.072190 0.005974 -0.005670
0.724697 0.603632 0.538855 0.000000 0.999604 0.000000
3.711177 0.368644 0.691696 -0.074601 -0.009950 -0.009460
3.752014 0.471155 0.573206 0.146540 -0.000788 0.000827
0.363748 0.462360 0.614697 0.000000 -0.520063 0.000029
0.472913 0.590894 0.582417 0.000000 0.868097 0.000003
0.037093 0.544377 0.521331 -0.611578 0.000022 -0.000008
1.564564 0.527870 0.626672 0.000000 0.181327 0.000097
3.519081 0.615461 0.630781 0.000001 -0.724153 0.000847
3.038293 0.427370 0.576498 0.000000 -0.873910 0.000001
3.600762 0.411183 0.445208 0.000001 0.724153 -0.000623
2.328720 0.427679 0.577118 0.000000 -0.894529 0.000004
2.710797 0.461109 0.456609 0.000000 -0.543612 -0.000014
2.219554 0.594522 0.494916 0.000000 0.906994 -0.000008
0.418330 0.499182 0.442993 0.000000 -0.125942 -0.000140
2.001224 0.463474 0.615376 0.000000 -0.519808 0.000007
3.092875 0.427843 0.577447 -0.000000 -0.894708 0.000009
1.455399 0.428809 0.491252 -0.000000 -0.881732 -0.000005
0.819776 0.417816 0.531929 -0.000000 -0.999604 -0.000000
0.909573 0.590473 0.583115 0.000001 0.852309 0.000011
3.529536 0.480512 0.447316 0.000000 -0.316848 -0.000027
2.601632 0.510564 0.628270 0.000000 -0.027787 0.000165
0.363748 0.554961 0.453466 0.000000 0.471388 -0.000067
1.858260 0.244924 0.814375 0.053302 0.014792 0.013575
1.564564 0.422321 0.506408 0.000000 -0.948427 -0.000003
1.404353 0.691905 0.729118 -0.039315 -0.024799 0.021313
1.346234 0.603641 0.538529 -0.000000 0.999604 0.000000
1.619146 0.492904 0.443993 0.000000 -0.181330 -0.000097
1.642771 0.866622 0.169381 -0.053251 0.008217 0.007084
1.681367 0.771374 0.822652 0.053302 -0.016178 0.014745
0.037093 0.491350 0.504430 -0.611577 -0.000013 -0.000019
1.623970 0.177461 0.890980 -0.039314 0.011004 0.010764
1.127903 0.418980 0.550486 -0.000001 -0.987572 0.000003
3.393142 0.393071 0.647967 0.034452 0.012487 0.009782
0.854991 0.464465 0.454597 -0.000000 -0.495985 -0.000031
1.892059 0.602174 0.518368 0.000000 0.983179 -0.000001
3.585819 0.629772 0.645808 0.000000 -0.724154 0.000623
3.711744 0.427658 0.566774 0.223018 -0.000205 0.000068
1.018738 0.559060 0.455821 0.000000 0.520053 -0.000058
3.311205 0.476007 0.621541 -0.000001 -0.369625 0.000089
3.613439 0.241860 0.252946 0.034451 -0.014042 0.014144
3.613439 0.779595 0.252946 0.034450 0.014042 0.014144
3.092875 0.428232 0.492330 -0.000000 -0.881732 -0.000005
1.680192 0.102992 0.112992 -0.053252 -0.006162 0.005340
1.680192 0.918462 0.957548 -0.053252 0.006162 -0.005340
1.698677 0.969571 0.055905 -0.053252 0.010270 0.008798
1.699987 0.823479 0.847062 -0.053252 0.017456 -0.014473
1.346234 0.460870 0.456764 0.000000 -0.542881 -0.000007
2.547050 0.462186 0.614591 -0.000000 -0.520155 0.000029
1.420473 0.650493 0.689237 -0.039313 -0.012406 0.012018
1.461344 0.343265 0.370663 -0.053252 -0.019680 0.016107
0.983524 0.417803 0.532418 0.000000 -0.999604 -0.000000
1.279326 0.512601 0.442317 -0.000004 0.003577 -0.000160
1.018738 0.603446 0.542477 -0.000000 0.997025 0.000001
1.073321 0.584640 0.591711 0.000000 0.790451 0.000028
3.746229 0.633519 0.409949 -0.074600 -0.005009 -0.004726
1.709297 0.179978 0.203602 0.072192 -0.005291 0.005025
1.709297 0.841476 0.203602 -0.053251 0.008216 0.007084
1.461344 0.353015 0.709162 -0.039315 0.024799 0.021313
3.474953 0.554278 0.453101 -0.000000 0.471385 -0.000033
1.728311 0.594522 0.575623 -0.000000 0.906929 0.000002
3.092875 0.471150 0.451115 0.000000 -0.421003 -0.000010
1.300948 0.608997 0.436968 -0.053252 0.010270 0.008798
1.319749 0.624842 0.650210 -0.053252 0.010270 -0.008798
2.874545 0.469280 0.618518 -0.000000 -0.446545 0.000036
1.797162 0.418700 0.433907 0.053302 0.006935 -0.006549
1.641799 0.621957 0.668821 0.053303 -0.006357 0.006011
1.782894 0.592858 0.578892 -0.000001 0.881432 0.000010
1.549127 0.274359 0.298798 -0.053252 -0.012324 0.010475
0.472913 0.428386 0.578496 -0.000000 -0.881902 0.000019
1.538642 0.161378 0.902103 -0.053252 -0.016430 -0.013698
2.547050 0.558886 0.614825 0.000000 0.519524 0.000015
0.147580 0.433727 0.492713 -0.179790 -0.000215 -0.000111
1.746538 0.355116 0.363223 0.053301 0.002774 -0.002638
2.717840 0.603700 0.536410 0.000000 0.999614 0.000000
2.710797 0.555572 0.453793 0.000000 0.471470 -0.000017
1.727104 0.963911 1.014737 -0.039314 -0.023292 0.020361
1.727104 0.057544 0.055803 -0.039314 0.023292 -0.020361
1.552239 0.603709 0.536084 0.000000 0.999614 0.000000
1.539343 0.246033 0.818796 -0.039314 0.006797 0.006803
1.482239 0.812542 0.852189 -0.039315 -0.025876 0.021964
3.693283 0.602418 0.519691 0.221957 0.000214 -0.000033
1.736415 0.038698 1.033805 -0.039314 0.023292 0.020361
3.750578 0.570946 0.475653 -0.074600 -0.009869 -0.009251
1.690677 0.215974 0.243353 0.072191 -0.011946 0.011225
1.690677 0.215974 0.827186 0.072190 -0.005974 -0.005670
0.254583 0.589455 0.584785 0.000000 0.839178 0.000001
0.636660 0.592589 0.579395 -0.000000 0.880518 0.000005
2.066371 0.603723 0.535596 -0.000008 0.067687 0.000000
1.807054 0.300680 0.310747 0.053302 0.020335 -0.018098
1.346234 0.556459 0.454294 0.000000 0.495246 -0.000016
1.404353 0.329550 0.341421 -0.039314 0.024799 -0.021313
2.110389 0.577572 0.470616 0.000000 0.716854 -0.000017
1.401672 0.386806 0.672599 -0.039311 0.006474 0.006488
1.485523 0.622431 0.436541 -0.053252 0.019679 0.016107
3.318151 0.646034 0.389575 0.034450 0.009362 0.009827
1.614660 0.832779 0.205895 -0.053253 0.009243 0.007945
3.420371 0.426969 0.575696 0.000000 -0.894865 0.000002
0.418330 0.550933 0.619133 -0.000000 0.421003 0.000019
0.472913 0.432621 0.484796 0.000001 -0.839162 -0.000046
0.745826 0.427261 0.494260 -0.000000 -0.889378 -0.000002
1.263346 0.444148 0.600296 -0.053253 -0.020534 -0.016718
1.502215 0.686385 0.729087 -0.039315 -0.004208 0.004249
1.567250 0.838505 0.875055 -0.053251 0.018483 -0.015235
0.800408 0.483693 0.446290 -0.000000 -0.290268 -0.000117
1.396294 0.306724 0.747040 -0.053248 -0.005136 -0.004460
3.474953 0.424802 0.499678 0.000000 -0.929156 -0.000014
2.656215 0.594267 0.494406 -0.000001 0.863105 -0.000002
3.584118 0.464607 0.454517 0.000000 -0.495957 -0.000062
0.800408 0.426969 0.575696 0.000000 -0.894865 0.000002
3.474953 0.461246 0.456520 0.000000 -0.543876 -0.000055
1.652081 0.884620 0.921034 -0.053252 0.007189 -0.006216
2.328720 0.425173 0.498817 -0.000000 -0.916838 -0.000002
1.652600 0.603718 0.535758 -0.000000 0.999593 0.000000
1.776796 0.327898 0.733554 0.053303 0.009939 0.009306
3.688572 0.737317 0.288300 -0.074600 0.014479 0.013635
3.688572 0.284138 0.288300 -0.074600 -0.014479 0.013635
1.084766 0.508201 0.442336 -0.000000 -0.028153 -0.000082
1.728311 0.546319 0.449344 0.000000 0.395330 -0.000010
2.437885 0.593357 0.492582 0.000000 0.894756 -0.000009
2.001224 0.444992 0.469477 0.000001 -0.658982 -0.000002
0.925420 0.508446 0.628210 0.000000 -0.027787 0.000021
0.964156 0.482796 0.446562 0.000000 -0.290281 -0.000059
1.673729 0.429752 0.581001 -0.000000 -0.866728 0.000003
3.676058 0.344790 0.350180 -0.074600 -0.004975 0.004762
3.676058 0.676665 0.350180 -0.074599 0.004975 0.004762
3.638701 0.469280 0.618518 -0.000000 -0.446455 0.000143
3.147458 0.476878 0.448651 0.000000 -0.369685 -0.000089
1.704642 0.386860 0.649214 0.072191 -0.010112 -0.009537
1.667402 0.416993 0.422072 0.053302 0.012712 -0.011777
3.785587 0.582589 0.542202 0.217211 0.000196 0.000016
3.748666 0.473308 0.463973 0.219540 -0.000336 -0.000746
0.691243 0.557662 0.615558 -0.000000 0.496297 0.000004
1.237069 0.593280 0.492438 -0.000001 0.876877 -0.000005
2.042601 0.417725 0.535188 -0.000000 -0.999604 -0.000000
0.909573 0.428098 0.577957 0.000000 -0.894865 0.000004
1.802399 0.360519 0.697319 0.053304 0.002774 0.002638
1.455399 0.602675 0.549197 -0.000001 0.978452 0.000001
0.636660 0.428866 0.491144 0.000000 -0.881801 -0.000005
0.472913 0.546205 0.449299 0.000000 0.369627 -0.000006
3.311205 0.467501 0.452928 -0.000000 -0.471377 -0.000067
3.600762 0.610272 0.445208 0.000001 -0.724153 -0.000623
2.555853 0.508935 0.442315 0.000000 -0.028153 -0.000020
2.460774 0.509587 0.442297 -0.000000 -0.028142 -0.000020
2.501271 0.509261 0.628233 0.000000 -0.028153 0.000020
2.798834 0.511135 0.628269 0.000000 0.014618 0.000010
2.406192 0.510890 0.628270 0.000000 0.027787 0.000041
1.834984 0.110942 0.952620 0.072191 -0.003926 -0.003733
2.365695 0.511868 0.442297 0.000000 0.027970 -0.000041
0.288036 0.505839 0.442402 -0.000000 -0.028153 -0.000020
1.870930 0.510564 0.442269 0.000000 -0.027970 -0.000041
3.092875 0.553196 0.452531 0.000000 0.446629 -0.000009
0.884923 0.417800 0.532499 -0.000000 -0.999604 -0.000000
3.038293 0.573661 0.603735 0.000000 0.676512 0.000019
0.354944 0.417851 0.530707 -0.000000 -0.999609 -0.000000
1.588265 0.413950 0.608553 0.072191 -0.009387 -0.008865
1.566014 0.418793 0.420358 -0.039316 0.007552 -0.007533
3.638782 0.232773 0.827134 0.034451 -0.018719 -0.017893
3.638782 0.788681 0.827134 0.034451 0.018719 -0.017893
1.453284 0.696776 0.348704 -0.053251 0.009842 0.008444
1.494216 0.224198 0.236843 -0.053252 -0.005135 0.004459
1.494216 0.797257 0.236843 -0.053252 0.010270 0.008798
1.370111 0.385907 0.398798 -0.039314 0.012945 -0.012490
3.365788 0.469936 0.618846 -0.000000 -0.446495 0.000036
3.256623 0.468623 0.618190 0.000000 -0.446356 0.000036
3.422921 0.628226 0.401042 0.034451 0.021992 0.020168
3.422921 0.393229 0.401042 0.034451 -0.011000 0.011398
1.797162 0.602755 0.636632 0.053300 -0.006935 0.006549
1.825674 0.179356 0.879805 0.072191 -0.004779 -0.004541
1.765158 0.764529 0.808980 0.053303 -0.018487 0.016637
2.001224 0.592781 0.491504 -0.000000 0.881306 -0.000005
1.568606 0.350613 0.353090 -0.039312 0.003722 -0.003764
1.858260 0.776531 0.256164 0.053302 -0.014792 -0.013575
1.360371 0.671767 0.700705 -0.053253 0.003852 -0.003351
3.092875 0.590914 0.488158 0.000001 0.860232 -0.000005
2.765380 0.592838 0.491612 0.000000 0.881875 -0.000010
3.147458 0.592358 0.490713 -0.000001 0.871201 -0.000002
1.237826 0.606557 0.635895 -0.039313 -0.012945 0.012490
2.219554 0.428943 0.491000 -0.000000 -0.881899 -0.000019
1.567265 0.642214 0.689190 -0.039315 -0.024799 0.021313
1.623970 0.177461 0.179559 -0.039314 0.021999 -0.019505
1.291651 0.424019 0.568892 -0.000000 -0.914283 0.000001
2.650933 0.512683 0.442320 0.000000 0.027970 -0.000041
2.944974 0.417791 0.537714 0.000000 -0.999604 0.000000
0.527495 0.598642 0.565601 -0.000000 0.947311 0.000003
1.018738 0.467105 0.453139 0.000000 -0.471293 -0.000033
0.081343 0.556670 0.581212 -0.438103 0.000048 0.000045
1.673729 0.429327 0.490281 0.000000 -0.881922 -0.000005
3.688572 0.284138 0.782239 -0.074600 -0.014479 -0.013635
3.688572 0.746346 0.773640 -0.074600 -0.014578 0.013529
1.837477 0.467393 0.452986 0.000000 -0.471395 -0.000067
3.749594 0.701843 0.331878 -0.074599 0.007241 0.006913
1.346234 0.429155 0.490605 0.000001 -0.879598 -0.000005
1.614660 0.832779 0.864645 -0.053251 0.009243 -0.007945
1.597575 0.601762 0.419502 0.053302 -0.012712 -0.011777
0.854991 0.558259 0.455333 0.000000 0.520059 -0.000015
3.649814 0.587287 0.601196 0.000000 -0.724154 0.000995
1.858260 0.635366 0.404393 0.053304 -0.006934 -0.006549
1.814618 0.393884 0.653380 0.072190 -0.005120 -0.004864
1.586842 0.255264 0.279968 -0.053252 -0.005392 0.004680
1.651109 0.659668 0.400616 0.072191 0.004694 0.004461
1.753520 0.430470 0.442889 0.053302 0.013694 -0.012633
3.638701 0.470374 0.451475 -0.000000 -0.446473 -0.000285
1.346234 0.553595 0.617803 0.000001 0.471065 0.000033
3.365788 0.552831 0.618190 -0.000000 0.445665 0.000018
1.713952 0.269290 0.773644 0.072191 -0.006656 -0.006312
1.821019 0.961660 1.004862 0.072191 0.012970 -0.012158
1.821019 0.059795 1.004862 0.072191 -0.012970 -0.012158
1.821019 0.961660 0.065677 0.072191 0.012970 0.012158
1.821019 0.059795 0.065677 0.072191 -0.012970 0.012158
2.437885 0.427952 0.492874 -0.000000 -0.894709 -0.000009
0.097274 0.502620 0.607221 -0.375845 -0.000012 0.000087
3.212605 0.603645 0.538366 0.000000 0.999604 0.000000
3.147458 0.595750 0.572957 -0.000000 0.918435 0.000015
1.451959 0.264887 0.790482 -0.053252 -0.003081 -0.002684
3.240776 0.507305 0.442361 -0.000000 -0.027960 -0.000041
3.554560 0.381080 0.413598 0.000000 0.724153 -0.001246
3.554560 0.640375 0.413598 -0.000000 -0.724153 -0.000623
1.291651 0.592358 0.490713 -0.000000 0.881901 -0.000010
0.169289 0.510727 0.443893 -0.103888 0.000006 -0.000217
1.795219 0.417725 0.535351 0.000000 -0.999604 0.000000
3.466999 0.342515 0.365871 0.034451 0.024964 -0.016849
3.466999 0.678940 0.365871 0.034451 -0.012487 -0.009782
2.819963 0.555140 0.453562 -0.000000 0.471394 -0.000067
3.693283 0.548715 0.620163 0.223824 0.000085 0.000198
3.693283 0.548715 0.450376 0.224716 0.000090 -0.000194
1.739555 0.652932 0.398407 0.072191 0.010112 0.009537
1.788434 0.598693 0.450230 0.072193 0.002560 0.002437
1.577916 0.316082 0.721580 -0.053253 -0.005906 -0.005121
1.739555 0.642121 0.682427 0.053304 -0.013694 0.012632
1.725590 0.593686 0.437890 0.053304 -0.013694 -0.012632
3.535383 0.679384 0.701519 0.034450 -0.012487 0.009782
3.535383 0.342071 0.701519 0.034451 0.024964 0.016849
3.423958 0.333872 0.717360 0.034450 0.012487 0.009782
3.423958 0.687583 0.717360 0.034450 -0.012487 0.009782
3.436039 0.715989 0.319735 0.034452 0.018719 0.017893
3.569450 0.390189 0.676305 0.000000 -0.724153 -0.000897
3.645377 0.651126 0.668231 -0.000001 -0.724152 0.000448
3.630487 0.375667 0.662625 -0.000001 0.724150 0.000448
1.737228 0.214213 0.833921 0.072191 -0.011946 -0.011225
1.018738 0.551190 0.619009 -0.000000 0.446168 0.000018
1.638613 0.231116 0.231576 -0.039314 0.024584 -0.021180
1.638613 0.231116 0.838963 -0.039314 0.012298 0.011922
1.858260 0.595033 0.446744 0.053302 -0.013868 -0.012783
1.127903 0.540710 0.623301 0.000001 0.316867 0.000053
1.709297 0.193544 0.879857 0.053303 0.007397 0.006978
1.496882 0.758887 0.800172 -0.039314 -0.007768 0.007740
2.274137 0.550119 0.451029 -0.000000 0.420828 -0.000019
3.529536 0.466530 0.617092 0.000000 -0.471402 0.000133
3.711744 0.479223 0.618339 0.219542 -0.000370 0.000823
1.595859 0.212152 0.855274 -0.039314 0.012298 0.011922
3.693283 0.475136 0.449344 0.223828 -0.000085 -0.000198
1.524067 0.510401 0.442274 0.000000 -0.027970 -0.000021
1.667402 0.621842 0.631914 0.072190 0.004694 -0.004461
1.370450 0.604124 0.622348 -0.053252 0.007703 -0.006651
3.420371 0.591925 0.580612 -0.000000 0.868343 0.000010
1.765158 0.248447 0.800905 0.072191 -0.011946 -0.011225
1.182486 0.597617 0.502102 0.000000 0.939226 -0.000003
3.330573 0.514802 0.442379 0.000000 0.028153 -0.000041
3.420371 0.595911 0.497956 0.000000 0.918435 -0.000008
1.728311 0.474837 0.621066 0.000000 -0.395595 0.000021
3.243887 0.403250 0.426753 0.034450 0.033978 -0.020171
3.767126 0.492454 0.609408 0.218261 -0.000040 0.000192
1.783779 0.822387 0.202248 0.053302 -0.007397 -0.006978
1.783779 0.199068 0.202248 0.053303 0.014791 -0.013575
1.605937 0.286153 0.782973 -0.039313 0.006797 0.006803
1.746538 0.686505 0.342047 0.053302 -0.005548 -0.005255
0.363748 0.464146 0.454779 0.000000 -0.495946 -0.000125
1.680689 0.158407 0.176554 -0.053252 -0.007703 0.006651
3.020685 0.417735 0.536166 0.000000 -0.999904 0.000000
1.526708 0.417752 0.534210 0.000000 -0.922627 -0.000000
3.392199 0.506653 0.628160 0.000000 -0.027787 0.000041
2.274137 0.470374 0.451475 0.000000 -0.446336 -0.000009
1.449631 0.752068 0.785513 -0.053252 0.003338 -0.002906
1.807054 0.730858 0.300159 0.053302 -0.010170 -0.009514
3.680473 0.613142 0.416881 -0.074601 0.009950 0.009460
2.164972 0.552540 0.452203 -0.000000 0.443966 -0.000009
3.202040 0.498575 0.627469 -0.000001 -0.125921 0.000280
1.564564 0.451227 0.463797 0.000000 -0.634431 -0.000011
3.474953 0.419850 0.555008 0.000000 -0.977949 0.000004
3.450482 0.638108 0.679873 0.034450 0.011001 -0.011399
3.489302 0.416670 0.450970 0.000000 0.724153 -0.001047
2.710797 0.417814 0.538529 0.000000 -0.999604 0.000000
3.110482 0.417737 0.536329 0.000000 -0.999898 0.000000
0.800408 0.559130 0.614676 -0.000000 0.520054 0.000058
3.643898 0.363496 0.704334 0.000000 -0.724153 -0.000897
1.657882 0.511216 0.628261 -0.000000 0.028153 0.000041
3.092875 0.594728 0.575179 -0.000000 0.906922 0.000008
1.821019 0.823017 0.859279 0.072193 0.005291 -0.005025
3.256623 0.588413 0.484146 0.000001 0.837346 -0.000006
1.465087 0.408633 0.624641 -0.053251 -0.009842 -0.008444
1.587700 0.670475 0.389757 -0.053250 0.003338 0.002906
0.254583 0.453771 0.608783 0.000001 -0.612448 0.000092
2.383302 0.474238 0.620808 0.000000 -0.395623 0.000083
3.476862 0.314904 0.333262 0.034452 0.021248 -0.015072
3.476862 0.706551 0.333262 0.034451 -0.021248 -0.015072
1.667402 0.604461 0.422072 0.053302 -0.006357 -0.006011
1.632488 0.397782 0.440368 0.072191 -0.009387 0.008865
1.437791 0.417736 0.535758 0.000000 -0.999609 0.000000
1.538642 0.860077 0.168436 -0.039313 -0.011004 -0.010764
1.557443 0.875922 0.918741 -0.039313 -0.020707 0.018614
3.584118 0.425286 0.498555 -0.000000 -0.918423 -0.000015
3.202040 0.428424 0.578568 0.000000 -0.881806 0.000002
2.874545 0.426109 0.496691 0.000000 -0.907059 -0.000001
2.055807 0.553631 0.452755 0.000000 0.471109 -0.000017
0.619053 0.514150 0.628178 0.000000 0.028153 0.000041
1.543794 0.212033 0.218023 -0.039315 0.012298 -0.011922
3.785587 0.444711 0.564493 0.217582 -0.000181 0.000077
2.492467 0.427952 0.577665 0.000000 -0.894829 0.000009
1.581306 0.169419 0.896541 -0.039314 0.011004 0.010764
2.492467 0.472223 0.450617 -0.000000 -0.421003 -0.000010
1.802399 0.350436 0.362632 0.053303 0.005548 -0.005255
1.557850 0.826768 0.200170 -0.039314 -0.011651 -0.011347
2.164972 0.468769 0.452276 -0.000000 -0.446545 -0.000018
2.492467 0.551372 0.451621 0.000000 0.446409 -0.000036
1.291651 0.594158 0.576352 0.000001 0.819417 0.000001
1.623563 0.128307 0.939352 -0.039315 0.009062 0.008970
2.055807 0.552758 0.618227 0.000000 0.446343 0.000036
3.474953 0.474837 0.621066 0.000000 -0.395595 0.000021
1.662746 0.674443 0.722312 0.053303 -0.005548 0.005255
1.652081 0.142770 0.143853 -0.039314 0.019413 -0.017684
1.381021 0.651618 0.382374 -0.039315 -0.012945 -0.012490
1.400816 0.441379 0.597243 0.000000 -0.754905 0.000015
3.335803 0.596990 0.636698 0.034451 0.009362 -0.009827
1.774468 0.783375 0.242491 0.053303 -0.008090 -0.007618
1.219025 0.430743 0.451282 -0.053252 -0.010270 0.008798
3.202040 0.427424 0.493932 -0.000000 -0.894791 -0.000036
2.219554 0.544501 0.621918 0.000000 0.369247 0.000011
1.858260 0.426421 0.623795 0.053302 0.013868 0.012782
1.619146 0.595380 0.496765 0.000000 0.906977 -0.000008
1.774468 0.909483 0.125352 0.072191 0.003926 0.003733
1.774468 0.238080 0.242491 0.053303 0.008090 -0.007618
0.691243 0.424486 0.570066 -0.000000 -0.929145 0.000014
3.385944 0.670341 0.364052 0.034451 0.011001 0.011398
0.097274 0.555872 0.478660 -0.375843 0.000059 -0.000070
3.202040 0.466566 0.453428 -0.000000 -0.471293 -0.000017
1.455399 0.547404 0.449812 -0.000000 0.395484 -0.000041
3.529536 0.593357 0.577957 0.000000 0.894811 0.000018
1.782894 0.596743 0.499905 0.000000 0.929084 -0.000007
1.646454 0.390074 0.678355 0.053303 0.006357 0.006011
1.681367 0.738327 0.755695 0.072191 0.003328 -0.003166
1.811709 0.266852 0.284075 0.072191 -0.006827 0.006473
3.584118 0.545107 0.621677 0.000000 0.369673 0.000089
2.492467 0.593721 0.577228 0.000000 0.894808 0.000009
1.821019 0.799459 0.229206 0.053302 -0.014792 -0.013575
2.383302 0.473639 0.449989 0.000000 -0.395595 -0.000010
1.625506 0.363155 0.362297 0.053302 0.012712 -0.011777
1.018738 0.426899 0.575549 -0.000000 -0.906922 0.000004
3.393142 0.628384 0.647967 0.034450 -0.012487 0.009782
1.746538 0.825240 0.853797 0.072191 0.005974 -0.005670
1.521016 0.319224 0.745725 -0.039314 0.014886 0.014142
1.821019 0.232079 0.830746 0.053303 0.007397 0.006978
1.946642 0.597617 0.568437 0.000000 0.939065 0.000002
2.383302 0.546319 0.621195 0.000000 0.395639 0.000083
1.946642 0.478785 0.447932 -0.000000 -0.343478 -0.000195
1.946642 0.421736 0.508274 0.000000 -0.956351 -0.000001
1.633958 0.780915 0.829429 -0.039313 -0.012298 0.011923
0.909573 0.594745 0.495397 -0.000000 0.906918 -0.000004
0.617292 0.417744 0.536818 0.000000 -0.999904 0.000000
3.474953 0.554565 0.617284 0.000000 0.471252 0.000033
3.680473 0.613142 0.653658 -0.074599 0.004975 -0.004762
1.455399 0.550785 0.619201 -0.000001 0.419752 0.000038
1.291651 0.469936 0.618846 0.000000 -0.446553 0.000036
0.527495 0.477408 0.448440 0.000000 -0.369625 -0.000022
3.711744 0.422532 0.524561 0.227661 -0.000856 -0.000157
0.854991 0.543436 0.622327 0.000000 0.338946 0.000006
2.274137 0.424531 0.570179 0.000000 -0.926902 0.000002
0.488759 0.603718 0.536248 -0.000000 0.999898 0.000000
1.481037 0.594541 0.468148 -0.053253 0.002996 0.002609
1.606366 0.701433 0.355783 -0.053251 0.005906 0.005121
1.728311 0.597729 0.502408 0.000000 0.938900 -0.000003
1.892059 0.434668 0.481753 0.000000 -0.823512 -0.000012
3.679734 0.397673 0.405709 -0.074600 -0.009950 0.009461
1.566014 0.602662 0.650181 -0.039316 -0.007552 0.007533
3.489302 0.604784 0.450970 -0.000001 -0.724154 -0.001047
0.200000 0.596653 0.570861 -0.010346 0.002060 0.000804
3.555109 0.734606 0.303803 0.034451 -0.010627 -0.008461
3.555109 0.286849 0.303803 0.034451 0.010627 -0.008461
2.983710 0.532057 0.625789 0.000000 0.236165 0.000037
1.455399 0.473040 0.450247 -0.000001 -0.395405 -0.000041
0.418330 0.424260 0.569498 -0.000000 -0.928978 0.000007
0.909573 0.529549 0.444197 -0.000000 0.208837 -0.000083
3.202040 0.548490 0.450280 0.000000 0.395595 -0.000021
1.291651 0.433859 0.482928 0.000000 -0.823233 -0.000006
2.656215 0.427424 0.493932 0.000000 -0.894652 -0.000009
1.749440 0.511053 0.628265 0.000008 0.002080 0.000276
0.552145 0.510075 0.628265 0.000000 -0.013893 0.000165
3.767126 0.443116 0.499785 0.215479 -0.000180 -0.000083
2.765380 0.426658 0.575031 0.000001 -0.906617 0.000017
0.527495 0.469572 0.618664 0.000000 -0.446452 0.000071
3.330573 0.603632 0.531684 0.000000 0.999604 -0.000000
3.711744 0.593797 0.566774 0.228041 0.000792 0.000356
2.888631 0.507957 0.628197 0.000000 -0.028153 0.000082
2.983710 0.452299 0.607622 0.000000 -0.634376 0.000043
3.489302 0.431117 0.633328 0.000000 -0.724153 -0.001047
1.625506 0.341959 0.688056 0.072191 -0.009387 -0.008865
1.807054 0.710691 0.749204 0.053303 -0.010170 0.009514
1.411411 0.613267 0.441034 -0.053253 0.010270 0.008798
1.411411 0.408188 0.441034 -0.053251 -0.010270 0.008798
0.030326 0.497359 0.563029 -0.638192 -0.000008 0.000016
2.855177 0.417791 0.532825 0.000000 -0.999604 -0.000000
3.420371 0.427133 0.494515 0.000000 -0.893520 -0.000002
1.683694 0.647524 0.378115 0.053302 -0.013694 -0.012633
1.673729 0.597090 0.500777 -0.000001 0.925233 -0.000004
1.892059 0.545675 0.449088 -0.000000 0.369672 -0.000089
1.509981 0.425834 0.497282 0.000000 -0.918425 -0.000004
1.616196 0.359957 0.402359 0.072191 -0.009387 0.008865
2.983710 0.439855 0.475050 -0.000000 -0.754866 -0.000015
0.458827 0.506653 0.442379 -0.000000 -0.028153 -0.000082
2.966103 0.509994 0.442275 0.000000 -0.014253 -0.000010
2.055807 0.471040 0.451166 -0.000000 -0.421135 -0.000038
3.657803 0.698598 0.745199 -0.074601 0.009654 -0.009184
3.657803 0.322857 0.745199 -0.074600 -0.009654 -0.009184
1.509981 0.424931 0.571160 0.000000 -0.918301 0.000008
1.182486 0.564412 0.611213 0.000000 0.567041 0.000013
1.400816 0.550563 0.451235 -0.000001 0.421019 -0.000038
3.218545 0.412337 0.634245 0.034451 0.025494 0.017081
0.680679 0.603636 0.538692 0.000000 0.999614 0.000000
1.370450 0.417330 0.622348 -0.053251 -0.007703 -0.006651
3.638701 0.422309 0.506446 0.000000 -0.948397 -0.000012
3.345712 0.365539 0.379199 0.034452 -0.009362 0.009826
3.345712 0.361927 0.687901 0.034452 0.010627 0.008461
1.556448 0.311362 0.315117 -0.039313 0.007444 -0.007430
1.559205 0.662920 0.361409 -0.039315 -0.008415 -0.008358
3.744794 0.650553 0.685710 -0.074601 0.004827 -0.004621
1.610592 0.744724 0.792507 -0.039315 -0.013592 0.013049
1.718607 0.859474 0.886813 -0.053253 0.015403 -0.012910
1.825674 0.179356 0.190734 0.072191 -0.004779 0.004541
1.825674 0.842099 0.190734 0.072191 0.004779 0.004541
2.164972 0.594522 0.575623 -0.000000 0.906918 0.000008
0.582078 0.574411 0.603046 -0.000000 0.676468 0.000005
1.670882 0.126925 0.943324 -0.039314 0.016826 0.015715
0.200000 0.603147 0.524856 -0.010349 0.002205 -0.000212
3.584118 0.549750 0.450857 0.000000 0.421214 -0.000077
3.395720 0.417837 0.531196 -0.000000 -0.999609 -0.000000
3.311205 0.549972 0.450960 0.000001 0.421162 -0.000077
2.274137 0.594449 0.575769 0.000000 0.894865 0.000004
2.696712 0.511705 0.628247 0.000000 0.028153 0.000010
1.675221 0.076728 0.988058 -0.053252 -0.006162 -0.005340
3.730205 0.558832 0.604961 0.219542 0.000423 0.000700
2.214272 0.511379 0.442283 0.000000 0.028153 -0.000041
3.747686 0.612556 0.638578 -0.074599 -0.009720 0.009114
3.747686 0.408899 0.638578 -0.074600 0.004860 0.004586
1.346234 0.470228 0.618991 0.000001 -0.444900 0.000018
1.805890 0.428446 0.625723 0.053303 0.006935 0.006549
1.830329 0.999825 0.024626 0.072191 0.010240 0.009656
0.582078 0.426641 0.495545 0.000000 -0.906814 -0.000008
1.774468 0.129686 0.941867 0.053302 0.005548 0.005255
1.338889 0.595486 0.439964 -0.039314 -0.009709 -0.009575
3.465372 0.643446 0.385060 0.034452 0.011000 0.011398
3.382098 0.648499 0.397835 0.034452 -0.024963 -0.016849
3.382098 0.380179 0.390956 0.034451 -0.021992 0.020168
3.465372 0.378008 0.385060 0.034452 -0.021992 0.020168
3.785587 0.535661 0.603023 0.220316 0.000070 0.000181
0.418330 0.426933 0.494916 -0.000000 -0.906598 -0.000004
3.297120 0.514476 0.628169 0.000000 0.028153 0.000041
3.745512 0.381225 0.674870 -0.074598 -0.004827 -0.004621
3.746229 0.387936 0.409949 -0.074600 0.005009 -0.004726
0.200000 0.424802 0.570861 -0.010346 -0.002060 0.000804
3.326977 0.392719 0.418587 0.034452 0.021248 -0.015072
1.509981 0.457177 0.611306 -0.000001 -0.566758 0.000026
1.711625 0.376632 0.383113 0.053302 0.013694 -0.012633
3.648335 0.412888 0.623541 0.000000 0.724153 0.000995
3.554560 0.625928 0.670699 -0.000001 0.724151 -0.000623
3.584447 0.420081 0.615989 -0.000000 0.724154 0.001246
3.614119 0.647282 0.693122 -0.000000 0.724152 -0.000448
3.614119 0.374173 0.377417 0.000000 -0.724153 0.000448
0.200000 0.484980 0.445900 -0.010346 -0.000643 -0.002117
1.547394 0.445886 0.601951 -0.000002 0.689637 -0.000485
3.554186 0.515453 0.442397 0.000000 0.027970 -0.000021
1.609508 0.875803 0.149041 -0.039315 -0.009709 -0.009575
3.748404 0.422834 0.439362 -0.074600 -0.004827 0.004621
3.743337 0.346327 0.366257 -0.074600 0.005009 -0.004726
2.569939 0.603686 0.536899 0.000000 0.999604 0.000000
1.556448 0.710093 0.315117 -0.039314 -0.003722 -0.003764
1.556704 0.583816 0.439427 -0.039314 -0.015102 -0.014321
1.455399 0.424802 0.570861 0.000000 -0.929150 0.000014
3.552425 0.603600 0.530544 0.000000 0.999604 -0.000000
1.518334 0.376481 0.689205 -0.039314 0.024799 0.021313
2.055807 0.425286 0.571984 0.000000 -0.918425 0.000002
1.643652 0.253068 0.788480 -0.053252 -0.010784 -0.009221
1.619146 0.596233 0.571834 0.000001 0.916970 0.000004
1.825674 0.859298 0.903807 0.053301 -0.006473 0.006119
0.044048 0.543408 0.561332 -0.584254 0.000026 0.000019
3.473192 0.603609 0.530870 0.000000 0.999604 -0.000000
2.929128 0.478938 0.622663 -0.000000 -0.343424 0.000049
1.764526 1.017447 1.069511 -0.039315 -0.018119 0.016717
1.764526 0.004008 0.001028 0.000001 -0.689632 -0.000279
2.219554 0.463899 0.615618 0.000000 -0.496100 0.000016
0.964156 0.600634 0.511489 -0.000000 0.964707 -0.000002
3.584118 0.470448 0.619098 0.000000 -0.421144 0.000010
0.073576 0.478352 0.586794 -0.468489 -0.000031 0.000047
2.765380 0.548936 0.620060 -0.000000 0.421108 0.000038
1.530710 0.333025 0.364552 -0.053252 -0.006676 0.005779
1.643652 0.768387 0.282059 -0.053252 0.010783 0.009221
1.416729 0.724340 0.314142 -0.053253 0.003338 0.002906
3.318151 0.646034 0.680964 0.034451 0.009362 -0.009826
0.085278 0.443795 0.535270 -0.430429 -0.000036 0.000001
1.073321 0.504211 0.628037 0.000000 -0.070208 0.000063
1.090928 0.417768 0.536899 0.000000 -0.999604 0.000000
3.785587 0.543736 0.549881 1.000000 0.000000 0.000000
1.725590 0.427768 0.632649 0.053303 0.013694 0.012632
3.638701 0.537723 0.624261 0.000001 0.290237 0.000235
3.078789 0.507387 0.442359 0.000002 -0.013591 -0.000084
1.736415 0.986148 0.039964 -0.053252 0.016430 0.013698
1.765158 0.872923 0.922798 0.053304 -0.006241 0.005903
1.765158 0.148531 0.147741 0.053302 0.006241 -0.005904
1.483120 0.315414 0.323155 -0.039316 0.004207 -0.004249
1.837477 0.546319 0.449344 0.000000 0.395330 -0.000010
1.837477 0.596833 0.500133 0.000001 0.928639 -0.000007
3.395720 0.603708 0.533558 -0.000004 0.257781 -0.000000
1.793089 0.847168 0.881708 0.072191 0.010581 -0.009971
3.615597 0.640449 0.413520 -0.000000 -0.724153 -0.000448
3.433965 0.402509 0.634440 0.000000 0.724153 0.000752
3.612639 0.668562 0.355072 -0.000000 0.724154 0.000897
3.493523 0.625853 0.670621 -0.000001 0.724152 -0.001398
3.374407 0.597592 0.458522 0.000000 -0.724153 -0.000752
3.519081 0.405993 0.630781 0.000001 0.724153 0.000847
1.755848 0.705351 0.747560 0.053303 -0.005085 0.004821
1.642364 0.911961 0.117376 -0.053252 0.007189 0.006216
0.122028 0.459926 0.471566 -0.279273 -0.000089 -0.000106
0.745826 0.552758 0.452312 0.000000 0.446388 -0.000036
3.657803 0.310216 0.337379 -0.074601 0.009720 -0.009114
3.657803 0.711239 0.337379 -0.074600 -0.009720 -0.009114
1.946642 0.433397 0.586940 0.000000 -0.839176 0.000046
0.254583 0.596668 0.499716 0.000000 0.929080 -0.000001
2.819963 0.602619 0.520980 0.000000 0.988118 -0.000006
0.254583 0.541483 0.447498 -0.000000 0.343486 -0.000389
2.765380 0.472740 0.450376 0.000000 -0.421294 -0.000019
3.404186 0.427633 0.433552 0.000000 -0.724153 0.001504
3.767126 0.537804 0.463874 0.212970 0.000328 -0.000729
2.110389 0.573931 0.603487 -0.000001 0.676337 0.000019
0.964156 0.422787 0.565523 -0.000000 -0.948319 0.000001
1.619146 0.567233 0.609132 -0.000000 0.612452 0.000023
1.644126 0.325464 0.324160 0.053303 0.019873 -0.017737
3.638701 0.537645 0.446255 0.000000 0.290288 -0.000235
3.306929 0.414352 0.627067 0.034451 0.021248 0.015072
1.505958 0.406160 0.659302 -0.039314 0.012406 0.012018
1.505958 0.406160 0.411237 -0.039314 0.012405 -0.012017
1.564564 0.596217 0.571872 -0.000001 0.916970 0.000004
3.465372 0.378008 0.685479 0.034450 -0.011001 -0.011398
3.358383 0.664071 0.692672 0.034451 -0.010627 0.008461
1.673729 0.597995 0.567404 -0.000000 0.939094 0.000007
1.699987 0.700671 0.323570 0.053303 -0.019873 -0.017737
1.765287 0.510239 0.442279 0.000000 -0.028153 -0.000020
1.237069 0.599263 0.563745 -0.000000 0.948537 0.000001
1.646454 0.390074 0.392184 0.053303 0.012712 -0.011777
1.673729 0.545561 0.621496 0.000001 0.360627 0.000011
0.156228 0.577507 0.475592 -0.146167 0.000232 -0.000196
1.946642 0.536474 0.445900 0.000000 0.290288 -0.000235
3.678277 0.644745 0.686843 -0.074600 0.004975 -0.004762
3.069986 0.507631 0.628188 0.000000 -0.028153 0.000020
1.493582 0.435839 0.441140 -0.039314 0.015101 -0.014321
1.559205 0.679453 0.693385 -0.053249 0.003338 -0.002906
3.737597 0.263741 0.279538 -0.074599 0.009720 -0.009114
3.737597 0.757714 0.279538 -0.074600 -0.009720 -0.009114
3.335803 0.607825 0.444160 0.034452 -0.010627 -0.008461
1.821019 0.208521 0.221848 0.072191 -0.005462 0.005187
1.512598 0.595761 0.601229 -0.053254 0.005991 -0.005194
1.739555 0.368523 0.672132 0.072191 -0.010112 -0.009537
3.550273 0.336733 0.363415 0.034451 0.024964 -0.016849
3.550273 0.684722 0.363415 0.034452 -0.012487 -0.009782
3.681930 0.418441 0.449212 -0.074599 0.004860 -0.004586
1.802399 1.016368 0.000000 0.000000 0.689638 -0.000412
0.837383 0.507631 0.628188 0.000000 -0.028518 0.000010
3.767126 0.582123 0.508193 0.213236 0.000762 -0.000237
2.001224 0.525058 0.443385 0.000000 0.153485 -0.000029
1.502215 0.697408 0.351949 -0.053252 0.013350 0.011298
1.444637 0.240603 0.818913 -0.053252 -0.012324 -0.010475
0.363748 0.597659 0.568322 -0.000000 0.938500 0.000003
3.008360 0.603654 0.532499 0.000000 0.999614 -0.000000
1.653436 0.287965 0.747683 0.072190 -0.006656 -0.006313
1.662746 0.287773 0.286024 0.053302 0.018025 -0.016265
0.156228 0.580748 0.591109 -0.146164 0.000239 0.000180
1.727421 0.088568 0.100288 -0.053251 -0.005649 0.004901
1.727421 0.932886 0.970251 -0.053251 0.005649 -0.004901
2.569059 0.417761 0.536655 -0.000000 -0.994247 0.000000
1.764526 0.001464 1.067089 0.000000 -0.689636 0.000140
3.785587 0.467546 0.477411 0.214984 -0.000121 -0.000157
3.404186 0.593822 0.636987 0.000000 0.724153 -0.001504
3.404186 0.427633 0.636987 -0.000000 -0.724153 -0.001504
2.929128 0.554853 0.617131 0.000000 0.471176 0.000017
1.830329 0.997281 1.048335 0.053303 -0.011095 0.010345
1.830329 0.024174 0.022204 0.053302 0.011095 -0.010345
3.455193 0.593822 0.433552 0.000001 0.724153 0.001047
3.455193 0.427633 0.433552 0.000000 -0.724153 0.001047
0.527495 0.539976 0.623546 -0.000000 0.316992 0.000053
1.653436 0.714836 0.765447 0.053303 -0.010170 0.009514
1.830329 0.021630 1.045913 0.072191 -0.010240 -0.009656
3.585819 0.406130 0.410973 0.000000 -0.724154 0.000623
3.585819 0.615325 0.410973 0.000000 0.724152 0.000623
3.568133 0.428978 0.463893 0.000000 0.724153 -0.000847
3.553189 0.597530 0.640880 -0.000000 0.724153 -0.000847
3.568133 0.592477 0.463893 0.000000 -0.724153 -0.000847
3.463744 0.629623 0.645652 -0.000001 -0.724154 0.001047
1.760503 0.615202 0.652540 0.053304 -0.013694 0.012632
1.577532 0.748193 0.299843 -0.053252 0.010784 0.009221
1.760503 0.397350 0.426478 0.072191 -0.010112 0.009537
3.782717 0.586357 0.614684 -0.074600 -0.009720 0.009114
1.608693 0.705933 0.719725 -0.053251 0.003081 -0.002684
3.256623 0.552248 0.618482 0.000000 0.446629 0.000018
3.158022 0.514150 0.442361 0.000000 0.027970 -0.000041
1.127903 0.598051 0.503289 -0.000001 0.938928 -0.000013
2.001224 0.549898 0.619613 0.000000 0.421283 0.000005
0.309165 0.436466 0.479280 -0.000000 -0.790232 -0.000003
1.619146 0.494347 0.626813 0.000000 -0.180488 0.000012
2.656215 0.545448 0.621541 0.000001 0.368346 0.000022
1.534394 0.215716 0.840160 -0.053251 -0.010270 -0.008798
3.600762 0.595825 0.639090 -0.000002 0.724150 -0.000623
3.602586 0.727554 0.755715 0.034451 -0.024964 0.016849
3.602586 0.293901 0.755715 0.034452 0.012487 0.009782
3.038293 0.423446 0.503174 -0.000000 -0.939124 -0.000007
1.619146 0.438686 0.476463 -0.000000 -0.772915 -0.000015
1.499548 0.290764 0.756959 -0.053252 -0.005906 -0.005121
1.727918 0.143983 0.163850 0.072191 -0.004608 0.004380
0.545103 0.509749 0.442279 -0.000000 -0.013893 -0.000083
3.612290 0.603593 0.530299 0.000017 0.016953 -0.000000
3.385353 0.697816 0.338818 0.034451 0.018719 0.017893
1.709297 0.729600 0.293914 0.053302 -0.009015 -0.008465
3.684867 0.467907 0.486690 0.146541 -0.001576 -0.001655
1.518334 0.660235 0.395868 -0.053251 0.009842 0.008444
1.526394 0.624268 0.669265 -0.039314 -0.024800 0.021313
1.683694 0.647524 0.692424 0.053301 -0.013694 0.012633
0.964156 0.473114 0.620324 0.000000 -0.395747 0.000021
1.444652 0.588376 0.629414 -0.039314 -0.024800 0.021313
2.437885 0.478900 0.622649 0.000000 -0.343033 0.000024
0.081343 0.489268 0.473944 -0.438104 -0.000023 -0.000061
3.064704 0.603720 0.536166 0.000000 0.999904 0.000000
3.291837 0.603696 0.537226 -0.000067 0.160873 0.000003
1.693004 0.419440 0.613781 0.072191 -0.004694 -0.004461
1.693004 0.419440 0.456758 0.072193 -0.004694 0.004460
1.632488 0.397782 0.630172 0.072194 -0.009386 -0.008865
1.658091 0.603845 0.458501 0.072190 0.009387 0.008865
0.527495 0.423026 0.504322 -0.000001 -0.915066 -0.000001
1.616196 0.639454 0.689174 0.053303 -0.012712 0.011777
1.641799 0.621957 0.401719 0.053302 -0.006357 -0.006011
0.721175 0.514313 0.628174 0.000000 0.027787 0.000041
2.383302 0.595879 0.497881 0.000001 0.837108 -0.000001
0.527495 0.545637 0.449073 0.000000 0.369614 -0.000045
2.400909 0.417755 0.534129 0.000000 -0.999604 -0.000000
2.929128 0.424742 0.570710 0.000000 -0.929093 0.000004
1.332170 0.376635 0.391764 -0.039315 0.009709 -0.009575
1.837477 0.435742 0.590274 -0.000000 -0.805461 0.000003
1.332170 0.644820 0.678775 -0.039312 -0.009710 0.009575
2.127997 0.417736 0.535758 -0.000004 -0.134438 0.000000
1.857725 0.603730 0.535188 0.000000 0.999614 -0.000000
2.819963 0.434876 0.589089 0.000000 -0.823572 0.000003
3.256623 0.599719 0.562265 0.000000 0.956926 0.000003
0.254583 0.472223 0.450617 0.000000 -0.421178 -0.000077
1.708710 0.122543 0.949727 -0.039314 0.008415 0.008358
1.448968 0.382694 0.679258 -0.039314 0.012406 0.012017
1.623178 0.437189 0.439855 0.053302 0.012712 -0.011777
1.346234 0.425141 0.571647 0.000000 -0.918449 0.000008
1.108535 0.603700 0.534129 0.000000 0.999604 -0.000000
1.127903 0.548191 0.450151 -0.000000 0.395593 -0.000021
0.472913 0.517162 0.628042 0.000000 0.070096 0.001013
0.126239 0.593471 0.535270 -0.271075 0.000073 0.000002
3.649814 0.572840 0.455584 -0.000000 0.724154 0.000995
3.643898 0.672406 0.379964 0.000000 -0.724154 -0.000897
1.182486 0.548041 0.450086 0.000000 0.395601 -0.000083
3.649814 0.434168 0.469343 0.000000 0.724153 -0.000995
3.553081 0.374247 0.377495 0.000000 -0.724153 0.000897
3.553081 0.647207 0.377495 -0.000000 0.724154 0.000897
1.473426 0.739130 0.301788 -0.053254 0.003338 0.002906
3.592723 0.321512 0.347433 0.034451 0.012487 -0.009782
3.592723 0.699943 0.347433 0.034451 -0.024964 -0.016849
3.350692 0.419126 0.428236 0.034451 -0.021992 0.020168
1.331831 0.335673 0.351454 -0.053251 -0.015404 0.012910
1.830329 0.660778 0.689898 0.072191 0.008192 -0.007752
1.830329 0.660778 0.380641 0.072192 0.008192 0.007752
1.534453 0.398392 0.630753 -0.053252 -0.019679 -0.016107
1.540924 0.584266 0.630684 -0.039316 -0.007552 0.007533
0.559188 0.603632 0.538855 -0.000000 0.999614 0.000000
2.136800 0.510239 0.442279 0.000000 -0.028153 -0.000010
0.065955 0.556782 0.502592 -0.498329 0.000040 -0.000027
3.730205 0.454573 0.598654 0.219542 -0.000608 0.000608
2.254769 0.511216 0.628261 0.000000 0.028153 0.000020
3.711744 0.583844 0.484801 0.219541 0.000772 -0.000467
1.477463 0.627027 0.401259 -0.039314 -0.024799 -0.021313
0.992327 0.507957 0.442343 -0.000000 -0.027970 -0.000164
0.745826 0.600050 0.509367 0.000000 0.956926 -0.000003
2.437885 0.425972 0.573553 0.000000 -0.906623 0.000008
3.038293 0.472890 0.450312 0.000000 -0.395595 -0.000021
3.374407 0.423863 0.458522 0.000001 0.724153 -0.000752
3.709697 0.674091 0.714041 -0.074600 0.009950 -0.009461
3.785587 0.479275 0.552983 1.000000 0.000000 0.000000
1.421150 0.568569 0.608617 0.000000 -0.689641 -0.000291
3.495151 0.654123 0.696690 0.034450 0.011001 -0.011398
3.495151 0.356496 0.686372 0.034452 0.012486 0.009781
3.493523 0.395601 0.399918 -0.000001 -0.724153 0.001398
3.493523 0.625853 0.399918 -0.000000 0.724153 0.001398
3.514876 0.720181 0.318950 0.034451 -0.012487 -0.009782
3.514876 0.301274 0.318950 0.034451 0.012487 -0.009782
3.678277 0.655580 0.394015 -0.074600 -0.005009 -0.004726
3.229136 0.437429 0.466982 -0.000001 -0.689636 -0.000242
1.662746 0.674443 0.348227 0.053303 -0.005548 -0.005255
2.601632 0.434876 0.589089 0.000000 -0.823588 0.000012
2.656215 0.473114 0.620324 -0.000000 -0.395560 0.000041
2.383302 0.543282 0.448156 -0.000000 0.343498 -0.000097
1.127903 0.597855 0.567786 -0.000000 0.939144 0.000026
0.854991 0.597897 0.567671 -0.000000 0.938976 0.000007
0.309165 0.418824 0.549479 0.000000 -0.988114 0.000006
0.156228 0.596787 0.510476 -0.146162 0.000294 -0.000076
1.477463 0.641017 0.655957 -0.053253 0.019679 -0.016107
1.632964 0.117417 0.125695 -0.053252 -0.014377 0.012110
1.632964 0.904038 0.944844 -0.053252 0.014377 -0.012110
3.718440 0.548312 0.488572 0.146541 0.001576 -0.001655
3.785587 0.510727 0.535270 1.000000 0.000000 0.000000
1.315421 0.512601 0.442317 -0.000004 0.003571 -0.000161
1.592735 0.417727 0.535107 0.000000 -0.999609 -0.000000
0.604967 0.603627 0.539018 0.000000 0.999614 0.000000
1.464025 0.725696 0.765681 -0.039314 -0.008415 0.008358
2.929128 0.597897 0.502868 -0.000000 0.938875 -0.000007
1.643797 0.417732 0.535596 0.000000 -0.999604 0.000000
1.489839 0.352242 0.687274 -0.053253 -0.009842 -0.008443
0.933343 0.603661 0.532744 0.000000 0.999614 -0.000000
3.602586 0.727554 0.314824 0.034451 -0.012487 -0.009782
3.602586 0.293901 0.314824 0.034450 0.024965 -0.016849
1.765158 0.881402 0.155815 0.072191 0.009216 0.008707
0.582078 0.539048 0.446683 0.000000 0.316756 -0.000027
1.445224 0.306093 0.743794 -0.053251 -0.003338 -0.002906
3.311205 0.427770 0.577301 -0.000000 -0.893520 0.000004
2.437885 0.594968 0.574662 0.000000 0.906918 0.000008
2.437885 0.543474 0.622313 0.000000 0.343033 0.000024
3.365788 0.544652 0.448681 0.000000 0.369562 -0.000045
1.513604 0.273843 0.295324 -0.053252 -0.006162 0.005340
1.489839 0.656706 0.699183 -0.039315 -0.012405 0.012017
1.559205 0.358535 0.709130 -0.039315 0.008415 0.008358
1.414902 0.509261 0.628233 0.000004 -0.007734 0.000148
1.407035 0.749162 0.785637 -0.039314 -0.016826 0.015715
1.892059 0.460767 0.613709 -0.000000 -0.543876 0.000055
1.892059 0.420218 0.556638 0.000000 -0.971665 0.000009
1.681367 0.771374 0.247887 0.053302 -0.016178 -0.014745
1.681367 0.250081 0.247887 0.053302 0.016178 -0.014745
1.681367 0.250081 0.822652 0.053302 0.016178 0.014745
3.003078 0.513824 0.442352 0.000000 0.028153 -0.000020
1.708710 0.906966 0.128483 -0.053252 0.013350 0.011298
0.765194 0.511950 0.628257 0.000000 0.013898 0.000010
0.800408 0.423642 0.502638 0.000000 -0.939160 -0.000007
1.237069 0.571070 0.464505 0.000000 0.655702 -0.000010
1.673729 0.477181 0.448531 -0.000000 -0.369240 -0.000022
0.964156 0.423446 0.503174 -0.000000 -0.938990 -0.000007
2.656215 0.424275 0.569535 -0.000000 -0.929174 0.000007
1.673729 0.545675 0.449088 -0.000000 0.369667 -0.000089
0.363748 0.547404 0.620727 0.000001 0.395504 0.000041
3.385944 0.347502 0.703048 0.034452 0.012487 0.009782
0.164925 0.462395 0.612190 -0.112359 -0.000220 0.000329
1.561149 0.726772 0.747470 -0.053251 0.003081 -0.002684
1.537015 0.777494 0.262970 -0.053253 0.010783 0.009221
1.662746 0.329206 0.365184 0.072191 -0.004096 0.003895
1.697659 0.596388 0.637648 0.053303 -0.006357 0.006011
1.690677 0.349713 0.717313 0.053302 0.005548 0.005255
0.164925 0.550144 0.617118 -0.112363 0.000182 0.000352
2.274137 0.479551 0.622887 -0.000001 -0.341362 0.000024
3.577834 0.326851 0.717501 0.034452 0.012486 0.009781
3.577834 0.694604 0.717501 0.034452 -0.012486 0.009782
1.323108 0.595936 0.630147 -0.039314 -0.019413 0.017684
1.323108 0.425519 0.440392 -0.039315 0.019413 -0.017684
2.164972 0.476499 0.621737 -0.000000 -0.369529 0.000022
0.402484 0.515127 0.628151 0.000000 0.028153 0.000041
2.791791 0.417791 0.532825 -0.000000 -0.999604 -0.000000
2.001224 0.598163 0.566944 -0.000001 0.938212 0.000007
0.964156 0.589858 0.584125 -0.000000 0.853729 0.000005
3.315755 0.586192 0.601494 -0.000000 0.689635 0.000302
2.899195 0.603654 0.538040 0.000000 0.999614 0.000000
1.837477 0.598591 0.565755 -0.000000 0.947311 0.000003
1.577916 0.689688 0.334022 -0.039315 -0.007444 -0.007429
1.577916 0.689688 0.736518 -0.039314 -0.007444 0.007429
2.274137 0.420821 0.511489 -0.000000 -0.964629 -0.000005
1.591972 0.299160 0.330703 -0.053252 -0.006162 0.005340
1.237069 0.430156 0.581709 -0.000000 -0.868079 0.000005
3.189672 0.415949 0.432855 0.034452 -0.022459 0.020469
3.113643 0.581136 0.606309 -0.000000 0.689631 0.000121
3.785587 0.467546 0.593128 0.214986 -0.000121 0.000157
3.411877 0.362278 0.386623 0.034452 0.024963 -0.016849
3.517685 0.697113 0.346788 0.034451 -0.024964 -0.016849
3.517685 0.324342 0.346788 0.034451 0.012487 -0.009782
1.946642 0.592742 0.491432 0.000000 0.882110 -0.000001
2.819963 0.538971 0.623882 0.000000 0.316886 0.000027
1.658091 0.417610 0.458501 0.072190 -0.009387 0.008865
1.658091 0.417610 0.612039 0.072190 -0.009387 -0.008865
1.588265 0.607504 0.608553 -0.053253 0.011981 -0.010198
1.770977 0.429795 0.627008 0.053302 0.006935 0.006549
1.699987 0.306370 0.337296 0.072191 -0.014676 0.013698
1.263346 0.448387 0.466206 -0.039314 0.025877 -0.021964
3.326977 0.628736 0.651952 0.034452 -0.021247 0.015071
1.473720 0.706385 0.731192 -0.053253 0.003338 -0.002906
3.298104 0.628013 0.417900 0.034452 -0.021248 -0.015072
3.612639 0.352893 0.715467 0.000000 -0.724153 -0.000897
3.523302 0.370477 0.402465 0.000000 0.724153 -0.000847
