1.447953 0.545767 0.595742 0.000000 -0.958488 0.000001
1.912209 0.886260 0.768788 0.061568 -0.003348 0.003885
0.413350 0.766708 0.564189 -0.000000 0.999940 0.000000
2.938812 0.397056 0.332248 -0.052620 -0.004526 0.005383
1.644469 0.900643 0.784203 -0.041160 -0.003075 0.003787
0.879506 0.540712 0.562068 0.000000 -0.999932 -0.000000
1.644469 0.406796 0.340423 -0.041163 0.003074 -0.003786
1.532239 0.809301 0.441334 -0.061507 0.003299 0.003497
2.339347 0.742307 0.492144 0.000000 0.791100 -0.000003
1.804510 0.762044 0.594491 -0.000001 0.950374 0.000002
1.646083 0.479983 0.690754 -0.061507 -0.007322 -0.007720
2.722157 0.408191 0.351012 0.035954 -0.002672 0.003363
0.672001 0.766658 0.559214 0.000000 0.999735 -0.000000
1.990096 0.654535 0.675305 -0.000000 0.023012 0.000021
1.314243 0.600055 0.661761 0.000000 -0.475702 0.000013
3.102712 0.663188 0.658447 0.310124 0.000022 0.000453
2.750805 0.741719 0.650145 0.035951 0.002576 -0.003244
1.648882 0.540713 0.562150 -0.000000 -0.999735 -0.000000
1.515726 0.788231 0.686357 -0.041171 -0.002260 0.002787
0.093465 0.570029 0.562313 -0.458856 -0.000030 0.000001
0.289140 0.610247 0.458001 0.000000 -0.393234 -0.000017
0.289140 0.606884 0.665153 0.000000 -0.414477 0.000064
0.690267 0.591719 0.656793 -0.000002 -0.505298 0.000006
1.314243 0.614653 0.456277 -0.000000 -0.350403 -0.000019
1.002255 0.743554 0.493757 0.000001 0.747036 -0.000003
2.938812 0.387977 0.781829 -0.052618 0.004668 0.005260
2.855875 0.586094 0.637037 0.000000 -0.757960 0.000421
1.725736 0.371576 0.786115 -0.061506 -0.004222 -0.004472
0.690267 0.594891 0.465829 0.000000 -0.516536 -0.000012
2.975162 0.305633 0.866465 -0.052619 -0.010860 -0.012697
2.935448 1.004727 0.861635 0.035956 -0.008810 0.009162
2.175681 0.653393 0.449310 -0.000000 -0.023020 -0.000083
2.742316 0.577340 0.497761 0.000001 -0.757958 -0.000383
0.129945 0.727201 0.495326 -0.309594 0.000085 -0.000074
1.507279 0.492355 0.690851 -0.061506 -0.006597 -0.006964
2.921089 0.274829 0.236242 0.035953 -0.010685 0.012931
1.519213 0.908889 0.346435 -0.061506 0.009499 0.009968
1.776736 1.177166 0.115557 -0.061508 0.004750 0.005028
1.739158 0.782223 0.431289 0.061566 -0.003349 -0.003885
2.577480 0.802258 0.690145 0.035951 0.005153 -0.006439
2.768730 0.499318 0.686206 0.035953 0.009789 0.010112
3.030026 0.475703 0.710693 -0.052618 0.003268 0.003689
2.918250 0.795028 0.670382 -0.052617 -0.004598 0.005181
2.910904 0.743521 0.470112 -0.052621 0.007964 0.009400
1.333971 0.540734 0.561253 0.000020 -0.011689 -0.000001
1.895243 0.956895 0.312973 0.091924 0.003925 0.004556
1.895243 0.368193 0.328162 0.091923 -0.004205 0.004881
1.895243 0.350544 0.811654 0.091922 -0.003925 -0.004556
0.957685 0.719155 0.654445 -0.000000 0.575421 0.000003
2.562196 0.572270 0.640648 -0.000000 -0.715054 0.000002
1.664809 0.943593 0.326074 -0.061505 0.002111 0.002240
1.380733 0.766711 0.561498 0.000000 0.999735 -0.000000
1.686893 1.023524 0.238677 -0.041164 -0.005063 -0.006207
1.990252 0.056218 1.076520 0.061567 0.008371 0.009638
1.990252 1.057073 0.909437 0.061571 -0.004185 0.004852
2.517626 0.761522 0.596208 0.000000 0.950267 0.000001
1.990252 1.215921 0.078485 0.061566 -0.005023 -0.005817
1.990252 1.092373 0.184810 0.061566 -0.007534 -0.008690
1.854713 0.003269 0.002538 -0.000000 -0.757962 -0.000146
0.786713 0.766660 0.565330 0.000020 0.012105 0.000001
0.868546 0.714830 0.467258 0.000001 0.525911 -0.000006
1.135964 0.567675 0.635566 -0.000001 -0.760094 0.000006
0.244570 0.714348 0.466952 0.000000 0.536214 -0.000092
1.902029 1.221233 1.039968 -0.061506 0.007388 -0.007789
1.803689 0.284340 0.232829 -0.041164 0.002351 -0.002899
0.244570 0.709808 0.660413 0.000001 0.496629 0.000102
2.093848 0.766690 0.564026 0.000000 0.999744 0.000000
2.726576 0.798757 0.430412 0.035954 0.010304 0.012505
1.844430 0.149646 0.121606 -0.041164 0.013018 -0.015331
1.581662 0.701743 0.664612 -0.000000 0.434892 0.000008
2.834119 0.918044 0.338969 0.035952 -0.004406 -0.004682
1.993018 0.540777 0.559377 0.000000 -0.999735 -0.000000
0.200000 0.542633 0.583079 -0.067982 -0.000300 0.000053
0.639121 0.540796 0.566064 0.000000 -0.999735 0.000000
2.925520 0.507516 0.423868 -0.052619 -0.004458 0.005302
1.898636 1.124364 0.956190 0.091924 0.002803 -0.003256
1.956320 0.785545 0.452998 0.091921 0.002243 0.002605
1.727366 0.868905 0.722912 -0.061505 0.002243 -0.002380
1.908816 0.068965 0.068994 0.091923 -0.006728 0.007797
1.908816 0.753750 0.655026 0.061566 -0.006697 0.007736
1.690281 0.273739 0.243362 -0.061505 -0.001715 0.001820
3.039254 0.749391 0.650608 -0.052622 0.002125 -0.002535
1.529421 0.342145 0.830453 -0.061506 -0.008444 -0.008882
1.180534 0.625076 0.452996 -0.000000 -0.262141 -0.000027
1.420990 0.455103 0.391385 -0.061505 -0.003958 0.004194
0.477647 0.657797 0.675229 0.000000 0.023020 0.000021
2.161068 0.610775 0.666842 0.000000 -0.371895 0.000036
0.474725 0.657471 0.449389 0.000000 0.023203 -0.000021
2.339347 0.552855 0.511359 0.000000 -0.890000 -0.000002
0.816670 0.650131 0.675241 0.000000 -0.023020 0.000316
1.664959 1.106493 0.951967 -0.041165 -0.002170 0.002676
3.047817 0.541168 0.470553 -0.052618 0.002192 -0.002478
1.700447 0.263149 0.890378 -0.061507 -0.001715 -0.001820
1.734148 0.426383 0.390844 -0.061506 -0.004486 0.004750
2.829614 0.679195 0.672410 -0.000000 0.217740 0.000065
1.990252 0.215067 0.184810 0.061567 0.003767 -0.004369
3.001332 0.810161 0.435023 -0.052621 -0.010475 -0.011622
1.492522 0.622441 0.453721 0.000000 -0.284749 -0.000049
1.670801 0.593745 0.466536 0.000000 -0.536189 -0.000046
1.543668 0.540796 0.558562 -0.000000 -0.999735 -0.000000
3.102712 0.690686 0.473067 0.310125 0.000207 -0.000437
1.314243 0.701297 0.664815 -0.000001 0.414115 0.000032
2.968002 0.554734 0.658283 -0.052617 -0.004458 -0.005302
2.577480 0.505181 0.434481 0.035954 -0.005152 0.006439
1.976679 0.533309 0.457583 0.061566 0.003349 -0.003885
1.849080 0.622089 0.453826 -0.000000 -0.284697 -0.000049
2.953352 0.954216 0.311053 -0.052618 -0.003734 -0.004214
0.823976 0.571985 0.484270 0.000000 -0.731250 -0.000007
2.785044 0.542380 0.581632 0.000001 -0.984840 0.000005
1.002255 0.572840 0.483395 0.000000 -0.715226 -0.000028
2.918754 0.613087 0.456863 -0.000000 -0.349031 -0.000010
1.002255 0.573524 0.641932 0.000001 -0.713600 0.000014
1.752731 0.489370 0.723081 0.061569 0.006696 0.007736
1.759941 0.543819 0.536004 -0.000001 -0.970554 -0.000007
1.180534 0.740662 0.634509 -0.000000 0.776717 0.000012
2.593219 0.726598 0.493692 0.000000 0.757962 -0.000153
2.027359 0.739024 0.636436 -0.000001 0.759520 0.000006
1.868098 1.016858 0.239856 0.061567 -0.005023 -0.005817
0.601128 0.738239 0.487306 0.000001 0.746705 -0.000052
0.072893 0.647112 0.491004 -0.532479 -0.000005 -0.000044
1.652994 0.335509 0.842377 -0.041165 0.005425 0.006643
1.581662 0.743879 0.494177 0.000001 0.615297 -0.000002
2.250208 0.713212 0.466230 0.000000 0.536240 -0.000046
2.866563 0.895476 0.777254 0.035953 0.008015 -0.009876
2.740475 0.757101 0.516666 0.000000 0.919372 -0.000003
0.601128 0.739156 0.636281 0.000001 0.752415 0.000003
2.841299 0.408784 0.778612 0.035954 -0.009350 -0.011424
2.939173 1.044734 0.225808 0.035954 0.010685 0.012931
2.740242 0.911372 0.784048 0.035953 0.009350 -0.011424
1.135964 0.749344 0.502098 -0.000000 0.844067 -0.000018
1.439509 0.739372 0.636035 -0.000001 -0.757958 -0.000114
0.072893 0.637323 0.632026 -0.532477 -0.000011 0.000040
1.735845 0.885366 0.386928 -0.061506 0.002243 0.002380
1.808718 0.535654 0.445933 0.061570 0.002511 -0.002916
2.653527 0.656819 0.675252 0.000000 0.023012 0.000083
0.318365 0.766621 0.557583 0.000000 0.999735 -0.000000
2.562196 0.543365 0.537992 -0.000000 -0.975930 -0.000003
1.895337 1.305805 0.004438 -0.061506 0.010554 0.011045
1.874884 0.955357 0.831290 0.061567 -0.002930 0.003401
1.353221 0.781737 0.452142 -0.041166 -0.007233 -0.008798
1.732372 0.790205 0.648364 -0.061503 0.003299 -0.003497
1.225104 0.551167 0.609779 0.000001 -0.884189 0.000002
1.558183 0.358308 0.305736 -0.041165 0.003074 -0.003786
1.814052 0.045629 1.085634 -0.061505 -0.006333 -0.006689
0.467418 0.741639 0.491321 -0.000000 0.776350 -0.000012
1.990252 0.532763 0.666408 0.061568 0.006697 0.007736
2.294777 0.738510 0.637016 -0.000001 0.742735 0.000007
0.823976 0.565955 0.633496 0.000000 -0.776717 0.000006
1.492522 0.724870 0.474523 0.000001 0.624646 -0.000009
2.651335 0.578895 0.477631 -0.000001 -0.664801 -0.000033
1.990252 0.215067 0.939816 0.061568 0.007534 0.008689
1.990252 0.373915 0.803112 0.061568 0.005860 0.006778
1.990252 0.933525 0.321514 0.061568 -0.005860 -0.006778
2.123805 0.540792 0.558725 0.000000 -0.999735 -0.000000
1.670801 0.699998 0.459219 0.000000 0.414421 -0.000064
3.073862 0.905937 0.779370 -0.052620 0.009051 -0.010648
3.073862 0.401502 0.345256 -0.052620 -0.009051 0.010648
0.467418 0.740504 0.634696 0.000001 0.664479 0.000002
2.161068 0.737013 0.485940 0.000000 0.731117 -0.000014
1.628329 0.460335 0.413864 -0.061505 -0.007323 0.007720
2.473056 0.711396 0.659492 -0.000000 0.516567 0.000048
0.601128 0.569065 0.487458 -0.000001 -0.745765 -0.000013
2.205638 0.723469 0.651225 0.000000 0.611210 0.000009
1.732729 0.130348 0.111901 -0.061506 -0.009499 0.009968
1.779998 1.043249 0.882663 -0.061505 0.001583 -0.001681
1.670801 0.575414 0.643791 0.000000 -0.698913 0.000015
0.868546 0.734115 0.641728 0.000001 0.666172 0.000004
1.135964 0.560124 0.498989 -0.000000 -0.831516 -0.000010
1.796992 0.199065 0.960490 -0.041165 0.007233 0.008798
1.581662 0.761472 0.596363 0.000000 0.951693 0.000009
2.673461 0.535669 0.670399 0.035952 -0.008587 -0.010545
2.250208 0.573809 0.642223 0.000000 -0.715234 0.000028
1.759941 0.756610 0.515589 0.000000 0.910024 -0.000013
0.804979 0.652985 0.449311 -0.000000 -0.011695 -0.000082
2.205638 0.574597 0.481633 0.000000 -0.698910 -0.000015
2.027359 0.638471 0.450340 0.000000 -0.126372 -0.000014
0.511988 0.580001 0.476665 -0.000000 -0.647642 -0.000034
2.768730 0.499318 0.438421 0.035953 0.019571 -0.018408
0.511988 0.579565 0.647591 0.000001 -0.584295 0.000002
1.922388 0.096257 1.033798 0.091922 -0.003925 -0.004556
1.849080 0.543868 0.588820 0.000000 -0.970720 0.000004
0.601128 0.572241 0.640619 0.000000 -0.715181 0.000028
1.002255 0.765268 0.580427 -0.000001 0.977151 0.000001
0.989103 0.656003 0.449356 -0.000000 0.010458 -0.000023
2.683642 0.793053 0.676320 0.035953 -0.018874 0.017896
1.314243 0.702881 0.460564 -0.000001 0.434966 -0.000030
1.884882 0.766655 0.559051 0.000000 0.999727 -0.000000
1.649606 0.976069 0.830427 -0.061502 0.003959 -0.004194
1.649606 0.339039 0.285287 -0.041168 0.002712 -0.003343
2.831178 0.775861 0.653000 0.035952 -0.005367 0.005683
1.888457 0.298586 0.248403 0.061567 0.002511 -0.002916
0.395815 0.540722 0.563455 0.000000 -0.999932 0.000000
3.136212 0.620748 0.589648 1.000000 0.000000 0.000000
1.578399 0.837240 0.729363 -0.041164 -0.020064 0.022280
0.966453 0.540785 0.559051 0.000000 -0.999727 -0.000000
1.492522 0.589853 0.655546 0.000000 -0.574443 0.000010
2.823908 0.743310 0.469866 0.035954 0.006058 0.007541
0.059837 0.713862 0.545201 -0.583654 0.000031 -0.000008
1.903726 0.465645 0.731211 0.061568 0.001779 0.002066
3.030690 0.737555 0.483344 -0.052618 0.004251 0.005058
3.052463 0.592024 0.656997 0.310076 -0.000078 0.000117
1.903726 0.850486 0.403515 0.091923 0.002383 0.002768
1.827380 0.890383 0.746148 0.091922 0.001121 -0.001303
3.124876 0.752698 0.647493 -0.052620 0.007214 -0.008532
1.908816 1.238475 0.068994 -0.061503 0.003167 0.003358
0.244570 0.555680 0.506118 0.000001 -0.867842 -0.000033
1.719175 1.162972 1.000573 -0.041164 -0.007233 0.008799
3.085198 0.871884 0.374562 -0.052619 0.010860 0.012698
1.908816 0.288942 0.882866 0.061566 0.005023 0.005817
2.918754 0.544318 0.590642 -0.000000 -0.966931 0.000001
2.894887 0.721345 0.637037 -0.052618 0.007965 -0.009401
2.517626 0.671914 0.450777 0.000000 0.172274 -0.000042
2.291855 0.766624 0.557746 0.000000 0.999735 -0.000000
1.905423 0.165530 0.989350 0.061568 0.007533 0.008689
1.610744 1.050013 0.903362 -0.041165 -0.002532 0.003121
1.647749 0.779249 0.438543 -0.041165 -0.020063 -0.022279
2.428487 0.764834 0.541708 0.000000 0.985018 -0.000001
1.888457 1.098502 0.191933 0.091924 0.002803 0.003256
1.804510 0.710269 0.660150 -0.000000 0.496098 0.000013
1.444663 0.826139 0.706564 -0.061506 0.002639 -0.002799
1.804510 0.596043 0.659492 0.000000 -0.516554 0.000048
1.637852 0.229186 0.196962 -0.061508 -0.001583 0.001680
2.978427 0.937714 0.800750 -0.052619 -0.004668 0.005260
1.481889 0.493376 0.432588 -0.061506 -0.005278 0.005583
2.383917 0.684174 0.453488 0.000000 0.262592 -0.000027
1.695216 0.428798 0.734803 -0.061506 -0.004486 -0.004750
2.934191 0.854913 0.400185 -0.052619 -0.003267 -0.003689
2.963323 0.559036 0.500617 0.000000 -0.844066 -0.000037
1.905423 0.823909 0.698446 0.091922 0.003574 -0.004150
1.610744 1.050013 0.221265 -0.041163 -0.002532 -0.003121
2.071929 0.637703 0.674179 0.000001 -0.145670 0.000025
1.847824 1.166755 1.010457 -0.041163 -0.006510 0.007942
1.563221 0.908963 0.774536 -0.061507 0.002375 -0.002520
1.818897 0.380809 0.811124 0.061567 0.006278 0.007258
2.487056 0.565800 0.486650 0.035953 -0.013737 0.016202
2.693857 0.467350 0.719750 0.035954 0.005664 0.005990
2.473056 0.571595 0.639939 0.000001 -0.730760 0.000027
1.046825 0.729944 0.645745 -0.000000 0.680877 0.000008
3.001332 0.810161 0.689603 -0.052621 -0.010475 0.011622
3.102203 0.486635 0.418521 -0.052619 -0.006336 0.007509
1.670801 0.738103 0.637473 0.000000 0.746845 0.000002
1.899485 0.503028 0.443684 0.091923 -0.001787 0.002076
1.746282 0.116228 1.024876 -0.061506 -0.008444 -0.008882
1.938220 0.594367 0.658481 0.000000 -0.516536 0.000012
2.619917 0.656655 0.449371 0.000000 0.023012 -0.000021
1.810518 0.217534 0.178373 -0.041165 0.015909 -0.018330
2.859384 0.391213 0.341910 0.035954 0.008810 -0.009162
1.598765 0.899156 0.344050 -0.041165 -0.006510 -0.007941
1.198070 0.766696 0.560845 0.000000 0.999735 -0.000000
3.085963 0.556045 0.591942 0.310124 -0.000525 0.000131
1.805325 0.421067 0.347044 0.061568 0.001674 -0.001945
1.314243 0.757887 0.518503 0.000001 0.915661 -0.000006
1.403383 0.582759 0.650258 0.000000 -0.625666 0.000005
2.383917 0.697267 0.666593 0.000001 0.391904 0.000034
2.909255 0.766628 0.566717 0.000000 0.999735 0.000000
1.339667 0.539822 0.464294 -0.061506 -0.010554 0.011045
2.813357 0.560187 0.467227 0.035953 -0.004882 0.006107
2.339347 0.614118 0.668150 -0.000000 -0.350449 0.000078
2.787045 0.862284 0.377315 0.035954 0.005343 0.006672
1.804510 0.710977 0.464881 0.000000 0.516536 -0.000012
1.990252 0.880575 0.757544 0.061565 -0.001570 0.001823
2.910093 0.335844 0.285078 0.035953 -0.010685 0.012931
0.168411 0.688481 0.666026 -0.159861 0.000084 0.000233
1.492522 0.558752 0.501065 -0.000001 -0.843435 -0.000009
2.606766 0.740134 0.635131 -0.000000 0.761726 0.000012
2.671838 0.845421 0.398811 0.035953 -0.009440 -0.009776
1.578399 0.470199 0.729363 -0.041166 0.010035 0.012042
1.403383 0.623856 0.453328 0.000000 -0.262068 -0.000027
3.008308 0.283017 0.245124 -0.052619 0.007468 -0.008364
0.160602 0.557158 0.514231 -0.190225 -0.000185 -0.000087
1.442945 0.798921 0.443552 -0.061502 0.001979 0.002100
3.008308 1.022606 0.881612 -0.052621 0.007240 -0.008563
1.820594 0.521939 0.689530 0.061568 0.005336 0.006178
2.830304 0.460719 0.719227 0.035953 0.005874 0.006207
1.908816 0.434553 0.367072 0.061567 0.001674 -0.001945
0.333709 0.744339 0.629826 0.000001 0.804796 0.000021
2.675704 0.763619 0.475407 0.035954 -0.018874 -0.017895
1.817201 0.922149 0.317220 0.061565 -0.001570 -0.001823
3.001901 0.426077 0.763730 -0.052619 -0.010861 -0.012698
2.918754 0.614653 0.668350 0.000000 -0.350433 0.000078
1.725867 1.078401 0.204273 -0.061510 0.001583 0.001680
2.917001 0.440107 0.390415 -0.052619 0.013067 -0.014348
1.250677 0.654861 0.449329 0.000000 0.023020 -0.000021
0.645697 0.686914 0.454291 0.000000 0.284934 -0.000006
2.517626 0.624525 0.671480 -0.000000 -0.262580 0.000053
1.523210 0.655840 0.675274 0.000000 0.023012 0.000316
1.818897 0.829119 0.432234 0.091924 0.003574 0.004150
3.069213 0.612566 0.462959 0.313379 -0.000058 -0.000127
0.378279 0.622950 0.453574 0.000000 -0.261901 -0.000027
0.148986 0.758870 0.562313 -0.242908 0.000078 0.000002
1.817257 0.240633 0.901697 -0.061507 -0.003167 -0.003358
1.135964 0.691405 0.668848 0.000000 0.319686 0.000005
1.166652 0.540758 0.564433 0.000000 -0.999735 0.000000
0.657388 0.657145 0.675244 0.000000 0.023012 0.000021
1.581731 0.516508 0.661800 -0.061505 -0.007323 -0.007720
1.834166 0.320391 0.294462 0.091926 -0.001962 0.002280
1.725787 0.315579 0.838852 -0.061514 -0.001847 -0.001960
1.647749 0.528190 0.438543 -0.041165 0.005018 -0.006152
2.963323 0.747678 0.625094 0.000000 0.831474 0.000019
0.333709 0.563293 0.494538 0.000001 -0.792898 -0.000005
0.333709 0.561166 0.627147 -0.000001 -0.817072 0.000010
1.938220 0.596393 0.464923 0.000001 -0.507755 -0.000006
1.964803 0.392588 0.335514 0.061567 0.001570 -0.001823
1.759941 0.584293 0.473152 0.000000 -0.611633 -0.000019
2.027359 0.754454 0.511105 0.000000 0.889960 -0.000015
1.952927 0.265768 0.232990 0.091922 -0.003084 0.003581
1.837644 1.139871 0.136478 -0.041167 -0.006510 -0.007941
1.813807 0.997099 0.836334 -0.061510 0.001715 -0.001820
0.977413 0.651436 0.675271 0.000000 -0.023020 0.000041
2.289663 0.540743 0.563781 0.000000 -0.999735 0.000000
3.005105 0.351823 0.818451 -0.052619 0.003734 0.004214
1.403383 0.543365 0.537992 0.000000 -0.976015 -0.000001
1.358813 0.745734 0.627915 -0.000001 0.816065 0.000005
3.069213 0.759193 0.583293 0.310125 0.000525 0.000131
0.378279 0.621542 0.670638 0.000000 -0.284766 0.000049
1.779998 1.043249 0.241963 -0.061505 0.003167 0.003358
2.580462 0.766651 0.558888 0.000000 0.999727 -0.000000
1.834317 1.206950 0.082340 -0.041164 -0.005787 -0.007077
1.834354 1.252447 1.075095 -0.061504 0.003167 -0.003358
2.161068 0.556045 0.619145 -0.000000 -0.867846 0.000008
1.581662 0.588251 0.470205 0.000000 -0.574614 -0.000041
2.732432 0.827588 0.717321 0.035953 0.017803 -0.020145
1.502313 0.937055 0.806150 -0.041164 -0.003255 0.004008
2.794496 0.359696 0.815349 0.035953 -0.008014 -0.009876
2.541310 0.778011 0.455349 0.035954 0.013737 0.016201
2.903004 0.286953 0.877951 0.035953 -0.008015 -0.009876
2.667903 0.444562 0.382313 0.035953 -0.008587 0.010544
2.776411 0.371819 0.319711 0.035954 -0.008014 0.009876
2.102616 0.651599 0.449352 0.000000 -0.023203 -0.000313
1.929175 0.182224 0.151576 0.061567 0.007534 -0.008689
1.445045 0.525402 0.664994 -0.061511 -0.001979 -0.002100
1.626231 0.644593 0.674947 -0.000001 -0.079781 0.000045
0.184149 0.745859 0.625430 -0.098710 0.000338 0.000243
2.957258 0.250582 0.909252 0.035952 -0.010686 -0.012932
1.913906 0.895153 0.348323 0.061569 -0.001570 -0.001823
1.935961 1.307439 1.118289 -0.061506 0.010554 -0.011045
1.913906 0.404617 0.767392 0.091922 -0.002103 -0.002443
2.387570 0.540743 0.563781 0.000000 -0.999735 0.000000
2.884467 0.851773 0.721281 0.035954 -0.005874 0.006207
1.627616 0.991304 0.277988 -0.061507 0.003958 0.004194
2.759472 0.649561 0.449399 -0.000010 -0.000609 -0.000391
3.039483 0.930776 0.325716 -0.052618 -0.004668 -0.005260
1.719010 0.972871 0.846638 -0.041163 -0.005425 0.006643
0.176262 0.684002 0.455882 -0.129346 0.000092 -0.000298
2.738381 0.554047 0.636581 0.035954 0.005664 0.005990
0.734837 0.757293 0.517116 -0.000000 0.919389 -0.000012
0.333709 0.742382 0.492241 -0.000000 0.787967 -0.000003
1.915602 0.129821 0.105373 0.061567 0.003348 -0.003885
1.766303 0.488824 0.402179 0.061569 0.001674 -0.001945
1.949534 1.015401 0.868615 0.091923 0.003364 -0.003906
1.938220 0.548659 0.603932 0.000003 -0.871208 0.000003
0.734837 0.644105 0.674907 0.000000 -0.080706 0.000180
1.715371 0.764551 0.584359 0.000001 0.970730 0.000001
2.892009 0.959472 0.829115 0.035953 0.006679 -0.008290
2.982863 0.343835 0.300678 -0.052618 0.007468 -0.008365
1.647806 0.859765 0.721038 -0.061506 0.002375 -0.002520
0.823976 0.752407 0.507251 0.000000 0.868198 -0.000002
1.135964 0.695112 0.457162 0.000000 0.370903 -0.000009
1.578399 0.837240 0.395263 -0.041165 -0.010035 -0.012042
0.467418 0.544809 0.532174 0.000000 -0.964879 -0.000004
1.364658 0.653556 0.675320 0.000000 -0.023012 0.000083
2.859550 0.520596 0.661861 0.035953 0.005367 0.005683
3.045583 0.850454 0.734836 -0.052619 0.006336 -0.007509
0.690267 0.549312 0.519066 0.000000 -0.928212 -0.000006
0.913116 0.557299 0.621247 -0.000001 -0.724645 0.000001
1.515679 0.733916 0.642375 -0.000000 -0.757961 -0.000171
1.982789 0.719188 0.470205 -0.000000 0.574598 -0.000041
1.990252 0.073868 0.063296 0.061567 0.008371 -0.009638
1.990252 1.162972 0.124053 0.061564 -0.005860 -0.006779
1.990252 1.110022 0.955005 0.061566 -0.007534 0.008690
1.990252 0.003269 1.122088 0.061569 0.006697 0.007736
1.990252 1.215921 1.046141 0.061569 -0.005023 0.005817
1.725867 1.078401 0.920353 -0.061507 0.003167 -0.003358
1.908816 0.736100 0.484789 0.061566 -0.006697 -0.007736
2.863185 0.511907 0.454829 0.035954 0.010732 -0.011011
3.090867 0.452582 0.735411 -0.052619 -0.006336 -0.007509
3.119208 0.537715 0.462480 -0.052618 -0.007214 0.008533
3.028517 1.042149 0.228032 -0.052620 0.003621 0.004312
3.028517 0.265290 0.896594 -0.052616 -0.003621 -0.004312
1.725787 0.327509 0.271912 -0.041166 0.005063 -0.006207
0.913116 0.557636 0.502821 0.000000 -0.856266 -0.000002
0.244570 0.565108 0.632450 0.000000 -0.791317 0.000001
1.952927 1.050496 0.225395 0.091922 0.006167 0.007150
2.740475 0.764296 0.585639 0.000000 0.980784 0.000003
1.637852 0.229186 0.927665 -0.061507 -0.006333 -0.006689
1.380329 0.497463 0.427839 -0.061506 -0.005278 0.005583
1.420990 0.455103 0.733241 -0.061498 -0.001979 -0.002101
2.719286 0.540785 0.559051 -0.000000 -0.999735 -0.000000
1.491242 0.857689 0.383326 -0.041166 -0.004521 -0.005550
3.029082 0.655025 0.675308 0.000003 0.011351 0.001344
2.161068 0.756154 0.610039 -0.000001 0.909557 0.000013
1.735906 0.936206 0.306780 -0.041166 -0.002713 -0.003343
1.447953 0.756763 0.515923 -0.000000 0.909755 -0.000003
1.268212 0.648827 0.675210 0.000000 -0.023012 0.000316
3.136212 0.653720 0.519484 1.000000 0.000000 0.000000
0.690267 0.749475 0.622322 -0.000001 0.843260 0.000009
1.891906 0.050980 1.074003 -0.061506 -0.003167 -0.003358
0.734837 0.643292 0.449785 0.000000 -0.103734 -0.000070
1.712172 0.895202 0.783386 -0.041165 -0.005787 0.007077
0.233610 0.648663 0.449420 -0.000000 -0.023194 -0.000021
1.696014 0.805110 0.709581 -0.041164 -0.010036 0.012042
2.797019 0.883795 0.755494 0.035954 -0.002570 0.002744
2.559395 0.517305 0.679711 0.035952 -0.006870 -0.008519
2.957258 1.056857 0.909252 0.035953 0.010685 -0.012931
2.642918 0.582009 0.632290 0.000000 -0.757963 0.000153
0.200000 0.749803 0.502821 -0.067985 0.000261 -0.000157
1.135964 0.624446 0.671459 0.000000 -0.262490 0.000107
1.583510 0.432315 0.364318 -0.041164 0.003255 -0.004008
1.542890 0.419656 0.756308 -0.061506 -0.002375 -0.002520
1.824039 1.066005 0.927617 -0.041169 -0.003978 0.004890
2.918754 0.679673 0.452324 -0.000001 0.232329 -0.000015
2.205638 0.661138 0.675076 -0.000000 0.057737 0.000063
2.517626 0.546117 0.596829 -0.000000 -0.951719 0.000005
0.137508 0.564701 0.611896 -0.280122 -0.000116 0.000061
1.938220 0.695452 0.667328 -0.000002 0.369483 0.000037
2.695905 0.706416 0.662285 0.000000 0.476418 0.000027
1.942747 0.936385 0.799788 0.091922 0.001962 -0.002280
1.581731 0.775593 0.679623 -0.041164 -0.010036 0.012042
0.467418 0.546648 0.598458 -0.000000 -0.942718 0.000001
0.734837 0.557636 0.621805 0.000000 -0.856266 0.000002
3.124876 0.752698 0.477133 -0.052621 0.007214 0.008532
1.698665 0.359090 0.324460 -0.061503 -0.002111 0.002240
2.768960 0.457279 0.387748 0.035955 -0.002672 0.003363
0.479109 0.766710 0.560600 0.000000 0.999932 -0.000000
2.921885 0.803717 0.446308 -0.052620 -0.004598 -0.005181
1.929175 0.017241 0.022001 0.091923 -0.005607 0.006503
2.899098 0.910581 0.333914 0.035953 0.016025 0.018481
1.339667 0.539822 0.660333 -0.061506 -0.010554 -0.011045
1.225104 0.594611 0.658628 0.000001 -0.514942 0.000012
2.058777 0.540762 0.564597 0.000000 -0.999735 0.000000
0.913116 0.748753 0.501168 -0.000001 0.785406 -0.000001
1.776746 0.653230 0.675312 0.000000 -0.023385 0.000010
0.227765 0.648663 0.675207 0.000000 -0.023012 0.000021
0.814478 0.540781 0.565412 0.000000 -0.999735 0.000000
3.009171 0.407792 0.346079 -0.052619 -0.010860 0.012698
0.913116 0.675125 0.673272 -0.000001 0.192032 0.000019
1.091395 0.594227 0.466230 0.000000 -0.536208 -0.000023
1.537092 0.557383 0.621386 0.000000 -0.856157 0.000009
0.047366 0.607717 0.536690 -0.632607 -0.000022 -0.000013
0.107762 0.592642 0.495314 -0.396127 -0.000053 -0.000056
3.007893 0.592265 0.467476 -0.000001 -0.535867 -0.000023
2.975162 1.001806 0.258161 -0.052619 0.010860 0.012698
2.884738 0.361713 0.809022 0.035954 0.014682 0.014554
1.588684 0.318550 0.847659 -0.061505 -0.003958 -0.004194
1.715371 0.615111 0.668521 -0.000001 -0.348626 0.000020
0.779407 0.746859 0.626313 0.000001 0.813965 0.000005
1.268212 0.540728 0.563129 0.000000 -0.999727 0.000000
2.695905 0.619980 0.454460 -0.000000 -0.299079 -0.000006
1.837559 0.775046 0.648130 0.091923 0.003364 -0.003906
1.715371 0.542507 0.582355 -0.000000 -0.985021 0.000005
2.428487 0.553487 0.510125 0.000000 -0.890000 -0.000002
1.963106 0.487003 0.702482 0.091925 -0.003574 -0.004150
1.922388 1.071992 0.927800 0.061564 -0.004186 0.004853
1.626231 0.556962 0.503938 0.000001 -0.724645 -0.000001
1.046825 0.709100 0.463808 0.000000 0.496532 -0.000013
1.046825 0.763346 0.534895 -0.000000 0.968633 -0.000002
0.053525 0.692585 0.604946 -0.608418 0.000019 0.000020
3.045521 0.316370 0.852635 -0.052618 -0.010861 -0.012698
2.964290 0.735301 0.503806 0.000002 0.757931 -0.000201
1.746170 0.238402 0.214811 -0.061506 -0.006333 0.006689
0.957685 0.709313 0.463929 0.000000 0.496667 -0.000051
1.546222 0.487439 0.410929 -0.041165 0.010036 -0.012042
0.511988 0.706954 0.462632 0.000000 0.476459 -0.000054
3.069213 0.550810 0.531096 0.317059 -0.000525 -0.000188
2.776411 0.935620 0.319711 0.035954 0.008014 0.009876
0.779407 0.600665 0.662091 0.000001 -0.449433 0.000004
0.609165 0.766647 0.565901 0.000000 0.999735 0.000000
0.324211 0.658449 0.675214 0.000000 0.023020 0.000021
3.044814 0.529784 0.663925 -0.052619 0.010476 0.011623
2.898076 0.430914 0.743729 0.035953 0.010279 0.010581
2.523225 0.765887 0.658844 0.035955 0.006869 -0.008518
3.136212 0.683598 0.592998 1.000000 0.000000 0.000000
1.269674 0.576869 0.479465 0.000000 -0.682146 -0.000031
0.867815 0.654291 0.449309 0.000000 0.011330 -0.000042
2.428487 0.723501 0.473427 0.000001 0.596826 -0.000005
1.739459 1.133245 0.153768 -0.061505 0.005278 0.005583
1.847870 0.081598 0.075733 -0.061506 -0.007388 0.007789
2.250208 0.755166 0.512528 0.000000 0.900249 -0.000014
1.773090 0.435602 0.767697 0.061568 0.001674 0.001945
1.673231 0.898966 0.368818 -0.061508 0.004486 0.004750
2.799171 0.565386 0.652629 0.035951 -0.009763 -0.011895
2.238517 0.654535 0.449322 0.000000 0.023194 -0.000010
1.745944 0.729547 0.647452 0.061568 -0.006697 0.007736
1.685037 0.473066 0.391932 -0.041167 0.003255 -0.004007
1.696014 0.826072 0.439403 -0.061505 0.007323 0.007720
1.857918 0.326290 0.854867 0.061567 0.005441 0.006298
1.895299 1.259626 1.088172 -0.041164 -0.008680 0.010489
0.327133 0.658449 0.449412 0.000000 0.023020 -0.000021
1.925781 0.988292 0.269135 0.061568 -0.005441 -0.006298
2.606766 0.616419 0.668982 0.000000 -0.328770 0.000084
1.225104 0.707384 0.661761 -0.000001 0.473217 0.000014
2.955015 0.456258 0.722607 -0.052620 0.006535 0.007336
1.554795 0.948499 0.312140 -0.061507 0.002243 0.002380
0.511988 0.707312 0.661799 -0.000000 0.475317 0.000013
1.771628 0.168509 0.140739 -0.041164 0.003617 -0.004450
1.693409 0.552738 0.506403 -0.061506 -0.006597 0.006964
1.827380 0.558255 0.499993 0.091922 -0.004485 0.005206
2.353960 0.766673 0.559867 -0.000010 0.046706 -0.000000
1.773090 0.871837 0.767697 0.061568 -0.001674 0.001945
2.784733 0.817956 0.430022 0.035954 -0.019570 -0.018407
2.875515 0.877029 0.379315 0.035953 -0.010279 -0.010581
2.027359 0.598056 0.660657 0.000003 -0.229170 0.000007
1.759695 0.265052 0.905083 -0.041165 0.004340 0.005331
2.517626 0.763336 0.534856 -0.000001 0.968192 -0.000004
1.664931 1.075949 0.201424 -0.061508 0.003167 0.003358
1.515773 0.842545 0.730338 -0.041163 -0.005425 0.006643
2.383917 0.578956 0.477577 -0.000000 -0.665145 -0.000016
1.537092 0.688469 0.454786 0.000000 0.306667 -0.000023
1.713768 0.501015 0.665216 -0.061506 -0.007322 -0.007720
1.818897 0.926630 0.811124 0.061567 -0.003139 0.003643
1.617239 0.555803 0.621784 -0.061508 -0.007322 -0.007720
0.957685 0.764368 0.539347 0.000000 0.980539 -0.000003
1.908816 1.159695 1.004381 0.061565 -0.003349 0.003885
3.085963 0.748019 0.523253 0.310124 0.000509 -0.000182
2.250208 0.551048 0.515107 0.000000 -0.909808 -0.000003
1.484465 0.452549 0.730274 -0.061505 -0.003299 -0.003497
1.715371 0.733630 0.482403 0.000000 0.715279 -0.000007
2.383917 0.579534 0.647565 0.000000 -0.665202 0.000008
2.250208 0.759499 0.602067 -0.000000 0.936494 0.000011
1.837644 0.158365 0.977455 -0.061506 -0.004750 -0.005028
2.990133 0.976895 0.844568 -0.052620 0.003620 -0.004312
2.863185 0.795532 0.454829 0.035954 -0.010732 -0.011011
1.963106 0.487003 0.422144 0.091922 -0.003574 0.004150
1.403383 0.701297 0.664815 -0.000000 0.414628 0.000016
1.597115 0.948990 0.820840 -0.041162 -0.005787 0.007078
1.952927 0.248119 0.906826 0.091922 -0.003084 -0.003581
1.752731 0.841929 0.429269 -0.061506 0.009499 0.009968
1.771463 0.341738 0.810347 -0.061506 -0.003958 -0.004194
1.447953 0.663334 0.449719 0.000000 0.080619 -0.000090
2.935358 0.334030 0.832387 0.035954 0.011746 0.011955
1.358813 0.663252 0.449712 0.000000 0.080663 -0.000090
1.963106 0.741012 0.634130 -0.000001 -0.757944 -0.000098
2.027359 0.764904 0.582516 0.000001 0.981062 0.000001
3.054085 0.824914 0.411770 -0.052620 0.006336 0.007509
2.161068 0.551776 0.513556 0.000000 -0.900196 -0.000007
2.874184 0.756424 0.515181 -0.000001 0.907029 -0.000007
2.740475 0.719722 0.470580 0.000000 0.593492 -0.000010
2.764439 0.460310 0.734269 0.035953 -0.008904 -0.010912
0.244570 0.751759 0.618508 -0.000000 0.867929 0.000033
1.730872 0.987941 0.265157 -0.041165 -0.002532 -0.003121
2.695905 0.749803 0.621805 0.000001 0.855674 0.000009
2.595496 0.557403 0.484145 0.035952 0.011328 -0.011568
1.786662 0.786936 0.472463 0.091923 0.002243 0.002605
2.294777 0.576094 0.480189 0.000001 -0.679153 -0.000008
1.786662 0.766485 0.675927 0.061571 -0.003348 0.003885
2.709596 0.545929 0.460696 0.035953 -0.002576 0.003244
1.502313 0.370385 0.318476 -0.061504 -0.002243 0.002380
1.827474 1.123849 0.974637 -0.041164 -0.014464 0.016855
1.581731 0.775593 0.445003 -0.041164 -0.010036 -0.012042
1.776736 1.177166 1.009069 -0.061505 0.004750 -0.005028
1.773390 1.219451 0.075447 -0.041165 -0.005787 -0.007077
0.779407 0.602076 0.461801 -0.000001 -0.454441 -0.000014
2.615859 0.527677 0.667243 0.035954 0.015101 0.014908
2.972637 0.518852 0.456114 -0.052619 0.010476 -0.011623
2.785044 0.547512 0.523705 0.000000 -0.936342 -0.000003
3.136212 0.568092 0.564593 0.293892 -0.000130 0.000002
1.834166 0.971369 0.276243 0.061565 -0.002930 -0.003401
2.842035 0.540811 0.566717 0.000000 -0.999735 0.000000
0.122462 0.653720 0.659051 -0.346012 0.000001 0.000048
2.810582 0.419318 0.355768 0.035953 -0.002338 0.002945
1.461128 0.786078 0.667439 -0.061508 0.005277 -0.005583
0.645697 0.629199 0.452003 0.000000 -0.217687 -0.000130
1.956320 1.270914 0.035291 0.091922 0.005607 0.006503
1.861312 0.401450 0.360915 0.091923 -0.001121 0.001303
0.122462 0.662645 0.465988 -0.338766 0.000012 -0.000101
1.409060 0.758509 0.467990 -0.041165 -0.010849 -0.012957
1.461652 0.412744 0.354931 -0.061505 -0.006597 0.006964
2.116498 0.597772 0.464132 0.000000 -0.496606 -0.000025
1.854525 0.573523 0.642375 0.061568 0.005023 0.005817
0.645697 0.711326 0.659534 0.000001 0.516136 0.000024
1.358813 0.732638 0.481434 -0.000001 0.698357 -0.000015
1.751109 0.406948 0.334892 -0.041165 0.005787 -0.007077
1.840953 0.241376 0.225635 0.091923 -0.003084 0.003581
0.690267 0.737859 0.486879 -0.000000 0.746507 -0.000013
2.778877 0.780175 0.681896 0.035953 0.008904 -0.010912
0.734837 0.763454 0.589296 -0.000001 0.970030 0.000004
3.010559 0.573729 0.622669 -0.000002 -0.757854 0.000104
1.946140 0.340390 0.835553 0.061568 0.005441 0.006298
1.091395 0.549008 0.604803 -0.000001 -0.923441 0.000003
1.651340 0.286335 0.872697 -0.061505 -0.003694 -0.003915
0.844434 0.766673 0.559867 0.000000 0.999735 -0.000000
0.823976 0.705327 0.662843 0.000000 0.456081 0.000028
1.643597 0.436194 0.760353 -0.041164 0.006510 0.007942
0.734837 0.567834 0.488874 0.000001 -0.761233 -0.000012
0.556558 0.550082 0.517266 -0.000000 -0.918298 -0.000003
2.882952 0.658286 0.675218 -0.000000 0.023020 0.000041
1.752731 0.818069 0.723081 0.061568 -0.003348 0.003885
0.200000 0.577585 0.478797 -0.067984 -0.000208 -0.000223
1.938220 0.542031 0.545127 -0.000001 -0.983340 -0.000001
1.849080 0.678598 0.452083 -0.000001 0.214280 -0.000017
3.119462 0.610762 0.642681 0.308982 -0.000061 0.000107
0.690267 0.544113 0.589810 0.000000 -0.970706 0.000004
2.816864 0.721345 0.637037 -0.000001 0.757961 0.000841
2.428487 0.551918 0.611364 0.000001 -0.888865 0.000002
2.829614 0.622754 0.670998 0.000000 -0.284934 0.000012
2.740475 0.673521 0.673568 -0.000000 0.172430 0.000083
1.946140 0.344784 0.301817 0.091922 -0.001962 0.002280
1.631661 0.536810 0.678251 -0.041166 0.010035 0.012042
1.698665 0.948349 0.800166 -0.061505 0.002111 -0.002240
1.622578 0.766628 0.557909 0.000000 0.999735 -0.000000
2.027359 0.550727 0.515812 0.000001 -0.908325 -0.000007
2.640708 0.527094 0.458061 0.035954 0.015101 -0.014908
0.421387 0.658613 0.675210 0.000000 0.023377 0.000311
2.874184 0.583424 0.473829 0.000000 -0.629817 -0.000036
2.606766 0.549008 0.604803 0.000000 -0.928230 0.000012
1.141079 0.766692 0.560682 0.000000 0.999735 -0.000000
1.651255 0.377966 0.786401 -0.061507 -0.008444 -0.008882
2.695905 0.587192 0.653659 0.000000 -0.593199 0.000010
1.091395 0.593401 0.657871 -0.000000 -0.536232 0.000023
1.786906 0.114593 0.101649 -0.061505 -0.004222 0.004472
2.116498 0.755877 0.513996 0.000000 0.900196 -0.000004
1.511479 0.537200 0.453062 -0.041164 0.002261 -0.002788
1.484465 0.456810 0.389402 -0.041162 0.004521 -0.005551
2.918250 0.512411 0.670382 -0.052617 0.004598 0.005181
1.314243 0.552308 0.612172 0.000000 -0.900075 0.000007
0.556558 0.552706 0.612977 0.000000 -0.890000 0.000002
0.378279 0.759099 0.521489 -0.000001 0.933175 -0.000003
1.959713 0.177928 0.968058 0.091924 -0.002523 -0.002931
1.959713 1.129511 0.156568 0.091923 0.002523 0.002931
1.537092 0.759985 0.523858 0.000000 0.936509 -0.000001
1.804510 0.556625 0.620129 -0.000000 -0.856181 0.000018
0.252607 0.540738 0.564760 0.000000 -0.999932 0.000000
1.793448 0.437075 0.399839 0.091923 -0.002383 0.002768
1.753012 0.163482 0.986970 -0.041165 0.007233 0.008799
0.957685 0.755184 0.612062 -0.000000 0.900248 0.000028
2.977273 0.502484 0.701416 -0.052619 -0.010157 -0.011905
2.125997 0.652904 0.675305 0.000000 -0.023012 0.000010
0.511988 0.757775 0.606385 0.000000 0.919332 0.000012
1.447953 0.763977 0.587072 0.000000 0.976015 0.000002
1.747824 0.279908 0.254043 -0.061505 -0.003431 0.003637
2.651335 0.714382 0.466973 0.000000 0.536189 -0.000046
1.779876 0.889760 0.342057 0.061568 -0.006697 -0.007736
1.461652 0.894695 0.354931 -0.041164 -0.009041 -0.010907
2.428487 0.736734 0.638985 -0.000000 0.730623 0.000007
2.294777 0.683348 0.453264 0.000000 0.262437 -0.000013
0.041364 0.615864 0.590900 -0.656192 -0.000016 0.000012
1.046825 0.553747 0.509617 0.000000 -0.889945 -0.000015
2.465019 0.655514 0.449344 0.000000 0.023012 -0.000010
1.727564 0.224728 0.924269 -0.061504 -0.003167 -0.003358
1.692011 0.237885 0.201134 -0.041164 0.004340 -0.005331
3.067948 0.773460 0.455827 -0.052621 0.004251 0.005058
1.314243 0.552892 0.511287 0.000000 -0.890000 -0.000002
1.670801 0.645935 0.449572 -0.000000 -0.057601 -0.000032
1.961410 0.847013 0.725147 0.091922 0.001191 -0.001384
0.584323 0.540781 0.565412 0.000000 -0.999735 0.000000
1.609015 1.010069 0.865886 -0.061510 0.001979 -0.002100
2.027359 0.694123 0.667849 0.000000 0.350643 0.000019
3.007893 0.705835 0.662583 0.000002 0.455125 0.000057
1.863008 0.914712 0.353201 0.091923 0.002103 0.002442
1.269674 0.570204 0.638448 0.000000 -0.746845 0.000003
1.863008 0.383902 0.779020 0.091922 -0.002103 -0.002443
1.863008 0.923537 0.779020 0.091921 0.001051 -0.001222
0.556558 0.605994 0.664748 0.000000 -0.414378 0.000032
1.790055 0.861743 0.716955 0.091921 0.001191 -0.001384
0.511988 0.757726 0.518128 -0.000000 0.919354 -0.000003
0.779407 0.551048 0.515107 -0.000000 -0.909048 -0.000003
1.817201 0.367907 0.337420 0.091922 -0.002103 0.002443
1.269674 0.732463 0.643364 -0.000001 0.698786 0.000030
1.783335 0.332677 0.273047 -0.041165 0.010126 -0.012144
1.840953 1.066063 0.225635 -0.061508 0.002903 0.003078
0.645697 0.755486 0.513189 -0.000001 0.899131 -0.000014
0.467418 0.605697 0.664612 -0.000000 -0.435279 0.000060
0.419195 0.658123 0.449405 0.000000 0.020682 -0.000023
0.779407 0.734001 0.482782 -0.000001 0.711823 -0.000007
1.434544 0.866455 0.745393 -0.041165 -0.007233 0.008799
2.027359 0.550162 0.607548 0.000001 -0.912010 0.000003
2.918754 0.569933 0.638143 0.000000 -0.744910 0.000006
0.035527 0.670698 0.523860 -0.679159 0.000008 -0.000017
2.339347 0.668038 0.674405 0.000000 0.127091 0.000028
2.918174 0.531790 0.471381 -0.052619 0.005770 -0.006488
1.834317 1.211722 1.036742 -0.061508 0.003694 -0.003915
0.467418 0.605256 0.460227 0.000000 -0.435249 -0.000030
3.119462 0.627266 0.475109 0.307422 -0.000041 -0.000117
3.009171 0.899647 0.778548 -0.052618 0.010861 -0.012698
1.832470 0.481749 0.723151 0.061568 0.005336 0.006178
1.634430 0.268351 0.233559 -0.061504 -0.001847 0.001960
2.695905 0.552415 0.512234 0.000000 -0.900196 -0.000007
2.250208 0.600234 0.462768 -0.000000 -0.476169 -0.000013
2.879015 0.480728 0.401272 0.035953 -0.010686 0.012931
2.071929 0.755379 0.611658 -0.000000 0.900186 0.000007
2.965920 0.438364 0.368716 -0.052618 -0.006336 0.007509
2.636221 0.807153 0.696718 0.035953 0.006870 -0.008519
1.490330 0.540713 0.562476 0.000000 -0.999735 0.000000
2.695905 0.765549 0.546055 0.000000 0.988662 -0.000002
2.562196 0.700183 0.459304 -0.000001 0.414394 -0.000064
0.645697 0.554875 0.617089 -0.000001 -0.870793 0.000004
0.913116 0.682127 0.452932 0.000000 0.262532 -0.000107
1.624450 0.770591 0.639027 -0.061505 0.007323 -0.007720
1.447953 0.595764 0.465303 0.000000 -0.516530 -0.000048
0.378279 0.758552 0.604500 0.000001 0.927228 0.000006
0.868546 0.638471 0.674286 0.000000 -0.126748 0.000114
2.473056 0.660568 0.675109 0.000000 0.057695 0.000063
2.853038 0.812842 0.686465 0.035952 -0.019572 0.018408
3.069213 0.704413 0.657155 0.310121 0.000244 0.000515
0.192064 0.570604 0.638083 -0.071746 -0.000434 0.000377
1.942747 1.201132 0.096998 0.091924 0.003925 0.004556
3.052463 0.692099 0.456019 0.313381 0.000049 -0.000131
1.358813 0.589119 0.469596 0.000000 -0.573361 -0.000010
1.863008 0.800444 0.425687 0.061568 -0.005336 -0.006178
1.225104 0.756915 0.516258 0.000000 0.908233 -0.000003
0.556558 0.603934 0.460866 -0.000000 -0.435358 -0.000030
2.968073 0.255835 0.220813 0.035954 0.011746 -0.011955
2.342270 0.651436 0.449356 -0.000000 -0.023012 -0.000021
0.422849 0.719555 0.654163 -0.000000 0.574443 0.000003
2.154492 0.766643 0.558562 0.000000 0.999735 -0.000000
2.874184 0.706271 0.462267 0.000000 0.455961 -0.000007
2.785044 0.604301 0.460689 0.000000 -0.435136 -0.000030
1.868098 0.172411 0.162979 0.091923 -0.002523 0.002931
2.910093 0.975227 0.289298 0.035952 -0.011747 -0.011955
2.695905 0.549312 0.605560 0.000000 -0.928073 0.000001
0.527332 0.653720 0.449303 -0.000001 0.010850 -0.000352
2.933790 0.835190 0.729733 -0.052619 0.003168 -0.003775
2.785044 0.694998 0.457116 0.000000 0.371840 -0.000036
1.534464 0.380120 0.794259 -0.061504 -0.002243 -0.002380
2.116498 0.586305 0.653006 0.000001 -0.592966 0.000020
1.659846 1.068109 0.916248 -0.061497 0.001716 -0.001821
1.180534 0.578621 0.477875 0.000000 -0.663640 -0.000004
0.530254 0.655188 0.675306 -0.000010 0.000401 0.001189
2.874184 0.758128 0.605560 0.000000 0.928243 0.000012
1.596275 0.540754 0.560356 -0.000000 -0.999735 -0.000000
2.785044 0.755166 0.612099 0.000001 0.899825 0.000014
2.866835 0.996239 0.857083 0.035953 0.005343 -0.006672
1.626231 0.723888 0.473726 -0.000000 0.629903 -0.000072
0.868546 0.586174 0.652909 -0.000000 -0.590040 0.000005
0.086485 0.589976 0.610450 -0.479272 -0.000046 0.000033
1.091395 0.731524 0.480356 -0.000001 0.681369 -0.000016
1.766303 0.501627 0.458698 0.091923 -0.002243 0.002605
1.788359 0.450006 0.713039 0.091922 -0.001191 -0.001384
1.804510 0.764890 0.542030 0.000000 0.985018 -0.000001
1.706982 0.789183 0.475075 -0.061506 0.003299 0.003497
1.590338 0.360055 0.808427 -0.061506 -0.002111 -0.002240
1.002255 0.546217 0.597140 -0.000001 -0.950876 0.000009
3.064945 0.788243 0.674701 -0.052617 -0.004384 0.004943
1.788359 0.837152 0.388021 0.061568 -0.007115 -0.008213
2.473056 0.766515 0.569161 0.000000 0.998332 0.000002
2.383917 0.756594 0.515552 -0.000001 0.899814 -0.000002
1.626231 0.619048 0.454761 -0.000001 -0.289110 -0.000006
0.422849 0.721985 0.472254 -0.000000 0.611895 -0.000009
1.769696 0.493007 0.673760 0.091922 -0.004485 -0.005206
1.314243 0.766468 0.569976 0.000000 0.998333 0.000000
2.543520 0.727765 0.629578 0.000000 0.757957 0.000077
0.289140 0.756594 0.515552 -0.000000 0.910005 -0.000013
1.803780 0.648663 0.449420 -0.000000 -0.023020 -0.000316
2.027359 0.690365 0.455416 -0.000000 0.319686 -0.000005
2.797019 0.423645 0.755494 0.035953 0.002570 0.002745
2.027359 0.589853 0.469080 0.000000 -0.574614 -0.000041
2.668974 0.807332 0.434247 0.035953 -0.004720 -0.005011
2.958940 0.540819 0.557583 -0.000000 -0.999735 -0.000000
1.938220 0.643780 0.674881 -0.000000 -0.080732 0.000180
1.135964 0.755255 0.611915 0.000000 0.900131 0.000014
1.807433 0.540815 0.557746 0.000000 -0.999735 -0.000000
2.339347 0.601023 0.462341 -0.000000 -0.476489 -0.000054
1.938220 0.758916 0.521035 0.000000 0.928275 -0.000006
0.086485 0.698861 0.496415 -0.479275 0.000031 -0.000044
1.269674 0.743305 0.493435 0.000000 0.790795 -0.000006
1.225104 0.600378 0.462691 -0.000001 -0.469054 -0.000007
2.963323 0.705109 0.461671 0.000000 0.456032 -0.000057
1.715371 0.617652 0.455215 -0.000000 -0.328612 -0.000021
1.524174 0.537541 0.671961 -0.041166 0.004521 0.005550
0.100560 0.740912 0.566344 -0.424313 0.000070 0.000002
2.250208 0.701074 0.664917 -0.000001 0.412156 0.000016
1.002255 0.696134 0.667055 -0.000001 0.368470 0.000018
1.847908 0.040873 0.037379 -0.061506 -0.003167 0.003358
1.269674 0.765199 0.543797 0.000000 0.984954 -0.000003
2.651335 0.758825 0.520808 0.000000 0.927972 -0.000001
2.857702 0.956589 0.299370 0.035953 0.006679 0.008290
1.964803 0.410238 0.773923 0.061567 0.006278 0.007258
0.141317 0.550680 0.562313 -0.272709 -0.000067 0.000002
2.654238 0.750261 0.652479 0.035954 0.006870 -0.008518
1.574355 0.650131 0.675241 0.000000 -0.023012 0.000316
1.964803 0.899758 0.353673 0.091921 0.001051 0.001222
3.025391 0.506594 0.429961 -0.052619 -0.010157 0.011905
2.785044 0.648093 0.675179 -0.000001 -0.057460 0.000126
2.339347 0.719722 0.654046 0.000000 0.593373 0.000010
1.763042 0.997034 0.868538 -0.041165 -0.002532 0.003121
0.378279 0.550474 0.516369 -0.000000 -0.909755 -0.000003
1.911361 0.464032 0.408677 0.091923 -0.001787 0.002076
1.871557 0.092522 1.036599 -0.061505 -0.003694 -0.003916
0.289140 0.692022 0.455992 -0.000000 0.328092 -0.000010
2.473056 0.751496 0.618968 0.000000 0.867855 0.000008
1.492522 0.695793 0.667191 -0.000000 0.371031 0.000018
2.567310 0.650458 0.449378 -0.000000 -0.023194 -0.000082
1.769696 0.814432 0.673760 0.091922 0.002243 -0.002605
1.681592 0.788162 0.650739 -0.061508 0.003661 -0.003880
2.963323 0.636735 0.450594 -0.000000 -0.149599 -0.000192
2.956472 0.762224 0.457577 -0.052621 0.002229 0.002658
2.748436 0.837359 0.398831 0.035953 0.017803 0.020145
1.046825 0.616072 0.455765 0.000000 -0.326535 -0.000011
1.498784 0.770581 0.453459 -0.041166 -0.004521 -0.005550
1.722277 0.835182 0.389302 -0.041165 -0.006510 -0.007941
3.007893 0.758856 0.603743 0.000000 0.928095 0.000012
2.808855 0.917137 0.791764 0.035955 0.008014 -0.009875
2.294777 0.592575 0.657347 0.000000 -0.536355 0.000006
1.116237 0.540753 0.560437 0.000005 -0.183828 -0.000000
0.823976 0.758219 0.605333 -0.000001 0.927576 0.000006
3.085076 0.510307 0.687452 -0.052618 -0.004251 -0.005058
1.849436 0.506633 0.452882 0.091923 -0.001787 0.002076
1.893650 0.645406 0.449614 -0.000000 -0.080812 -0.000179
0.868546 0.589853 0.469080 0.000000 -0.574688 -0.000010
1.878277 0.343120 0.285900 0.061567 0.002930 -0.003401
0.289140 0.549825 0.606760 0.000000 -0.919391 0.000012
1.868211 1.253112 0.043165 -0.041167 -0.008679 -0.010489
0.779407 0.547469 0.600807 0.000000 -0.936509 0.000001
1.818897 0.495533 0.412233 0.061568 0.005336 -0.006178
0.779407 0.683662 0.671277 -0.000000 0.262575 0.000107
1.827380 1.015220 0.886674 0.061567 -0.005023 0.005817
2.543520 0.731267 0.499118 -0.000001 0.757915 -0.000038
1.938220 0.761696 0.595664 0.000000 0.958547 0.000002
1.846042 0.853959 0.717075 0.091922 0.001191 -0.001384
0.645697 0.759756 0.601380 0.000001 0.936287 0.000011
1.879974 0.546025 0.460657 0.061567 0.005337 -0.006178
1.585295 0.322080 0.280005 -0.061506 -0.003958 0.004194
0.289140 0.728819 0.646751 0.000000 0.665138 0.000033
2.724299 0.519281 0.669747 0.035954 0.005664 0.005990
0.957685 0.590328 0.468763 0.000000 -0.555627 -0.000011
2.205638 0.692863 0.456305 0.000000 0.350323 -0.000019
0.289140 0.761047 0.597683 0.000000 0.951642 0.000005
1.907119 0.797332 0.448845 0.091923 0.001787 0.002076
1.091395 0.711675 0.659324 0.000000 0.516328 0.000024
1.046825 0.559376 0.624518 0.000001 -0.826018 0.000005
2.205638 0.591040 0.656339 -0.000000 -0.555222 0.000011
1.982789 0.616573 0.455590 -0.000000 -0.328695 -0.000042
2.517626 0.621698 0.453942 0.000000 -0.284611 -0.000049
1.626231 0.721824 0.652497 0.000000 0.611510 0.000005
0.957685 0.590973 0.656294 0.000001 -0.555267 0.000044
1.893650 0.614194 0.668178 0.000000 -0.350329 0.000039
1.891458 0.540726 0.563047 -0.000005 -0.183824 0.000000
1.621118 0.812555 0.412987 -0.041165 -0.010036 -0.012042
0.690267 0.665404 0.449916 -0.000001 0.103781 -0.000279
2.874184 0.634240 0.451002 0.000000 -0.172451 -0.000083
2.428487 0.762930 0.591351 -0.000001 0.941330 0.000001
1.718949 0.918622 0.354175 -0.061506 0.004222 0.004472
2.116498 0.744001 0.630286 -0.000001 0.800176 0.000005
2.716659 0.870557 0.747086 0.035954 -0.005874 0.006206
1.982789 0.576869 0.645161 -0.000000 -0.680765 0.000008
1.541069 0.567389 0.489379 -0.000000 0.757961 0.000228
1.225104 0.752895 0.616480 0.000000 0.879100 0.000008
1.774955 1.071851 0.929749 -0.041161 -0.004340 0.005331
2.250208 0.547238 0.600153 0.000000 -0.944290 0.000003
1.135964 0.646220 0.449555 0.000000 -0.057716 -0.000126
1.403383 0.757325 0.607435 0.000000 0.919183 0.000002
1.180534 0.674485 0.451227 0.000000 0.195062 -0.000073
1.786662 0.379305 0.773678 0.091922 -0.004205 -0.004881
2.918022 0.578719 0.496159 -0.000000 -0.757962 -0.000499
2.902733 0.926533 0.790209 0.035953 -0.008811 0.009162
2.980491 0.835337 0.397981 -0.052620 0.006336 0.007509
1.685149 0.964728 0.286376 -0.041163 -0.010849 -0.012957
2.773021 0.763665 0.480155 0.035954 -0.019570 -0.018407
1.537092 0.609422 0.666272 0.000000 -0.393213 0.000008
2.071929 0.723759 0.651000 0.000000 0.611915 0.000009
3.036649 0.368150 0.318389 -0.052618 0.003734 -0.004214
3.036649 0.937474 0.808347 -0.052618 0.003621 -0.004312
0.378279 0.550541 0.608406 -0.000000 -0.909755 0.000003
3.007893 0.610510 0.666736 0.000002 -0.268186 0.000006
1.002255 0.744291 0.629892 0.000000 0.804916 0.000021
2.339347 0.704093 0.461150 0.000000 0.455961 -0.000007
0.645697 0.610097 0.666561 -0.000000 -0.393275 0.000017
1.849080 0.727252 0.648120 0.000000 0.642873 0.000004
3.007893 0.549360 0.518953 0.000001 -0.916962 -0.000003
2.957850 0.464771 0.409345 -0.052617 0.003268 -0.003689
1.427291 0.505754 0.439624 -0.061506 -0.003958 0.004194
1.982789 0.561049 0.497646 0.000000 -0.818189 -0.000005
1.942747 0.538727 0.655490 0.091927 -0.001121 -0.001303
1.942747 0.945210 0.317243 0.091923 0.001962 0.002280
2.338617 0.540826 0.567369 0.000000 -0.999735 0.000000
