0.913160 0.565709 0.647229 0.000000 -0.026648 -0.000011
3.497275 0.471290 0.781555 0.000000 -0.945119 0.000001
3.674558 0.644316 0.643277 -0.054458 0.012542 0.009389
3.434503 0.563670 0.647283 0.000000 -0.026648 -0.000022
2.878273 0.570978 0.647233 0.000000 0.026648 -0.000011
1.835209 1.035502 0.137093 0.079964 0.012256 0.009158
1.489464 0.799604 1.051965 -0.058664 0.003006 -0.002119
1.605396 0.471470 0.716606 0.000000 -0.945119 -0.000003
0.611505 0.564350 0.851419 0.000000 -0.026648 0.000022
1.879355 0.473075 0.623423 0.058695 0.011596 -0.008600
1.879355 0.898410 1.186103 0.058690 -0.006031 0.004535
1.879355 1.032677 1.363726 0.058695 -0.014223 0.010450
2.632416 0.467223 0.734140 0.000000 -0.989271 -0.000001
2.257527 0.466087 0.749002 0.000000 -0.999645 -0.000000
2.037825 0.597757 0.651511 0.000000 0.301467 -0.000029
1.732609 0.639775 0.640423 0.058695 -0.020713 -0.014768
1.199121 0.570468 0.647220 0.000000 0.026638 -0.000011
1.764901 0.176342 1.278973 0.058695 0.005412 0.004074
0.606274 0.564265 0.647267 -0.000000 -0.027358 -0.000043
3.577989 0.392847 0.529544 -0.054458 0.016503 -0.011750
1.724843 0.421580 0.958449 0.058695 0.009741 0.007264
0.114978 0.511763 0.813907 -0.335500 -0.000076 0.000082
2.091879 0.627404 0.832658 0.000000 0.585484 0.000025
3.590607 0.689827 0.897910 -0.054458 -0.009132 0.006700
3.631537 0.466113 0.751977 0.000000 -0.796283 0.000000
1.658516 0.780376 0.491188 -0.058663 0.002815 0.001985
3.659436 0.666089 0.778841 -0.038190 0.001451 0.000416
1.983772 0.521144 0.840012 0.000000 -0.473096 0.000009
1.749732 0.017948 1.477354 -0.058663 -0.014503 -0.009938
1.767557 0.573697 0.851378 0.000000 0.026648 0.000345
1.879355 0.254891 0.334784 0.058695 0.013296 -0.009803
3.705166 0.493008 0.647068 -0.054458 -0.006526 0.004977
3.172953 0.661272 0.707042 -0.000001 0.899153 -0.000002
3.010792 0.493295 0.679908 0.000000 -0.725527 -0.000009
1.551342 0.596409 0.651124 0.000001 0.275736 -0.000064
3.667530 0.332411 0.434613 -0.054459 -0.019572 0.014150
1.235738 0.466105 0.748322 -0.000000 -0.999645 -0.000000
1.611590 0.450149 0.575078 -0.043041 0.022591 -0.015891
3.064845 0.667403 0.774045 0.000001 0.967801 0.000005
1.531766 0.372543 0.482895 -0.043041 0.003926 -0.003105
1.172966 0.524036 0.841451 0.000000 -0.423293 0.000010
2.686470 0.631887 0.669398 0.000000 0.627949 -0.000046
3.373474 0.670417 0.747642 0.000000 0.999911 -0.000000
1.737231 0.983378 0.211596 -0.058664 0.006680 0.004684
2.431894 0.566899 0.647197 -0.000000 -0.026648 -0.000022
1.010805 0.495922 0.677186 0.000000 -0.706471 -0.000009
0.794591 0.669374 0.734686 0.000000 0.989309 -0.000001
3.607091 0.421640 0.933091 -0.054458 0.009903 0.007248
1.833816 0.670435 0.749512 0.000000 0.999645 0.000000
0.794591 0.512166 0.834744 0.000000 -0.541688 0.000029
1.410105 0.569788 0.647202 0.000000 0.026657 -0.000022
1.879355 0.831276 0.401393 0.058695 -0.014533 -0.010664
3.227006 0.516680 0.837545 0.000000 -0.496129 0.000032
2.254040 0.603400 0.845284 -0.000001 0.351523 0.000049
2.470255 0.602360 0.845658 0.000000 0.326725 0.000053
1.776347 0.427556 0.553162 0.058694 0.004871 -0.003669
3.172953 0.555667 0.647948 0.000000 -0.119493 -0.000076
1.381329 0.417789 0.948400 -0.058661 -0.007157 -0.005014
3.693713 0.822178 0.413429 -0.054459 0.013050 0.009749
3.693713 0.314339 1.085255 -0.054458 -0.013050 -0.009749
3.551328 0.595633 0.650902 0.000001 0.275690 -0.000064
3.448814 0.677935 0.616505 0.035471 -0.019431 -0.011792
1.502983 0.734353 0.540545 -0.058662 0.006394 0.004486
2.018645 0.670433 0.749597 -0.000000 0.999645 0.000000
1.642939 0.281540 0.383906 -0.058662 -0.004867 0.003423
1.610711 0.392389 0.961011 -0.058664 -0.006202 -0.004354
3.404585 0.480008 0.853966 0.035470 0.014594 0.009338
0.091049 0.642698 0.737348 -0.428962 0.000076 -0.000010
3.366294 0.470650 0.628802 0.035471 0.014594 -0.009338
0.254054 0.648202 0.685713 0.000000 0.778254 -0.000030
1.587556 0.287208 1.112392 -0.058665 -0.010114 -0.007035
2.794577 0.657643 0.699830 0.000000 0.881146 -0.000002
0.524322 0.493646 0.819146 0.000000 -0.725527 0.000009
0.091049 0.510213 0.701218 -0.428966 -0.000061 -0.000048
3.010792 0.475932 0.793103 0.000000 -0.904875 0.000009
3.394379 0.386311 0.990042 0.035471 -0.027673 -0.017992
1.821610 0.568428 0.647165 0.000000 0.026638 -0.000011
1.776347 0.720384 0.561797 0.079967 0.003802 0.002871
1.605396 0.653545 0.805613 -0.000001 0.829150 0.000003
3.497275 0.625411 0.834035 0.000000 0.563828 0.000108
1.608637 0.828045 1.101785 -0.043041 -0.006605 0.005185
0.740537 0.488635 0.685316 0.000000 -0.778275 -0.000030
1.626931 0.151228 1.301036 -0.058663 -0.013358 -0.009194
1.763376 1.133378 0.001739 -0.043041 -0.016946 -0.012525
1.763376 1.133378 1.496944 -0.043042 -0.016946 0.012525
1.558708 0.911244 0.295602 -0.043041 -0.023421 -0.016344
1.172966 0.661615 0.707820 -0.000000 0.915986 -0.000004
1.389181 0.661751 0.708132 0.000000 0.915986 -0.000004
3.701811 0.591422 0.850828 -0.045074 0.000911 0.005359
2.362147 0.473862 0.710241 0.000000 -0.926226 -0.000007
1.045679 0.670390 0.747472 0.000000 0.999645 -0.000000
0.682996 0.670344 0.745773 0.000000 0.999645 -0.000000
1.504130 0.852008 0.373966 -0.043039 -0.013708 -0.010375
0.524322 0.495411 0.677696 0.000001 -0.630704 -0.000003
1.875664 0.547367 0.849357 -0.000000 -0.198323 0.000182
1.281074 0.598406 0.846967 -0.000001 0.301356 0.000116
0.461550 0.670317 0.753930 0.000000 0.999645 0.000000
0.848644 0.637316 0.824649 -0.000001 0.667814 0.000020
3.482598 0.434554 0.562249 0.035472 -0.017940 0.013198
1.064859 0.536166 0.846352 0.000000 -0.326725 0.000027
1.659449 0.560106 0.647487 0.000000 -0.093080 -0.000197
1.929718 0.565879 0.647224 0.000000 -0.026648 -0.000345
3.503037 0.805499 1.063190 0.035471 0.009230 -0.007363
1.879355 0.730575 0.534611 0.058694 -0.009123 -0.006814
0.334262 0.466108 0.747047 0.000000 -0.981809 -0.000000
1.736087 0.032757 0.040921 -0.058664 -0.014502 0.009938
1.782887 0.759618 1.011899 0.058694 -0.009122 0.006814
3.744187 0.463154 0.763179 -0.044794 -0.001304 0.000154
1.655547 0.916731 1.200986 -0.058664 0.008206 -0.005736
2.362147 0.640264 0.676855 0.000000 0.707107 -0.000037
1.579397 0.729489 0.975669 -0.043042 -0.008101 0.006323
1.354040 0.689110 0.909218 -0.043041 -0.018690 0.013618
2.686470 0.579288 0.850924 -0.000001 0.119335 0.000076
2.091879 0.466200 0.744753 0.000000 -0.999645 -0.000000
2.794577 0.467279 0.733761 0.000000 -0.986916 -0.000000
2.199986 0.597757 0.651511 0.000000 0.301467 -0.000058
1.340358 0.466109 0.750531 0.000000 -0.999650 0.000000
1.695916 0.157439 0.213477 -0.058664 -0.006680 0.004684
3.599967 0.368618 1.022980 -0.054459 -0.013050 -0.009749
3.630357 0.768023 0.478262 -0.054459 0.006526 0.004977
3.744187 0.669081 0.716583 -0.047834 0.001174 -0.000364
1.716101 1.004631 1.331566 -0.043040 -0.016448 0.012205
3.621471 0.741039 0.986086 -0.054458 0.008157 -0.006197
1.712580 0.823454 0.395480 0.058696 -0.007885 -0.005908
1.659449 0.578612 0.850991 -0.000000 0.093254 0.000098
1.010805 0.472869 0.785955 -0.000000 -0.936104 0.000003
3.118899 0.506308 0.830590 0.000000 -0.606949 0.000048
1.487246 0.659936 0.854309 -0.058664 0.004771 -0.003357
2.956738 0.624744 0.834491 -0.000000 0.563967 0.000013
1.443235 0.535603 0.846158 0.000000 -0.326725 0.000027
1.713503 0.466132 0.751381 0.000000 -0.999645 0.000000
2.362147 0.643104 0.818899 -0.000000 0.725656 0.000017
1.550316 0.799624 0.452891 -0.058662 0.002815 0.001985
3.307453 0.705971 0.567161 0.035473 0.020536 0.014652
1.551342 0.480182 0.801142 -0.000000 -0.867924 0.000005
2.956738 0.630074 0.667991 0.000001 0.606767 -0.000048
1.807004 0.376136 0.993877 0.079966 -0.006696 -0.005044
1.538589 0.365138 1.025584 -0.043040 0.003926 0.003105
1.605396 0.660585 0.705581 0.000000 0.904904 -0.000009
0.416215 0.508424 0.832160 0.000000 -0.585657 0.000025
1.793923 0.450824 0.893331 0.079966 -0.015206 -0.011293
1.118913 0.514060 0.662719 0.000000 -0.541659 -0.000114
1.784522 0.114554 0.161748 0.079966 -0.014071 0.010477
3.281060 0.546411 0.649527 0.000000 -0.224347 -0.000010
1.010805 0.629804 0.830899 0.000000 0.606985 0.000048
3.443221 0.479465 0.698797 0.000000 -0.868148 -0.000011
1.395869 0.445444 0.590948 -0.058664 -0.014312 0.009815
1.473303 0.659282 0.643880 -0.058664 0.007157 0.005014
1.744463 0.353526 0.452118 0.058695 0.008504 -0.006362
0.200000 0.546659 0.849214 -0.038563 -0.000138 0.000598
1.929718 0.661853 0.708365 0.000000 0.915052 -0.000002
2.524308 0.652065 0.690890 -0.000001 0.825407 -0.000013
1.313106 0.644684 0.648238 -0.043040 -0.012462 -0.009508
3.275829 0.670340 0.745603 0.000000 0.999645 -0.000000
1.655547 0.916731 0.297697 -0.058663 0.016410 0.011156
1.669191 0.204977 1.220577 -0.058663 -0.008206 -0.005737
1.833369 0.649601 0.850833 0.079967 0.008512 -0.006398
3.486430 0.769279 0.486814 0.035472 -0.012295 -0.008037
0.416215 0.512059 0.664009 -0.000000 -0.541746 -0.000014
3.258392 0.466182 0.753251 0.000000 -0.999645 0.000000
1.810683 1.087422 1.427013 -0.058662 0.016029 -0.010915
2.470255 0.507321 0.831364 0.000000 -0.585657 0.000025
0.200000 0.505159 0.668971 -0.038566 -0.000385 -0.000477
2.199986 0.661308 0.791564 -0.000000 0.916053 0.000008
0.686483 0.508355 0.832110 0.000000 -0.585081 0.000013
3.118899 0.621004 0.836847 0.000000 0.519105 0.000061
3.744187 0.579340 0.643912 -0.044795 0.000154 -0.001304
0.254054 0.666100 0.778800 -0.000000 0.960071 0.000001
2.254040 0.509526 0.832957 0.000000 -0.563930 0.000027
1.879355 0.730575 0.964073 0.058694 -0.004561 0.003438
3.408937 0.683106 0.909445 0.035470 0.009118 -0.007279
0.848644 0.630682 0.668455 0.000000 0.607019 -0.000024
1.804143 0.065460 1.404494 0.079966 -0.010441 -0.007826
0.362161 0.626534 0.665415 0.000000 0.563728 -0.000013
1.879355 0.170973 0.223769 0.058696 0.009586 -0.007152
1.837661 0.319356 0.425613 0.079966 -0.005788 0.004364
2.848630 0.650254 0.810313 -0.000001 0.742611 0.000002
3.520735 0.489551 0.869806 -0.000000 -0.797731 -0.000654
3.636192 0.450433 0.601640 -0.054458 0.009132 -0.006700
3.605382 0.659502 0.703366 0.000000 0.893407 -0.000037
3.299368 0.572422 0.851412 0.000000 0.026495 0.000045
0.362161 0.631155 0.829867 0.000001 0.583279 0.000003
2.956738 0.530812 0.844411 0.000000 -0.376584 0.000011
3.475564 0.372768 0.494129 0.035471 0.012295 -0.008037
1.821610 0.482004 0.694571 0.000000 -0.840606 -0.000024
3.621753 0.526482 0.683181 0.113968 -0.002128 -0.002814
1.840931 0.850518 1.117635 0.079966 0.005334 -0.004023
3.323421 0.658820 0.875208 0.035471 0.010271 -0.008132
3.220527 0.661736 0.625680 0.035471 0.013694 0.010530
2.632416 0.520057 0.659254 -0.000000 -0.472896 -0.000034
1.577163 0.466280 0.900910 -0.043039 0.011299 0.008681
2.578362 0.630142 0.830641 -0.000000 0.606889 0.000048
0.068292 0.589509 0.808269 -0.518032 0.000019 0.000048
1.854012 0.160960 1.284790 0.079965 -0.003972 -0.002999
0.632429 0.645157 0.816629 -0.000000 0.761282 0.000004
1.453718 0.378026 0.997358 -0.058662 -0.006394 -0.004486
0.848644 0.505970 0.668352 0.000000 -0.604481 -0.000003
3.706332 0.768335 1.014026 -0.054459 0.009788 -0.007400
2.777140 0.570808 0.851455 0.000000 0.026648 0.000044
1.485770 0.411001 0.551310 -0.058662 -0.008652 0.006041
3.644113 0.484232 0.852331 -0.054458 0.012689 0.009194
3.486430 0.370514 1.014345 0.035471 -0.011537 -0.009043
3.744187 0.657167 0.807079 -0.044725 0.001112 0.000701
0.740537 0.468825 0.772846 -0.000000 -0.974504 0.000008
1.751003 0.822707 1.068879 0.079966 0.012483 -0.009324
2.848630 0.489596 0.814558 0.000000 -0.761273 0.000031
2.524308 0.493676 0.679507 0.000000 -0.725474 -0.000009
1.422263 0.763155 1.007173 -0.043040 -0.016697 0.012365
1.693874 0.244688 0.310685 -0.043040 0.022425 -0.015800
1.929718 0.473606 0.787812 -0.000000 -0.926402 0.000030
1.754274 0.311108 1.101725 0.058696 0.007885 0.005908
1.697456 0.733825 0.944172 0.079965 0.007604 -0.005722
1.777164 0.913341 1.192261 0.079968 0.004880 -0.003682
1.227020 0.654029 0.804863 0.000001 0.840282 0.000012
0.632429 0.642636 0.679291 -0.000000 0.725777 -0.000009
0.173979 0.663479 0.717841 -0.105823 0.000418 -0.000126
1.810683 1.079806 0.065913 0.058696 -0.014223 -0.010450
0.956752 0.636494 0.673296 -0.000000 0.668445 -0.000020
3.647181 0.702783 0.578186 -0.054458 -0.019802 -0.013846
3.689507 0.840126 1.108998 -0.054466 0.006525 -0.004976
0.566170 0.466098 0.747812 -0.000000 -0.982174 -0.000000
1.804143 0.073801 0.087884 0.058694 0.014223 -0.010450
2.037825 0.511844 0.664147 0.000000 -0.541360 -0.000007
3.118899 0.495351 0.677757 0.000000 -0.706948 -0.000018
2.362147 0.477588 0.796457 0.000000 -0.881230 0.000005
1.791062 1.028536 1.366857 0.058696 -0.016696 0.012141
1.879355 0.965543 1.274915 0.058696 -0.009586 0.007152
0.524322 0.647615 0.813698 -0.000000 0.778092 0.000015
3.611448 0.298065 1.104060 0.035471 0.019668 0.011902
1.784522 0.114554 1.336936 0.079965 -0.014071 -0.010477
1.783704 0.927490 0.264784 0.058695 -0.006030 -0.004535
3.389167 0.634349 0.671424 0.000000 0.647746 -0.000011
2.794577 0.587858 0.649065 0.000001 0.197050 -0.000023
1.424054 0.458291 0.886661 -0.058661 -0.007157 -0.005014
3.589963 0.286783 0.376975 0.035471 -0.018455 0.013497
3.611694 0.860793 0.362345 0.035472 0.018455 0.013497
3.307453 0.430546 0.567161 0.035471 -0.020536 0.014652
3.394379 0.750205 0.990042 0.035471 0.027673 -0.017992
3.611694 0.860793 1.136338 0.035471 0.018456 -0.013497
3.307973 0.487967 0.848488 0.035470 0.021887 0.012889
3.670515 0.666805 0.874264 -0.054459 -0.006345 0.004688
1.584302 0.742307 0.506537 -0.043039 -0.004051 -0.003203
1.574808 0.792036 1.032545 -0.058664 0.002815 -0.001985
1.567231 0.313901 0.422040 -0.058664 -0.005439 0.003823
1.389181 0.488795 0.685118 0.000000 -0.777450 -0.000004
1.584865 0.499138 0.638611 -0.043040 0.007062 -0.005535
2.848630 0.497251 0.675870 0.000001 -0.687757 -0.000019
1.654220 1.014907 0.158466 -0.043042 -0.008225 -0.006417
1.408618 0.748346 0.511102 -0.043040 -0.016698 -0.012366
1.449552 0.343744 0.452329 -0.058664 -0.012022 0.008313
1.545064 0.240082 0.315193 -0.058664 -0.008970 0.006258
1.572353 0.926053 1.222672 -0.043039 -0.011216 0.008621
3.369061 0.432519 0.924828 0.035472 0.019429 0.011791
1.840931 0.273476 1.143059 0.058695 0.007267 0.005452
1.795967 0.836613 0.405427 0.079967 0.011575 0.008660
0.902698 0.492838 0.818273 0.000000 -0.743740 0.000033
1.879355 0.898410 0.312581 0.058696 -0.012059 -0.008930
1.879355 0.780926 0.468002 0.058695 -0.017005 -0.012348
1.879355 0.422725 0.556814 0.058696 0.009741 -0.007264
1.670701 0.280946 1.112790 -0.058664 -0.009733 -0.006777
1.497288 0.475209 0.707119 0.000000 -0.916053 -0.000004
2.174703 0.466098 0.750107 0.000000 -0.999645 0.000000
3.079666 0.466166 0.746028 0.000000 -0.999645 -0.000000
1.717281 0.639056 0.858804 0.058693 -0.011596 0.008600
0.524322 0.645157 0.682054 0.000000 0.761282 -0.000004
1.531419 0.254891 1.163900 -0.058664 -0.019461 -0.013040
1.689280 0.423148 0.582661 0.079966 -0.003802 0.002871
1.689280 0.713368 0.582661 0.079967 0.007604 0.005722
2.578362 0.477053 0.795393 0.000000 -0.888215 0.000002
2.681238 0.670378 0.747047 0.000000 0.999645 -0.000000
1.282817 0.568088 0.647165 0.000000 -0.026648 -0.000011
2.956738 0.546951 0.649411 0.000000 -0.198380 -0.000091
0.876543 0.565029 0.851437 0.000000 -0.026639 0.000011
2.714368 0.466100 0.748492 -0.000000 -0.999645 -0.000000
1.773894 0.231358 0.317683 0.079967 -0.004880 0.003682
1.227020 0.498948 0.674262 0.000000 -0.688012 -0.000039
0.632429 0.493646 0.679538 -0.000001 -0.725204 -0.000017
1.720598 0.940818 1.251532 -0.043041 -0.009222 0.007162
2.524308 0.665213 0.781595 0.000000 0.945119 0.000003
1.559950 0.662171 0.889562 -0.043041 -0.011299 0.008680
0.144050 0.473470 0.749342 -0.230426 -0.000094 0.000002
1.879355 0.053489 1.430336 0.058693 0.011751 0.008710
1.879355 0.053489 0.068348 0.058696 0.011750 -0.008710
0.993369 0.569788 0.647202 0.000000 0.026648 -0.000044
2.254040 0.497776 0.675373 -0.000001 -0.687757 -0.000019
2.254040 0.646921 0.684125 0.000000 0.778297 -0.000007
3.587266 0.640494 0.831285 -0.054458 -0.012175 0.008839
1.756726 0.498794 0.824923 0.079967 -0.015205 -0.011293
3.010792 0.664713 0.715642 0.000000 0.945119 -0.000006
3.443221 0.662975 0.787655 0.000001 0.925595 0.000007
2.182550 0.569023 0.851502 0.000000 0.026639 0.000011
0.254054 0.495531 0.821107 0.000000 -0.707107 0.000037
0.254054 0.615635 0.839872 0.000001 0.471359 0.000034
3.227006 0.489383 0.684390 0.000000 -0.778126 -0.000002
3.551328 0.469656 0.722540 0.000000 -0.968183 -0.000019
0.956752 0.468353 0.727909 0.000000 -0.980120 -0.000002
1.335127 0.660151 0.794026 -0.000000 0.905097 0.000004
3.461381 0.482404 0.621487 0.035472 -0.009118 0.007279
1.660258 0.425487 0.909068 0.079965 -0.004256 -0.003213
1.767557 0.661615 0.707820 -0.000000 0.916066 -0.000016
1.879355 0.473075 0.875261 0.058695 0.011596 0.008600
2.037825 0.479929 0.800699 0.000000 -0.868209 0.000021
1.640638 0.635462 0.637162 0.058696 -0.011596 -0.008600
0.061008 0.581996 0.693110 -0.546592 0.000011 -0.000040
0.233130 0.573527 0.647301 0.000000 0.026639 -0.000022
1.741193 0.346749 1.023998 0.079967 -0.006696 -0.005044
2.044800 0.568173 0.851520 0.000000 -0.026657 0.000022
3.356038 0.567408 0.647172 0.000000 -0.013323 -0.000044
3.596425 0.653211 0.624701 -0.054458 0.009026 0.006840
1.605396 0.520544 0.839691 -0.000000 -0.472165 0.000017
3.685169 0.440128 0.922251 -0.054459 -0.008157 -0.006196
0.686483 0.540802 0.650925 -0.000001 -0.275421 -0.000032
3.484628 0.696161 0.906289 0.035471 -0.019119 0.011645
3.171209 0.567238 0.851509 0.000000 -0.013323 0.000089
2.369122 0.670412 0.748322 0.000000 0.999645 -0.000000
1.780434 0.225963 1.211813 0.058697 0.013296 0.009803
1.760404 1.023988 0.139677 -0.043039 -0.007229 -0.005662
2.091879 0.668510 0.769066 -0.000001 0.978056 0.000002
3.457170 0.563500 0.851396 0.000000 -0.026648 0.000022
0.053888 0.519004 0.768601 -0.574525 -0.000033 0.000012
1.389181 0.491758 0.817072 0.000000 -0.743731 0.000017
0.810284 0.567493 0.647171 0.000000 -0.013323 -0.000089
1.828668 0.985571 0.204018 0.079963 0.003972 0.002999
3.540143 0.395444 0.967746 0.035473 0.012294 0.008037
1.494069 0.482776 0.874384 -0.043040 0.011299 0.008680
3.578481 0.348165 0.464987 0.035470 0.019669 -0.011902
1.443235 0.660151 0.794026 -0.000000 0.905231 0.000002
3.727362 0.678597 0.603374 -0.054458 0.009026 0.006840
3.520735 0.662687 0.640762 0.000000 -0.797731 -0.000654
3.242258 0.672795 0.887634 0.035472 0.027373 -0.017870
1.424054 0.671426 0.891801 -0.043040 -0.009347 0.007255
3.381628 0.693911 0.589220 0.035470 -0.009718 -0.006484
1.172966 0.473382 0.787261 -0.000000 -0.926373 0.000004
1.678419 0.333278 0.423298 -0.043040 0.006605 -0.005186
3.713578 0.528903 0.804129 0.113968 -0.001064 0.001407
2.105828 0.568768 0.647174 0.000000 0.024825 -0.000024
1.118913 0.670038 0.758299 -0.000001 0.988613 0.000000
1.879355 0.372375 1.008479 0.058696 0.017005 0.012348
3.172953 0.665435 0.780908 0.000000 0.953477 0.000006
3.464403 0.626160 0.672743 0.113967 0.003342 -0.004419
3.480567 0.719556 0.541018 0.035470 0.017941 0.013198
1.664755 0.492908 0.678210 0.079967 -0.008512 0.006398
1.731383 0.740418 0.507162 0.058695 -0.019477 -0.013976
1.731383 0.379688 0.519566 0.079967 -0.014298 0.010640
1.929718 0.497961 0.675198 -0.000001 -0.649209 -0.000003
1.744889 0.567749 0.647174 0.000000 -0.026639 -0.000045
3.560536 0.509146 0.811201 0.113965 -0.001064 0.001407
1.613286 0.166037 0.217239 -0.058664 -0.014884 0.010184
1.483339 0.566899 0.647197 -0.000000 -0.026657 -0.000044
3.649758 0.386379 0.503284 -0.054459 -0.006526 0.004977
0.538271 0.563925 0.851407 0.000000 -0.026638 0.000011
1.609517 0.873340 1.158876 -0.043041 -0.006107 0.004802
3.064845 0.536774 0.652139 0.000001 -0.298590 -0.000029
1.579397 0.392204 0.534220 -0.058664 -0.003101 0.002186
1.879355 0.680225 0.897464 0.058697 -0.005798 0.004362
0.182630 0.487010 0.809704 -0.072230 -0.000512 0.000402
0.686483 0.577850 0.851062 0.000000 0.093071 0.000393
0.308107 0.489489 0.684258 0.000000 -0.778297 -0.000007
1.172966 0.472466 0.713803 0.000001 -0.934507 -0.000003
1.227020 0.632846 0.670172 -0.000000 0.627943 -0.000046
1.875664 0.466589 0.739200 0.000000 -0.995634 -0.000003
2.416201 0.501456 0.672030 -0.000000 -0.648249 -0.000022
1.172966 0.595796 0.847735 0.000000 0.275983 0.000128
3.556627 0.766123 1.002928 0.035472 -0.012295 0.008037
0.416215 0.657723 0.699980 0.000000 0.864537 -0.000001
1.847471 0.210892 0.280819 0.079966 -0.004426 0.003341
1.542737 0.671512 0.633628 -0.058662 0.017301 0.011714
0.131461 0.580383 0.839888 -0.271232 0.000024 0.000148
1.680511 0.867334 0.342452 -0.043041 -0.012213 -0.009332
1.879355 1.066244 0.090551 0.058698 -0.011750 -0.008710
3.556627 0.758262 0.489814 0.035472 0.011536 0.009043
3.335114 0.653776 0.805256 0.000000 0.840557 0.000024
1.695916 0.157439 1.285207 -0.058664 -0.013358 -0.009194
2.091879 0.637785 0.674467 0.000002 0.677974 -0.000010
1.346461 0.566474 0.851475 -0.000000 -0.024829 0.000024
0.794591 0.468596 0.726831 0.000000 -0.974509 -0.000001
2.686470 0.564520 0.647260 0.000000 -0.026639 -0.000345
3.551328 0.666861 0.776144 -0.000000 0.968178 0.000019
3.496448 0.520434 0.669733 0.113967 -0.003341 -0.004419
1.713776 0.933414 0.256947 -0.043041 -0.010219 -0.007897
0.381341 0.566558 0.851500 0.000000 -0.013323 0.000178
0.740537 0.653168 0.692505 0.000000 0.825960 -0.000013
1.821610 0.634575 0.671617 -0.000000 0.645734 -0.000005
1.617849 0.798701 0.433208 -0.043040 -0.014206 -0.010715
2.848630 0.670229 0.742928 0.000000 0.997582 -0.000001
3.659436 0.573697 0.647306 -0.040511 0.000095 -0.001420
0.794591 0.580512 0.850776 0.000000 0.119543 0.000305
1.983772 0.602239 0.845699 -0.000001 0.326594 0.000106
0.534784 0.564010 0.647274 -0.000000 -0.026297 -0.000045
0.862594 0.670376 0.751721 -0.000000 0.999645 0.000000
1.523435 0.838613 1.109189 -0.043040 -0.013708 0.010375
1.983772 0.636083 0.672926 -0.000000 0.668451 -0.000041
1.606122 0.358038 1.039202 -0.043039 0.007353 0.005757
2.686470 0.486137 0.688542 -0.000001 -0.788489 -0.000003
1.879355 1.083027 1.430336 0.058696 -0.011750 0.008710
3.227006 0.598406 0.651716 0.000000 0.301467 -0.000029
2.848630 0.629804 0.667784 -0.000000 0.606985 -0.000048
2.632416 0.503241 0.828164 0.000000 -0.628109 0.000006
2.470255 0.621513 0.662146 -0.000000 0.518672 -0.000015
1.767557 0.647935 0.813301 0.000000 0.778085 0.000015
3.713578 0.610234 0.696535 0.113968 0.000532 -0.000704
0.740537 0.665019 0.782158 0.000000 0.945119 0.000002
1.678419 0.803239 1.075385 -0.043037 -0.006606 0.005186
1.840931 0.867302 0.358846 0.079966 0.005334 0.004023
3.326823 0.503097 0.673242 0.000001 -0.603010 -0.000332
1.491995 0.755156 1.001931 -0.043037 -0.004051 0.003203
0.376110 0.563670 0.647283 0.000000 -0.026648 -0.000022
1.635362 0.259482 1.165318 -0.043040 0.012213 0.009332
3.567000 0.713868 0.955589 0.035471 0.013843 -0.010631
1.118913 0.639080 0.675695 0.000001 0.678229 -0.000005
1.828668 0.996733 1.321118 0.058695 -0.009586 0.007152
2.114547 0.567749 0.851509 0.000000 -0.026639 0.000045
0.416215 0.656546 0.800773 0.000000 0.867582 0.000005
3.523430 0.566048 0.851493 0.000000 -0.013318 0.000178
1.679879 0.376392 0.976626 0.079966 -0.014298 -0.010640
0.362161 0.482373 0.804684 0.000000 -0.840631 0.000012
1.227020 0.493617 0.819115 -0.000000 -0.724714 0.000009
1.118913 0.493617 0.819115 -0.000001 -0.715563 0.000004
3.010792 0.651774 0.808212 0.000000 0.810642 0.000007
1.396765 0.641808 0.646064 -0.043041 -0.012462 -0.009508
1.653347 0.670419 0.750107 0.000000 0.995043 0.000000
1.713776 0.203103 0.256947 -0.043040 0.010219 -0.007897
3.744187 0.475094 0.698758 -0.047835 -0.001088 -0.000572
3.652362 0.609228 0.811712 0.113966 0.002128 0.002815
3.118899 0.640144 0.676735 -0.000001 0.706948 -0.000037
2.956738 0.473526 0.711068 0.000000 -0.926373 -0.000015
2.632416 0.655984 0.696959 0.000000 0.854821 -0.000003
1.227020 0.559302 0.851122 0.000001 -0.092997 0.000197
1.875664 0.530379 0.654449 -0.000000 -0.376505 -0.000090
1.551342 0.628645 0.831762 -0.000000 0.585772 0.000013
2.632416 0.600189 0.652280 0.000001 0.299196 -0.000029
1.281074 0.477130 0.703138 -0.000000 -0.873215 -0.000001
1.612944 0.350634 0.449686 -0.043040 0.007104 -0.005567
1.443235 0.515949 0.661572 0.000000 -0.519179 -0.000030
0.902698 0.481866 0.694786 0.000000 -0.840631 -0.000003
1.670701 0.855571 1.112790 -0.058664 0.009733 -0.006777
1.875664 0.603559 0.653459 -0.000001 0.351447 -0.000098
2.632416 0.654213 0.804577 -0.000000 0.839022 0.000003
2.534770 0.466091 0.748832 0.000000 -0.999645 -0.000000
1.821610 0.514713 0.836361 0.000000 -0.519029 0.000030
0.578376 0.618139 0.838515 -0.000000 0.496129 0.000032
2.037825 0.651873 0.808074 -0.000000 0.825634 0.000003
1.847471 0.934017 1.228966 0.079966 0.004426 -0.003341
1.677835 0.482527 0.616278 0.058695 0.005798 -0.004362
0.740537 0.543597 0.848497 0.000001 -0.248659 0.000036
1.642025 0.743944 0.541125 -0.058664 0.006203 0.004354
1.643660 0.728044 0.978300 -0.043039 -0.004051 0.003203
3.118899 0.670003 0.740004 0.000000 0.995629 -0.000003
1.831121 0.394463 0.525843 0.079967 -0.007150 0.005383
0.114978 0.639751 0.796768 -0.335502 0.000098 0.000061
3.680624 0.475334 0.704592 -0.040928 -0.001241 -0.000666
1.713503 0.539904 0.847500 -0.000000 -0.276051 0.000016
3.556011 0.440659 0.565559 -0.054459 -0.019572 0.014150
3.395420 0.514761 0.664425 0.000000 -0.603011 -0.000442
2.902684 0.653215 0.692575 0.000000 0.825823 -0.000013
3.680624 0.475334 0.794092 -0.037509 -0.005718 0.003124
3.680624 0.665609 0.715277 -0.043323 0.001269 -0.000401
1.346461 0.569533 0.647195 0.000000 0.026557 -0.000045
1.064859 0.599703 0.846557 -0.000000 0.301385 0.000116
0.956752 0.652784 0.806740 -0.000001 0.809207 0.000003
1.465585 0.685276 0.586567 -0.043040 -0.011299 -0.008680
3.172953 0.483613 0.806565 0.000001 -0.825720 0.000025
2.308094 0.613399 0.657678 0.000000 0.449035 -0.000018
1.654220 1.014907 1.340217 -0.043041 -0.008225 0.006417
1.739149 0.689198 0.890681 0.079966 0.015206 -0.011293
1.281074 0.475209 0.791564 0.000000 -0.915996 0.000002
3.647181 0.696233 0.925449 -0.054459 0.019572 -0.014150
1.566476 0.275917 0.368146 -0.058664 -0.009733 0.006777
2.578362 0.629196 0.667320 0.000000 0.606988 -0.000024
1.561804 0.670417 0.750192 -0.000000 0.999645 0.000000
0.139835 0.527276 0.665063 -0.238625 -0.000083 -0.000160
0.503398 0.466195 0.753760 0.000000 -0.999645 0.000000
1.064859 0.476977 0.703442 0.000000 -0.893407 -0.000018
1.548083 0.392020 0.967916 -0.058663 -0.003197 -0.002253
1.539469 0.314495 1.078632 -0.058657 -0.002815 -0.001985
1.405804 0.714067 0.944227 -0.043040 -0.012462 0.009508
1.875664 0.659559 0.795203 -0.000000 0.893400 0.000037
0.632429 0.485440 0.809177 0.000000 -0.810559 0.000007
2.369122 0.569448 0.647193 0.000000 0.026648 -0.000011
3.335114 0.657516 0.699609 0.000000 0.868071 -0.000001
1.118913 0.575011 0.647393 -0.000001 0.066514 -0.000551
3.656541 0.346491 1.038635 -0.054458 0.019801 0.013846
3.010792 0.578781 0.647708 -0.000001 0.093014 -0.000197
1.495265 0.763701 0.485767 -0.043040 -0.004051 -0.003203
1.875664 0.490065 0.815108 0.000000 -0.761221 0.000031
0.902698 0.656377 0.697616 0.000000 0.868169 -0.000011
3.417066 0.466200 0.753930 0.000000 -0.999645 0.000000
2.522565 0.568768 0.851509 0.000000 0.026648 0.000011
1.010805 0.656377 0.697616 0.000000 0.868308 -0.000011
0.308107 0.652544 0.807091 -0.000000 0.825880 0.000025
1.064859 0.542691 0.650421 0.000000 -0.250214 -0.000142
2.794577 0.628093 0.832160 0.000000 0.585542 0.000006
1.823763 0.016365 1.472052 0.079967 -0.008625 -0.006482
3.653964 0.404327 0.971656 -0.054459 -0.008157 -0.006196
1.659449 0.471373 0.781796 -0.000000 -0.944998 0.000006
0.578376 0.618324 0.660274 0.000001 0.496070 -0.000064
2.794577 0.667520 0.773592 0.000000 0.974509 0.000002
1.699499 0.809219 0.454499 -0.058664 0.010496 0.007293
0.956752 0.520994 0.658752 0.000000 -0.472970 -0.000017
2.578362 0.476366 0.704657 0.000000 -0.905033 -0.000004
2.740523 0.668333 0.728742 0.000000 0.980154 -0.000004
1.664755 0.643608 0.820473 -0.000001 -0.603012 -0.000691
2.199986 0.482166 0.804362 -0.000001 -0.835088 0.000003
1.501333 0.321715 0.426395 -0.058662 -0.005630 0.003956
1.642025 0.412746 0.525876 -0.043041 0.008101 -0.006323
2.303735 0.567154 0.851493 0.000000 -0.026657 0.000022
3.659436 0.544008 0.848603 -0.045561 -0.000284 0.001233
2.470255 0.651674 0.808350 -0.000000 0.810309 0.000003
1.118913 0.565709 0.851455 0.000000 -0.026648 0.000011
2.091879 0.487630 0.686580 -0.000001 -0.790892 -0.000007
2.199986 0.535925 0.652415 -0.000000 -0.326725 -0.000013
1.767557 0.469865 0.721804 0.000000 -0.961169 -0.000005
3.369061 0.432519 0.573856 0.035473 0.019429 -0.011791
3.404585 0.656509 0.853966 0.035472 -0.007298 0.004945
3.654911 0.275948 0.365365 -0.054459 0.013203 -0.009546
1.818040 0.469151 0.626389 0.079966 -0.015206 0.011293
2.494666 0.567069 0.647193 -0.000000 -0.026648 -0.000022
2.419688 0.567749 0.851509 0.000000 -0.026648 0.000011
3.731568 0.660649 0.871567 -0.054458 0.006526 -0.004977
2.409226 0.466109 0.750531 0.000000 -0.999645 0.000000
2.686470 0.635546 0.826240 -0.000000 0.668422 0.000010
1.983772 0.537544 0.651896 0.000000 -0.301467 -0.000007
3.632933 0.827169 0.412273 0.035471 -0.029492 -0.015696
3.434256 0.403273 0.526996 0.035471 -0.017940 0.013198
1.010805 0.510649 0.833724 0.000000 -0.563728 0.000007
3.443221 0.483972 0.807091 0.000000 -0.825915 0.000013
1.064859 0.654881 0.803541 -0.000000 0.854510 0.000003
0.578376 0.515222 0.836670 0.000000 -0.519179 0.000015
1.929718 0.575054 0.851287 -0.000001 0.066075 0.000069
3.101462 0.564690 0.851428 0.000000 -0.026639 0.000011
2.632416 0.606059 0.844267 0.000001 0.375438 0.000023
0.686483 0.621149 0.661925 -0.000000 0.519077 -0.000121
2.199986 0.480599 0.696850 -0.000000 -0.854699 -0.000022
3.118899 0.583082 0.648251 -0.000001 0.145888 -0.000249
1.443235 0.596164 0.847629 -0.000000 0.275969 0.000032
3.615977 0.740550 0.530266 -0.054459 -0.016503 -0.011750
0.114978 0.624754 0.684777 -0.335506 0.000076 -0.000082
1.389181 0.668670 0.768275 -0.000000 0.985040 0.000003
1.218302 0.670385 0.747302 0.000000 0.999645 -0.000000
3.652362 0.617089 0.692914 0.113968 0.000532 -0.000704
1.605396 0.604832 0.844746 -0.000000 0.351661 0.000024
2.145933 0.647134 0.814294 -0.000000 0.777450 0.000007
1.929718 0.668670 0.768275 0.000000 0.985045 0.000013
3.727362 0.457920 0.603374 -0.054458 -0.009026 0.006840
3.592547 0.466756 0.895876 -0.054459 -0.009026 -0.006840
3.744187 0.546218 0.853036 -0.044724 -0.000290 0.001282
3.461381 0.482404 0.877197 0.035470 -0.018232 -0.013368
1.875664 0.607359 0.843738 0.000000 0.376523 0.000090
3.713578 0.528903 0.694555 0.113966 -0.001064 -0.001407
3.685301 0.858073 0.365942 -0.054459 0.013050 0.009748
3.685301 0.278443 1.132741 -0.054459 -0.013050 -0.009749
3.702126 0.786283 0.460915 -0.054459 0.019572 0.014150
3.697920 0.804231 1.061512 -0.054459 0.013050 -0.009749
3.735774 0.642702 0.650860 -0.054458 0.006526 0.004977
3.706332 0.368182 0.484658 -0.054458 -0.009788 0.007400
1.551342 0.466304 0.742674 -0.000001 -0.995751 -0.000001
2.037825 0.654512 0.694571 0.000000 0.840606 -0.000024
1.531467 0.707351 0.916980 -0.058663 0.017300 -0.011714
1.012549 0.570638 0.851459 0.000000 0.026639 0.000022
2.416201 0.656116 0.697177 0.000001 0.853544 -0.000011
0.470268 0.531048 0.844507 0.000000 -0.376462 0.000023
1.793923 0.676218 0.598191 0.058695 -0.020713 -0.014768
2.794577 0.514641 0.836317 -0.000000 -0.519091 0.000061
2.902684 0.517935 0.660422 0.000000 -0.496233 -0.000032
2.902684 0.508355 0.832110 -0.000001 -0.585387 0.000025
0.794591 0.653845 0.805149 -0.000000 0.839850 0.000006
2.686470 0.479338 0.799666 -0.000001 -0.866147 0.000005
1.831121 0.758837 0.503640 0.079966 0.013391 0.009984
3.551328 0.536085 0.652359 -0.000000 -0.326686 -0.000213
1.739149 0.462868 0.596249 0.058695 0.020713 -0.014768
0.902698 0.617134 0.839068 -0.000000 0.472865 0.000034
3.227006 0.648416 0.685978 -0.000000 0.778085 -0.000015
1.548680 0.701772 0.560042 -0.043041 -0.011299 -0.008680
3.172953 0.620750 0.661682 -0.000000 0.519043 -0.000030
1.551342 0.487888 0.686243 0.000000 -0.794711 -0.000028
2.308094 0.491360 0.816629 0.000000 -0.743747 0.000017
2.316812 0.466105 0.750361 0.000000 -0.999645 0.000000
2.740523 0.611058 0.656563 -0.000000 0.424791 -0.000010
2.416201 0.624530 0.834629 0.000000 0.540920 0.000014
3.621753 0.516000 0.807580 0.113968 -0.000532 0.000704
3.064845 0.488929 0.813731 0.000000 -0.778251 0.000015
0.578376 0.514314 0.662565 -0.000000 -0.517920 -0.000008
3.389167 0.536693 0.846519 -0.000001 -0.301321 0.000116
1.531467 0.442811 0.571389 -0.043040 0.011299 -0.008680
2.250553 0.567324 0.647186 0.000000 -0.026657 -0.000006
3.010792 0.467205 0.734266 -0.000000 -0.989197 -0.000003
2.308094 0.624814 0.834443 0.000001 0.553456 0.000007
1.837661 0.808769 0.436714 0.079966 0.006242 0.004704
0.308107 0.661019 0.706504 0.000000 0.905065 -0.000009
0.200000 0.631358 0.668971 -0.038566 0.000385 -0.000477
2.524308 0.490092 0.815141 0.000000 -0.761282 0.000002
2.794577 0.475498 0.792180 -0.000000 -0.900119 0.000002
3.642975 0.422337 0.549491 -0.054459 -0.008157 0.006196
0.686483 0.476113 0.705196 -0.000000 -0.904696 -0.000004
2.956738 0.468370 0.770858 0.000000 -0.980120 0.000001
1.586943 0.882814 0.338760 -0.058663 0.009733 0.006777
0.470268 0.480974 0.696233 0.000000 -0.854714 -0.000045
2.145933 0.619099 0.660717 0.000000 0.496207 -0.000032
3.064845 0.654651 0.694786 0.000001 0.737628 -0.000002
0.470268 0.532719 0.653549 0.000000 -0.351968 -0.000024
1.749930 0.080282 0.109665 -0.058664 -0.010305 0.007164
1.771442 0.159252 0.197740 0.058695 0.010823 -0.008046
3.240084 0.572252 0.851416 0.000000 0.026657 0.000011
1.172966 0.664320 0.784165 0.000000 0.936012 0.000003
0.470268 0.479718 0.800330 0.000000 -0.868228 0.000042
2.416201 0.490395 0.815497 -0.000001 -0.760840 0.000016
1.782887 0.366201 0.494872 0.079966 -0.006696 0.005044
1.875664 0.650479 0.688680 -0.000001 0.810059 -0.000013
1.731383 0.740418 0.991522 0.058695 -0.009741 0.007264
3.177064 0.496898 0.654939 0.035472 -0.027374 0.017870
2.686470 0.521827 0.840356 0.000000 -0.448896 0.000005
1.551342 0.649093 0.686851 0.000002 0.753025 -0.000004
2.254040 0.650177 0.810414 0.000000 0.794796 0.000007
0.848644 0.479887 0.800625 -0.000001 -0.867889 0.000011
2.199986 0.623029 0.835596 0.000000 0.541360 0.000007
2.199986 0.669231 0.733719 -0.000000 0.989271 -0.000001
3.613668 0.481503 0.645467 -0.054458 0.012689 -0.009194
0.040175 0.609487 0.740425 -0.628414 0.000024 -0.000004
0.416215 0.612789 0.841307 -0.000001 0.423992 0.000020
1.627941 0.309401 1.076833 -0.058667 -0.005248 -0.003689
3.497275 0.574121 0.647334 0.000001 0.066145 -0.000139
1.504744 0.818504 0.421497 -0.058664 0.005630 0.003956
2.308094 0.483996 0.691557 0.000000 -0.825815 -0.000006
1.601908 0.567749 0.647174 0.000000 -0.026639 -0.000022
3.064845 0.637939 0.824071 0.000000 0.687849 0.000019
1.828668 0.150946 0.204018 0.079966 -0.007944 0.005976
1.879355 0.999110 0.179363 0.058693 -0.016696 -0.012141
1.823763 1.113987 1.476712 0.058696 -0.011750 0.008710
1.823763 1.120152 0.026631 -0.058666 0.012976 0.008943
3.281060 0.478010 0.701440 -0.000000 -0.880994 -0.000010
3.335114 0.478513 0.798180 0.000000 -0.881154 0.000010
1.497288 0.492042 0.817388 0.000000 -0.743312 0.000004
0.254054 0.478271 0.700953 -0.000001 -0.881056 -0.000039
1.281074 0.539577 0.847407 -0.000000 -0.275858 0.000032
0.308107 0.609313 0.655781 0.000000 0.401056 -0.000084
3.218288 0.670344 0.745773 0.000000 0.999645 -0.000000
1.064859 0.481636 0.803541 0.000000 -0.840585 0.000001
3.600151 0.565708 0.647195 0.000000 -0.013323 -0.000022
0.254054 0.521219 0.658633 0.000001 -0.378277 -0.000005
1.659449 0.650778 0.689093 0.000001 0.810478 -0.000027
0.686483 0.656293 0.801216 -0.000000 0.868675 0.000001
2.470255 0.516901 0.661012 0.000000 -0.495922 -0.000032
0.416215 0.610014 0.656088 -0.000000 0.400813 -0.000021
0.956752 0.481283 0.802959 0.000000 -0.854704 0.000011
3.010792 0.514060 0.835964 0.000000 -0.519179 0.000015
1.817223 0.032730 0.049151 0.079967 -0.008625 0.006482
3.551328 0.649351 0.687188 0.000000 0.794707 -0.000028
1.739149 0.689198 0.608002 0.079966 0.015206 0.011293
3.443221 0.663295 0.711816 -0.000001 0.924368 -0.000004
1.443235 0.652856 0.692049 -0.000000 0.825778 -0.000013
1.929718 0.621295 0.662013 0.000000 0.519095 -0.000121
2.091879 0.517123 0.837798 0.000000 -0.496177 0.000016
3.281060 0.624172 0.834859 0.000000 0.541855 0.000007
0.362161 0.479338 0.699018 -0.000000 -0.868228 -0.000042
1.437102 0.721344 0.552261 -0.058665 0.017300 0.011714
3.568231 0.838675 1.107079 0.035472 0.018455 -0.013497
3.437842 0.772323 1.019301 0.035471 0.023066 -0.015943
3.263990 0.683853 0.596420 0.035472 0.013693 0.010530
3.350916 0.728088 0.537901 0.035471 0.027674 0.017992
3.242258 0.463722 0.887634 0.035472 -0.027374 -0.017871
3.285721 0.694912 0.916893 0.035471 0.010271 -0.008132
2.902684 0.638556 0.823486 -0.000000 0.687453 0.000010
1.802099 0.417957 0.955710 0.058696 0.009741 0.007264
1.465585 0.451241 0.586567 -0.043040 0.011299 -0.008680
2.740523 0.613057 0.841177 -0.000001 0.448025 0.000018
1.840931 0.277607 0.369947 0.079966 -0.005334 0.004023
1.739149 0.462868 0.902435 0.058695 0.020713 0.014768
3.064845 0.482580 0.693678 -0.000000 -0.840339 -0.000012
3.633426 0.264666 1.150968 0.035470 -0.018456 -0.013497
1.821610 0.590603 0.849042 0.000000 0.224367 0.000160
3.496448 0.520434 0.828951 0.113968 -0.003341 0.004419
1.983772 0.660440 0.793411 0.000001 0.904311 0.000017
1.716101 0.131886 0.167117 -0.043040 0.016448 -0.012205
1.716101 0.131886 1.331566 -0.043041 0.008225 0.006417
1.695916 0.979078 1.285207 -0.058664 0.006680 -0.004684
1.172966 0.618877 0.660590 0.000000 0.496117 -0.000064
2.308094 0.656483 0.697800 0.000000 0.867582 -0.000005
2.362147 0.514931 0.662190 0.000000 -0.519171 -0.000015
0.794591 0.642900 0.679569 0.000001 0.724331 -0.000009
3.605382 0.669864 0.760161 0.000000 0.995577 0.000000
1.313106 0.644684 0.850446 -0.043040 -0.012462 0.009508
1.789427 0.343026 1.056073 0.058695 0.008504 0.006362
1.736286 1.041426 1.369427 -0.058661 0.010306 -0.007165
0.627198 0.670335 0.753251 -0.000000 0.999645 0.000000
3.546007 0.353583 1.027892 0.035473 0.019667 0.011902
2.848630 0.466982 0.762904 0.000000 -0.989296 0.000005
1.479231 0.350875 1.039431 -0.043042 0.015700 0.011716
1.340396 0.462215 0.609056 -0.058664 -0.009542 0.006648
1.340396 0.674302 0.609056 -0.043040 -0.012462 -0.009508
1.722443 0.047566 1.438172 -0.058663 -0.017555 -0.011872
1.763376 0.003139 0.001739 0.000001 -0.603002 -0.000151
1.736087 1.103760 0.040921 -0.043039 -0.020932 -0.014954
1.599642 0.180846 1.261854 -0.058664 -0.014884 -0.010184
1.640575 0.136419 0.178057 -0.058663 -0.013358 0.009194
1.340396 0.462215 0.889627 -0.058664 -0.009542 -0.006648
1.504130 0.284508 1.124718 -0.058663 -0.010496 -0.007293
1.736087 1.103760 1.457763 -0.043038 -0.020932 0.014954
1.681509 1.044524 0.119284 -0.043040 -0.007229 -0.005662
1.654220 0.121610 1.340217 -0.058663 -0.011832 -0.008187
1.585997 0.940862 0.256420 -0.043040 -0.021429 -0.015240
3.461381 0.654113 0.877197 0.035469 0.009118 -0.007279
1.556979 0.498179 0.859348 -0.043042 0.007062 0.005535
3.118899 0.659273 0.795773 -0.000000 0.893407 0.000018
1.335127 0.666792 0.722294 -0.000000 0.960666 -0.000003
2.956738 0.661181 0.791833 0.000000 0.904992 0.000009
0.794591 0.473334 0.787143 -0.000000 -0.925438 0.000002
1.929718 0.508424 0.832160 -0.000001 -0.585620 0.000102
1.824581 0.436003 0.581667 0.079966 -0.007604 0.005722
3.118899 0.472795 0.785756 -0.000000 -0.936033 0.000014
3.605382 0.476958 0.703480 0.000000 -0.893405 -0.000037
2.794577 0.531685 0.653938 -0.000000 -0.351655 -0.000012
0.191307 0.667803 0.770870 -0.038559 0.000601 0.000122
1.983772 0.469167 0.774251 0.000000 -0.968189 0.000010
0.308107 0.506240 0.830538 0.000000 -0.606988 0.000048
2.740523 0.478492 0.700541 -0.000001 -0.880036 -0.000010
1.437102 0.415173 0.946423 -0.058664 -0.017300 -0.011714
1.831121 0.750446 0.983942 0.079966 0.006696 -0.005044
0.989881 0.670381 0.751551 0.000000 0.999645 0.000000
0.956752 0.604275 0.844955 -0.000000 0.351761 0.000049
1.720598 0.185091 1.243513 -0.058665 -0.007443 -0.005212
1.681509 1.044524 1.379399 -0.043040 -0.007229 0.005662
0.902698 0.659693 0.794938 -0.000001 0.850249 0.000002
1.619291 0.459525 0.865018 -0.058662 -0.005408 -0.003801
2.037825 0.467759 0.730911 -0.000000 -0.985033 -0.000003
1.531419 0.881626 0.334784 -0.043040 -0.025412 -0.017386
1.879355 0.764142 1.008479 0.058693 -0.008504 0.006362
1.879355 1.099811 0.046145 0.058696 -0.009277 -0.006927
1.879355 0.697009 0.579017 0.058695 -0.009741 -0.007264
1.879355 0.137407 0.179363 0.058695 0.016696 -0.012141
1.879355 0.019923 0.023942 0.058695 0.009277 -0.006927
1.635362 0.259482 0.333365 -0.043040 0.012213 -0.009332
1.713503 0.666183 0.720170 0.000000 0.960354 -0.000003
0.578376 0.657495 0.799112 0.000000 0.868070 0.000003
3.497275 0.473814 0.710360 0.000000 -0.926413 -0.000030
3.448339 0.396107 0.981169 0.035472 -0.017940 -0.013197
3.578728 0.325824 1.065976 0.035474 0.014752 0.009424
3.556996 0.799634 1.051346 0.035474 -0.019667 0.011902
0.794591 0.516239 0.661396 -0.000001 -0.516214 -0.000015
1.677835 0.676338 0.633171 0.079965 0.004256 0.003213
0.470268 0.639481 0.822608 -0.000001 0.677715 0.000005
1.767557 0.669581 0.762524 0.000000 0.992389 0.000001
1.064859 0.650280 0.688404 0.000000 0.810476 -0.000007
0.740537 0.495651 0.821228 -0.000000 -0.706948 0.000018
3.227006 0.535844 0.652443 0.000000 -0.326725 -0.000053
0.470268 0.651921 0.690680 0.000000 0.825960 -0.000002
1.497288 0.606414 0.844122 -0.000001 0.376479 0.000090
3.172953 0.629905 0.830822 -0.000000 0.606981 0.000048
1.605396 0.475281 0.791718 0.000000 -0.905029 0.000004
3.430669 0.434491 0.580551 0.035472 0.014753 -0.009425
3.430669 0.442352 0.924075 0.035470 -0.013844 -0.010631
1.551342 0.541048 0.650855 -0.000000 -0.275841 -0.000064
3.443221 0.616572 0.839369 0.000000 0.472897 0.000034
1.929718 0.468386 0.727742 0.000000 -0.980130 -0.000015
2.524308 0.621694 0.836427 0.000000 0.519177 0.000030
1.172966 0.522966 0.657755 0.000000 -0.449211 -0.000073
3.227006 0.478392 0.797955 -0.000001 -0.879837 0.000005
1.767557 0.469900 0.777002 0.000000 -0.960804 0.000003
1.556383 0.845013 0.389201 -0.058663 0.010496 0.007293
3.744187 0.484154 0.813877 -0.047214 -0.000998 0.000745
1.659449 0.468539 0.727080 0.000000 -0.974509 -0.000004
1.497288 0.466778 0.761216 -0.000000 -0.991072 0.000001
2.416201 0.660476 0.793334 0.000000 0.905036 0.000009
1.443235 0.471970 0.715160 -0.000000 -0.945051 -0.000006
3.335114 0.612635 0.841379 -0.000000 0.424368 0.000010
1.875664 0.486856 0.687594 0.000000 -0.794753 -0.000014
0.848644 0.519346 0.839047 -0.000000 -0.472935 0.000017
1.677835 0.676338 0.865512 0.079967 0.004256 -0.003213
3.281060 0.653239 0.692610 -0.000001 0.824948 -0.000013
0.517347 0.670326 0.753590 0.000000 0.999645 0.000000
2.578362 0.513059 0.663364 0.000000 -0.541706 -0.000057
0.740537 0.533117 0.653400 0.000001 -0.343413 -0.000013
1.747733 0.799927 0.430031 0.058695 -0.008504 -0.006362
3.389167 0.657743 0.798666 -0.000001 0.878989 0.000005
1.227020 0.612943 0.841234 -0.000000 0.449246 0.000073
0.040175 0.538831 0.719121 -0.628413 -0.000020 -0.000019
1.497288 0.656799 0.800330 0.000000 0.867293 0.000005
1.335127 0.480577 0.696887 0.000000 -0.854704 -0.000011
3.556011 0.440659 0.933125 -0.054458 -0.019572 -0.014150
3.389167 0.476423 0.704543 0.000000 -0.893866 -0.000001
3.345153 0.466638 0.889838 0.035470 -0.013694 -0.010531
1.281074 0.657221 0.799592 -0.000001 0.801301 0.000001
1.584865 0.637379 0.638611 -0.043040 -0.007062 -0.005535
0.254054 0.552636 0.850315 -0.000000 -0.145922 0.000249
0.191307 0.473406 0.712254 -0.038564 -0.000574 -0.000216
3.497275 0.660874 0.792487 -0.000001 0.904867 0.000017
2.199986 0.643765 0.680505 0.000000 0.742959 -0.000008
2.956738 0.663039 0.711186 -0.000001 0.911742 -0.000002
3.010792 0.633863 0.671010 -0.000000 0.648542 -0.000011
1.497288 0.540067 0.847547 0.000000 -0.275807 0.000064
0.902698 0.617508 0.659817 -0.000000 0.472831 -0.000034
1.443235 0.611635 0.656835 0.000000 0.425165 -0.000020
3.281060 0.480555 0.801760 -0.000000 -0.854742 0.000022
1.010805 0.467576 0.731958 0.000000 -0.984293 -0.000002
3.389167 0.480511 0.801688 0.000000 -0.854711 0.000022
2.091879 0.478211 0.797618 -0.000000 -0.881155 0.000005
0.106886 0.570457 0.666773 -0.357023 0.000003 -0.000050
2.416201 0.617171 0.659636 0.000000 0.472970 -0.000017
1.335127 0.480864 0.802269 0.000000 -0.854720 0.000006
1.497288 0.652832 0.692014 0.000000 0.825960 -0.000006
2.470255 0.658527 0.701478 0.000001 0.875521 -0.000002
1.809048 0.878329 1.166392 0.058696 -0.006649 0.004994
3.481305 0.342077 0.450123 0.035471 -0.018455 0.013497
1.787383 0.510956 0.664568 0.058694 0.011596 -0.008600
2.632416 0.552426 0.850284 0.000000 -0.145837 0.000125
1.660608 0.839984 0.406949 -0.058663 0.020224 0.013498
1.708798 0.062375 0.080103 -0.058664 -0.017554 0.011872
0.308107 0.611635 0.841849 0.000001 0.425198 0.000078
1.776347 0.737168 0.959090 0.079966 0.003575 -0.002700
0.387444 0.466206 0.754185 0.000000 -0.999654 0.000000
1.693275 0.299668 0.379951 -0.043041 0.006107 -0.004802
1.716101 1.004631 0.167117 -0.043039 -0.008226 -0.006417
3.551328 0.469656 0.776144 0.000000 -0.964524 0.000001
1.827851 0.725480 0.548204 0.079966 0.014298 0.010640
3.713578 0.610234 0.802148 0.113966 0.000532 0.000704
1.795967 0.827365 1.100247 0.058694 -0.015769 0.011513
1.394412 0.466109 0.748152 0.000000 -0.999645 -0.000000
2.921865 0.570468 0.851464 0.000000 0.026648 0.000022
2.145933 0.669109 0.765763 0.000001 0.983360 0.000002
1.010805 0.618324 0.660274 0.000000 0.496441 -0.000008
3.685169 0.440128 0.576432 -0.054459 -0.008157 0.006196
3.335114 0.533595 0.845463 0.000000 -0.326725 0.000027
0.578376 0.478553 0.798254 -0.000001 -0.881028 0.000020
2.524308 0.611289 0.656672 0.000001 0.425198 -0.000078
1.821610 0.657305 0.799444 0.000000 0.868249 0.000021
3.744187 0.620974 0.743801 1.000000 0.000000 -0.000000
3.744187 0.515706 0.742423 1.000000 0.000000 -0.000000
1.834391 0.352714 0.470177 0.079966 -0.006242 0.004704
1.834391 0.783803 1.028507 0.079966 0.006242 -0.004704
3.401658 0.720586 0.946772 0.035472 -0.029492 0.015697
2.037825 0.517492 0.838009 0.000000 -0.495263 0.000008
1.741193 0.789768 1.023998 0.079965 0.013391 -0.009984
1.443235 0.670165 0.741953 -0.000001 0.996786 -0.000001
1.822128 0.190441 1.254740 0.058693 0.010823 0.008046
1.634416 0.943605 1.241216 -0.058663 0.008206 -0.005737
1.566476 0.860600 1.130537 -0.058665 0.009733 -0.006777
1.690603 0.895705 1.167624 -0.058663 0.008588 -0.005998
1.389181 0.536005 0.846297 0.000000 -0.326725 0.000027
1.619291 0.459525 0.633666 -0.058663 -0.010814 0.007507
2.145933 0.475281 0.706966 -0.000000 -0.904964 -0.000004
1.443235 0.491673 0.816977 0.000000 -0.743683 0.000008
1.542737 0.465005 0.633628 -0.058663 -0.008652 0.006041
1.847471 0.925625 0.280819 0.079965 0.008852 0.006651
0.280209 0.466107 0.747132 -0.000000 -0.999911 -0.000000
2.199986 0.520881 0.839872 -0.000002 -0.434766 0.000009
0.402265 0.670411 0.751467 -0.000000 0.999911 0.000000
2.794577 0.489169 0.684655 -0.000000 -0.764910 -0.000002
2.362147 0.598730 0.846865 -0.000000 0.301383 0.000116
0.200000 0.600351 0.846352 -0.038564 0.000200 0.000580
2.902684 0.480445 0.697105 -0.000000 -0.853918 -0.000006
3.010792 0.611712 0.841813 -0.000001 0.424819 0.000039
1.713503 0.480665 0.801942 0.000000 -0.854652 0.000006
3.744187 0.527690 0.651401 -0.049285 -0.000471 -0.001096
3.281060 0.659063 0.796191 -0.000000 0.892179 0.000002
2.632416 0.472854 0.785915 0.000000 -0.936098 0.000007
1.659449 0.527243 0.842920 0.000000 -0.401187 0.000010
0.094962 0.490959 0.749342 -0.421333 -0.000039 0.000001
0.362161 0.515731 0.661705 0.000000 -0.518973 -0.000061
3.529278 0.410800 0.530824 0.035470 -0.013844 0.010631
1.601075 0.784058 0.480118 -0.058660 0.002911 0.002052
1.281074 0.650479 0.688680 0.000001 0.810424 -0.000027
1.777982 1.005598 1.314417 -0.058667 0.005916 -0.004155
0.686483 0.475372 0.791910 -0.000000 -0.905044 0.000017
1.983772 0.589858 0.649470 0.000000 0.224347 -0.000040
1.118913 0.478553 0.700429 -0.000001 -0.881027 -0.000020
1.835209 0.122694 1.343089 0.058695 0.016696 0.012141
