2.014480 0.636434 0.754738 0.000000 0.784643 0.000012
2.054216 0.992215 0.120014 0.067170 -0.003541 -0.002821
2.003016 0.240120 0.285100 0.067171 0.006070 -0.004822
0.034139 0.588599 0.686932 -0.688800 0.000008 0.000000
0.290724 0.479320 0.596003 0.000000 -0.619339 -0.000009
1.107240 0.630984 0.761138 0.000000 0.739491 0.000014
2.715214 0.395650 0.885678 0.247281 -0.000791 -0.001212
0.472172 0.445277 0.639400 0.000001 -0.916409 -0.000007
0.789706 0.597302 0.786224 0.000000 0.439809 0.000008
2.673321 0.433244 0.560036 0.000001 0.781748 -0.000462
2.377376 0.452259 0.743931 -0.000000 -0.851974 0.000018
0.585205 0.551910 0.797460 0.000000 0.023502 0.000021
2.065791 0.435695 0.681077 0.000000 -0.999724 -0.000000
1.988388 0.391275 0.506587 0.079229 -0.005468 0.004351
1.651584 0.436914 0.667953 -0.000000 -0.988054 -0.000001
3.193343 0.496652 0.610147 0.233435 -0.000106 -0.000150
2.105204 0.586489 0.790801 0.000001 0.278435 0.000006
2.988044 0.721103 0.920902 -0.000001 0.781748 -0.000694
2.988044 0.356598 0.906115 0.000000 0.781749 0.000694
1.913738 0.223254 1.075511 -0.067102 -0.006258 -0.004526
2.468100 0.585557 0.791130 -0.000000 0.333312 0.000042
2.835235 0.392399 0.508832 0.000000 0.781748 -0.000135
0.376986 0.435627 0.687093 0.000000 -0.999933 0.000000
1.470136 0.481031 0.775353 0.000000 -0.600867 0.000010
2.682470 0.630041 0.806745 0.000000 0.781748 -0.000462
2.820219 0.447660 0.578108 0.000000 0.781749 -0.000462
0.939177 0.660594 0.686845 0.000000 0.999724 0.000000
2.465125 0.546307 0.572558 0.000000 -0.023502 -0.000021
1.900462 0.809547 0.989691 -0.067103 0.001923 -0.001396
1.824747 0.626797 0.558255 -0.056892 -0.003906 -0.003360
2.976267 0.601210 0.599464 -0.000000 0.781749 0.000373
1.820017 0.842663 0.325576 -0.067103 0.001825 0.001325
2.037962 0.005175 0.001228 0.000000 -0.623594 -0.000372
2.059842 0.505331 0.580977 -0.000000 -0.377253 -0.000037
2.004845 0.807699 0.994366 0.079229 0.001501 -0.001197
1.197964 0.629689 0.762523 0.000000 0.723544 0.000007
1.620789 0.431326 0.838216 -0.056890 0.006578 0.005635
3.012444 0.649657 0.733512 0.000000 0.897584 0.000001
0.744344 0.650142 0.637600 -0.000000 0.907370 -0.000007
1.515498 0.593185 0.581943 0.000000 0.399149 -0.000009
2.286652 0.635038 0.613593 -0.000001 0.767617 -0.000006
2.106635 0.646646 0.811180 0.067171 -0.003372 0.002687
1.061878 0.612059 0.777610 -0.000001 0.540339 0.000006
1.622504 0.657479 0.557925 -0.067107 0.002235 0.001622
1.651584 0.608141 0.780203 0.000000 0.543131 0.000006
2.012159 0.287812 0.345875 0.067169 0.003288 -0.002620
2.028616 0.998279 1.260417 0.067172 -0.003541 0.002821
1.883599 0.548284 0.797545 0.000010 0.001004 0.000489
0.698982 0.650228 0.732278 -0.000001 0.907271 0.000014
3.057805 0.444931 0.640194 0.000000 -0.916990 -0.000026
0.295186 0.435610 0.685692 0.000000 -0.999924 0.000000
0.562896 0.622884 0.769118 0.000000 0.673123 0.000016
0.608258 0.650124 0.732502 -0.000000 0.907382 0.000028
2.725815 0.476491 0.614251 0.000000 -0.623593 -0.000372
3.042990 0.332060 0.936876 0.000001 0.781743 0.000232
3.193343 0.512075 0.712691 1.000000 0.000000 0.000000
0.245362 0.500912 0.582906 -0.000001 -0.420235 -0.000129
1.955998 0.074207 1.275876 -0.067104 -0.007301 -0.005272
1.939017 0.756404 0.966870 0.067170 -0.001897 0.001513
0.148486 0.548119 0.580434 -0.243477 0.000000 -0.000040
0.245362 0.454360 0.747234 0.000000 -0.839531 0.000001
2.513462 0.461542 0.613181 -0.000000 -0.768967 -0.000006
2.131016 0.211150 1.107464 0.067172 0.010116 0.007980
2.094444 0.909595 1.133524 0.079229 0.004288 -0.003416
2.013988 0.730705 0.926560 0.067170 -0.008093 0.006410
2.195928 0.589035 0.789843 0.000000 0.355439 0.000039
2.825996 0.610479 0.606858 -0.000002 0.623590 -0.000745
3.146204 0.690967 0.864110 -0.377984 0.001338 -0.001338
3.072128 0.236323 1.075907 -0.377982 -0.001338 -0.001338
3.152938 0.675608 0.525210 -0.377985 0.001338 0.001338
0.562896 0.479449 0.774164 -0.000001 -0.618877 0.000019
1.742308 0.645501 0.628683 -0.000001 0.854328 -0.000004
2.994789 0.346304 0.413019 -0.000001 -0.781748 0.000464
0.472172 0.592618 0.581696 -0.000001 0.398806 -0.000069
1.470136 0.494645 0.586039 0.000000 -0.483001 -0.000007
2.638480 0.638969 0.590156 0.000000 -0.781748 -0.000616
0.562896 0.657317 0.657935 -0.000001 0.967186 -0.000002
2.195928 0.503546 0.788336 0.000002 -0.279913 0.000006
1.197964 0.499939 0.583357 0.000000 -0.420261 -0.000032
1.197964 0.615077 0.594613 0.000001 0.578791 -0.000003
2.043245 0.067545 1.296966 0.067170 0.006070 0.004822
2.057611 0.660524 0.680253 0.000000 0.999732 -0.000000
0.653620 0.525685 0.574783 0.000000 -0.198027 -0.000148
1.911589 0.617928 0.596788 -0.000000 -0.623591 0.000547
3.057805 0.451257 0.742273 0.000000 -0.864034 0.000017
1.768806 0.248176 0.312280 -0.067104 -0.003651 0.002648
1.787670 0.494573 0.586078 0.000000 -0.483001 -0.000014
2.944029 0.435713 0.689730 0.000000 -0.902116 0.000000
1.742308 0.471466 0.602667 0.000000 -0.673068 -0.000004
1.953645 0.285359 0.991828 0.079226 -0.003002 -0.002393
2.014480 0.458393 0.752912 0.000001 -0.799006 0.000022
1.470136 0.600282 0.784719 0.000000 0.462185 0.000007
2.958660 0.316724 0.994129 0.000001 -0.781734 -0.000174
2.381837 0.546966 0.572543 -0.000000 -0.023502 -0.000010
1.163756 0.546471 0.572554 0.000000 -0.023502 -0.000010
1.808492 0.435618 0.684373 -0.000000 -0.999724 -0.000000
0.789706 0.444080 0.642205 0.000000 -0.925362 -0.000003
2.377376 0.597782 0.584078 -0.000001 0.441123 -0.000061
2.285164 0.543175 0.797433 0.000000 -0.023502 0.000318
3.060036 0.435722 0.690142 0.000000 -0.999728 0.000000
2.059842 0.453285 0.624491 -0.000001 -0.838733 -0.000010
1.761582 0.391699 0.509050 -0.067102 -0.006845 0.004946
0.653620 0.441353 0.649545 0.000000 -0.950290 -0.000010
0.789706 0.652113 0.727974 0.000000 0.922028 0.000002
0.653620 0.621950 0.600136 -0.000000 0.655631 -0.000034
1.999359 0.310433 0.966221 0.079228 -0.003216 -0.002564
1.805675 0.659532 0.848109 -0.056892 -0.007555 0.006458
1.878394 0.652548 0.726905 -0.000001 0.925963 0.000012
1.951817 0.783017 0.371214 0.067171 -0.001770 -0.001412
1.061878 0.567679 0.574237 -0.000000 0.174823 -0.000084
0.653620 0.443769 0.727096 -0.000001 -0.916263 0.000002
2.065187 0.066247 0.089337 0.079226 -0.003002 0.002393
1.270840 0.546801 0.797518 0.000000 -0.023502 0.000318
0.835068 0.588650 0.580076 -0.000000 0.355711 -0.000020
1.944503 0.659517 0.569153 0.079234 0.002144 0.001710
2.087130 0.238068 0.301940 0.079228 -0.005146 0.004096
2.087130 0.843348 1.049544 0.079227 0.005146 -0.004097
0.290724 0.447528 0.634630 0.000000 -0.897301 -0.000007
1.560860 0.444685 0.640761 0.000000 -0.917000 -0.000013
2.105204 0.604826 0.587859 -0.000000 0.503170 -0.000026
0.106880 0.458310 0.689247 -0.398127 -0.000079 0.000002
2.105204 0.439022 0.712530 0.000000 -0.968956 0.000001
2.372914 0.552405 0.797449 0.000000 0.023502 0.000318
2.377376 0.656740 0.714365 0.000001 0.963168 0.000008
1.515498 0.633313 0.611544 0.000000 0.755002 -0.000013
1.197964 0.651061 0.639627 -0.000000 0.915548 -0.000003
0.078512 0.482988 0.721960 -0.508982 -0.000042 0.000023
1.243326 0.591366 0.581164 0.000001 0.375574 -0.000018
1.915107 0.119780 1.217812 -0.067104 -0.004694 -0.003401
1.895977 0.992747 0.127639 -0.056891 -0.005037 -0.004326
1.969118 0.573775 0.575485 0.000000 0.220900 -0.000066
1.243326 0.610731 0.778514 0.000000 0.562884 0.000011
1.334050 0.610663 0.778561 -0.000001 0.560874 0.000011
1.288688 0.653750 0.723791 -0.000000 0.943044 0.000001
1.913492 0.924927 0.204763 -0.056892 -0.006188 -0.005304
1.970102 0.895087 0.270576 -0.067102 0.005737 0.004152
2.003016 0.778301 0.382654 0.067169 -0.003541 -0.002821
2.789397 0.677411 0.541964 -0.000000 -0.781750 -0.000462
2.195928 0.630201 0.761986 -0.000001 0.722149 0.000014
0.381448 0.447310 0.635074 0.000000 -0.897301 -0.000007
0.608258 0.495153 0.585765 0.000000 -0.461641 -0.000014
1.828404 0.461838 0.549118 -0.056890 0.003906 -0.003360
2.150566 0.450061 0.740203 -0.000000 -0.874833 0.000004
1.379412 0.633394 0.758427 0.000001 0.735962 0.000003
3.084864 0.397883 0.892386 -0.000003 -0.781607 -0.000126
0.971154 0.443426 0.643809 0.000000 -0.934702 -0.000023
1.860833 0.357589 0.473447 -0.067102 -0.004368 0.003166
0.290724 0.630485 0.608379 0.000001 0.739387 -0.000054
2.740271 0.650211 0.732315 0.000000 0.907472 0.000003
2.683116 0.687021 0.529916 0.000000 -0.781749 -0.000462
2.785634 0.648674 0.634556 -0.000001 0.896605 -0.000007
1.845761 0.478145 0.803550 0.067170 0.006744 0.005353
1.854438 0.274579 0.358431 -0.067102 -0.003651 0.002648
2.921720 0.534960 0.573288 0.000001 -0.127982 -0.000058
0.789706 0.491841 0.587610 0.000000 -0.503286 -0.000013
0.925792 0.503243 0.581861 0.000000 -0.398831 -0.000069
1.107240 0.590107 0.789415 0.000000 0.377178 0.000037
2.830995 0.440814 0.651190 0.000000 -0.950298 -0.000001
1.107240 0.481558 0.775749 0.000000 -0.601041 0.000005
2.087130 1.021218 0.097540 0.079230 0.003002 0.002393
2.785634 0.535657 0.573214 0.000001 -0.105024 -0.000142
0.562896 0.442269 0.646896 0.000000 -0.941953 -0.000003
1.773690 0.668748 0.559713 -0.067101 0.006845 0.004946
1.955474 0.250034 1.077670 0.067171 0.006070 0.004822
0.336086 0.654011 0.647013 0.000001 0.942709 -0.000021
2.785634 0.452043 0.743580 0.000000 -0.852027 0.000018
1.197964 0.443613 0.643351 0.000000 -0.926064 -0.000002
1.955474 0.250034 0.292395 0.067170 0.006070 -0.004822
1.900617 0.411761 0.826610 0.079227 -0.008577 -0.006802
0.814246 0.660628 0.685774 0.000000 0.999933 0.000000
1.515498 0.501360 0.787366 -0.000000 -0.420240 0.000065
2.332014 0.491520 0.587797 -0.000001 -0.502945 -0.000051
0.336086 0.463331 0.611077 -0.000000 -0.754801 -0.000013
1.016516 0.636791 0.754285 0.000002 0.558920 0.000002
2.926934 0.728430 0.439978 -0.000001 0.781748 0.000694
2.967081 0.458542 0.753110 0.000000 -0.799249 0.000022
1.896051 0.251047 1.039271 -0.067104 -0.003390 -0.002459
2.150566 0.451402 0.627543 -0.000000 -0.864120 -0.000004
2.468100 0.651390 0.640383 -0.000001 0.867406 -0.000002
0.290724 0.626683 0.765578 0.000000 0.690287 0.000004
1.742308 0.617890 0.773296 -0.000001 0.613674 0.000005
1.913492 0.933320 1.158606 -0.067101 0.005215 -0.003777
2.072502 0.962837 0.172592 0.079227 0.003860 0.003075
1.606222 0.537009 0.796994 0.000000 -0.105282 0.000283
1.696946 0.451257 0.742273 -0.000000 -0.864034 0.000017
1.833032 0.585790 0.791048 0.000001 0.332653 0.000021
2.876086 0.619748 0.755814 0.000000 0.623595 0.000372
2.600589 0.619748 0.755814 -0.000001 0.623594 0.000745
2.014480 0.598078 0.785842 -0.000000 0.439809 0.000008
1.288688 0.618860 0.597535 0.000000 0.637834 -0.000005
0.152381 0.593609 0.780307 -0.220714 0.000079 0.000157
0.604540 0.660620 0.683672 0.000000 0.999933 -0.000000
2.035930 0.831707 0.341641 0.079230 0.005575 0.004436
1.243326 0.445630 0.731455 0.000000 -0.907600 0.000001
0.200000 0.511848 0.791543 -0.066793 -0.000106 0.000298
0.835068 0.460622 0.755773 0.000000 -0.785012 0.000003
2.286652 0.448052 0.736464 0.000000 -0.886630 0.000002
1.796791 0.721858 0.450451 -0.056890 -0.002554 -0.002200
1.016516 0.636791 0.615780 0.000000 0.784872 -0.000024
2.241290 0.608280 0.780113 0.000000 0.543386 0.000012
2.098101 0.172049 0.217778 0.079227 -0.004289 0.003416
2.195928 0.436184 0.673677 0.000000 -0.994210 -0.000002
0.517534 0.589458 0.789679 -0.000001 0.372597 0.000019
1.061878 0.466350 0.607751 0.000000 -0.721915 -0.000004
1.942674 0.332231 0.394057 0.067171 0.003794 -0.003021
1.962788 0.334100 0.931891 0.079228 -0.003431 -0.002734
3.031005 0.844333 0.332706 -0.000001 -0.781748 -0.000464
1.197964 0.589420 0.789694 0.000000 0.377366 0.000009
1.969118 0.532835 0.796502 0.000000 -0.128705 0.000115
2.468100 0.437077 0.703171 0.000000 -0.988383 0.000002
1.470136 0.457997 0.617680 0.000001 -0.754255 -0.000003
1.996472 1.035685 1.300992 -0.056890 -0.007771 0.006639
3.060217 0.759171 0.968624 0.000000 0.781750 -0.000174
1.041056 0.660592 0.686928 -0.000005 0.196103 0.000000
1.833032 0.651554 0.640761 -0.000000 0.916940 -0.000013
0.426810 0.508205 0.579841 0.000000 -0.355425 -0.000157
1.560860 0.475918 0.771321 0.000000 -0.637730 0.000018
2.787121 0.435719 0.680088 0.000000 -0.999728 -0.000000
2.558824 0.652191 0.642282 0.000000 0.926034 -0.000006
2.902423 0.678094 0.866984 0.000000 0.781750 -0.000154
3.012444 0.647806 0.632870 0.000000 0.886665 -0.000016
1.936269 1.030193 1.289370 -0.056891 -0.008058 0.006880
1.842253 0.942818 0.190230 -0.056895 -0.006187 -0.005304
1.640792 0.755587 0.424947 -0.056894 -0.010360 -0.008789
1.640792 0.340652 0.424947 -0.067103 -0.009387 0.006753
1.775100 0.880408 1.101596 -0.056890 -0.007483 0.006397
1.694515 0.290723 0.362356 -0.067102 -0.008344 0.006015
1.801961 0.190867 0.237173 -0.067102 -0.006258 0.004526
1.587068 0.390580 0.487538 -0.067102 -0.008940 0.006437
1.788530 0.203349 1.117244 -0.067104 -0.006258 -0.004526
1.788530 0.892890 0.252821 -0.056890 -0.007339 -0.006276
1.949700 0.053564 0.065048 -0.067103 -0.006258 0.004526
1.654222 0.328170 0.960766 -0.067102 -0.008866 -0.006384
1.016516 0.456299 0.750053 0.000000 -0.812857 0.000005
0.971154 0.501323 0.787349 0.000000 -0.420092 0.000032
1.560860 0.494284 0.586238 -0.000000 -0.482930 -0.000054
2.854737 0.634847 0.812769 0.000000 0.781749 -0.000269
2.377376 0.505063 0.788979 0.000001 -0.367242 0.000009
2.043245 0.860897 1.065950 0.079229 0.002573 -0.002051
2.332014 0.647730 0.632724 0.000000 0.886781 -0.000008
0.698982 0.488097 0.780203 0.000000 -0.543304 0.000012
0.608258 0.597967 0.584169 -0.000000 0.441420 -0.000122
2.072502 0.133402 0.172592 0.079227 -0.007719 0.006129
2.332014 0.577372 0.793675 -0.000000 0.266333 0.000108
2.921720 0.649584 0.733660 -0.000001 0.894570 0.000004
1.873798 0.656499 0.788117 0.079228 0.002859 -0.002279
3.012444 0.438371 0.660261 -0.000000 -0.975201 -0.000007
1.379412 0.518628 0.793609 0.000001 -0.239073 0.000008
3.103168 0.519423 0.576237 0.236777 -0.000049 -0.000195
2.286652 0.650245 0.732240 0.000001 0.883748 0.000002
1.876163 0.547625 0.572527 -0.000000 -0.023149 -0.000021
2.014480 0.632853 0.611015 0.000001 0.754914 -0.000026
1.988388 0.704964 0.863478 0.079229 0.005468 -0.004351
1.860389 0.447730 0.840099 0.067168 0.006745 0.005353
2.921720 0.648340 0.633894 -0.000001 0.880638 -0.000004
1.107240 0.492913 0.586994 0.000000 -0.483001 -0.000027
3.044752 0.301796 1.012842 0.000000 -0.781745 -0.000232
2.649548 0.443426 0.726256 0.000000 -0.934700 0.000006
0.925792 0.611991 0.777656 0.000000 0.562798 0.000044
0.078512 0.498370 0.629080 -0.508985 -0.000034 -0.000037
2.014480 0.659525 0.700808 0.000000 0.991691 0.000004
2.550499 0.476491 0.755814 -0.000000 -0.623593 0.001311
1.328844 0.435699 0.689153 0.000000 -0.999728 0.000000
0.200000 0.436714 0.669257 -0.066792 -0.000314 -0.000041
2.876357 0.569827 0.574636 -0.000001 0.197688 -0.000074
1.288688 0.461884 0.757297 -0.000000 -0.770126 0.000012
2.105204 0.650488 0.638348 0.000000 0.907472 -0.000003
0.381448 0.499492 0.786497 0.000000 -0.441129 0.000004
1.334050 0.486990 0.779486 0.000000 -0.543131 0.000006
0.517534 0.500425 0.786933 -0.000000 -0.420286 0.000032
1.464930 0.660540 0.680912 0.000000 0.999724 -0.000000
3.193343 0.637001 0.666140 0.233436 0.000180 -0.000036
2.131016 0.736864 0.448419 0.067170 -0.007587 -0.006014
2.131016 0.885089 1.107464 0.067169 -0.005058 0.004024
2.131016 0.196328 0.244019 0.067171 0.010116 -0.007980
2.131016 0.840621 0.318346 0.067170 -0.012139 -0.009529
2.131016 0.092570 1.256118 0.067170 0.006070 0.004822
2.131016 0.062925 1.293282 0.067169 0.010116 0.007980
2.131016 0.914734 0.225438 0.067170 -0.009105 -0.007197
2.131016 0.255618 0.318346 0.067169 0.006070 -0.004822
2.131016 1.062958 0.039620 0.067172 -0.008093 -0.006410
2.131016 0.033280 0.039620 0.067169 0.008093 -0.006410
0.472172 0.654963 0.720286 -0.000000 0.949855 0.000005
3.057805 0.497237 0.584679 -0.000000 -0.462329 -0.000229
2.752569 0.728807 0.468026 0.247280 -0.001358 -0.000502
2.690476 0.392375 0.489788 0.247280 -0.001538 0.002356
2.837749 0.778572 0.396133 0.247281 0.001538 0.002356
2.911386 0.815926 0.349305 0.247278 0.001538 0.002356
3.021841 0.224282 0.279064 0.247281 -0.001583 0.002425
2.764113 0.355021 0.442961 0.247280 -0.001538 0.002356
2.090787 0.699543 0.879204 0.067172 -0.006449 0.005121
1.787670 0.443426 0.726256 0.000000 -0.934700 0.000006
2.513462 0.436883 0.668157 0.000000 -0.988373 -0.000005
0.473659 0.435612 0.685857 0.000000 -0.999933 0.000000
1.606222 0.452972 0.745089 -0.000001 -0.695691 0.000001
0.472172 0.474351 0.769983 0.000000 -0.655286 0.000017
2.921720 0.592996 0.788204 0.000000 0.398931 0.000034
1.243326 0.484759 0.592061 0.000000 -0.562827 -0.000022
2.876357 0.442753 0.724484 0.000000 -0.934679 0.000011
1.933531 0.741293 0.421546 0.067171 -0.008093 -0.006410
1.424774 0.553393 0.797426 -0.000000 0.058563 0.000255
2.920351 0.792992 0.972996 -0.000001 -0.781749 0.000348
1.696946 0.637226 0.753735 -0.000001 0.687231 0.000002
1.288688 0.459601 0.615586 0.000001 -0.780406 -0.000006
1.560860 0.566502 0.796038 -0.000000 0.174940 0.000021
2.422738 0.619876 0.771689 0.000000 0.637834 0.000005
1.696946 0.528398 0.574265 -0.000000 -0.174997 -0.000042
2.286652 0.597856 0.584114 0.000001 0.440077 -0.000015
1.851257 0.852770 1.054830 -0.067100 0.001695 -0.001231
0.426810 0.593714 0.787892 0.000000 0.398833 0.000069
3.103168 0.660358 0.677125 0.234474 0.000202 -0.000017
1.470136 0.613743 0.593644 -0.000001 0.579373 -0.000010
2.740271 0.653970 0.646896 0.000000 0.942817 -0.000003
0.789706 0.445079 0.730211 0.000000 -0.916964 0.000013
2.468100 0.654245 0.722392 0.000000 0.942817 0.000003
1.107240 0.652004 0.641824 0.000001 0.925546 -0.000006
3.057805 0.640697 0.621093 0.000001 0.826061 -0.000020
1.874216 0.165354 1.159749 -0.067102 -0.005737 -0.004152
2.638480 0.475808 0.575368 0.000000 -0.781749 0.000616
0.744344 0.464034 0.759797 0.000000 -0.739580 0.000003
2.830995 0.504226 0.581433 0.000000 -0.399149 -0.000009
1.742308 0.562669 0.573468 0.000000 0.128659 -0.000029
2.694910 0.499977 0.786726 -0.000001 -0.417438 0.000016
1.999359 0.639147 0.813360 0.067170 -0.003225 0.002569
1.845761 0.650830 0.592629 -0.067102 0.007078 0.005113
0.925792 0.597191 0.583787 -0.000001 0.421050 -0.000004
2.649548 0.594054 0.787744 0.000000 0.399149 0.000017
1.061878 0.611140 0.591829 -0.000001 0.560874 -0.000011
1.742308 0.506514 0.789570 -0.000002 -0.369250 0.000019
1.746479 0.349656 0.426166 -0.056889 0.002446 -0.002108
2.090787 0.872766 1.086888 0.079228 0.004717 -0.003756
1.651584 0.467631 0.763656 -0.000000 -0.723478 0.000057
1.061878 0.505483 0.789150 0.000001 -0.376624 0.000037
1.826609 0.217168 1.093861 -0.067104 -0.003390 -0.002459
0.971154 0.653062 0.725601 0.000000 0.934686 0.000023
0.880430 0.653062 0.725601 0.000001 0.911748 0.000001
0.698982 0.587764 0.579739 -0.000000 0.355535 -0.000039
0.880430 0.641462 0.622217 0.000000 0.822658 -0.000003
0.381448 0.603470 0.587074 -0.000000 0.481271 -0.000007
2.543203 0.629156 0.583444 0.247278 0.001538 0.002356
0.653620 0.653833 0.646507 -0.000001 0.940592 -0.000003
0.971154 0.578048 0.576577 0.000000 0.266366 -0.000108
2.598431 0.657171 0.548323 0.247280 0.001538 0.002356
2.876357 0.445664 0.638535 0.000001 -0.896823 -0.000002
0.925792 0.443426 0.726256 -0.000000 -0.934672 0.000011
0.835068 0.608349 0.780069 -0.000000 0.543378 0.000023
2.876357 0.653706 0.723906 -0.000000 0.934534 0.000001
2.954762 0.328908 0.940827 0.000000 0.781749 0.000232
1.470136 0.450081 0.740239 0.000000 -0.875620 0.000004
1.606222 0.644961 0.627757 -0.000001 0.863691 -0.000017
1.872002 0.869548 1.097457 -0.056890 -0.007339 0.006276
1.152602 0.449763 0.630404 -0.000002 -0.794942 -0.000002
1.197964 0.489151 0.780850 -0.000000 -0.523524 0.000024
1.152602 0.461490 0.756821 0.000000 -0.768967 0.000006
1.926217 0.708827 0.509669 0.079229 0.005468 0.004351
0.381448 0.644920 0.742380 -0.000000 0.863276 0.000004
1.833032 0.442782 0.645504 0.000000 -0.934700 -0.000003
1.923756 0.571523 0.795087 0.000000 0.197785 0.000037
3.193343 0.550497 0.639661 1.000000 0.000000 0.000000
1.864511 0.816332 0.334977 -0.056893 -0.003957 -0.003404
0.517534 0.523187 0.575321 -0.000001 -0.220845 -0.000132
1.787670 0.652781 0.726333 0.000000 0.926064 0.000002
1.424030 0.435614 0.685527 0.000000 -0.999728 0.000000
1.969118 0.488835 0.780656 0.000000 -0.523314 0.000012
1.691444 0.672882 0.825457 -0.067105 0.003725 -0.002702
2.195928 0.652688 0.643503 -0.000001 0.924588 -0.000006
1.736359 0.660544 0.681077 0.000000 0.999724 -0.000000
1.842847 0.680562 0.494324 -0.056894 -0.005108 -0.004387
1.969118 0.652988 0.644271 0.000000 0.934700 -0.000003
2.195928 0.465699 0.761625 0.000000 -0.739252 0.000003
2.558824 0.591634 0.788793 0.000001 0.374732 0.000018
2.865824 0.754295 0.924484 0.000000 -0.781749 0.000154
1.796419 0.648233 0.779508 -0.067103 0.003539 -0.002567
1.814333 0.406435 0.486093 -0.056890 0.002554 -0.002200
2.914300 0.456587 0.551272 0.000000 -0.781749 0.000308
0.789706 0.653589 0.645850 0.000000 0.927306 -0.000001
2.241290 0.438271 0.709362 0.000000 -0.974234 0.000001
2.101758 0.953608 1.189632 0.079230 0.003860 -0.003075
2.013988 0.209898 0.248397 0.067170 0.005564 -0.004423
1.867703 0.402305 0.535796 0.079228 -0.005718 0.004549
1.519915 0.643248 0.804288 -0.056894 -0.006578 0.005635
2.740271 0.567801 0.795807 0.000000 0.175002 0.000042
1.923756 0.507743 0.580017 -0.000001 -0.353400 -0.000020
0.971154 0.653149 0.644695 -0.000001 0.931664 -0.000006
2.694910 0.442489 0.646274 0.000000 -0.942760 -0.000003
2.876357 0.653486 0.645581 -0.000001 0.934237 -0.000011
1.923756 0.443426 0.726256 0.000000 -0.934700 0.000006
1.606222 0.653032 0.725679 0.000001 0.934397 0.000011
2.105204 0.516091 0.792888 -0.000001 -0.274114 0.000013
0.880430 0.481031 0.775353 0.000001 -0.600657 0.000040
2.059842 0.604541 0.782372 0.000001 0.502608 0.000026
1.970102 0.201152 1.099489 0.079228 -0.009434 -0.007473
1.931425 0.209310 0.247266 -0.056892 0.006763 -0.005791
2.967081 0.586761 0.790704 -0.000000 0.333173 0.000021
0.290724 0.587417 0.790458 0.000001 0.354926 0.000039
0.426810 0.453554 0.745989 -0.000000 -0.839205 0.000005
1.651584 0.563895 0.796438 0.000000 0.151840 0.000024
2.377376 0.447456 0.634778 -0.000001 -0.760284 -0.000001
2.785634 0.529981 0.796075 0.000000 -0.151840 0.000024
1.379412 0.444981 0.640081 -0.000000 -0.916803 -0.000007
2.976267 0.476491 0.614251 0.000000 -0.623593 -0.000372
0.653620 0.597413 0.786169 -0.000001 0.410573 0.000008
1.016516 0.491413 0.587859 -0.000000 -0.503334 -0.000013
0.562896 0.473853 0.600515 -0.000000 -0.655689 -0.000017
0.245362 0.659331 0.667994 -0.000000 0.988408 -0.000009
1.515498 0.447110 0.635481 -0.000001 -0.897090 -0.000015
1.334050 0.483839 0.592687 -0.000000 -0.562162 -0.000011
2.513462 0.649074 0.734695 -0.000000 0.897444 0.000002
0.426810 0.439103 0.657215 0.000000 -0.969643 -0.000002
1.872002 0.869548 0.272608 -0.056891 -0.007339 -0.006276
0.517534 0.438663 0.711090 -0.000001 -0.967311 0.000002
0.336086 0.473386 0.769145 0.000001 -0.521250 0.000003
3.057805 0.651817 0.728699 0.000000 0.916886 0.000001
0.290724 0.655015 0.720129 -0.000000 0.950338 0.000010
2.241290 0.498900 0.786206 0.000000 -0.441420 0.000015
2.604186 0.653281 0.725024 -0.000000 0.934534 0.000001
3.012444 0.508282 0.790253 -0.000000 -0.355388 0.000079
1.923756 0.658692 0.705850 -0.000000 0.984449 0.000003
2.195928 0.498013 0.584296 -0.000000 -0.441077 -0.000015
1.379412 0.447165 0.734695 0.000000 -0.897303 0.000001
0.426810 0.648054 0.633346 0.000001 0.884273 -0.000008
2.241290 0.464783 0.609445 0.000000 -0.739426 -0.000014
0.744344 0.648492 0.735879 0.000000 0.886778 0.000004
0.200000 0.654630 0.721304 -0.066788 0.000301 0.000099
2.740271 0.514042 0.577804 -0.000001 -0.258605 -0.000007
1.944503 0.718807 0.875239 0.079227 0.001823 -0.001454
0.290724 0.593071 0.581894 0.000000 0.398836 -0.000069
1.915246 0.676158 0.818044 0.079229 0.004289 -0.003416
1.742308 0.445013 0.640005 -0.000000 -0.913230 -0.000002
2.286652 0.443104 0.644656 -0.000000 -0.934029 -0.000003
3.193343 0.548119 0.685033 1.000000 0.000000 0.000000
2.059842 0.649511 0.636257 -0.000001 0.894597 -0.000007
3.012444 0.508051 0.579900 0.000000 -0.355457 -0.000079
2.785634 0.652812 0.726256 0.000000 0.934699 0.000006
1.651584 0.586878 0.579402 -0.000000 0.355427 -0.000157
1.833032 0.571685 0.575011 0.000000 0.220871 -0.000033
2.856028 0.365971 0.475701 -0.000002 0.781688 -0.000135
2.858433 0.427756 0.854936 0.000000 -0.781749 -0.000539
3.063435 0.464151 0.809311 -0.000003 -0.781604 -0.000124
3.103168 0.516880 0.793126 0.234289 -0.000059 0.000194
2.921720 0.442665 0.645812 0.000000 -0.934029 -0.000003
0.562896 0.569423 0.574554 0.000000 0.197902 -0.000074
0.971154 0.528398 0.574265 0.000001 -0.174115 -0.000042
1.975727 0.082368 0.107683 -0.067103 -0.003651 0.002648
1.288688 0.629974 0.762224 -0.000001 0.722958 0.000029
1.843697 0.898737 0.251084 -0.067101 0.006258 0.004526
1.824747 0.626797 0.811810 -0.056892 -0.003906 0.003360
2.604186 0.578008 0.576566 -0.000001 0.265876 -0.000054
1.823198 0.798961 1.011337 -0.056890 -0.002123 0.001829
1.941797 0.900773 0.230304 -0.056890 -0.012375 -0.010427
2.150566 0.481759 0.594172 0.000000 -0.582264 -0.000005
1.713604 0.681040 0.535912 -0.067102 0.013688 0.009743
2.087130 1.031004 1.295124 0.067171 -0.006070 0.004822
0.028448 0.515124 0.673796 -0.705558 -0.000015 -0.000005
0.789706 0.511615 0.791460 0.000000 -0.333401 0.000042
1.849707 0.768054 0.938374 -0.067103 0.004172 -0.003025
1.911589 0.316097 0.947935 0.079228 -0.006433 -0.005115
2.014480 0.438922 0.712130 0.000000 -0.969887 0.000000
2.054216 0.304127 0.999198 0.067171 0.001770 0.001412
1.197964 0.653457 0.724561 -0.000001 0.903250 0.000001
1.736759 0.816386 1.017841 -0.067104 0.001956 -0.001420
1.243326 0.654630 0.648761 0.000000 0.950324 -0.000010
2.043245 0.860897 0.304115 0.079227 0.010292 0.008142
0.071729 0.566118 0.616797 -0.535542 0.000012 -0.000040
3.056562 0.647764 0.541102 -0.000000 0.781751 0.000373
3.193343 0.555249 0.594446 0.233432 0.000017 -0.000183
1.857176 0.731466 0.887146 -0.067104 0.008735 -0.006292
3.092330 0.282400 1.018144 -0.377985 -0.001338 -0.001338
1.424774 0.636715 0.615683 0.000001 0.777655 -0.000003
1.843943 0.257837 1.035886 -0.067108 -0.001825 -0.001325
1.878394 0.504758 0.788855 0.000000 -0.377004 0.000037
1.894977 0.318873 0.992557 -0.056892 0.008490 0.007241
2.906847 0.546471 0.797530 0.000000 -0.011566 0.000339
1.944503 0.398836 0.477752 0.067170 0.004300 -0.003423
3.056361 0.315070 0.373863 0.000000 -0.781749 0.000348
2.010331 0.885176 1.092192 0.079229 0.005146 -0.004096
2.819501 0.699034 0.514856 0.000006 -0.781030 -0.000116
2.050559 0.230207 0.277805 0.067171 0.005564 -0.004423
1.424774 0.560418 0.573197 0.000000 0.105512 -0.000035
1.761669 0.867926 0.284117 -0.056891 -0.001979 -0.001705
3.006288 0.448356 0.829112 -0.000000 -0.781749 -0.000694
1.711662 0.437011 0.804344 -0.067102 -0.006845 -0.004946
2.422738 0.437352 0.665311 0.000000 -0.984550 -0.000005
1.957302 0.298111 0.352862 0.067170 0.001770 -0.001412
1.882332 0.722670 0.497907 -0.067103 0.008735 0.006292
1.882332 0.373569 0.872158 0.079228 -0.007290 -0.005791
1.424774 0.476934 0.597903 -0.000000 -0.637657 -0.000005
0.290724 0.444487 0.728851 0.000000 -0.917133 0.000002
3.063697 0.804053 0.345175 -0.377981 0.000683 0.000683
3.063697 0.273648 0.359963 -0.000000 0.781749 -0.000464
2.009903 0.043036 1.312622 -0.067099 -0.006259 -0.004526
1.288688 0.647113 0.631558 0.000000 0.875620 -0.000008
1.923756 0.444235 0.641824 0.000000 -0.925936 -0.000006
0.880430 0.449882 0.630187 0.000001 -0.875458 -0.000017
2.079816 0.325013 0.399815 0.067169 0.001771 -0.001412
2.021302 0.448904 0.795428 0.079227 -0.005468 -0.004351
3.117329 0.642550 0.585666 0.000002 -0.781739 -0.000244
1.938140 0.907019 1.119575 -0.067104 0.005737 -0.004152
0.245362 0.439697 0.654985 0.000000 -0.963871 -0.000017
1.775632 0.405679 0.840161 -0.067101 -0.006845 -0.004946
1.973760 0.436205 0.527757 0.067171 0.003225 -0.002569
0.472172 0.628779 0.606588 0.000001 0.723385 -0.000029
2.888915 0.342522 0.961787 0.000001 -0.781746 -0.000232
1.061878 0.443031 0.644849 0.000001 -0.865648 -0.000001
1.964617 0.653994 0.835723 0.067169 -0.006449 0.005121
2.700770 0.601210 0.770601 0.000000 0.781750 -0.000462
3.072245 0.364502 0.934233 0.000002 -0.781672 -0.000116
2.131016 1.048136 1.311863 0.067171 -0.010116 0.007980
2.094444 1.050408 0.060014 0.079228 0.010292 0.008142
2.094444 0.902183 0.245832 0.079227 0.004289 0.003416
2.094444 0.045831 1.310051 0.079228 -0.010292 -0.008142
2.094444 0.045831 0.060014 0.079228 -0.010292 0.008142
1.803733 0.433638 0.571613 -0.067101 -0.006845 0.004946
1.984731 0.370779 0.923142 0.067169 0.002023 0.001613
2.059842 0.584078 0.578420 -0.000001 0.310210 -0.000046
1.981074 0.451963 0.583600 0.079227 -0.005468 0.004351
1.107240 0.653750 0.723791 -0.000000 0.943044 0.000001
2.229391 0.660574 0.682396 0.000000 0.999724 -0.000000
2.867260 0.461392 0.557296 0.000000 -0.781748 0.000269
3.112533 0.328477 0.960381 -0.377983 -0.001338 -0.001338
0.426810 0.573172 0.575348 0.000000 0.220644 -0.000033
2.807943 0.660538 0.689235 -0.000000 0.999715 0.000000
2.035930 0.264532 1.028424 0.079229 -0.005575 -0.004436
1.651584 0.650765 0.638947 -0.000001 0.916964 -0.000026
1.907931 0.422994 0.504089 0.067171 0.006449 -0.005121
2.286652 0.503319 0.581828 0.000000 -0.398836 -0.000069
2.852494 0.706242 0.864245 -0.000006 -0.781327 0.000135
1.043287 0.550262 0.797499 0.000000 0.023502 0.000010
2.787549 0.454185 0.821805 0.000002 -0.781743 -0.000385
3.193343 0.470643 0.732510 0.233435 -0.000158 0.000094
1.792761 0.455190 0.770036 -0.067101 -0.003539 -0.002567
1.850412 0.904978 1.126805 -0.067100 0.006258 -0.004526
2.377376 0.632205 0.610268 0.000000 0.755212 -0.000003
2.604186 0.523670 0.794854 0.000001 -0.220834 0.000132
1.741768 0.788868 0.979382 -0.067103 0.004172 -0.003025
2.721007 0.706242 0.864245 -0.000000 -0.781749 0.000616
1.515498 0.512984 0.578150 0.000000 -0.311277 -0.000091
3.000545 0.660524 0.680253 0.000000 0.999732 -0.000000
1.651584 0.451568 0.627258 -0.000000 -0.864067 -0.000035
3.103168 0.586878 0.790663 0.234891 0.000068 0.000191
1.760963 0.731002 0.472547 -0.067105 0.002347 0.001704
0.290724 0.505598 0.789197 -0.000000 -0.377239 0.000073
2.604186 0.443940 0.642549 0.000000 -0.926098 -0.000012
1.061878 0.443551 0.726562 0.000000 -0.926127 0.000003
1.878394 0.442489 0.723791 0.000000 -0.942768 0.000005
2.859254 0.660632 0.684703 0.000000 0.999929 -0.000000
2.050559 0.206151 1.103476 0.079228 -0.009434 -0.007473
2.017645 0.893945 0.239260 0.067170 -0.011128 -0.008757
1.582687 0.442708 0.821690 -0.056893 0.004934 0.004238
1.758380 0.326000 0.951834 -0.067100 -0.004368 -0.003166
1.915246 0.420081 0.552021 0.079228 -0.004289 0.003416
1.760963 0.365237 0.897518 -0.067100 -0.002347 -0.001704
1.606222 0.495848 0.784662 0.000001 -0.461940 0.000029
2.241290 0.622697 0.600785 0.000000 0.655481 -0.000004
1.833032 0.486575 0.590848 0.000001 -0.541659 -0.000012
2.726138 0.620431 0.575368 -0.000000 0.781750 0.000616
2.694910 0.511498 0.578646 0.000001 -0.333018 -0.000042
1.962788 0.762139 0.931891 0.079228 0.003431 -0.002734
3.068227 0.398821 0.853182 -0.000000 0.781748 0.000252
1.243326 0.511926 0.791568 -0.000001 -0.303901 0.000012
2.950025 0.349849 0.417463 -0.000000 -0.781747 0.000116
2.950025 0.764928 0.937815 0.000005 -0.781265 0.000116
2.983642 0.275932 0.362826 -0.000000 0.781747 -0.000232
2.960389 0.552734 0.572624 0.000000 0.023502 -0.000021
1.877455 0.432556 0.797589 0.079229 -0.005718 -0.004549
1.935969 0.465836 0.763326 0.079228 -0.002859 -0.002279
0.099616 0.625268 0.645951 -0.426449 0.000065 -0.000031
2.150566 0.658858 0.665148 0.000000 0.984572 -0.000003
0.381448 0.516407 0.577082 -0.000000 -0.288618 -0.000025
1.988388 0.834660 1.026068 0.079228 0.002788 -0.002222
2.032273 0.950514 0.193168 0.079227 0.003860 0.003075
0.653620 0.512005 0.791594 0.000000 -0.311235 0.000023
1.969118 0.637400 0.753505 -0.000000 0.798986 0.000011
2.884196 0.459673 0.776897 0.000000 0.781748 0.000135
1.605644 0.427381 0.528596 -0.056895 0.002467 -0.002125
2.796142 0.408535 0.491033 0.000000 -0.781748 0.000231
2.723734 0.414023 0.834125 0.000000 0.781749 0.000308
3.012060 0.280054 1.040098 -0.000000 -0.781749 -0.000464
3.006861 0.321017 0.381319 -0.000000 -0.781749 0.000348
2.764674 0.678094 0.866984 -0.000001 0.781745 -0.000385
2.692266 0.672605 0.822077 -0.000002 -0.781735 0.000231
0.971154 0.588149 0.790180 -0.000000 0.355457 0.000079
1.379412 0.653252 0.644964 -0.000001 0.931664 -0.000006
1.775632 0.690560 0.840161 -0.067103 0.013688 -0.009743
2.996083 0.552899 0.797437 0.000000 0.023502 0.000042
1.988388 0.704964 0.506587 0.079227 0.005468 0.004351
0.360626 0.547130 0.797538 0.000000 -0.011930 0.000082
1.880648 0.322141 0.426911 -0.067103 -0.004107 0.002978
1.762091 0.254417 1.049961 -0.067102 -0.003651 -0.002648
1.379412 0.654410 0.721926 -0.000000 0.942817 0.000003
3.057805 0.583137 0.791953 -0.000001 0.311207 0.000183
1.515498 0.654369 0.648023 -0.000001 0.939600 -0.000003
2.657425 0.466198 0.806745 0.000001 -0.781747 -0.000462
2.783620 0.389997 0.864245 0.000002 0.781733 0.000231
1.900617 0.684478 0.543455 0.079227 0.008577 0.006802
1.986559 0.749545 0.450933 0.079228 0.001715 0.001368
1.992045 0.825896 0.321803 0.067169 -0.006576 -0.005221
3.104937 0.728533 0.477876 -0.000002 -0.781746 -0.000505
1.831565 0.787154 0.403319 -0.067100 0.004107 0.002978
0.562896 0.586878 0.790663 -0.000000 0.355451 0.000039
1.841938 0.295660 0.984042 -0.067105 -0.001956 -0.001420
1.667940 0.651039 0.798074 -0.067102 0.002980 -0.002163
1.896051 0.845192 1.039271 -0.067105 0.003390 -0.002459
2.109073 0.083796 0.105744 0.079228 -0.003002 0.002393
1.611883 0.463631 0.570092 -0.056893 0.009867 -0.008383
1.846504 0.382262 0.505776 -0.067103 -0.002314 0.001680
1.825304 0.712616 0.911384 -0.056888 -0.002554 0.002200
2.181055 0.550097 0.797503 0.000040 0.000038 0.002207
0.078512 0.607430 0.730727 -0.508986 0.000038 0.000028
1.197964 0.466038 0.608079 0.000000 -0.723454 -0.000014
1.867500 0.924644 0.218140 -0.067103 0.005737 0.004152
0.136898 0.488192 0.766708 -0.280997 -0.000080 0.000103
1.685276 0.437471 0.533349 -0.056890 0.004112 -0.003536
2.131016 0.389020 0.485582 0.067170 0.002023 -0.001613
0.690802 0.547295 0.572525 -0.000000 -0.011934 -0.000164
1.424774 0.469088 0.765113 -0.000000 -0.706856 0.000007
1.379412 0.597708 0.584041 0.000000 0.441420 -0.000030
0.290724 0.516328 0.577106 0.000001 -0.288300 -0.000050
1.379412 0.516170 0.577154 0.000000 -0.288809 -0.000050
3.043077 0.851082 0.286219 -0.377982 0.001338 0.001338
2.976267 0.495029 0.770601 0.000000 -0.623593 0.000745
2.090787 0.213267 0.260912 0.067170 0.005564 -0.004423
2.105204 0.456395 0.750187 -0.000000 -0.809029 0.000003
1.837660 0.700080 0.846169 -0.067105 0.002347 -0.001704
1.992045 0.270343 1.048262 0.067169 0.006576 0.005221
1.708068 0.787830 0.388255 -0.067100 0.002086 0.001515
1.768277 0.745370 0.916462 -0.067105 0.002216 -0.001609
1.587068 0.705659 0.487538 -0.056893 -0.004934 -0.004238
1.597213 0.682642 0.849678 -0.067102 0.004470 -0.003240
1.999359 0.937450 1.187318 0.067172 -0.004552 0.003623
2.072502 0.694179 0.509387 0.079229 0.002734 0.002180
3.012444 0.592240 0.581532 -0.000001 0.397899 -0.000034
2.332014 0.579990 0.577130 -0.000000 0.288850 -0.000099
0.698982 0.626296 0.765948 -0.000000 0.690282 0.000016
3.152938 0.420630 0.844855 -0.377984 -0.001338 -0.001338
0.129264 0.505547 0.595868 -0.310747 -0.000051 -0.000102
2.558824 0.444882 0.729758 -0.000000 -0.916884 0.000007
1.533345 0.440508 0.550129 -0.067103 -0.005960 0.004312
1.569256 0.645845 0.567849 -0.067105 0.005960 0.004312
1.600499 0.378098 0.898175 -0.067103 -0.002235 -0.001623
2.065187 0.170147 1.165973 0.067171 0.009105 0.007197
3.016752 0.765867 0.977019 0.000002 0.781542 -0.000087
3.016752 0.311834 0.962231 -0.000000 0.781746 0.000087
1.515498 0.441651 0.721421 0.000000 -0.942817 0.000001
2.195928 0.652377 0.727325 -0.000001 0.924030 0.000006
1.787670 0.533693 0.573452 0.000001 -0.126416 -0.000059
2.999988 0.809436 0.993611 -0.000000 -0.781749 0.000464
1.696946 0.507512 0.789960 0.000002 -0.354809 0.000079
1.835677 0.747445 0.458459 -0.067102 0.002184 0.001585
3.028937 0.471752 0.570283 -0.000004 -0.781630 0.000186
1.781708 0.757852 0.437955 -0.067102 0.002184 0.001585
1.924389 0.742291 0.902115 0.079227 0.003645 -0.002905
2.902100 0.418828 0.828101 0.000000 0.781749 0.000308
2.017217 1.067571 1.331566 -0.067100 0.010430 -0.007486
2.017217 0.028668 0.038499 -0.067101 -0.010430 0.007486
1.935969 0.608019 0.781181 0.067171 -0.003372 0.002687
0.880430 0.631567 0.760498 -0.000001 0.737721 0.000014
1.839334 0.362175 0.937482 -0.056893 0.004821 0.004142
1.810521 0.339999 0.443471 -0.067102 -0.002184 0.001585
0.835068 0.441147 0.719894 -0.000000 -0.949978 0.000002
1.016516 0.655665 0.651978 -0.000000 0.956522 -0.000002
0.562896 0.516565 0.793031 0.000000 -0.289205 0.000006
1.764433 0.606186 0.587422 -0.000000 -0.623595 0.000474
2.901777 0.639652 0.818793 0.000000 0.781749 -0.000308
2.878023 0.735074 0.469677 -0.000000 -0.781748 -0.000154
2.939133 0.368492 0.478861 -0.000001 0.781749 -0.000694
0.826144 0.548861 0.572524 0.000000 0.011568 -0.000021
2.726461 0.658190 0.804005 0.000000 -0.781750 0.000616
3.036954 0.344703 0.449039 -0.000000 0.781748 -0.000232
2.932978 0.692968 0.522461 0.000001 -0.781748 -0.000694
2.626280 0.438049 0.566060 0.000000 0.781749 -0.000616
2.969688 0.724084 0.483454 0.000001 -0.781749 -0.000694
2.901454 0.620431 0.575368 -0.000000 0.781749 0.000154
2.878023 0.379703 0.915176 0.000000 -0.781749 -0.000308
2.951333 0.689988 0.881895 -0.000001 0.781748 -0.000694
2.932978 0.421809 0.862392 0.000001 -0.781749 -0.000694
2.994088 0.410597 0.838420 -0.000001 0.781748 0.000694
3.079709 0.728652 0.892338 -0.000001 -0.781749 0.000694
2.902423 0.399607 0.517868 0.000000 0.781749 -0.000616
3.030798 0.716757 0.492638 0.000001 -0.781749 -0.000694
2.890223 0.715853 0.876293 0.000000 -0.781749 0.000308
2.286652 0.626743 0.765521 -0.000000 0.707107 0.000007
1.849882 0.652861 0.525836 -0.056894 -0.001953 -0.001683
0.028448 0.564596 0.654316 -0.705555 0.000007 -0.000011
2.131016 0.166683 1.163209 0.067170 0.009105 0.007197
1.780933 0.696608 0.481118 -0.056893 -0.005180 -0.004449
2.377376 0.638836 0.751594 0.000000 0.798609 0.000001
0.562896 0.640557 0.620888 -0.000001 0.769057 -0.000001
0.789706 0.630059 0.762135 -0.000000 0.723544 0.000007
2.286652 0.654835 0.649388 0.000000 0.950324 -0.000010
0.313033 0.545976 0.797524 0.000000 -0.011568 0.000042
3.024643 0.414260 0.536238 0.000000 0.781749 -0.000694
0.245362 0.574258 0.794471 0.000000 0.242876 0.000007
2.966614 0.252298 0.314184 0.247279 -0.000769 0.001178
1.742308 0.441829 0.721926 0.000000 -0.942778 0.000011
1.949112 0.180258 1.158035 -0.056894 0.006188 0.005304
2.402659 0.660586 0.682890 0.000000 0.999724 -0.000000
1.926217 0.637151 0.818754 0.067170 -0.005058 0.004024
2.105204 0.653428 0.724638 -0.000000 0.934437 0.000006
0.994207 0.549932 0.797507 -0.000000 0.023502 0.000042
2.694910 0.574578 0.575674 0.000000 0.243684 -0.000060
1.114676 0.435688 0.681407 0.000000 -0.999728 -0.000000
2.713615 0.475808 0.575368 0.000000 -0.781750 0.000616
3.079371 0.549438 0.797534 0.000000 0.011750 0.001335
1.906178 0.186520 1.147027 -0.056891 0.012374 0.010427
1.945454 0.174851 0.231545 -0.067102 -0.005606 0.004058
1.760963 0.365237 0.472547 -0.067102 -0.009387 0.006753
1.016516 0.655522 0.718560 0.000000 0.956522 0.000002
0.472172 0.635668 0.755709 -0.000000 0.784178 0.000006
0.517534 0.655130 0.650289 0.000000 0.949959 -0.000002
1.978785 0.435626 0.686021 0.000000 -0.999728 0.000000
2.649548 0.580148 0.577177 0.000001 0.288794 -0.000099
2.422738 0.460163 0.755191 -0.000000 -0.784936 0.000024
2.974169 0.796964 0.354062 0.000000 0.781749 0.000464
3.042998 0.678998 0.868118 0.000001 0.781749 -0.000694
2.017645 0.893945 1.130805 0.067169 -0.005564 0.004423
1.869976 0.733107 0.939046 -0.056895 -0.002410 0.002076
1.667477 0.349919 0.929306 -0.067102 -0.009387 -0.006753
1.680907 0.758802 0.425111 -0.067104 0.004694 0.003401
1.254480 0.549520 0.572549 0.000005 0.004894 -0.000201
2.575544 0.619748 0.614251 0.000000 0.623595 -0.000372
1.993874 0.344359 0.414789 0.067171 0.001897 -0.001513
0.078512 0.553381 0.759719 -0.508932 0.000003 0.000073
1.715547 0.406936 0.874770 -0.056893 0.015107 0.012591
2.986241 0.840789 0.337150 0.000000 -0.781751 -0.000464
1.874216 0.165354 0.210317 -0.067101 -0.005737 0.004152
2.649548 0.464534 0.760345 0.000000 -0.739493 0.000027
1.606222 0.610356 0.591295 0.000000 0.562686 -0.000005
1.334050 0.566258 0.573990 0.000000 0.151840 -0.000024
2.021302 0.174689 0.230875 0.079228 -0.004289 0.003416
0.582231 0.435684 0.681572 0.000000 -0.999724 -0.000000
2.852889 0.618028 0.578380 -0.000000 0.781749 0.000135
1.743647 0.421345 0.547813 -0.067102 -0.013688 0.009743
1.741705 0.464922 0.560260 -0.056891 0.007555 -0.006458
3.157273 0.588601 0.775955 0.233151 0.000289 0.000752
2.059842 0.509672 0.790773 0.000002 -0.331237 0.000043
2.694910 0.442518 0.723868 0.000000 -0.934745 0.000001
1.918903 0.794510 0.403186 -0.067103 0.007692 0.005551
2.785701 0.471003 0.569344 0.000000 -0.781749 0.000385
2.683116 0.409218 0.529916 0.000000 0.781749 -0.000462
2.750860 0.476491 0.755814 0.000000 -0.623593 0.000745
2.332014 0.613542 0.776565 -0.000000 0.582088 0.000084
2.884196 0.459673 0.593168 0.000000 0.781749 -0.000269
0.426810 0.626594 0.765663 -0.000000 0.691026 0.000002
1.515498 0.539801 0.797237 0.000001 -0.080375 0.000093
0.835068 0.622572 0.600677 -0.000000 0.655272 -0.000009
1.696946 0.586878 0.790663 0.000000 0.355635 0.000010
3.012444 0.453755 0.746300 -0.000000 -0.839518 0.000019
3.087623 0.414498 0.536535 0.000001 0.781747 -0.000379
3.006399 0.755199 0.444447 -0.000000 -0.781747 -0.000232
1.917074 0.703371 0.467310 0.067170 -0.004300 -0.003423
2.745406 0.446977 0.830841 0.000000 -0.781749 -0.000385
1.968413 0.096736 1.243438 -0.067099 -0.004172 -0.003025
1.874216 0.926269 1.163431 -0.056892 -0.006188 0.005304
1.742308 0.582511 0.792158 0.000000 0.311235 0.000046
1.850637 0.618917 0.772488 -0.000001 -0.623589 -0.000328
3.117329 0.642550 0.784399 0.000000 -0.781749 0.000244
0.144606 0.627103 0.618053 -0.250977 0.000119 -0.000096
1.757697 0.435325 0.801398 -0.067102 -0.013688 -0.009743
2.895839 0.658873 0.527176 0.000000 0.781748 0.000308
1.898472 0.435622 0.684208 -0.000000 -0.999728 -0.000000
3.103168 0.558656 0.573010 0.234478 0.000017 -0.000202
0.517534 0.606421 0.588805 0.000000 0.523427 -0.000049
2.014480 0.499048 0.583787 -0.000001 -0.439377 -0.000015
2.853624 0.322723 0.421485 0.000000 0.781749 -0.000154
3.146178 0.480302 0.581002 -0.000013 -0.552581 0.000015
2.105416 0.786628 0.389297 0.079227 0.006004 0.004776
2.105416 0.786628 0.980768 0.079227 0.003002 -0.002393
2.948350 0.274671 1.008819 -0.000001 0.781747 0.000464
2.057873 0.910884 1.147698 0.067169 -0.010116 0.007980
2.041416 0.376042 0.889333 0.079228 -0.001823 -0.001454
0.789706 0.528682 0.574215 0.000000 -0.174898 -0.000168
2.649548 0.644671 0.627258 0.000000 0.864041 -0.000009
1.966798 0.151206 1.193271 -0.056891 0.005612 0.004816
3.193343 0.636476 0.706245 0.233437 0.000179 0.000041
3.157273 0.568812 0.587681 0.233150 0.000126 -0.000796
2.957377 0.460250 0.555865 -0.000000 -0.781748 0.000694
2.975733 0.670084 0.551149 -0.000001 -0.781750 -0.000694
2.981888 0.391376 0.507550 0.000000 0.781748 -0.000694
3.018599 0.378799 0.916310 -0.000000 -0.781749 -0.000694
2.994088 0.667104 0.853207 -0.000001 0.781748 -0.000694
3.036954 0.751536 0.921026 0.000001 -0.781741 0.000232
2.513462 0.465061 0.760924 0.000000 -0.739446 0.000027
3.084186 0.689579 0.526709 -0.000002 -0.781711 -0.000186
1.784312 0.803802 0.374991 -0.067102 0.003911 0.002836
1.667940 0.459590 0.560513 -0.056893 0.006578 -0.005635
2.921720 0.510915 0.791213 -0.000000 -0.333401 0.000042
2.065187 0.940914 1.184555 0.067169 -0.009105 0.007197
2.026788 0.657266 0.536952 0.067170 -0.012897 -0.010104
1.877455 0.432556 0.572476 0.079229 -0.002859 0.002279
3.006288 0.647883 0.540954 0.000000 0.781748 0.000694
2.908578 0.712872 0.910584 0.000001 0.781749 -0.000694
3.006288 0.448356 0.540954 -0.000000 -0.781749 0.000694
3.030798 0.379482 0.492638 -0.000000 0.781749 -0.000694
2.195928 0.584391 0.578522 0.000000 0.333529 -0.000042
2.422738 0.480536 0.595083 -0.000002 -0.600177 -0.000040
3.088480 0.445613 0.575542 0.000000 0.781750 -0.000247
2.039587 0.706113 0.477098 0.067172 -0.004300 -0.003423
1.787670 0.652408 0.642816 -0.000001 0.924806 -0.000006
2.830995 0.448585 0.737487 -0.000000 -0.886545 0.000008
1.655605 0.637199 0.560952 -0.056893 -0.006578 -0.005635
2.833064 0.667800 0.816053 0.000002 -0.781721 0.000231
2.625634 0.601210 0.599464 0.000000 0.781750 0.000616
1.687446 0.723258 0.911696 -0.056891 -0.005181 0.004449
1.379412 0.603326 0.783071 0.000000 0.483001 0.000027
1.923756 0.642797 0.624249 -0.000001 0.833518 -0.000005
2.929405 0.793419 1.011559 0.000002 0.781734 -0.000348
2.090787 0.216062 1.096179 0.079226 -0.009434 -0.007473
1.945626 1.008607 0.111485 -0.067100 0.004172 0.003025
0.467710 0.660547 0.681242 0.000000 0.999732 -0.000000
1.784312 0.292437 0.995074 -0.067104 -0.003911 -0.002836
1.821647 0.369403 0.884838 -0.067103 -0.004629 -0.003354
1.560860 0.580464 0.577273 -0.000001 0.274114 -0.000013
0.336086 0.581371 0.577547 0.000000 0.288618 -0.000025
1.891779 0.660615 0.684126 0.000010 0.048012 -0.000000
0.925792 0.522624 0.794617 -0.000000 -0.221048 0.000017
1.258942 0.435614 0.685527 0.000000 -0.999728 0.000000
2.858433 0.687021 0.529916 -0.000000 -0.781749 -0.000135
1.806463 0.241347 0.295324 -0.056892 0.003957 -0.003404
3.132431 0.647290 0.541697 -0.377985 0.000683 0.000683
2.006674 0.129312 0.175855 0.079228 -0.007719 0.006129
3.193343 0.597609 0.761240 0.230106 0.000099 0.000158
1.823198 0.297278 0.358728 -0.056890 0.002123 -0.001829
1.853364 0.755512 0.406484 -0.056893 -0.004533 -0.003896
0.744344 0.509361 0.579402 0.000000 -0.355439 -0.000020
1.900462 0.307467 0.363802 -0.056892 0.004245 -0.003650
3.139238 0.638062 0.736961 0.233149 0.000676 0.000439
2.377376 0.509361 0.579402 -0.000001 -0.355375 -0.000079
0.880430 0.512749 0.578227 0.000000 -0.311241 -0.000046
1.515498 0.652501 0.727020 -0.000000 0.926013 0.000003
1.715092 0.617979 0.596829 -0.000001 -0.623593 0.000949
1.107240 0.587340 0.579578 -0.000001 0.355323 -0.000039
2.513462 0.490737 0.588253 0.000001 -0.498125 -0.000006
0.426810 0.520822 0.794180 0.000001 -0.243653 0.000238
2.422738 0.655156 0.650367 0.000001 0.949364 -0.000005
1.324382 0.660563 0.688164 0.000000 0.999724 0.000000
3.125557 0.681504 0.833232 0.000000 -0.781749 0.000247
1.926217 0.785376 1.004571 0.067172 -0.001770 0.001412
2.726138 0.475808 0.794697 0.000000 -0.781749 -0.000616
0.835068 0.439042 0.657455 -0.000000 -0.969841 -0.000004
0.200000 0.614681 0.594316 -0.066788 0.000190 -0.000253
3.139238 0.444831 0.674177 0.233149 -0.000796 -0.000126
1.867703 0.432523 0.511691 0.067171 0.005058 -0.004024
2.131016 0.300085 0.374092 0.067171 0.001644 -0.001311
1.197964 0.581016 0.577439 -0.000000 0.288809 -0.000050
1.982902 0.731244 0.895724 0.079227 0.001823 -0.001454
1.502856 0.548449 0.572523 0.000000 0.023140 -0.000042
0.925792 0.628142 0.605943 0.000000 0.707107 -0.000004
0.925792 0.577452 0.793653 0.000001 0.260762 0.000014
1.886133 0.784874 0.957363 -0.067102 0.001956 -0.001420
1.685504 0.699227 0.486408 -0.056892 -0.015107 -0.012592
1.805675 0.436707 0.521956 -0.056892 0.007555 -0.006458
1.821668 0.692247 0.532850 -0.067103 0.013688 0.009743
3.118684 0.678642 0.502393 -0.377984 0.000683 0.000683
3.139470 0.389913 0.883364 -0.377984 -0.001338 -0.001338
1.288688 0.532998 0.573542 -0.000000 -0.128609 -0.000231
2.239802 0.543175 0.572632 0.000000 -0.023502 -0.000318
0.980078 0.435680 0.681736 0.000000 -0.999724 -0.000000
1.243326 0.576097 0.794009 0.000000 0.243585 0.000030
3.125557 0.414735 0.536833 0.000000 0.781749 -0.000247
2.105204 0.517278 0.576829 0.000002 -0.202363 -0.000009
2.048730 0.758473 0.957619 0.067170 -0.001897 0.001513
1.725712 0.471976 0.800229 -0.056893 0.007554 0.006458
2.921720 0.498457 0.584078 0.000000 -0.441420 -0.000030
0.744344 0.451402 0.627543 0.000000 -0.863925 -0.000009
