2.646109 0.538535 0.587290 0.000000 -0.619084 0.000050
1.423054 0.658317 0.596717 0.000000 0.488614 0.000018
1.835700 0.496242 0.606212 0.062242 0.003264 0.003943
1.823228 0.058543 0.048836 -0.062161 -0.016430 0.017354
3.734632 0.863259 0.701086 0.000000 -0.637175 0.001238
3.886759 0.292940 0.242619 -0.246698 -0.003172 0.003591
1.674464 0.734214 0.419300 -0.062163 0.002397 0.002616
0.867121 0.682295 0.423363 0.000001 0.696763 -0.000010
1.423054 0.549362 0.594710 0.000000 -0.511204 0.000033
2.312548 0.664081 0.593301 -0.000000 0.533663 0.000031
2.201362 0.547157 0.593349 0.000000 -0.533591 0.000008
0.422373 0.668316 0.590474 0.000001 0.576820 0.000028
3.591196 0.507896 0.452267 0.000000 -0.896886 -0.000039
3.639238 0.754134 0.610870 0.000000 -0.637174 0.001770
1.926726 1.068332 0.874495 0.077336 0.004299 -0.005192
1.511990 0.856386 0.708434 -0.050031 -0.009149 0.011833
0.422373 0.662031 0.407602 0.000000 0.511402 -0.000017
3.743215 0.453259 0.640047 0.000000 -0.637175 -0.002589
1.256274 0.680135 0.580884 -0.000000 0.678603 0.000021
1.926726 0.737683 0.617665 0.062242 -0.011275 0.013421
1.812208 0.659759 0.406266 -0.000000 0.488606 -0.000071
1.901441 0.217734 0.171032 0.062240 0.006133 -0.007383
1.395276 0.745298 0.385580 -0.050032 -0.009148 -0.011832
2.312548 0.514781 0.440417 0.000000 -0.831639 -0.000002
1.926726 0.745799 0.394326 0.077338 0.009075 0.010903
1.784323 0.095572 0.922725 -0.062161 -0.009860 -0.010638
1.507627 0.498158 0.403071 -0.050032 0.006862 -0.008938
3.579622 0.448091 0.357855 -0.000000 -0.637175 0.000695
2.812889 0.625790 0.393764 -0.000000 0.195006 -0.000100
3.577323 0.673967 0.431520 0.030162 0.016819 -0.012146
3.617504 0.349088 0.713137 0.142473 -0.003979 -0.007577
1.805358 0.446109 0.390624 0.077338 -0.007006 0.008440
3.734632 0.863259 0.301089 -0.000001 -0.637173 -0.000619
1.906498 0.368735 0.705896 0.062240 0.008705 0.010428
2.090175 0.673399 0.586681 -0.000000 0.618801 0.000013
2.924075 0.704735 0.546847 -0.000001 0.907951 0.000018
2.701702 0.692333 0.567429 -0.000001 0.799534 0.000007
1.589834 0.560673 0.401540 -0.000000 -0.418699 -0.000022
2.590515 0.665843 0.410014 0.000001 0.555429 -0.000059
1.978988 0.553469 0.405109 -0.000001 -0.488607 -0.000142
2.423735 0.557923 0.402829 0.000000 -0.442263 -0.000040
1.805358 0.316507 0.283479 0.077338 -0.006210 0.007487
3.378848 0.605581 0.391874 0.000000 0.013091 -0.000796
1.926726 0.933560 0.779601 0.062242 -0.007122 0.008559
0.755934 0.542482 0.590216 -0.000000 -0.577117 0.000056
1.645428 0.640599 0.604525 0.000001 0.321033 0.000059
0.477967 0.538640 0.587373 0.000000 -0.619032 0.000050
0.477967 0.545542 0.409865 0.000001 -0.555515 -0.000059
2.017751 0.474280 0.609637 0.062241 0.009496 0.011355
2.979669 0.674311 0.416212 0.000000 0.639266 -0.000006
1.507627 0.713005 0.599104 -0.050034 -0.006861 0.008938
1.667609 1.004502 0.830886 -0.050032 -0.016463 0.020563
1.653229 0.358035 0.308650 -0.062163 -0.002465 0.002691
0.700340 0.688628 0.572016 -0.000000 0.768850 0.000033
3.313229 0.661724 0.594755 0.000000 0.511155 0.000017
1.033901 0.583619 0.608062 -0.000001 -0.194389 0.000025
3.552784 0.796843 0.355997 0.000001 -0.637173 -0.000704
0.755934 0.537342 0.415825 -0.000000 -0.618209 -0.000013
2.924075 0.515911 0.438754 0.000001 -0.810933 -0.000007
1.589834 0.657927 0.405240 0.000001 0.488077 -0.000036
1.133240 0.607903 0.391935 0.000000 0.026184 -0.000012
2.034581 0.672592 0.414857 -0.000000 0.619079 -0.000050
2.130275 0.496438 0.498408 0.000000 -0.999657 -0.000000
3.624917 0.714659 0.506267 0.000000 0.999653 0.000000
0.089060 0.645013 0.569385 -0.456914 0.000037 0.000061
3.146449 0.714578 0.494346 -0.000000 0.997861 -0.000001
2.830205 0.602902 0.610231 0.000000 -0.026017 0.000013
3.890829 0.942633 0.222438 -0.246699 0.003353 0.003796
2.145768 0.713102 0.520197 -0.000000 0.985514 0.000007
0.867121 0.691562 0.568414 0.000001 0.758938 0.000002
0.700340 0.696729 0.440937 -0.000001 0.831340 -0.000027
0.867121 0.536991 0.586073 0.000000 -0.618640 0.000013
1.923395 0.529284 0.579217 -0.000001 -0.695738 0.000010
1.977295 0.255295 0.786606 0.077337 -0.005095 -0.006150
3.858263 0.747348 0.383885 -0.246697 0.001677 0.001898
3.424416 0.711491 0.527708 0.000001 0.968713 0.000005
1.423054 0.549823 0.407191 -0.000000 -0.511260 -0.000033
3.646789 0.553548 0.597107 0.000000 -0.464940 0.000009
3.702883 0.333476 0.289162 0.000000 0.637175 -0.001650
1.982352 1.001764 0.177115 0.077338 0.004458 0.005384
3.801935 0.460077 0.393826 -0.000001 0.637172 -0.000596
3.403351 0.464430 0.384394 0.142475 -0.001892 0.003605
1.650251 0.796155 0.671325 -0.050032 -0.008767 0.011354
3.267661 0.608975 0.391963 0.000000 0.026184 -0.000050
1.941897 0.099397 0.090246 0.077337 -0.003662 0.004425
2.554972 0.714771 0.500194 0.000000 0.999662 -0.000000
0.066165 0.602178 0.436157 -0.546724 -0.000002 -0.000048
2.924075 0.533141 0.582808 -0.000001 -0.658694 0.000023
1.764871 0.114087 0.094756 -0.062162 -0.004930 0.005369
0.978307 0.686682 0.427944 0.000000 0.734573 -0.000005
1.825586 0.919722 0.776345 0.062240 -0.015428 0.018116
3.035262 0.512073 0.444676 0.000000 -0.859272 -0.000012
1.926726 0.941676 0.232390 0.077338 0.011144 0.013343
1.589799 0.280718 0.232514 -0.062162 -0.009038 0.009771
2.423735 0.524420 0.574165 0.000000 -0.751791 0.000009
1.731814 0.941854 0.214898 -0.050032 -0.017377 -0.021586
1.367461 0.502694 0.537711 -0.000001 -0.933501 0.000004
2.017751 0.450716 0.373056 0.062241 0.009496 -0.011355
2.017751 0.403588 0.668080 0.062240 0.009496 0.011355
2.017751 1.137471 0.061360 0.062242 -0.012660 -0.015007
2.017751 0.854702 0.295132 0.062241 -0.008705 -0.010428
2.017751 0.309332 0.256170 0.062241 0.007122 -0.008559
1.033901 0.714645 0.495371 0.000000 0.999653 -0.000000
2.256955 0.709062 0.535978 -0.000000 0.946773 0.000007
0.642924 0.496508 0.495729 0.000000 -0.999657 -0.000000
0.311187 0.642121 0.398169 0.000000 0.346133 -0.000215
1.808654 0.227112 0.824207 -0.050032 0.007776 0.010103
1.987409 0.691254 0.568861 -0.000001 -0.770709 -0.000107
3.773993 0.669393 0.566873 0.030160 0.008412 0.006699
1.682796 0.882823 0.262882 -0.050031 -0.002630 -0.003454
0.589154 0.683368 0.577737 -0.000000 0.715714 0.000010
3.402685 0.507961 0.594823 -0.000001 -0.637175 -0.001336
1.962124 0.836783 0.696729 0.062242 -0.008704 0.010428
3.498530 0.413167 0.342013 0.142474 -0.001892 0.003605
1.648156 0.225175 0.186595 -0.062162 -0.007395 0.008022
0.589154 0.688856 0.430434 0.000000 0.768850 -0.000033
1.919326 1.206957 1.000716 -0.050032 -0.012806 0.016313
3.833728 0.368092 0.684395 0.000001 0.637173 0.000825
0.922714 0.518348 0.435390 0.000000 -0.801199 -0.000007
2.646109 0.531585 0.420775 -0.000000 -0.678772 -0.000043
2.312548 0.499847 0.528401 0.000000 -0.969148 0.000003
3.090856 0.530404 0.580308 0.000000 -0.697873 0.000010
3.846050 0.605581 0.501087 1.000000 0.000000 0.000000
0.311187 0.519158 0.567853 0.000000 -0.785403 0.000008
3.447404 0.689052 0.445110 0.000000 0.770720 -0.000262
1.771495 1.004373 0.837326 -0.050031 -0.015549 0.019525
2.368142 0.682423 0.423488 -0.000001 0.697464 -0.000020
1.901441 0.217734 0.831142 0.062240 0.006133 0.007383
3.837579 0.357798 0.283208 -0.000000 -0.637174 0.000825
3.777844 0.518678 0.585964 -0.000000 -0.637174 -0.001193
0.173363 0.708647 0.473471 -0.128212 0.000374 -0.000111
2.256955 0.647043 0.400055 0.000000 0.370397 -0.000050
1.602175 0.716363 0.607609 -0.050031 -0.008768 0.011355
3.522325 0.400351 0.670756 0.142474 -0.003979 -0.007577
3.831658 0.233746 0.193681 0.142474 -0.003784 0.007207
3.831658 0.233746 0.808494 0.142475 -0.003784 -0.007207
3.831658 0.977417 0.808494 0.142475 0.003784 -0.007207
3.562994 0.714475 0.578082 -0.000003 -0.637169 0.000704
3.035262 0.682583 0.578531 -0.000000 0.697721 0.000020
1.200681 0.679053 0.420290 -0.000001 0.678729 -0.000043
1.785131 0.702111 0.599713 0.062239 -0.008705 0.010428
1.367461 0.703839 0.548746 -0.000000 0.896882 0.000010
1.830627 1.090817 0.896137 -0.062162 0.004930 -0.005369
1.256274 0.505528 0.457323 -0.000000 -0.918782 -0.000009
3.675658 0.671680 0.433411 0.030161 0.016820 -0.012147
1.231667 0.603259 0.610240 0.000000 -0.026351 0.000012
3.535603 0.555841 0.403861 0.000000 -0.465612 -0.000076
0.615583 0.601473 0.391981 0.000004 -0.004548 -0.000144
2.868482 0.496371 0.500819 0.000000 -0.999911 -0.000000
3.675658 0.671680 0.568764 0.030162 0.016820 0.012147
1.867801 0.656744 0.597565 0.000001 0.463554 0.000019
2.507581 0.496396 0.502159 0.000000 -0.999657 0.000000
1.559985 0.787326 0.361013 -0.062160 0.002054 0.002243
3.415820 0.534908 0.429629 0.000000 -0.770720 -0.000524
3.688889 0.310640 0.744923 0.142476 -0.003784 -0.007207
1.491083 0.417703 0.652594 -0.062161 -0.006163 -0.006699
1.883346 0.100330 0.925339 -0.050030 0.010063 0.012972
0.200000 0.524420 0.574165 -0.059361 -0.000323 0.000283
3.535603 0.567951 0.603603 0.000001 -0.346106 0.000054
1.505077 0.714762 0.502338 -0.000000 0.999662 0.000000
0.058868 0.548627 0.519593 -0.575265 -0.000038 0.000011
1.945268 0.714757 0.499658 0.000000 0.999662 -0.000000
3.202042 0.505810 0.456666 0.000000 -0.918843 -0.000004
1.808654 0.995322 0.191602 -0.062161 0.013967 0.014887
1.835700 0.803286 0.322909 0.062240 -0.004748 -0.005727
0.164559 0.627464 0.604039 -0.162443 0.000070 0.000290
2.090175 0.522535 0.430159 0.000000 -0.769014 -0.000004
3.480009 0.679611 0.581369 -0.000000 0.678781 0.000086
0.790566 0.609154 0.391967 0.000000 0.026184 -0.000025
1.516535 0.407821 0.342683 -0.062161 -0.004109 0.004478
1.835700 0.419627 0.636498 0.077339 -0.009075 -0.010903
2.423735 0.714481 0.492875 -0.000000 0.997860 -0.000003
1.867801 0.701893 0.449608 0.000000 0.884962 -0.000010
1.726870 0.799871 0.363621 -0.062162 0.010271 0.011070
1.896384 0.796861 0.669043 0.062241 -0.002374 0.002870
1.717426 0.603081 0.610235 0.000000 -0.026351 0.000377
2.145768 0.655163 0.403777 0.000000 0.465533 -0.000019
1.795244 0.853716 0.724231 0.062241 -0.008705 0.010428
3.665094 0.887706 0.734327 0.142474 0.003979 -0.007577
1.592336 0.347149 0.708633 -0.062163 -0.002465 -0.002691
3.525708 0.455122 0.612445 -0.000000 0.637175 0.001029
0.255593 0.712530 0.523181 0.000000 0.980737 0.000008
3.762529 0.398220 0.316625 -0.000000 -0.637175 0.000825
3.700883 0.789938 0.361706 -0.000000 -0.637175 -0.002589
0.311187 0.509690 0.448819 -0.000000 -0.868519 -0.000003
1.311867 0.686743 0.428009 0.000000 0.734330 -0.000009
3.480009 0.497087 0.488651 0.000000 -0.993019 -0.000002
1.926726 0.142830 0.874495 0.077338 -0.004299 -0.005192
0.922714 0.633371 0.395474 0.000000 0.246057 -0.000020
3.523648 0.728711 0.412323 0.000001 -0.637175 -0.002094
2.701702 0.675514 0.417212 -0.000000 0.639314 -0.000024
3.127310 0.606475 0.610289 0.000000 0.013008 0.000100
1.667301 0.714757 0.502516 0.000000 0.999662 0.000000
1.704009 0.407156 0.680679 -0.050030 0.005718 0.007470
1.790947 0.188275 0.149542 -0.050029 0.006862 -0.008938
1.934311 0.359775 0.291122 0.062241 0.008705 -0.010428
2.423735 0.635568 0.396080 0.000000 0.269448 -0.000009
1.812208 0.502575 0.464800 0.000000 -0.946901 -0.000003
2.367230 0.611118 0.610156 0.000000 0.026017 0.000382
1.189744 0.496461 0.497515 0.000000 -0.999657 -0.000000
2.523985 0.604688 0.610277 0.000000 -0.026351 0.000025
0.422373 0.509103 0.449924 0.000000 -0.884948 -0.000010
1.958027 0.496410 0.499480 -0.000000 -0.999661 -0.000000
1.665478 0.496377 0.501444 0.000000 -0.999657 0.000000
1.815472 0.313442 0.758974 0.062240 0.015428 0.018116
3.660851 0.480503 0.617523 -0.000002 -0.637171 -0.000876
3.146449 0.622180 0.393148 0.000000 0.143382 -0.000034
1.756615 0.540098 0.588481 -0.000001 -0.596698 0.000013
1.867801 0.575337 0.606022 0.000001 -0.271369 0.000070
2.757295 0.559294 0.402176 -0.000000 -0.418644 -0.000086
3.658552 0.796375 0.671852 -0.000002 0.637174 -0.001752
3.721522 0.600044 0.392019 -0.000000 -0.026184 -0.000025
1.758437 0.605760 0.391879 0.000000 0.026184 -0.000050
0.200000 0.512461 0.444023 -0.059361 -0.000369 -0.000219
1.100430 0.496429 0.498765 -0.000000 -0.999657 -0.000000
1.946954 0.021100 0.977168 0.077339 -0.009553 -0.011468
1.685305 0.452804 0.357392 -0.050031 0.008767 -0.011354
2.256044 0.604867 0.610282 0.000000 -0.026351 0.000025
3.794278 0.811314 0.658141 0.000001 -0.637171 0.000619
1.667609 1.004502 0.171288 -0.050032 -0.016463 -0.020564
1.587279 0.853463 0.699401 -0.062162 0.005136 -0.005591
3.657448 0.504654 0.404617 0.000001 -0.637174 0.000885
1.726870 0.779356 0.663369 -0.050032 -0.005718 0.007469
2.479328 0.518322 0.435426 -0.000000 -0.800451 -0.000007
3.371557 0.610047 0.610184 0.000000 0.026351 0.000049
1.311867 0.582352 0.394379 0.000000 -0.220650 -0.000088
1.311867 0.535065 0.584477 0.000001 -0.606812 0.000003
3.257636 0.703741 0.453228 -0.000001 0.896756 -0.000020
3.327811 0.496471 0.497158 0.000000 -0.999657 -0.000000
1.733963 0.338564 0.297642 -0.062161 -0.004725 0.005147
3.820264 0.886073 0.746008 0.000000 0.637174 -0.001650
1.896384 0.526231 0.425666 0.062242 0.004748 -0.005727
0.568192 0.496379 0.500194 0.000000 -0.999913 -0.000000
0.856184 0.714715 0.498051 0.000000 0.999661 -0.000000
1.825586 0.879419 0.294039 0.077338 0.006210 0.007487
1.602175 0.478342 0.587702 -0.062162 -0.007874 -0.008534
3.831658 0.977417 0.193681 0.142475 0.003784 0.007207
1.682796 0.882823 0.739292 -0.050030 -0.010521 0.013537
2.090175 0.513129 0.559209 0.000001 -0.839616 0.000006
1.957067 0.420727 0.343353 0.062241 0.002374 -0.002870
1.946954 1.007441 0.826190 0.077337 0.009871 -0.011844
0.458828 0.607189 0.610280 0.000000 0.013008 0.000200
1.692996 0.486561 0.572509 -0.062161 -0.004793 -0.005221
2.657045 0.607814 0.610242 0.000000 0.026026 0.000006
3.688889 0.900522 0.257252 0.142474 0.003784 0.007207
0.811527 0.507303 0.548706 -0.000000 -0.896286 0.000005
0.940030 0.496447 0.504124 0.000000 -0.999657 0.000000
1.744675 0.689725 0.431464 0.000000 -0.770720 0.000852
0.422373 0.508271 0.550669 0.000000 -0.895899 0.000005
3.074451 0.496457 0.504481 0.000000 -0.999661 0.000000
2.979669 0.574563 0.605803 0.000000 -0.296756 0.000016
2.034581 0.631033 0.607293 0.000000 0.220179 0.000011
3.822190 0.910418 0.262102 0.000000 -0.637174 -0.000825
0.811527 0.507837 0.452387 0.000000 -0.896873 -0.000020
1.462723 0.685735 0.426638 0.000000 -0.770721 0.000092
3.202042 0.520651 0.569747 0.000000 -0.783528 0.000004
1.602175 0.732821 0.414472 -0.062162 0.007875 0.008534
3.379556 0.733916 0.394989 0.142474 0.003784 0.007208
3.810637 0.841143 0.319373 0.000001 -0.637174 -0.001238
2.784636 0.496415 0.499301 0.000000 -0.999657 -0.000000
1.748746 0.318757 0.721417 -0.062161 -0.004520 -0.004924
3.090856 0.707664 0.539891 -0.000001 0.936485 0.000004
3.637676 0.496503 0.506267 0.000000 -0.999657 0.000000
2.155793 0.601830 0.610202 0.000000 -0.026351 0.000377
2.423735 0.672066 0.587732 -0.000000 0.619147 0.000006
1.858688 0.606028 0.391886 -0.000002 0.013766 -0.000095
0.477967 0.695226 0.438717 0.000001 0.814197 -0.000007
1.754789 0.510257 0.401003 0.062240 0.008705 -0.010428
0.311187 0.623899 0.608744 -0.000000 0.169277 0.000231
2.646109 0.499605 0.527449 -0.000000 -0.963862 0.000001
1.472358 0.795460 0.659599 -0.050030 -0.006862 0.008938
1.946954 1.190062 0.025007 -0.062163 0.011502 0.012356
1.977295 1.164998 0.959501 0.077338 0.009553 -0.011468
3.850121 0.512635 0.577928 -0.246695 -0.001677 -0.001898
2.622413 0.603616 0.391925 0.000000 -0.026359 -0.000012
1.468623 0.605403 0.610296 0.000000 -0.026359 0.000049
3.579348 0.610404 0.392000 0.000000 0.026184 -0.000025
1.089494 0.543138 0.590680 -0.000001 -0.574609 0.000014
2.979669 0.547686 0.408492 0.000001 -0.533419 -0.000032
2.868482 0.663250 0.593826 0.000000 0.533687 0.000016
3.324166 0.714696 0.504838 -0.000000 0.999653 0.000000
1.534241 0.499913 0.528661 -0.000000 -0.969222 0.000005
1.200681 0.542919 0.590526 -0.000001 -0.576036 0.000014
0.477967 0.698272 0.558831 0.000001 0.845467 0.000025
0.164559 0.501625 0.517552 -0.162441 -0.000296 0.000039
3.480009 0.530732 0.580611 0.000001 -0.651235 0.000003
1.089494 0.554102 0.404776 -0.000000 -0.465617 -0.000076
3.846050 0.643162 0.420495 0.224878 0.000110 -0.000228
0.602824 0.607279 0.610278 0.000000 0.013341 0.000098
2.868482 0.550974 0.406506 0.000000 -0.511255 -0.000017
1.820513 1.063405 0.116864 -0.050032 -0.011892 -0.015212
0.320300 0.714659 0.495907 0.000000 0.999653 -0.000000
0.743175 0.609332 0.610202 -0.000000 0.026017 0.000013
1.145087 0.708559 0.464716 0.000000 0.946901 -0.000007
2.590515 0.698606 0.558302 -0.000001 0.836428 0.000006
3.795248 0.338563 0.734869 -0.000000 -0.637174 -0.000825
0.200000 0.669775 0.412732 -0.059361 0.000257 -0.000344
0.755934 0.666920 0.410734 0.000000 0.555411 -0.000015
1.438726 0.481880 0.403910 -0.062161 -0.008217 0.008899
3.757976 0.496517 0.495371 0.235688 -0.000267 -0.000010
2.090175 0.700294 0.446714 -0.000000 0.872454 -0.000006
3.846050 0.658683 0.572415 0.224196 0.000155 0.000202
3.798084 0.727994 0.412916 -0.000001 -0.637172 -0.000596
1.200681 0.552534 0.405633 0.000000 -0.488614 -0.000018
1.921669 0.161947 0.126549 0.062240 0.005342 -0.006438
2.590515 0.575466 0.606058 -0.000001 -0.271362 0.000070
0.700340 0.513892 0.560418 -0.000000 -0.845607 0.000013
2.817446 0.714668 0.496265 0.000000 0.999661 -0.000000
0.366780 0.692654 0.435175 -0.000000 0.801260 -0.000059
1.957067 0.692753 0.435127 0.000000 -0.770719 0.000213
1.310045 0.496401 0.499837 0.000000 -0.999657 -0.000000
1.773239 0.146281 0.877240 -0.062162 -0.011503 -0.012356
3.257636 0.623238 0.608858 0.000000 0.169223 0.000116
3.579622 0.763072 0.644319 -0.000001 0.637172 -0.000695
2.256955 0.517226 0.565281 0.000000 -0.816496 0.000007
1.926726 0.793648 0.338242 0.062241 -0.004748 -0.005727
1.322804 0.714701 0.497515 0.000000 0.999662 -0.000000
3.595772 0.497449 0.577452 0.000000 0.637174 0.000704
1.764903 0.400909 0.644847 0.077339 -0.007006 -0.008439
0.700340 0.714557 0.508140 -0.000001 0.997546 0.000003
0.464296 0.610404 0.392000 0.000004 0.004094 -0.000159
3.850121 0.512635 0.424246 -0.246696 -0.001677 0.001898
1.987409 0.004205 0.001458 0.062241 0.009496 -0.011355
1.896384 0.982428 0.179718 0.062241 -0.006331 -0.007619
1.660807 0.936149 0.778468 -0.050032 -0.009606 0.012403
3.202042 0.583050 0.394226 0.000000 -0.195090 -0.000050
2.022734 0.605403 0.391879 0.000000 -0.026184 -0.000099
0.700340 0.511685 0.445329 0.000000 -0.859410 -0.000024
1.812208 0.713847 0.486744 0.000000 0.989661 -0.000001
2.757295 0.543138 0.590680 0.000000 -0.577105 0.000056
1.835700 0.831300 0.669372 0.077338 0.003423 -0.004137
3.384236 0.676254 0.572545 0.000000 0.637176 -0.000668
1.753803 0.888528 0.254074 -0.050031 -0.009606 -0.012404
1.033901 0.656744 0.404609 0.000000 0.465517 -0.000038
2.757295 0.664383 0.593110 -0.000000 0.533607 0.000063
1.033901 0.500023 0.529094 0.000000 -0.969148 0.000005
2.924075 0.712696 0.479826 -0.000001 0.980575 -0.000008
3.801935 0.460077 0.608349 -0.000002 0.637164 0.000596
1.805358 0.385727 0.340704 0.077338 -0.003821 0.004617
0.644747 0.660188 0.406506 0.000000 0.488360 -0.000004
2.034581 0.538500 0.587262 -0.000000 -0.619090 0.000050
0.978307 0.701976 0.552409 0.000000 0.884892 0.000010
2.368142 0.697223 0.560494 0.000000 0.845742 0.000003
2.757295 0.711073 0.529354 -0.000000 0.969213 0.000003
0.130004 0.670111 0.429419 -0.297000 0.000102 -0.000108
0.234632 0.611118 0.392019 0.000000 0.026193 -0.000025
0.978307 0.647539 0.601917 0.000000 0.394966 0.000023
1.982352 0.185835 0.157634 0.077338 -0.004299 0.005192
3.313229 0.655479 0.403944 0.000000 0.465801 -0.000009
1.594415 0.387709 0.313601 -0.050030 0.008768 -0.011355
1.089494 0.648689 0.601423 0.000000 0.394665 0.000093
1.630093 0.508448 0.403190 -0.050031 0.017530 -0.021754
1.803775 1.134105 0.938032 -0.050032 -0.010063 0.012971
1.645428 0.696133 0.562129 -0.000000 0.831063 0.000007
3.779994 0.582408 0.602617 0.224155 -0.000318 0.001102
2.534922 0.675479 0.584991 -0.000000 0.639500 0.000024
0.044828 0.651211 0.518603 -0.630444 0.000026 0.000009
2.701702 0.514608 0.561498 -0.000001 -0.818542 0.000003
1.866042 0.318306 0.251313 0.062240 0.015428 -0.018116
3.779994 0.707111 0.477914 0.224156 0.001131 -0.000192
1.534241 0.542263 0.590062 0.000000 -0.576569 0.000014
0.644747 0.544911 0.591887 0.000000 -0.555623 0.000015
1.594415 0.831570 0.323418 -0.062161 0.007875 0.008534
2.979669 0.654762 0.598595 -0.000001 0.441468 0.000020
0.978307 0.542992 0.411597 -0.000000 -0.577205 -0.000028
0.191094 0.561375 0.401800 -0.063524 -0.000343 -0.000720
3.522325 0.810811 0.670756 0.142474 0.003979 -0.007577
1.957067 1.052105 0.138042 0.077341 0.004299 0.005192
1.923395 0.683835 0.577257 -0.000000 0.716302 0.000077
1.552849 0.408706 0.669987 -0.050031 0.017530 0.021755
3.313229 0.513415 0.559662 0.000000 -0.845560 0.000006
3.035262 0.510126 0.554135 0.000001 -0.857300 0.000003
1.753803 0.902956 0.730648 -0.062162 0.008628 -0.009335
1.391156 0.603706 0.610252 -0.000000 -0.024684 0.000026
1.557077 0.698502 0.560094 -0.000001 -0.770719 -0.000736
1.664523 0.444816 0.613128 -0.062162 -0.015746 -0.016676
1.701021 0.547119 0.408850 0.000000 -0.533687 -0.000016
1.763917 0.300633 0.236703 -0.050031 0.009606 -0.012404
2.590515 0.512096 0.557537 0.000000 -0.859459 0.000012
1.850871 0.336430 0.706806 0.077339 -0.003105 -0.003753
1.967181 0.887639 0.272992 0.077338 0.006210 0.007487
3.202042 0.698701 0.558151 -0.000000 0.859429 0.000006
3.452718 0.742948 0.601621 0.000000 -0.637175 0.001336
0.255593 0.661340 0.594984 0.000001 0.511271 0.000134
0.644747 0.657693 0.597066 -0.000000 0.488360 0.000009
0.121582 0.690993 0.539115 -0.329843 0.000119 0.000049
1.866042 0.467054 0.374287 0.062241 0.011276 -0.013421
1.866042 0.744109 0.374287 0.062241 -0.011276 -0.013421
3.792352 0.411394 0.648596 -0.000000 0.637174 0.001650
3.878617 0.869401 0.719194 -0.246697 0.003172 -0.003591
3.890829 0.268530 0.779737 -0.246699 -0.003353 -0.003796
3.866404 0.796169 0.343523 -0.246698 0.001677 0.001898
3.894900 0.244119 0.202257 -0.246698 -0.001677 0.001898
3.894900 0.967043 0.799918 -0.246699 0.001677 -0.001898
3.862333 0.771759 0.638471 -0.246698 0.003172 -0.003591
3.781695 0.728375 0.589573 0.000001 -0.637172 0.000596
2.256955 0.710928 0.472305 0.000000 0.962437 -0.000003
1.367461 0.703899 0.453549 0.000001 0.895254 -0.000005
1.876156 1.029734 0.863203 0.062242 -0.005540 0.006674
3.424416 0.649756 0.401210 0.000000 0.389121 -0.000006
1.478648 0.511799 0.557038 -0.000000 -0.859179 0.000012
1.423966 0.611118 0.392019 0.000000 0.026193 -0.000379
1.683676 0.847684 0.316204 -0.062163 0.004930 0.005369
2.646109 0.670777 0.588694 0.000000 0.598303 0.000053
3.658552 0.401989 0.656372 0.000001 0.637174 0.001752
3.633536 0.415463 0.356942 0.000001 0.637174 -0.001752
1.458178 0.747797 0.388603 -0.062161 0.008217 0.008899
0.644747 0.547913 0.408349 0.000000 -0.533521 -0.000016
3.202042 0.651706 0.600073 0.000000 0.418546 0.000011
2.201362 0.511822 0.445098 -0.000001 -0.849944 -0.000003
1.621514 0.319377 0.270582 -0.062163 -0.002465 0.002691
1.145087 0.673715 0.586432 -0.000000 0.618822 0.000003
2.475683 0.600580 0.392005 -0.000000 -0.026184 -0.000379
2.256955 0.534048 0.418571 0.000000 -0.659346 -0.000023
1.197035 0.714771 0.500194 0.000000 0.999662 -0.000000
2.368142 0.533813 0.418777 -0.000001 -0.659048 -0.000023
0.130004 0.561799 0.415160 -0.296995 -0.000064 -0.000134
1.589834 0.567490 0.603433 -0.000001 -0.345564 0.000027
0.755934 0.667440 0.591093 -0.000000 0.577240 0.000028
1.701021 0.666437 0.591763 -0.000001 0.553521 0.000015
2.812889 0.681303 0.422397 0.000000 0.697790 -0.000082
1.089494 0.697175 0.560569 -0.000000 0.845742 0.000003
1.978988 0.511730 0.556923 0.000001 -0.805363 0.000002
1.643116 0.390859 0.689243 -0.050031 0.011435 0.014657
2.312548 0.699797 0.445866 0.000000 0.859532 -0.000006
2.868482 0.652599 0.402513 -0.000000 0.442253 -0.000081
2.479328 0.556320 0.598555 -0.000000 -0.442211 0.000040
2.201362 0.619836 0.392808 0.000000 0.143476 -0.000034
0.922714 0.671708 0.587999 -0.000000 0.597969 0.000007
3.035262 0.650692 0.401634 0.000000 0.418304 -0.000022
1.812208 0.507758 0.549627 0.000001 -0.836117 0.000001
2.757295 0.652112 0.402288 0.000000 0.418465 -0.000022
2.979669 0.616641 0.392439 0.000000 0.091558 -0.000216
0.811527 0.699340 0.445098 -0.000000 0.859228 -0.000012
0.533560 0.509187 0.449766 0.000000 -0.884940 -0.000010
3.535603 0.657219 0.597315 -0.000000 0.465627 0.000019
2.017751 0.120820 0.901853 0.062241 0.007913 0.009496
1.534241 0.504963 0.458636 0.000000 -0.918712 -0.000017
3.090856 0.655163 0.598397 -0.000000 0.465801 0.000009
1.200681 0.697747 0.559662 -0.000000 0.845263 0.000006
1.957067 0.391752 0.671758 0.077337 -0.003821 -0.004617
1.850871 0.730403 0.587485 0.077336 0.005254 -0.006341
1.674136 0.302549 0.758364 -0.050032 0.005032 0.006583
1.745418 1.078561 0.110062 -0.050031 -0.012807 -0.016313
1.842680 1.171134 0.033530 -0.050031 -0.016463 -0.020564
1.570347 0.299233 0.754354 -0.062162 -0.009038 -0.009771
1.375823 0.484379 0.601288 -0.062163 -0.016430 -0.017354
1.706513 1.041532 0.861499 -0.050031 -0.014635 0.018470
1.667609 0.206660 0.830886 -0.062163 -0.014788 -0.015717
1.375823 0.484379 0.400886 -0.062162 -0.016430 0.017354
1.823228 0.058543 0.953338 -0.062162 -0.016430 -0.017354
1.862132 0.021514 0.018223 -0.062162 -0.013145 0.014050
1.886270 0.250796 0.221010 0.077339 -0.005573 0.006723
1.987409 1.068519 0.886265 0.062242 -0.004748 0.005727
0.366780 0.702101 0.552171 -0.000000 0.884892 0.000010
1.645428 0.679709 0.420896 0.000000 0.678557 -0.000003
3.035262 0.698606 0.443872 0.000001 0.842195 -0.000006
2.868482 0.555999 0.598397 0.000000 -0.465527 0.000009
2.534922 0.642037 0.398138 0.000000 0.321427 -0.000059
3.257636 0.539741 0.588213 0.000002 -0.511565 0.000004
1.987409 0.735677 0.391079 0.062240 -0.009496 -0.011355
2.701702 0.514359 0.441048 0.000001 -0.827016 -0.000007
1.896384 1.073738 0.104229 0.062241 -0.004748 -0.005727
1.923395 0.578007 0.395419 0.000000 -0.246164 -0.000156
2.034581 0.507995 0.452066 -0.000001 -0.896773 -0.000020
2.590515 0.552806 0.405480 -0.000000 -0.488405 -0.000018
2.368142 0.509353 0.552725 0.000000 -0.884962 0.000005
1.916612 0.314151 0.731841 0.077338 -0.006210 -0.007487
1.094962 0.714762 0.499837 0.000000 0.999662 -0.000000
1.653229 0.853127 0.693525 -0.062162 0.002465 -0.002691
1.603322 0.911761 0.250759 -0.062162 0.009038 0.009771
2.017751 0.948959 0.784967 0.062242 -0.012660 0.015007
2.017751 0.097256 0.080841 0.062241 0.012660 -0.015007
2.017751 0.736882 0.609637 0.062241 -0.009496 0.011355
2.017751 0.050127 0.960296 0.062241 0.009496 0.011355
1.564530 0.476881 0.409956 -0.062165 -0.004108 0.004478
1.734561 0.746952 0.412715 -0.062163 0.004793 0.005221
3.367326 0.499020 0.419506 0.142475 0.003349 -0.002666
3.146449 0.550437 0.595349 -0.000001 -0.511097 0.000033
0.811527 0.564409 0.602236 0.000000 -0.370524 0.000025
2.706259 0.714668 0.496265 0.000000 0.999661 -0.000000
3.090856 0.527358 0.424886 0.000000 -0.716271 -0.000019
1.744675 0.443110 0.394252 0.077337 -0.007006 0.008440
0.533560 0.559618 0.600148 -0.000001 -0.418394 0.000043
1.534241 0.702225 0.450240 -0.000000 0.885048 -0.000010
0.533560 0.567616 0.398695 -0.000000 -0.346116 -0.000108
1.798540 0.974222 0.792110 -0.062161 0.007395 -0.008022
2.479328 0.510105 0.554096 0.000000 -0.872461 0.000022
1.714495 0.213668 0.181663 -0.062162 -0.014788 0.015717
0.255593 0.543686 0.591067 0.000000 -0.577133 0.000225
2.145768 0.528231 0.578185 0.000000 -0.716382 0.000010
3.602817 0.810992 0.318238 -0.000003 0.637170 0.000885
1.957067 0.795846 0.652277 0.077338 0.003821 -0.004617
0.366780 0.647126 0.602087 0.000001 0.344291 0.000007
3.757976 0.553469 0.405109 0.226856 -0.000129 -0.000246
0.451537 0.714673 0.505731 0.000000 0.999661 0.000000
1.941897 1.105002 0.920109 0.062240 -0.007913 0.009496
3.257636 0.680562 0.580490 -0.000000 0.678889 0.000005
1.311867 0.661263 0.595029 0.000000 0.510995 0.000008
0.051753 0.597055 0.554918 -0.603221 -0.000006 0.000033
0.533560 0.507204 0.548505 0.000001 -0.895254 0.000005
3.652850 0.360424 0.311440 -0.000000 0.637174 -0.001752
0.811527 0.703938 0.548546 0.000000 0.892643 0.000002
0.867121 0.592746 0.609534 -0.000000 -0.117580 0.000168
3.257636 0.551325 0.406309 0.000000 -0.488643 -0.000071
0.571838 0.714783 0.501981 0.000000 0.999915 0.000000
0.922714 0.700250 0.446636 -0.000000 0.872461 -0.000011
2.205007 0.714664 0.506089 0.000000 0.999653 0.000000
3.206599 0.714668 0.496265 0.000000 0.999662 -0.000000
3.659549 0.610940 0.610160 -0.000000 0.026359 0.000025
3.581443 0.741423 0.401814 0.000001 -0.637173 -0.000704
1.883346 0.100330 0.076836 -0.050031 0.010063 -0.012972
2.145768 0.539026 0.414498 0.000000 -0.619147 -0.000006
1.967181 1.092261 0.094644 0.062243 -0.007913 -0.009496
1.850080 1.109332 0.090730 -0.062162 0.004930 0.005369
1.367461 0.498873 0.477858 -0.000000 -0.975283 -0.000002
0.978307 0.562309 0.601352 -0.000000 -0.394405 0.000023
1.801061 1.051202 0.862369 -0.062162 0.005752 -0.006257
0.302073 0.496508 0.506446 0.000000 -0.999657 0.000000
1.058508 0.603616 0.391925 0.000000 -0.026193 -0.000050
1.200681 0.653240 0.599346 0.000000 0.442270 0.000081
1.775017 0.809711 0.689488 0.062242 -0.002374 0.002870
0.422373 0.556640 0.598713 0.000000 -0.442270 0.000020
1.972238 0.305249 0.753062 0.062242 0.007122 0.008559
2.479328 0.654081 0.598931 -0.000000 0.441977 0.000020
1.462723 0.694753 0.564629 0.000001 -0.770719 -0.000368
2.868482 0.711777 0.526583 -0.000001 0.975162 0.000009
1.962124 0.345856 0.710211 0.077338 -0.007006 -0.008440
0.811527 0.554813 0.404401 0.000000 -0.465627 -0.000038
2.256955 0.588056 0.393294 -0.000000 -0.169329 -0.000231
2.017751 0.854702 0.707042 0.062242 -0.008704 0.010428
3.610101 0.673205 0.570024 0.030163 0.016819 0.012146
1.744675 0.768052 0.607922 -0.062162 0.004793 -0.005221
1.589834 0.659486 0.596062 -0.000000 0.488867 0.000009
0.366780 0.521335 0.431601 0.000000 -0.768839 -0.000066
1.256274 0.662491 0.407876 0.000001 0.510479 -0.000017
1.554291 0.607367 0.391921 0.000000 0.026193 -0.000379
1.936840 0.049415 0.034743 0.062241 0.012660 -0.015007
3.146449 0.694994 0.438389 -0.000001 0.816006 -0.000014
3.090856 0.711469 0.474380 -0.000000 0.969229 -0.000005
1.756615 0.649346 0.601141 0.000000 0.394729 0.000093
2.145768 0.687538 0.573258 -0.000000 0.750060 0.000004
1.862132 1.189648 0.983951 -0.050031 -0.014635 0.018470
3.480009 0.539490 0.414148 -0.000000 -0.597154 -0.000007
1.145087 0.663174 0.408301 0.000000 0.533607 -0.000063
1.825586 0.274306 0.246554 0.077338 -0.012417 0.014831
2.590515 0.704361 0.454516 0.000000 0.907998 -0.000002
3.535603 0.500865 0.470069 -0.000000 -0.962412 -0.000003
2.534922 0.508271 0.451505 0.000000 -0.896865 -0.000010
1.511990 0.856386 0.293741 -0.050030 -0.009149 -0.011833
3.728677 0.706427 0.571428 0.000002 -0.637169 0.000596
2.646109 0.706945 0.541720 0.000000 0.928810 0.000016
1.664523 0.766346 0.613128 -0.062162 0.007875 -0.008534
2.368142 0.501528 0.467936 0.000000 -0.954949 -0.000012
1.701021 0.659993 0.406397 0.000000 0.488867 -0.000004
2.646109 0.688392 0.429890 0.000000 0.751791 -0.000017
1.987409 0.496345 0.413832 0.077338 -0.003821 0.004617
3.702383 0.538605 0.587345 -0.000000 -0.619017 0.000050
1.812208 0.704230 0.547943 -0.000000 0.907199 0.000005
1.367461 0.565571 0.399475 -0.000000 -0.370518 -0.000100
1.033901 0.529668 0.579591 -0.000001 -0.697187 0.000020
3.535603 0.647868 0.400399 0.000000 0.394601 -0.000023
1.650251 0.401029 0.347757 -0.062163 -0.007874 0.008534
2.145768 0.707649 0.462242 0.000001 0.936193 -0.000004
2.979669 0.504483 0.459791 -0.000001 -0.910546 -0.000002
3.824031 0.694303 0.532132 0.222968 0.000244 0.000077
2.979669 0.521449 0.570710 -0.000001 -0.762978 0.000004
2.924075 0.501488 0.534111 -0.000001 -0.940906 0.000002
2.924075 0.686500 0.427747 0.000000 0.734330 -0.000018
3.712683 0.913338 0.755518 0.142476 0.003979 -0.007577
3.569915 0.374720 0.691947 0.142475 -0.003979 -0.007577
3.450940 0.438799 0.363204 0.142474 -0.001892 0.003605
3.546120 0.387535 0.320823 0.142473 -0.001892 0.003605
3.802013 0.516323 0.458103 0.224156 -0.000955 -0.000528
1.764903 0.465710 0.591274 0.077338 -0.007006 -0.008440
1.685305 0.758358 0.357392 -0.050031 -0.017530 -0.021755
0.182211 0.572255 0.603655 -0.093841 -0.000178 0.000504
1.375823 0.726783 0.601288 -0.050030 -0.009149 0.011833
2.482063 0.714659 0.495907 0.000000 0.999653 -0.000000
1.978988 0.553469 0.597066 0.000000 -0.488617 0.000142
3.090856 0.605045 0.391881 -0.000000 -0.013008 -0.000025
1.812208 0.553904 0.597295 -0.000000 -0.465628 0.000076
3.706585 0.735574 0.380588 -0.000000 0.637174 0.002589
1.962124 0.836783 0.305446 0.062240 -0.004353 -0.005252
3.695182 0.818704 0.311862 0.000000 0.637174 0.002589
3.706585 0.475588 0.380588 0.000000 -0.637174 0.002589
3.652850 0.850738 0.690734 0.000000 -0.637175 0.001752
2.256955 0.676711 0.583957 0.000000 0.659213 0.000006
1.145087 0.556600 0.598693 -0.000000 -0.441607 0.000010
0.922714 0.525633 0.575477 -0.000000 -0.734252 0.000037
1.623555 0.606474 0.391897 0.000000 0.026359 -0.000012
1.701021 0.704156 0.548105 -0.000000 0.908155 0.000009
1.423054 0.507441 0.453188 0.000000 -0.894506 -0.000002
0.366780 0.627587 0.394121 0.000000 0.195154 -0.000050
2.979669 0.697509 0.560040 0.000000 0.845742 0.000003
0.311187 0.584364 0.393964 0.000000 -0.195071 -0.000200
1.867801 0.515278 0.562501 -0.000000 -0.831359 0.000013
3.257636 0.500805 0.470284 0.000000 -0.961994 -0.000003
3.677867 0.359749 0.717354 -0.000000 -0.637173 -0.001650
2.201362 0.508271 0.550669 0.000000 -0.896949 0.000005
3.858263 0.463814 0.383885 -0.246696 -0.001677 0.001898
0.533560 0.679184 0.420411 0.000000 0.678793 -0.000043
3.702383 0.498197 0.481185 -0.000000 -0.985555 -0.000027
1.089494 0.512461 0.444023 0.000000 -0.859488 -0.000003
0.533560 0.672768 0.587179 0.000000 0.619044 0.000025
2.646109 0.501130 0.469216 0.000000 -0.954868 -0.000003
0.422373 0.557602 0.402987 -0.000000 -0.442329 -0.000040
3.548665 0.468977 0.401184 -0.000000 0.637174 -0.000704
0.922714 0.563582 0.400275 -0.000000 -0.394809 -0.000023
0.113266 0.521315 0.533434 -0.362306 -0.000106 0.000038
1.534241 0.548517 0.407968 0.000000 -0.533472 -0.000016
2.090175 0.707508 0.540309 0.000000 0.928661 0.000002
1.936840 0.881775 0.721280 0.077337 0.003105 -0.003753
1.256274 0.541387 0.412732 0.000000 -0.598304 -0.000053
2.312548 0.659019 0.405851 0.000000 0.488580 -0.000035
0.867121 0.526735 0.425526 -0.000000 -0.708061 -0.000002
2.701702 0.557482 0.599128 -0.000000 -0.442262 0.000040
2.312548 0.703484 0.549467 0.000000 0.896647 0.000010
1.978988 0.651300 0.401914 0.000001 0.418645 -0.000172
1.815472 0.721352 0.425735 0.077339 0.003503 0.004233
1.256274 0.553469 0.597066 0.000000 -0.488614 0.000035
0.366780 0.527265 0.577193 0.000000 -0.716294 0.000019
0.700340 0.558645 0.402475 0.000000 -0.416998 -0.000011
1.550895 0.893415 0.739047 -0.050031 -0.010978 0.014099
0.311187 0.565032 0.602484 0.000000 -0.370575 0.000100
0.422373 0.701560 0.448975 0.000000 0.872642 -0.000001
1.701021 0.550591 0.595440 0.000001 -0.511174 0.000067
3.035262 0.549669 0.594892 0.000002 -0.509631 0.000034
2.757295 0.508521 0.451031 0.000000 -0.884962 -0.000003
3.737513 0.812267 0.658929 -0.000001 -0.637174 0.002589
3.791397 0.862306 0.700298 -0.000001 -0.637175 0.000619
3.759648 0.334429 0.289949 -0.000000 0.637174 -0.000619
0.644747 0.702558 0.450873 0.000000 0.885034 -0.000003
3.591196 0.546099 0.409493 0.000000 -0.555547 -0.000059
1.562258 0.450359 0.616690 -0.062161 -0.002054 -0.002243
1.977295 0.267077 0.225309 0.077338 -0.005573 0.006723
2.812889 0.569125 0.398138 0.000000 -0.346184 -0.000027
2.534922 0.699203 0.444868 -0.000000 0.859357 -0.000012
3.368823 0.553391 0.597022 0.000001 -0.479919 0.000009
3.646789 0.639245 0.397193 0.000000 0.296641 -0.000016
0.644747 0.698701 0.558151 -0.000000 0.859370 0.000003
1.423054 0.507283 0.548666 -0.000000 -0.896733 0.000010
3.257636 0.663665 0.408611 -0.000001 0.533595 -0.000126
2.034581 0.545505 0.409890 -0.000000 -0.555540 -0.000059
3.368823 0.507600 0.549307 0.000002 -0.896231 0.000020
3.712683 0.297825 0.246657 0.142475 -0.003979 0.007577
2.757295 0.506707 0.547456 0.000000 -0.908123 0.000018
2.201362 0.697747 0.559662 0.000000 0.845742 0.000006
1.367461 0.542007 0.589881 0.000000 -0.576569 0.000014
2.868482 0.511000 0.446481 -0.000000 -0.872468 -0.000022
1.509082 0.767562 0.627366 -0.062161 0.012324 -0.013207
2.868482 0.511000 0.555694 0.000000 -0.872642 0.000003
1.876156 0.927484 0.752962 0.077338 0.012417 -0.014831
2.368142 0.547837 0.593778 -0.000000 -0.533521 0.000016
1.756615 0.505669 0.456995 -0.000000 -0.917862 -0.000002
2.423735 0.688156 0.429621 -0.000000 0.751823 -0.000035
1.200681 0.512096 0.444638 0.000000 -0.859422 -0.000024
1.835700 0.396094 0.689006 0.062240 0.002374 0.002870
1.033901 0.536782 0.416270 0.000001 -0.633581 -0.000006
3.591196 0.560754 0.600672 0.000001 -0.417503 0.000022
0.978307 0.506633 0.454881 0.000000 -0.908071 -0.000009
3.579348 0.496494 0.505910 0.000000 -0.999657 0.000000
1.871099 0.916934 0.258444 0.077339 0.012417 0.014831
1.534241 0.664156 0.408921 0.000000 0.533591 -0.000008
0.073635 0.549033 0.460003 -0.517331 -0.000045 -0.000031
3.498530 0.797995 0.342013 0.142474 0.001892 0.003605
1.367461 0.667143 0.591291 -0.000000 0.555393 0.000015
3.146449 0.503189 0.463122 0.000001 -0.937789 -0.000007
1.478648 0.555841 0.403861 -0.000001 -0.463178 -0.000019
3.202042 0.496917 0.511969 0.000001 -0.987804 0.000000
1.311867 0.700512 0.555070 -0.000000 0.872461 0.000022
0.311187 0.688392 0.429890 0.000000 0.751791 -0.000009
0.811527 0.659174 0.405938 0.000000 0.488614 -0.000018
2.090175 0.660725 0.406825 0.000000 0.511290 -0.000067
2.145768 0.590619 0.392911 0.000000 -0.143429 -0.000069
3.702383 0.548517 0.407968 -0.000000 -0.533591 -0.000004
2.312548 0.556881 0.403343 0.000000 -0.442239 -0.000020
1.867801 0.663854 0.408730 0.000000 0.533008 -0.000008
0.255593 0.507679 0.452707 0.000001 -0.896839 -0.000039
1.478648 0.509353 0.449450 -0.000000 -0.884962 -0.000010
1.478648 0.552339 0.596433 0.000001 -0.488490 0.000035
3.424416 0.559050 0.599886 -0.000001 -0.394168 0.000006
0.755934 0.705166 0.545914 -0.000000 0.893349 0.000001
1.534241 0.661109 0.595121 0.000000 0.511298 0.000067
2.701702 0.648401 0.601546 0.000000 0.394265 0.000023
1.311867 0.637965 0.396795 0.000000 0.296756 -0.000008
0.477967 0.657693 0.597066 -0.000000 0.488685 0.000035
0.867121 0.632462 0.395243 0.000000 0.246144 -0.000078
2.311637 0.611118 0.610156 -0.000000 0.026359 0.000377
1.033901 0.697557 0.442210 0.000000 0.845733 -0.000025
0.644747 0.508113 0.550349 -0.000001 -0.896474 0.000010
1.835700 0.269438 0.793717 0.062242 0.007122 0.008559
1.256274 0.709714 0.533983 0.000000 0.955019 0.000003
3.570235 0.714668 0.496265 0.000000 0.999653 -0.000000
3.368823 0.552573 0.405611 0.000000 -0.488609 -0.000071
1.589834 0.503591 0.540142 -0.000001 -0.904351 0.000002
3.707690 0.385721 0.306292 0.000001 -0.637175 0.000825
3.378848 0.714682 0.496800 0.000000 0.999661 -0.000000
0.867121 0.647375 0.601987 -0.000000 0.394966 0.000023
3.646789 0.513272 0.559436 0.000000 -0.845733 0.000025
3.322343 0.601830 0.391972 0.000000 -0.026184 -0.000050
3.646044 0.802436 0.351372 0.000001 -0.637173 -0.000876
0.700340 0.554537 0.597628 -0.000001 -0.465619 0.000151
1.756615 0.701809 0.552725 -0.000000 0.880447 0.000003
3.728677 0.706427 0.430746 0.000001 -0.637174 -0.000596
2.812889 0.653841 0.599049 0.000001 0.442258 0.000081
1.977295 0.955867 0.215568 0.077338 0.005095 0.006150
1.701021 0.706746 0.459957 0.000000 0.928707 -0.000002
3.511766 0.681891 0.438000 0.030163 0.016819 -0.012146
1.680259 0.256499 0.793775 -0.050031 0.018291 0.022591
2.979669 0.706779 0.460040 0.000000 0.928716 -0.000004
1.910636 0.608796 0.610216 0.000000 0.026017 0.000382
1.643740 0.455992 0.397522 -0.062162 -0.007875 0.008534
1.089494 0.594165 0.609702 0.000000 -0.117751 0.000084
1.817201 0.098701 0.085090 -0.062161 -0.009860 0.010638
0.255593 0.659564 0.406156 0.000000 0.488617 -0.000071
1.783757 0.954414 0.226949 -0.062162 0.015609 0.016540
3.313229 0.699980 0.556001 -0.000000 0.858765 0.000003
1.627646 0.855083 0.287452 -0.050031 -0.005490 -0.007175
3.752916 0.891835 0.251403 0.000000 0.637175 0.001238
3.737513 0.411694 0.674410 0.000000 -0.637175 -0.002589
1.790187 0.777913 0.340203 0.062245 -0.004352 -0.005252
3.424416 0.576369 0.395862 -0.000000 -0.271424 -0.000141
1.200681 0.507679 0.549467 0.000001 -0.896773 0.000020
0.051753 0.646084 0.464618 -0.603218 0.000028 -0.000024
0.755934 0.702766 0.451268 0.000000 0.885034 -0.000001
3.779994 0.617241 0.397601 0.245417 0.000003 -0.000256
0.788743 0.496383 0.499926 0.000000 -0.999915 -0.000000
3.368823 0.657100 0.404797 0.000000 0.465593 -0.000076
1.896384 0.414302 0.669043 0.062241 0.009496 0.011355
1.492537 0.373291 0.309047 -0.062163 -0.006163 0.006699
1.438726 0.481880 0.598265 -0.062162 -0.008217 -0.008899
1.434180 0.782327 0.354967 -0.050030 -0.009149 -0.011833
1.535987 0.821856 0.674798 -0.062162 0.008217 -0.008899
1.535987 0.821856 0.327377 -0.062160 0.004109 0.004479
1.438726 0.729283 0.598265 -0.062162 0.008217 -0.008899
0.422373 0.703365 0.549707 0.000000 0.896818 0.000010
1.089494 0.507955 0.550028 0.000000 -0.896286 0.000005
1.187010 0.602545 0.391953 0.000000 -0.026184 -0.000379
2.423735 0.705203 0.545833 0.000000 0.908105 0.000009
2.090175 0.624691 0.608608 -0.000000 0.169280 0.000116
0.978307 0.711667 0.475159 0.000000 0.968356 -0.000003
3.424416 0.653480 0.599227 -0.000000 0.442288 0.000081
3.784068 0.259377 0.214871 0.142475 -0.003784 0.007207
1.478648 0.656231 0.597835 0.000000 0.465627 0.000019
1.926726 0.071417 0.950060 0.062240 0.015033 0.017677
1.820529 0.496844 0.395234 0.062242 0.004353 -0.005252
3.752916 0.306529 0.735291 -0.000000 0.637174 0.001238
2.924075 0.671458 0.588187 0.000001 0.591686 0.000007
0.755934 0.507916 0.549948 -0.000000 -0.896865 0.000020
1.645428 0.559213 0.402214 0.000000 -0.418699 -0.000022
1.780074 0.455251 0.644601 0.062240 0.004353 0.005252
0.440601 0.496382 0.500015 0.000000 -0.999914 -0.000000
1.957067 0.476691 0.612554 0.062244 0.004748 0.005727
3.502793 0.610404 0.610174 0.000008 0.001955 0.000332
1.589834 0.517734 0.436213 -0.000000 -0.798221 -0.000004
2.861191 0.601294 0.391986 0.000000 -0.026184 -0.000379
1.645428 0.507165 0.453749 0.000000 -0.896865 -0.000010
2.479328 0.652274 0.402363 -0.000000 0.418578 -0.000043
0.117410 0.605581 0.593001 -0.354232 0.000002 0.000058
1.878685 0.341732 0.296952 0.077338 -0.007006 0.008440
2.423735 0.517226 0.436893 0.000000 -0.816450 -0.000004
3.657448 0.719306 0.420098 -0.000001 -0.637174 -0.000885
3.639238 0.457028 0.391305 0.000000 0.637175 -0.001770
1.731814 0.260291 0.225806 -0.062162 -0.008217 0.008899
1.790947 1.022888 0.149542 -0.050031 -0.013721 -0.017399
1.830627 0.125756 0.902682 -0.050032 0.005947 0.007764
0.477967 0.506015 0.545955 0.000000 -0.908115 0.000002
1.946954 0.186470 0.853306 0.062242 0.005540 0.006674
0.589154 0.646214 0.399724 -0.000000 0.370567 -0.000050
2.812889 0.554892 0.597815 0.000000 -0.465559 0.000038
0.533560 0.705166 0.545914 0.000000 0.908105 0.000005
0.700340 0.645467 0.602749 -0.000000 0.370567 0.000199
1.916612 0.887993 0.259426 0.062242 -0.007715 -0.009262
0.477967 0.509995 0.448274 -0.000001 -0.872402 -0.000022
1.615822 0.751010 0.367354 -0.050031 -0.017530 -0.021754
1.812208 0.657377 0.597232 -0.000000 0.465448 0.000038
1.645428 0.507283 0.548666 -0.000001 -0.896474 0.000010
1.967181 0.323524 0.272992 0.077338 -0.006210 0.007487
2.034581 0.703168 0.550108 -0.000001 0.896738 0.000020
1.645428 0.588673 0.608982 0.000000 -0.143756 0.000068
1.783757 0.256748 0.775226 -0.062162 -0.015609 -0.016540
0.644747 0.511365 0.445866 0.000000 -0.859357 -0.000012
1.997215 0.714738 0.503231 0.000000 0.999653 0.000000
3.646789 0.506371 0.455449 0.000000 -0.908112 -0.000018
0.405969 0.610404 0.610174 0.000000 0.026351 0.000025
1.866042 0.453527 0.611525 0.077337 -0.009075 -0.010903
1.987409 0.151720 0.873252 0.077339 -0.007642 -0.009199
1.835700 0.435859 0.346043 0.062241 0.011276 -0.013421
1.723849 0.359665 0.686070 -0.062163 -0.002465 -0.002691
3.669956 0.713245 0.603127 -0.000000 0.637175 -0.001752
2.701702 0.552339 0.405742 0.000000 -0.488589 -0.000035
1.423054 0.709449 0.534836 -0.000000 0.955019 0.000006
0.755934 0.505810 0.456666 0.000000 -0.918843 -0.000009
3.827966 0.278906 0.784189 0.000000 -0.637174 -0.000825
3.827966 0.932257 0.784189 -0.000001 0.637175 -0.000825
1.089494 0.644049 0.398880 0.000000 0.346293 -0.000013
1.876156 0.168804 0.154243 0.077338 -0.004299 0.005192
1.790947 0.181060 0.843906 -0.062163 -0.006574 -0.007141
1.724221 0.204410 0.828165 -0.062162 -0.007395 -0.008022
1.423054 0.660341 0.406597 0.000000 0.511402 -0.000017
3.427701 0.729474 0.411693 0.000001 -0.637175 -0.000668
1.968963 0.601830 0.391972 0.000000 -0.026017 -0.000382
1.923395 0.503390 0.462577 0.000000 -0.938139 -0.000015
2.256955 0.504317 0.460206 -0.000001 -0.861965 -0.000001
1.972238 0.921753 0.757894 0.077338 0.005732 -0.006915
1.626571 0.308827 0.740824 -0.062163 -0.002260 -0.002467
2.368142 0.660188 0.595669 -0.000000 0.511402 0.000017
2.017751 0.285768 0.765486 0.062242 0.012660 0.015007
3.202042 0.536851 0.416212 0.000000 -0.639430 -0.000012
3.313229 0.613080 0.610034 0.000000 0.065368 0.000152
0.811527 0.671708 0.587999 0.000001 0.549248 0.000004
0.200000 0.662645 0.594207 -0.059363 0.000229 0.000363
3.706585 0.748373 0.606106 0.000000 -0.637175 0.002589
3.464516 0.714678 0.496622 0.000000 0.999653 -0.000000
0.589154 0.559416 0.600054 0.000000 -0.418588 0.000043
1.923395 0.502187 0.536232 0.000000 -0.946935 0.000002
1.540533 0.442351 0.376320 -0.062162 -0.008217 0.008899
0.477967 0.657417 0.404963 -0.000000 0.463463 -0.000009
2.256955 0.555683 0.598231 0.000000 -0.465664 0.000019
0.255593 0.509755 0.553472 0.000002 -0.869838 0.000011
3.802013 0.683036 0.439319 0.224154 0.000890 -0.000631
3.802013 0.627626 0.597672 0.224155 0.000183 0.001076
2.646109 0.647539 0.400258 0.000000 0.394675 -0.000012
2.924075 0.553509 0.405088 0.000000 -0.465801 -0.000005
1.509082 0.767562 0.374808 -0.062156 0.003082 0.003362
1.609252 0.948959 0.784967 -0.050032 -0.009606 0.012403
1.845814 0.247435 0.191086 0.062241 0.013846 -0.016350
2.034581 0.704174 0.454110 -0.000000 0.907742 -0.000005
0.105067 0.628032 0.417301 -0.394321 0.000027 -0.000091
3.706585 0.462790 0.606106 -0.000001 0.637174 0.002589
0.991066 0.496415 0.502873 0.000000 -0.999657 0.000000
1.033901 0.633934 0.606555 0.000000 0.271168 0.000018
1.891327 0.970917 0.790396 0.077338 0.011144 -0.013343
1.689985 0.968430 0.206200 -0.062161 0.008217 0.008899
3.355761 0.490062 0.596590 0.142473 -0.003784 -0.007208
1.855928 0.211005 0.811007 0.077338 -0.009871 -0.011844
2.384546 0.604242 0.391909 0.000000 -0.026359 -0.000012
0.138523 0.663824 0.581252 -0.263787 0.000105 0.000137
2.205918 0.606385 0.610280 0.000000 0.015838 0.000021
1.601550 0.809676 0.658112 -0.062162 0.015746 -0.016676
1.706088 0.422466 0.630079 -0.062162 -0.015746 -0.016676
3.702383 0.646006 0.399641 -0.000001 0.370544 -0.000199
1.785131 0.379449 0.295315 0.062241 0.008507 -0.010195
3.424416 0.507560 0.549227 0.000000 -0.896864 0.000020
1.490356 0.444982 0.363712 -0.050032 0.003431 -0.004500
3.779844 0.418131 0.359148 0.000000 0.637174 -0.002589
3.762529 0.825741 0.332106 0.000001 -0.637173 -0.000825
3.677867 0.864212 0.300301 0.000001 -0.637174 -0.001650
3.820264 0.312291 0.271647 0.000001 0.637174 -0.001650
3.546605 0.509104 0.593878 -0.000000 -0.637174 -0.000704
3.480009 0.502910 0.538298 0.000000 -0.938183 0.000015
2.534922 0.705564 0.545016 -0.000001 0.869310 0.000001
1.145087 0.560186 0.401765 -0.000000 -0.418635 -0.000043
1.761381 0.982371 0.182220 -0.050031 -0.015549 -0.019525
0.200000 0.713860 0.515342 -0.059363 0.000426 0.000050
3.850121 0.698527 0.424246 -0.246698 0.001677 0.001898
1.639892 0.261726 0.219357 -0.062162 -0.004109 0.004478
3.025237 0.496466 0.497336 0.000000 -0.999657 -0.000000
1.808563 0.600580 0.392005 0.000000 -0.026184 -0.000379
3.368823 0.501077 0.469386 0.000000 -0.954924 -0.000002
0.413260 0.610404 0.392000 0.000000 0.026184 -0.000025
3.827966 0.932257 0.217985 0.000001 0.637175 0.000825
2.924075 0.497610 0.484710 0.000001 -0.989561 -0.000006
2.145768 0.507659 0.452747 0.000000 -0.896043 -0.000005
