0.106442 0.517908 0.710599 -0.350865 -0.000081 -0.000032
2.139251 0.495278 0.735292 0.000000 -0.999680 -0.000000
1.832617 0.531819 0.662336 -0.000001 0.625049 0.000613
2.217144 0.538962 0.657239 0.000000 -0.539623 -0.000042
0.129108 0.674199 0.716216 -0.262522 0.000127 -0.000030
0.726148 0.686998 0.735140 0.000000 0.999675 -0.000000
1.410286 0.498369 0.762094 -0.000000 -0.964648 0.000004
2.833078 0.684667 0.838494 0.030069 -0.017201 0.010945
3.018512 0.330497 0.418382 -0.051734 0.009042 -0.007032
0.872381 0.542742 0.654906 0.000002 -0.492085 -0.000024
1.628477 0.503107 0.631162 -0.073591 -0.006605 0.004879
1.889490 0.653148 0.634396 0.073641 -0.003124 -0.002499
0.129108 0.549502 0.812738 -0.262525 -0.000065 0.000110
1.493324 0.591671 0.641811 0.000000 0.025110 -0.000004
1.744295 0.675138 0.611381 -0.096581 -0.005049 -0.004457
3.012979 0.687034 0.735443 0.000000 0.999921 -0.000000
2.432453 0.588103 0.641875 0.000000 -0.025110 -0.000271
0.648254 0.636221 0.822384 0.000000 0.474230 0.000051
2.073489 1.001436 1.254262 0.073639 -0.004373 0.003496
2.566094 0.656428 0.813551 -0.000001 0.625035 0.000127
2.575747 0.564752 0.829943 0.000000 -0.287240 0.000045
2.880226 0.817528 1.017362 0.030068 -0.023725 0.013656
2.204652 0.495263 0.735899 -0.000000 -0.999680 -0.000000
3.010615 0.529636 0.658861 -0.000000 -0.625051 -0.000476
0.513778 0.540562 0.819224 0.000001 -0.516641 0.000011
2.907166 0.430065 0.949657 0.030068 -0.012927 -0.010373
2.030835 0.845368 1.048226 0.056038 0.002121 -0.001697
2.033344 0.494851 0.851211 0.056039 -0.001539 -0.001232
2.319287 0.687036 0.736658 0.000000 0.999684 -0.000000
1.599870 0.677524 0.629842 -0.096578 -0.004697 -0.004147
0.872381 0.633350 0.651585 0.000001 0.402119 -0.000004
0.321984 0.586737 0.833533 0.000000 -0.025502 0.000018
1.096508 0.674709 0.784800 -0.000000 0.867905 0.000002
0.962032 0.636087 0.822456 0.000000 0.474164 0.000051
1.783145 0.331756 1.068170 -0.096579 0.003549 0.003135
2.849235 0.773672 0.503865 0.030068 0.003232 0.002807
1.918763 0.823676 0.424893 0.073640 -0.003436 -0.002748
1.634413 0.540400 0.819126 -0.000001 -0.539568 0.000085
0.737905 0.625305 0.827346 -0.000001 0.358738 0.000035
2.868900 0.463068 0.591641 0.030065 0.003956 -0.002875
3.032821 0.842295 1.046239 -0.051736 -0.006781 0.005308
2.844700 0.506370 0.692841 -0.000001 -0.872665 -0.000004
1.006858 0.506658 0.692306 0.000000 -0.880451 -0.000015
3.086555 0.672817 0.686400 -0.026089 0.001434 -0.000818
0.603429 0.497935 0.760363 0.000000 -0.971102 0.000003
2.583326 0.693647 0.863454 0.030068 -0.013184 0.008851
2.779447 0.779798 0.971014 0.030070 -0.003956 0.002874
1.690272 0.721287 0.567087 -0.096579 -0.005049 -0.004457
2.060107 0.316172 0.398687 0.056038 -0.004242 0.003387
2.797251 0.484805 0.881952 0.030067 -0.008033 -0.006778
1.399264 0.687048 0.738329 -0.000000 0.999684 0.000000
2.686667 0.709473 0.584809 0.030067 0.012312 0.009952
1.040660 0.593190 0.641850 0.000000 0.025130 -0.000002
0.044062 0.599780 0.695678 -0.594856 0.000006 -0.000025
0.393999 0.592659 0.641817 0.000000 0.012558 -0.000142
2.108616 0.120093 1.325982 0.073643 0.006247 0.004984
2.051744 1.049997 1.305652 0.056039 0.010398 -0.008187
1.858541 0.686598 0.728319 0.000000 0.996059 -0.000001
0.129108 0.624975 0.816565 -0.262516 0.000053 0.000116
2.954754 0.505923 0.616923 -0.051737 -0.004225 0.003420
1.922944 0.776686 0.522677 0.056038 0.002531 0.002025
1.993017 0.503977 0.697672 0.000000 -0.914038 -0.000002
2.982024 0.692003 0.623827 -0.051735 -0.006505 -0.005095
1.275810 0.510719 0.789996 -0.000000 -0.840533 0.000004
1.410286 0.541667 0.819893 -0.000003 -0.404182 0.000007
2.967419 0.595543 0.641910 0.000000 0.025512 -0.000035
3.024001 0.502540 0.774462 0.000001 -0.923814 0.000023
1.956399 0.327071 1.085483 0.073639 0.001614 0.001292
1.802389 0.877878 1.101936 -0.096579 -0.006471 0.005708
1.264053 0.687040 0.738632 -0.000000 0.999674 0.000000
2.885158 0.513387 0.622197 0.030070 -0.007550 0.006396
1.966435 0.899576 1.110140 0.056038 0.003968 -0.003169
0.136810 0.564828 0.653858 -0.232536 -0.000048 -0.000141
2.077671 0.430194 0.533071 0.073640 0.003852 -0.003081
0.424127 0.530376 0.811941 0.000001 -0.636066 0.000008
1.141334 0.571534 0.831616 0.000000 -0.213814 0.000031
2.037842 0.549959 0.824346 0.000001 -0.427295 0.000029
0.558603 0.519562 0.673872 0.000000 -0.750433 -0.000006
2.220818 0.593114 0.833594 -0.000005 0.004780 0.000187
2.172318 0.673955 0.786119 -0.000000 0.868104 0.000016
3.139741 0.619766 0.802057 1.000000 0.000000 0.000000
1.544763 0.672623 0.687111 0.000000 0.854667 -0.000004
1.544763 0.651758 0.812063 -0.000000 0.641727 0.000008
1.867745 0.412931 0.988731 0.073640 0.007705 0.006136
2.378075 0.687057 0.737266 0.000000 0.999921 -0.000000
1.963926 0.954742 1.178808 0.056038 0.003421 -0.002734
1.631667 0.717165 0.580337 -0.096578 -0.004697 -0.004147
2.767913 0.427562 0.538059 0.030069 0.017201 -0.010945
1.724064 0.616942 0.645339 0.000000 0.262910 -0.000100
3.139741 0.552822 0.689869 0.990656 -0.000000 -0.000000
3.071006 0.374981 1.005102 -0.051733 0.004521 0.003556
2.842605 0.748499 0.942450 0.030064 0.003695 -0.003203
2.217144 0.527490 0.809475 0.000002 -0.631503 0.000008
2.486921 0.511351 0.638078 0.030069 -0.016414 0.012584
1.275810 0.508791 0.688540 0.000000 -0.855310 -0.000016
1.786284 0.479176 0.573591 -0.096580 0.005049 -0.004457
2.058435 0.534076 0.660529 0.073640 0.006247 -0.004985
2.058435 1.073977 0.128809 0.073641 -0.006247 -0.004984
1.903366 0.498818 0.763743 0.000000 -0.964482 0.000002
2.261969 0.506117 0.693309 0.000000 -0.892139 -0.000003
1.652864 0.438688 0.928109 -0.073589 -0.006018 -0.004449
1.365461 0.511856 0.791702 -0.000001 -0.815446 0.000005
0.737905 0.638615 0.654379 0.000000 0.496156 -0.000024
2.934351 0.503021 0.775618 0.000001 -0.902625 0.000002
1.186159 0.516798 0.798339 0.000000 -0.782627 0.000003
1.858541 0.556798 0.827278 -0.000001 -0.358617 0.000035
1.634413 0.630078 0.825377 0.000000 0.406575 0.000008
1.365461 0.518357 0.675239 0.000000 -0.767014 -0.000011
2.961596 0.773380 0.952989 -0.051734 -0.011302 0.008717
1.790147 0.373363 0.476267 -0.073590 -0.002569 0.001904
0.292590 0.495328 0.742124 0.000000 -0.999680 0.000000
2.575747 0.540048 0.656542 -0.000000 -0.539757 -0.000011
0.289651 0.548422 0.651841 0.000001 -0.451145 -0.000027
1.903366 0.572353 0.643661 0.000000 -0.188708 -0.000071
1.455112 0.671397 0.685191 -0.000001 0.839163 -0.000004
2.441271 0.580379 0.833031 0.000000 -0.113812 0.000119
0.714390 0.495286 0.734988 -0.000000 -0.999680 -0.000000
1.990271 0.718679 0.589072 0.056038 0.009132 0.007218
1.966017 0.447641 0.933774 0.073640 0.006950 0.005540
2.620573 0.505397 0.694732 0.000000 -0.888609 -0.000002
2.505937 0.687053 0.736886 0.000000 0.999921 -0.000000
2.020798 0.404109 0.493775 0.073641 0.001822 -0.001459
3.086555 0.580340 0.641866 -0.022028 -0.001458 -0.008564
1.630739 0.587041 0.641902 -0.000000 -0.025120 -0.000271
2.127493 0.637824 0.821516 -0.000001 0.493952 0.000012
2.025817 0.804154 1.013522 0.073641 -0.001718 0.001375
1.915084 0.189128 1.248858 -0.096579 0.004593 0.004055
1.947199 0.738919 0.907778 0.056038 0.009132 -0.007218
1.813715 0.630217 0.650127 0.000001 0.405557 -0.000031
1.777846 0.338363 0.415523 -0.096580 0.003445 -0.003043
3.072775 0.738098 0.924841 -0.051735 0.007824 -0.006284
1.971453 0.487703 0.883101 0.073640 0.006950 0.005541
0.603429 0.541797 0.819972 -0.000000 -0.518113 0.000045
2.063453 0.890743 0.358230 0.073641 -0.001406 -0.001125
1.499937 0.523153 0.670056 -0.000000 -0.714306 -0.000007
2.601263 0.504936 0.849939 0.030070 -0.012311 -0.009951
1.499937 0.501188 0.771036 0.000000 -0.933295 0.000003
1.813296 0.706629 0.617038 -0.073590 0.007100 0.005242
1.827599 0.474826 0.617698 0.056038 -0.004105 0.003278
2.127493 0.547439 0.823104 0.000001 -0.449878 0.000014
1.186159 0.635078 0.652459 -0.000001 0.451350 -0.000027
1.995708 0.284430 1.134090 0.073636 0.002811 0.002250
0.334476 0.650896 0.662694 -0.000001 0.621582 -0.000017
1.724064 0.536908 0.658608 0.000001 -0.560119 -0.000020
0.289651 0.681882 0.768818 0.000000 0.941884 0.000001
1.679239 0.502773 0.775023 0.000001 -0.923701 0.000011
2.108616 0.827278 0.442823 0.073640 -0.006455 -0.005149
2.083526 0.679014 0.625017 0.073644 -0.003123 -0.002499
2.108616 0.076047 0.094455 0.073640 0.005414 -0.004324
2.873951 0.518616 0.807757 0.000000 -0.625050 0.000412
1.916253 0.743945 0.564166 0.056036 0.009133 0.007218
2.903391 0.729962 0.896714 0.030068 -0.003956 0.002875
1.903366 0.685100 0.757030 -0.000000 0.982032 0.000001
0.192019 0.544658 0.653977 -0.018034 -0.000534 -0.000933
2.441271 0.501137 0.704550 0.000000 -0.941672 -0.000002
1.964762 0.668498 0.851323 0.073640 -0.006950 0.005541
0.558603 0.665287 0.676870 0.000000 0.766840 -0.000011
2.351620 0.508174 0.689587 0.000001 -0.718494 -0.000001
0.827556 0.497066 0.756434 0.000000 -0.982006 0.000003
1.939064 1.036501 1.301413 -0.096581 -0.004175 0.003687
3.024001 0.502047 0.702174 0.000001 -0.933269 -0.000042
1.945944 0.656402 0.637002 0.073640 -0.002343 -0.001875
1.934653 0.262256 1.168995 0.073641 0.011244 0.008901
2.082689 0.857778 1.068380 0.056038 0.002121 -0.001697
2.710223 0.636087 0.652987 0.000000 0.474006 -0.000013
2.082668 0.680574 0.703060 -0.000000 0.933244 -0.000003
2.866010 0.686959 0.741821 0.000000 0.999684 0.000000
1.952635 0.499799 0.605224 0.073640 0.006950 -0.005541
2.934351 0.498728 0.712029 0.000000 -0.964798 -0.000015
3.031536 0.448819 0.567173 -0.051734 0.007912 -0.006174
2.934351 0.554926 0.826539 -0.000000 -0.382682 0.000066
2.396446 0.657200 0.807271 0.000000 0.679909 0.000002
2.079344 0.785216 0.983549 0.073643 -0.007288 0.005807
0.827556 0.678765 0.698713 -0.000000 0.913894 -0.000006
1.410286 0.573583 0.643424 0.000002 -0.161325 -0.000021
2.914167 0.491267 0.879900 -0.051736 -0.008449 -0.006772
1.674095 0.686967 0.733926 0.000000 0.999675 -0.000000
2.796531 0.787542 0.490394 0.030069 0.014773 0.011581
2.665398 0.543369 0.654548 -0.000001 -0.496295 -0.000095
0.837844 0.593266 0.833591 -0.000000 0.025120 0.000018
2.046726 0.439319 0.934632 0.073640 0.001926 0.001542
0.603429 0.685727 0.753633 0.000000 0.986451 0.000009
1.275810 0.660664 0.671633 0.000000 0.733659 -0.000003
1.993199 0.214836 1.221298 0.073640 0.004789 0.003827
2.816041 0.495236 0.736202 -0.000000 -0.999919 -0.000000
2.070144 0.949856 1.190244 0.073642 -0.004789 0.003827
2.530922 0.502467 0.774286 0.000000 -0.923712 0.000006
0.244825 0.497586 0.716557 -0.000000 -0.976803 -0.000006
1.544763 0.532068 0.813292 0.000000 -0.621798 0.000017
1.455112 0.645938 0.816451 -0.000000 0.581572 0.000010
2.025817 0.812554 0.468647 0.056036 0.002258 0.001806
0.673239 0.686994 0.734988 0.000000 0.999674 -0.000000
1.860120 0.222339 1.203233 -0.096580 0.002714 0.002398
2.988118 0.865058 0.398723 0.030069 -0.011866 -0.008090
3.016576 0.904259 1.128756 0.030070 0.014772 -0.011581
2.839556 0.595163 0.833543 0.000010 0.001001 0.000446
2.030835 0.336912 1.048226 0.056037 -0.004242 -0.003387
1.320636 0.583327 0.833320 0.000000 -0.088696 0.000153
1.635886 0.646758 0.659371 -0.000001 -0.625052 0.000349
0.603429 0.646000 0.659035 -0.000001 0.567287 -0.000005
2.052162 0.708627 0.596069 0.056036 0.009133 0.007218
0.943661 0.588863 0.833587 0.000000 -0.025512 0.000035
3.012322 0.395203 0.990115 -0.051734 -0.005589 -0.004513
0.037797 0.574415 0.771817 -0.619453 -0.000009 0.000017
1.939064 0.145779 0.174030 -0.096579 0.004175 -0.003687
2.643856 0.442216 0.923702 0.030066 -0.010261 -0.008482
2.975048 0.500724 0.837798 -0.051735 0.004272 0.003361
2.776841 0.504511 0.616987 0.030066 -0.007183 0.006102
1.748003 0.378931 1.009652 -0.096580 0.003966 0.003503
1.365461 0.678889 0.776451 0.000001 0.908585 0.000003
1.499937 0.683111 0.710497 0.000000 0.957789 -0.000004
2.301651 0.589014 0.833591 0.000000 -0.025512 0.000017
1.993017 0.677260 0.779965 -0.000000 0.903194 0.000002
1.993017 0.636889 0.822024 0.000000 0.474006 0.000013
2.247272 0.589774 0.641833 0.000000 -0.025512 -0.000017
1.854363 0.443066 0.522764 0.073641 0.004685 -0.003744
0.603429 0.656866 0.807581 -0.000000 0.679620 0.000015
1.680391 0.506416 0.833389 -0.073591 -0.003302 -0.002447
0.872381 0.637692 0.821591 -0.000000 0.496266 0.000012
2.447687 0.653645 0.659663 0.000001 0.624792 -0.000042
0.426332 0.686967 0.733926 0.000000 0.999675 -0.000000
0.244825 0.675604 0.692273 0.000002 0.879894 -0.000029
2.665398 0.556620 0.827210 0.000001 -0.359039 0.000071
2.351620 0.546728 0.652699 0.000000 -0.474006 -0.000013
2.955240 0.810577 0.471380 0.030072 -0.009887 -0.006885
2.172318 0.667634 0.679855 0.000001 0.770093 -0.000003
1.874435 0.808175 0.987734 -0.073590 0.010567 -0.007759
2.942625 0.435034 0.557144 -0.051740 0.004271 -0.003361
1.186159 0.652224 0.811673 0.000000 0.641727 0.000008
1.959744 0.319537 0.380947 0.073641 0.003228 -0.002582
0.648254 0.564097 0.829747 0.000000 -0.287261 0.000091
1.840981 0.736231 0.580558 -0.073591 0.006164 0.004556
2.957726 0.878334 1.096379 0.030070 0.011080 -0.009081
0.458665 0.495217 0.737721 0.000000 -0.999921 0.000000
1.910924 0.948908 1.172949 -0.073591 0.003816 -0.002827
2.755049 0.523126 0.805359 0.000000 -0.714373 0.000007
1.825600 0.388123 0.974885 -0.073591 -0.005577 -0.004125
0.782730 0.520661 0.802779 -0.000001 -0.733218 0.000025
2.306795 0.534674 0.815259 0.000001 -0.580204 0.000019
1.879364 0.987295 1.236998 -0.096579 -0.002505 0.002214
1.603550 0.687013 0.739695 0.000000 0.999684 0.000000
1.980653 0.852937 0.395663 0.073639 -0.003228 -0.002582
2.486096 0.561378 0.646540 -0.000001 -0.306782 -0.000021
1.141334 0.512498 0.682800 0.000000 -0.813495 -0.000005
0.693080 0.655332 0.808998 0.000001 0.655506 0.000008
2.978633 0.334296 1.062584 0.030069 -0.011081 -0.009081
0.513778 0.596074 0.641926 0.000001 0.062473 -0.000109
1.993017 0.626156 0.648424 0.000001 0.358896 -0.000071
1.974799 0.171851 0.198290 0.073641 0.008745 -0.006954
2.514667 0.661174 0.647979 0.030070 0.016413 0.012584
2.914167 0.708045 0.609180 -0.051734 -0.008543 -0.006655
2.261969 0.668045 0.795042 0.000001 0.798069 0.000021
2.021635 0.057555 0.079171 0.056037 -0.014228 0.011044
2.021635 1.124725 0.079171 -0.073590 0.007632 0.005631
1.768890 0.505294 0.780507 0.000000 -0.892179 0.000007
2.846112 0.670657 0.656727 0.030071 -0.008085 -0.005723
1.853526 0.446598 0.895324 0.056043 -0.002052 -0.001642
1.783456 0.794529 0.980605 -0.073592 0.005430 -0.004017
0.962032 0.529328 0.664378 -0.000000 -0.641538 -0.000016
0.540967 0.587420 0.833550 0.000041 -0.000104 0.001002
0.424127 0.521881 0.671361 0.000000 -0.715686 -0.000002
2.822343 0.416916 0.526304 0.030068 0.007911 -0.005608
1.456581 0.495332 0.742276 0.000000 -0.999680 0.000000
0.917207 0.547812 0.823293 0.000000 -0.451290 0.000007
2.701405 0.495234 0.739088 0.000000 -0.999921 0.000000
2.731863 0.646966 0.821128 -0.000001 0.625048 0.000506
0.962032 0.677020 0.780439 0.000001 0.884552 0.000003
1.903366 0.510186 0.686278 -0.000000 -0.839970 -0.000004
3.037483 0.873909 0.380482 -0.051735 0.004471 0.003618
1.724064 0.679551 0.700525 -0.000000 0.923898 -0.000011
1.540354 0.590760 0.833635 0.000039 -0.000108 0.000985
1.096508 0.672545 0.686981 0.000000 0.855235 -0.000004
0.962032 0.675568 0.692206 0.000001 0.879865 -0.000015
2.620573 0.504433 0.778730 0.000000 -0.903202 0.000013
1.888897 0.290715 1.130095 -0.096580 0.002923 0.002582
2.028326 1.139114 1.414841 -0.073588 0.007045 -0.005202
2.733853 0.454417 0.902476 0.030071 0.003846 0.002796
2.035017 0.036244 1.439390 0.073641 0.009162 0.007280
1.275810 0.560403 0.828583 0.000000 -0.311359 0.000042
1.230985 0.630634 0.825131 -0.000000 0.406102 0.000015
1.006858 0.546728 0.822744 0.000000 -0.451838 0.000027
0.768768 0.594025 0.641871 0.000000 0.025512 -0.000009
0.289651 0.509499 0.687371 -0.000000 -0.854789 -0.000008
2.065126 1.103726 1.382995 0.073641 -0.005414 0.004324
2.778033 0.675726 0.829095 0.030078 -0.003845 0.002795
2.261969 0.513514 0.794064 0.000001 -0.810807 0.000005
0.872381 0.498359 0.713385 -0.000000 -0.964606 -0.000004
2.261969 0.620289 0.829103 -0.000001 0.311165 0.000083
1.365461 0.560620 0.828654 -0.000001 -0.311182 0.000042
0.091771 0.659650 0.759216 -0.408127 0.000062 0.000018
1.966435 0.885151 0.353753 0.073641 -0.001510 -0.001209
0.289651 0.621011 0.646576 0.000000 0.311368 -0.000083
2.769728 0.693866 0.598881 0.030066 0.007183 0.006102
0.603429 0.534643 0.660206 0.000000 -0.581238 -0.000002
1.948191 0.506334 0.782535 -0.000000 -0.880222 0.000007
0.247030 0.687034 0.739999 -0.000000 0.999921 0.000000
0.872381 0.676197 0.782066 -0.000001 0.879171 0.000002
1.765290 0.493159 0.882957 -0.096581 0.005049 0.004457
2.217144 0.682203 0.767844 0.000001 0.947356 0.000002
0.332272 0.687037 0.739772 0.000000 0.999921 0.000000
1.915417 0.366137 1.041536 0.073640 0.001718 0.001375
2.719627 0.754213 0.532073 0.030069 0.007182 0.006101
0.693080 0.533668 0.814512 0.000001 -0.599878 0.000018
1.790147 0.797039 0.466755 -0.096580 -0.003966 -0.003503
0.084588 0.618083 0.674937 -0.436184 0.000024 -0.000052
3.139741 0.640179 0.737721 1.000000 0.000000 0.000000
3.139741 0.542101 0.737721 1.000000 0.000000 0.000000
0.379302 0.624169 0.827775 -0.000001 0.333831 0.000019
1.792302 0.666047 0.860810 -0.096580 -0.002609 0.002306
1.714275 0.455102 0.898372 -0.073591 -0.003009 -0.002230
1.455112 0.510801 0.685319 -0.000001 -0.821579 -0.000002
2.217144 0.635349 0.652596 0.000000 0.452231 -0.000007
0.782730 0.642711 0.818593 -0.000000 0.539668 0.000042
1.927963 0.277323 0.324474 0.073641 0.002811 -0.002249
1.914581 0.874822 1.114915 0.073639 -0.001510 0.001209
2.743661 0.726339 0.912552 0.030066 0.007183 -0.006102
1.840981 0.736231 0.894884 -0.073591 0.006164 -0.004556
1.186159 0.546728 0.652699 0.000000 -0.474006 -0.000006
1.932373 0.153719 1.277679 -0.073591 -0.003082 -0.002284
1.993017 0.496893 0.755539 0.000001 -0.866913 0.000000
2.987080 0.452446 0.921707 -0.051735 -0.003912 -0.003168
2.934351 0.630460 0.825208 -0.000001 0.405843 0.000061
2.739617 0.686982 0.740910 0.000000 0.999675 0.000000
2.396446 0.614556 0.830736 -0.000001 0.228781 0.000014
2.933139 0.448101 0.900953 -0.051736 0.008543 0.006654
2.096071 0.487861 0.868182 0.073644 0.003123 0.002499
2.902423 0.756201 0.542881 0.030069 -0.006922 -0.004945
2.979278 0.353792 0.435153 0.030068 -0.007388 0.006266
1.186159 0.496302 0.752096 0.000000 -0.990307 0.000001
0.192019 0.641804 0.656439 -0.021885 0.000974 -0.001476
2.805753 0.587344 0.641894 -0.000000 -0.025110 -0.000018
3.104368 0.794858 0.992131 -0.051736 0.011177 -0.008874
3.120447 0.719676 0.898241 -0.051735 0.015647 -0.012165
2.396446 0.519186 0.674299 -0.000001 -0.750121 -0.000024
2.766072 0.594632 0.833556 0.000000 0.025120 0.000018
1.024494 0.495251 0.736355 -0.000000 -0.999680 -0.000000
3.024001 0.661516 0.802890 0.000000 0.733449 0.000050
0.737905 0.522676 0.670546 0.000001 -0.714373 -0.000013
1.984243 0.070912 1.382894 -0.073589 -0.008806 -0.006486
2.620573 0.540400 0.819126 0.000000 -0.539577 0.000021
2.745118 0.419860 0.953932 0.030067 -0.008033 -0.006778
0.289651 0.625447 0.827292 0.000001 0.359050 0.000071
2.045053 1.020927 0.206696 0.056040 0.005746 0.004577
2.040871 0.282295 1.117335 0.056037 -0.003968 -0.003169
0.827556 0.648400 0.660770 0.000000 0.602039 -0.000018
2.306795 0.504010 0.777839 -0.000001 -0.851983 0.000002
2.051744 0.132283 0.169791 0.056038 -0.010398 0.008187
1.998217 0.350165 0.446696 0.056037 -0.002258 0.001806
2.306795 0.664093 0.675443 0.000001 0.764591 -0.000011
1.051683 0.516160 0.677906 -0.000000 -0.782697 -0.000011
2.011599 0.292024 0.372886 0.056037 -0.001984 0.001588
0.648254 0.662517 0.673644 -0.000000 0.750427 -0.000024
1.753302 0.809956 1.017903 -0.096580 -0.003653 0.003227
2.898875 0.329872 0.411440 0.030069 -0.018464 0.013744
2.643856 0.442216 0.551740 0.030069 -0.010260 0.008481
2.486921 0.670929 0.837364 0.030069 0.016414 -0.012584
2.859641 0.347156 1.042418 0.030068 -0.022155 -0.015582
3.036193 0.912901 0.335894 0.030070 0.014772 0.011581
3.036193 0.269379 1.139548 0.030069 -0.014773 -0.011581
2.957726 0.303946 1.096379 0.030069 -0.011081 -0.009081
1.877781 0.477025 0.615938 0.056037 -0.008209 0.006504
1.807688 0.889746 0.369468 -0.073591 0.009099 0.006699
2.979176 0.511132 0.790633 0.000000 -0.826680 0.000002
2.979176 0.676368 0.693716 -0.000000 0.891707 -0.000007
1.949663 0.132565 1.317914 -0.096580 0.007515 0.006623
0.379302 0.518357 0.800203 0.000000 -0.750433 0.000001
0.334476 0.526472 0.666880 -0.000000 -0.679339 -0.000007
1.410286 0.530202 0.663647 -0.000000 -0.641682 -0.000016
1.674218 0.443058 0.555871 -0.073591 -0.003009 0.002230
0.827556 0.682882 0.765710 -0.000000 0.957765 0.000004
0.558603 0.631189 0.824884 -0.000000 0.429233 0.000007
1.544763 0.505534 0.694461 0.000001 -0.863151 -0.000002
2.065126 1.108138 0.095981 0.056042 0.004104 0.003278
2.889525 0.515286 0.679006 -0.000001 -0.788858 -0.000005
0.379302 0.506766 0.692106 0.000001 -0.878281 -0.000007
1.051683 0.637955 0.654002 -0.000001 0.470441 -0.000006
1.006858 0.662316 0.802027 -0.000000 0.750433 0.000001
2.620573 0.640126 0.655254 0.000000 0.518111 -0.000022
1.589588 0.662718 0.673872 0.000002 0.748744 -0.000024
1.941344 0.935091 0.288421 0.073642 -0.005206 -0.004158
2.096071 0.486588 0.608280 0.056038 -0.004105 0.003278
2.979176 0.509066 0.688085 0.000000 -0.855142 -0.000017
1.814217 0.678676 0.820605 -0.073589 0.007339 -0.005417
2.710223 0.541959 0.820070 0.000001 -0.516444 0.000011
2.060107 0.866108 0.398687 0.056035 0.002121 0.001697
0.289651 0.662316 0.673416 0.000000 0.750473 -0.000048
1.544763 0.637090 0.653527 -0.000000 0.474175 -0.000025
1.813715 0.522994 0.805223 -0.000000 -0.716025 0.000027
2.889525 0.631050 0.650497 0.000000 0.405839 -0.000008
1.141334 0.527661 0.809625 -0.000001 -0.659245 0.000016
2.486096 0.507628 0.690543 0.000001 -0.855703 -0.000002
1.709360 0.786057 0.497081 -0.073589 0.005431 0.004017
2.820407 0.364439 0.454609 0.030068 -0.012927 0.010373
3.036193 0.269379 0.335894 0.030069 -0.014773 0.011581
2.486831 0.593266 0.833591 0.000000 0.025512 0.000017
2.351620 0.632835 0.651340 -0.000001 0.415403 -0.000007
1.589588 0.662693 0.801599 0.000001 0.750026 0.000024
1.949633 1.113574 0.085288 -0.096579 -0.006263 -0.005524
1.981430 0.029065 0.035783 -0.073590 -0.006458 0.004772
1.790650 0.266911 0.332812 -0.073590 -0.004256 0.003152
1.992029 0.015852 1.456161 -0.073592 -0.006458 -0.004772
1.621068 0.703951 0.878604 -0.096579 -0.004697 0.004147
1.737655 0.849301 0.415320 -0.096579 -0.006889 -0.006074
1.674062 0.770019 0.961112 -0.096579 -0.004071 0.003595
1.875441 0.161202 1.274643 -0.073592 -0.006164 -0.004556
1.811848 0.941797 1.175634 -0.096580 -0.002923 0.002582
1.939034 0.081920 0.101789 -0.073590 -0.008806 0.006486
2.172318 0.552202 0.650065 0.000000 -0.405993 -0.000004
2.665398 0.619856 0.829245 -0.000000 0.311397 0.000042
1.743140 0.424508 0.518065 -0.096578 0.002035 -0.001799
2.844700 0.643830 0.817876 -0.000000 0.539009 0.000003
2.934351 0.679333 0.775444 0.000000 0.923867 0.000011
0.872381 0.671869 0.685926 0.000000 0.841859 -0.000017
2.530922 0.530760 0.812252 0.000000 -0.622059 0.000017
0.962032 0.639538 0.654906 -0.000000 0.496024 -0.000024
0.468953 0.633041 0.824004 -0.000001 0.422549 0.000015
1.873181 0.764184 0.932684 0.056025 0.001540 -0.001232
0.468953 0.655446 0.666545 0.000000 0.679657 -0.000029
1.680391 0.517871 0.632881 -0.096578 0.003523 -0.003112
1.903366 0.543863 0.821177 0.000001 -0.489153 0.000012
2.844700 0.676000 0.782434 -0.000001 0.863431 0.000004
1.230985 0.503885 0.777562 0.000001 -0.913091 0.000006
1.840936 0.804868 0.450456 -0.096579 -0.007515 -0.006623
1.877781 0.681837 0.878257 0.073641 -0.004685 0.003744
2.108616 0.002638 1.472663 0.073643 0.007496 0.005972
2.108616 0.369683 0.461158 0.073641 0.006872 -0.005479
2.108616 0.193502 1.234306 0.073640 0.008745 0.006954
2.108616 1.150278 1.435993 0.073640 -0.007496 0.005972
2.985856 0.647631 0.654847 -0.051737 0.004225 0.003420
2.082668 0.498225 0.761543 -0.000000 -0.969529 0.000002
0.334476 0.674652 0.784899 -0.000001 0.868088 0.000031
2.037842 0.495709 0.728017 0.000000 -0.996073 -0.000002
2.872125 0.481399 0.858628 0.030070 0.008602 0.006062
0.037797 0.558912 0.717633 -0.619453 -0.000019 -0.000011
1.589588 0.552271 0.825408 0.000001 -0.329716 0.000005
1.589588 0.550508 0.650835 0.000001 -0.428891 -0.000057
0.244825 0.525943 0.808072 -0.000001 -0.679621 0.000059
1.051683 0.680492 0.772595 0.000000 0.933346 0.000003
1.006858 0.504531 0.778936 -0.000000 -0.903280 0.000013
1.833454 0.517680 0.861968 0.073640 0.003124 0.002499
2.396446 0.504352 0.778559 0.000003 -0.887461 0.000007
0.468953 0.551993 0.825285 -0.000000 -0.405874 0.000031
1.275810 0.675874 0.782668 -0.000001 0.880217 0.000015
1.141334 0.667748 0.795436 -0.000001 0.770093 0.000003
1.230985 0.645938 0.658991 0.000000 0.581572 -0.000038
1.186159 0.670126 0.683301 -0.000002 0.561646 -0.000002
2.686180 0.679702 0.636248 0.030068 -0.021969 -0.013005
1.976471 0.915093 1.157897 0.073639 -0.005622 0.004489
1.813715 0.675874 0.692774 -0.000001 0.880233 -0.000015
1.141334 0.618801 0.645881 0.000000 0.287176 -0.000045
1.320636 0.504710 0.779314 0.000001 -0.874094 0.000002
1.410286 0.664069 0.675414 0.000000 0.765959 -0.000006
3.047130 0.353480 1.038626 -0.051733 -0.006707 -0.005402
0.091771 0.539097 0.787191 -0.408122 -0.000050 0.000046
2.530922 0.678673 0.698505 0.000001 0.911181 -0.000006
1.455112 0.637023 0.653491 0.000001 0.470417 -0.000013
3.050346 0.813764 0.455594 -0.051736 0.004471 0.003618
2.530922 0.679406 0.775268 -0.000001 0.920760 0.000003
2.620573 0.674369 0.690049 0.000001 0.867967 -0.000016
3.002836 0.400756 0.508690 -0.051735 0.011302 -0.008717
1.813715 0.567982 0.830800 -0.000001 -0.229278 0.000014
2.665398 0.625093 0.648014 -0.000000 0.359165 -0.000142
1.813715 0.505088 0.695342 0.000000 -0.892061 -0.000003
0.917207 0.512763 0.793013 0.000000 -0.813429 0.000019
1.679239 0.677488 0.779485 -0.000000 0.903299 0.000013
1.096508 0.505363 0.780643 0.000001 -0.888812 0.000003
1.096508 0.641230 0.819519 -0.000001 0.430660 0.000003
3.010268 0.708937 0.894073 -0.051734 0.020234 -0.015308
0.513778 0.678075 0.778250 -0.000001 0.851761 0.000002
1.811848 0.941797 0.299809 -0.096581 -0.002923 -0.002582
1.828946 0.801352 0.984170 -0.073590 0.005577 -0.004125
2.127493 0.512631 0.792828 0.000000 -0.813362 0.000002
1.845999 0.516957 0.614054 0.073636 0.003124 -0.002499
2.836297 0.724848 0.582292 0.030068 -0.008602 -0.006062
2.836297 0.468703 0.902175 0.030070 -0.016063 -0.012375
3.075830 0.782240 0.496502 -0.051735 0.005589 0.004513
1.410286 0.628547 0.826045 -0.000000 0.382664 0.000016
2.172318 0.538354 0.817814 0.000000 -0.560753 0.000020
0.379302 0.666899 0.796555 0.000001 0.775702 0.000005
2.844700 0.550062 0.824395 -0.000000 -0.428967 0.000115
1.834290 0.488268 0.898599 0.073641 0.003124 0.002499
1.917837 0.108347 1.340650 -0.073590 -0.009980 -0.007336
1.634413 0.507873 0.785328 0.000000 -0.868123 0.000031
2.048398 1.176171 0.000000 0.000000 0.625050 -0.000447
2.048398 0.006109 0.000000 0.000001 -0.625048 -0.000447
0.648254 0.505980 0.693580 0.000000 -0.892179 -0.000007
2.063453 0.917348 1.141046 0.056038 0.007388 -0.005866
2.601263 0.677344 0.625503 0.030068 0.012312 0.009952
1.634413 0.541439 0.655687 0.000000 -0.518201 -0.000090
2.127493 0.679478 0.775093 0.000001 0.920761 0.000003
1.948191 0.552583 0.825547 0.000001 -0.392801 0.000008
0.513778 0.675280 0.691671 -0.000000 0.880325 -0.000015
2.002628 1.179642 1.472663 -0.000001 0.625050 0.000447
2.261969 0.547338 0.652390 0.000000 -0.450791 -0.000013
2.108616 0.384365 0.995949 0.073641 0.006872 0.005479
2.108616 0.428411 0.940944 0.073641 0.007704 0.006136
2.934351 0.671438 0.685255 -0.000000 0.841768 -0.000004
2.530922 0.496980 0.719456 0.000001 -0.981046 -0.000003
2.755049 0.644240 0.657841 0.000001 0.560295 -0.000020
3.077911 0.497625 0.616826 -0.051735 -0.020233 0.015308
2.018290 0.919327 0.335981 0.056037 0.014775 0.011441
1.858541 0.605327 0.832586 0.000001 0.138697 0.000097
0.693080 0.502700 0.774847 -0.000000 -0.923847 0.000011
1.948191 0.672299 0.686598 0.000001 0.837018 -0.000009
1.792302 0.666047 0.614633 -0.096580 -0.002609 -0.002306
2.891325 0.779851 0.980577 0.030069 0.022154 -0.015582
1.634413 0.583856 0.833368 0.000000 -0.088589 0.000612
3.081127 0.673630 0.638816 -0.051734 -0.004525 -0.003559
0.334476 0.543962 0.821233 0.000000 -0.496344 0.000095
2.441271 0.669164 0.793508 0.000000 0.813362 0.000005
3.072775 0.741605 0.553409 -0.051734 -0.007912 -0.006174
1.904126 0.443868 0.529645 0.073640 0.006950 -0.005540
0.693080 0.630668 0.650327 0.000001 0.401362 -0.000016
2.127493 0.506568 0.692473 -0.000001 -0.863431 -0.000004
0.244825 0.633384 0.823842 -0.000000 0.451290 0.000007
1.679239 0.608622 0.643410 0.000001 0.188815 -0.000142
1.634413 0.507270 0.691169 0.000000 -0.880521 -0.000002
0.917207 0.628407 0.826103 0.000001 0.382551 0.000066
0.513778 0.504254 0.778353 0.000001 -0.902512 0.000006
0.693080 0.544722 0.653779 -0.000001 -0.471988 -0.000013
2.710223 0.672545 0.686981 0.000000 0.855409 -0.000002
2.979176 0.638813 0.820951 0.000000 0.496308 0.000048
2.698020 0.502299 0.838972 0.030070 0.010987 0.007564
1.320636 0.679740 0.700981 0.000001 0.923103 -0.000006
1.724064 0.669473 0.793075 0.000001 0.812315 0.000010
1.674062 0.412261 0.961112 -0.073591 -0.005724 -0.004233
2.885158 0.686871 0.838850 0.030067 -0.008086 0.005724
1.365461 0.646061 0.659079 0.000000 0.581572 -0.000010
2.396446 0.677814 0.696643 0.000001 0.851761 -0.000002
0.513778 0.512498 0.682800 0.000000 -0.813495 -0.000005
1.006858 0.679012 0.699269 0.000001 0.913693 -0.000012
2.082668 0.644492 0.817431 0.000001 0.556765 0.000010
1.320636 0.505088 0.695342 -0.000001 -0.888786 -0.000003
0.468953 0.540016 0.656562 -0.000000 -0.539607 -0.000021
2.844700 0.680219 0.702139 0.000000 0.933229 -0.000005
2.674339 0.502856 0.636025 0.030066 0.010988 -0.007565
1.365461 0.651104 0.812583 -0.000001 0.619859 0.000009
0.424127 0.674482 0.690246 0.000000 0.868074 -0.000008
2.024980 0.242368 0.292282 0.073641 0.005206 -0.004158
2.844700 0.503438 0.776555 -0.000000 -0.913872 0.000024
1.141334 0.496049 0.725151 0.000001 -0.982834 -0.000001
1.812937 0.701861 0.571092 -0.096576 -0.001096 -0.000969
1.845924 0.291731 0.373121 -0.073590 -0.009099 0.006699
0.782730 0.674313 0.785493 -0.000001 0.867455 0.000016
2.306795 0.677570 0.779314 -0.000002 0.896818 0.000007
2.080180 0.143754 1.299792 0.073642 0.003540 0.002831
1.858541 0.496181 0.751231 0.000000 -0.990307 0.000002
3.072775 0.440675 0.922033 -0.051734 0.007912 0.006174
3.075991 0.459218 0.569379 -0.051735 -0.015646 0.012165
3.010268 0.708937 0.581369 -0.051734 0.020234 0.015308
0.618860 0.588559 0.641863 0.000070 -0.016549 -0.002049
1.903366 0.659074 0.805440 -0.000001 0.715012 0.000013
2.710223 0.538354 0.657628 0.000000 -0.560753 -0.000020
0.737905 0.675946 0.692908 -0.000000 0.880197 -0.000004
2.665398 0.510289 0.686118 0.000000 -0.841859 -0.000035
2.127493 0.678303 0.697672 0.000000 0.913900 -0.000012
2.945755 0.393286 0.993536 0.030067 -0.009235 -0.007710
2.665398 0.511430 0.791073 -0.000002 -0.561644 0.000002
2.031671 0.227300 1.201187 0.073640 0.009578 0.007606
2.172318 0.632972 0.824037 0.000001 0.351526 0.000004
2.172318 0.630495 0.650250 0.000001 0.403382 -0.000015
0.379302 0.634604 0.652218 0.000000 0.451518 -0.000027
2.037842 0.679464 0.775128 0.000000 0.923888 0.000003
2.799874 0.671684 0.789804 -0.000000 0.841888 0.000017
1.275810 0.547541 0.652287 0.000000 -0.452231 -0.000003
2.038362 0.190424 0.243601 0.056037 -0.012586 0.009834
1.455112 0.676163 0.782133 -0.000000 0.892139 0.000003
2.575747 0.615733 0.830433 -0.000001 0.262603 0.000050
2.789874 0.506276 0.828872 0.030070 0.015380 0.010037
0.558603 0.547270 0.823018 0.000000 -0.452231 0.000007
2.351620 0.643414 0.818142 -0.000000 0.536794 0.000005
1.727057 0.836088 1.043620 -0.096578 -0.003758 0.003319
0.872381 0.543566 0.821007 -0.000001 -0.496085 0.000048
1.230985 0.503237 0.699338 0.000000 -0.913828 -0.000003
1.455112 0.551091 0.824884 0.000000 -0.429233 0.000007
2.217144 0.508005 0.689884 0.000000 -0.867295 -0.000004
2.800791 0.809199 1.010041 0.030073 0.006463 -0.005519
3.068827 0.503977 0.777770 -0.030714 -0.001267 0.000601
0.827556 0.539505 0.656890 -0.000000 -0.539607 -0.000021
2.889525 0.633520 0.823773 0.000000 0.451680 0.000054
2.999540 0.817634 1.028788 -0.051735 0.006707 -0.005402
3.007579 0.780043 0.981843 -0.051734 0.011177 -0.008874
1.051683 0.543962 0.821233 -0.000000 -0.496293 0.000024
2.620573 0.551091 0.650558 0.000000 -0.428913 -0.000014
0.424127 0.559757 0.647081 -0.000001 -0.335244 -0.000077
2.799874 0.679104 0.699477 0.000000 0.911003 -0.000001
1.897794 0.973356 0.267906 -0.073592 0.003669 0.002718
2.261969 0.678950 0.699130 -0.000001 0.908585 -0.000003
0.862828 0.589166 0.641848 -0.000000 -0.025120 -0.000018
2.441271 0.677944 0.696918 0.000000 0.903203 -0.000006
1.949663 1.056163 0.162692 -0.073590 0.011154 0.008180
1.695260 0.385833 0.481327 -0.073589 -0.005431 0.004017
2.710223 0.677391 0.779691 0.000001 0.856997 0.000001
1.544763 0.504270 0.778387 0.000000 -0.903292 0.000006
1.874435 0.374105 0.487709 0.056037 -0.002394 0.001916
1.724064 0.553873 0.826103 0.000000 -0.382629 0.000066
1.758853 0.306552 0.382317 -0.073591 -0.009099 0.006699
2.530922 0.551646 0.650312 -0.000000 -0.405844 -0.000015
0.782730 0.506784 0.692072 -0.000000 -0.880372 -0.000015
2.879258 0.843766 0.422233 0.030073 0.009233 0.007709
2.889525 0.549856 0.651145 -0.000000 -0.428822 -0.000029
1.856775 0.229873 0.281223 -0.096579 0.002714 -0.002398
1.768890 0.681092 0.704407 0.000000 0.942176 -0.000002
1.051683 0.551091 0.650558 0.000000 -0.429031 -0.000057
2.793979 0.717737 0.570440 0.030068 0.016064 0.012376
1.941596 1.005287 0.230283 -0.073589 0.006458 0.004772
2.575747 0.678904 0.776417 -0.000000 0.913559 0.000006
1.237598 0.587648 0.833556 0.000000 -0.025120 0.000271
2.910101 0.687059 0.737417 0.000000 0.999921 -0.000000
1.896639 1.047506 1.307647 -0.096581 -0.004175 0.003687
1.896639 0.134774 0.167796 -0.073591 -0.011154 0.008180
2.620573 0.633994 0.823533 -0.000001 0.451476 0.000054
1.861054 0.779397 0.524849 -0.073590 0.005431 0.004017
1.768890 0.628968 0.825871 -0.000000 0.406102 0.000015
1.081812 0.687017 0.739543 -0.000000 0.999675 0.000000
2.486096 0.510657 0.789900 0.000000 -0.841586 0.000002
2.035017 0.028777 0.042032 0.056038 -0.012039 0.009426
2.035017 1.153503 0.042032 -0.073589 0.006458 0.004772
0.361665 0.495321 0.741821 0.000000 -0.999680 0.000000
2.029999 1.080314 1.341559 0.056035 0.009304 -0.007350
3.071087 0.775205 0.970669 -0.051736 0.005589 -0.004513
3.114015 0.432531 0.539645 -0.051735 -0.006707 0.005402
0.567421 0.495301 0.734381 -0.000000 -0.999680 -0.000000
2.441271 0.495804 0.748256 0.000000 -0.993505 0.000002
3.122012 0.633460 0.649842 -0.033773 0.000600 -0.001135
3.122012 0.548820 0.649842 -0.030313 -0.003094 -0.005570
1.939672 0.819998 0.467085 0.056037 0.004789 0.003821
1.963926 0.227538 1.178808 0.056038 -0.006841 -0.005438
1.813715 0.678858 0.776521 -0.000000 0.911936 0.000003
2.396446 0.554891 0.648918 -0.000001 -0.382339 -0.000033
1.813715 0.567244 0.644824 0.000001 -0.236550 -0.000028
2.665398 0.678627 0.777041 -0.000000 0.913756 0.000012
0.031687 0.623307 0.731111 -0.643448 0.000016 -0.000003
1.824727 0.318158 1.069318 -0.073589 -0.009100 -0.006699
1.727523 0.743695 0.556443 -0.073590 0.001541 0.001143
2.108616 1.120915 0.076120 0.073640 -0.009162 -0.007281
2.108616 0.032002 0.039450 0.073641 0.007496 -0.005972
2.108616 1.150278 0.039450 0.073640 -0.007496 -0.005972
2.071816 1.133475 1.419356 0.073641 -0.009162 0.007280
2.071816 0.048805 1.419356 0.073641 0.009162 0.007280
1.993199 0.960103 0.263312 0.073640 -0.004789 -0.003827
1.881963 0.463497 0.923902 0.073642 0.004685 0.003744
0.334476 0.677961 0.696952 0.000001 0.902341 -0.000013
1.963926 0.374356 0.995457 0.056038 -0.002394 -0.001916
2.065126 0.078554 0.092448 0.073640 0.005414 -0.004324
2.989000 0.479829 0.610009 -0.051733 0.006505 -0.005095
2.840024 0.826483 1.031625 0.030070 0.011081 -0.009081
1.993017 0.554715 0.826452 0.000000 -0.382684 0.000066
0.962032 0.503253 0.699303 0.000000 -0.913617 -0.000001
0.693080 0.680274 0.773162 0.000001 0.918164 0.000003
1.834290 0.488268 0.576843 0.073640 0.006247 -0.004985
2.575747 0.509440 0.687468 0.000001 -0.854189 -0.000008
3.133310 0.522750 0.823129 -0.051736 -0.008964 -0.007174
0.558603 0.630356 0.650188 -0.000001 0.401362 -0.000016
1.717283 0.710897 0.599391 -0.073592 0.007100 0.005242
3.068827 0.564752 0.829943 -0.026085 -0.000434 0.001593
0.917207 0.546728 0.652699 -0.000000 -0.474091 -0.000051
0.289651 0.507270 0.784273 0.000000 -0.868243 0.000001
1.948191 0.627845 0.826336 -0.000000 0.382051 0.000008
0.144573 0.502425 0.724131 -0.202322 -0.000174 -0.000022
1.096508 0.502758 0.700455 -0.000001 -0.923398 -0.000011
2.083526 0.099516 1.354643 0.073642 0.003123 0.002499
2.683089 0.757348 0.945287 0.030069 0.006156 -0.005268
1.728759 0.406285 0.975887 -0.096580 0.004175 0.003687
2.767913 0.750210 0.534449 0.030068 0.016064 0.012376
3.100787 0.694647 0.606403 -0.051735 0.008950 0.007163
0.424127 0.503977 0.777770 0.000000 -0.913901 0.000006
0.674709 0.588863 0.641856 0.000071 -0.002284 -0.001854
2.965812 0.469957 0.573547 -0.051734 -0.003217 0.002607
1.921690 0.497912 0.876230 0.073641 0.004685 0.003744
1.186159 0.550817 0.824754 0.000000 -0.428913 0.000029
1.948191 0.560656 0.646776 0.000000 -0.311312 -0.000042
2.593134 0.486539 0.604810 0.030070 -0.008208 0.006916
2.106183 0.687044 0.738480 -0.000000 0.999674 0.000000
0.091771 0.635091 0.794502 -0.408129 0.000043 0.000053
1.772546 0.837310 1.051669 -0.096582 -0.003444 0.003043
1.783145 0.850524 0.407272 -0.096579 -0.003549 -0.003135
1.966953 1.083765 1.347822 -0.073589 0.009980 -0.007336
1.758757 0.791705 0.495585 -0.073591 0.005430 0.004017
1.449233 0.591595 0.641810 -0.000005 0.004108 -0.000218
1.834290 0.694012 0.898599 0.073641 -0.006247 0.004984
1.881126 0.822563 0.469139 -0.073590 0.010567 0.007759
3.024001 0.628933 0.649557 -0.000002 0.268094 -0.000006
1.917926 0.662128 0.848901 0.073644 -0.004685 0.003744
1.994871 0.115109 1.321992 0.056036 -0.009304 -0.007350
2.025350 0.590836 0.641806 -0.000000 -0.025110 -0.000036
1.898690 0.771133 0.987303 0.073642 -0.003852 0.003081
1.174402 0.591292 0.641802 0.000000 0.025120 -0.000036
1.824646 0.728229 0.935897 -0.096578 -0.001096 0.000969
1.832291 0.373734 0.481988 -0.073590 -0.005137 0.003801
3.031536 0.448819 0.908270 -0.051734 0.007912 0.006174
2.806340 0.388413 0.988840 0.030069 0.007911 0.005608
0.200000 0.505020 0.695477 -0.018035 -0.000971 -0.000461
2.351620 0.551091 0.824884 0.000000 -0.429233 0.000007
1.763901 0.823170 0.441038 -0.096578 -0.003758 -0.003319
2.073489 0.180845 1.254262 0.073641 0.004373 0.003495
1.887817 0.836952 1.024873 -0.073590 0.004844 -0.003585
2.037842 0.509165 0.687923 -0.000001 -0.854189 -0.000008
1.903366 0.614593 0.644715 0.000000 0.238194 -0.000028
1.993199 0.960103 1.212130 0.073639 -0.004790 0.003827
2.518731 0.651975 0.817117 0.000001 0.624991 0.000084
0.917207 0.628968 0.649572 -0.000001 0.405848 -0.000061
2.530922 0.568572 0.830944 -0.000000 -0.238361 0.000055
2.058435 0.499621 0.627935 0.056039 -0.004105 0.003278
3.077911 0.684655 0.858616 -0.051734 0.020234 -0.015308
3.077911 0.493614 0.855404 -0.051734 0.020459 0.015023
1.864399 0.505802 0.653077 0.056037 -0.008209 0.006504
2.979176 0.555628 0.648615 0.000000 -0.358570 -0.000009
2.217144 0.502918 0.775374 0.000000 -0.921176 0.000001
2.624592 0.475392 0.879419 0.030069 0.008790 0.006184
2.441271 0.540660 0.819283 0.000000 -0.518184 0.000022
2.108616 0.252229 1.160965 0.073641 0.010411 0.008255
2.799874 0.503638 0.698436 0.000000 -0.913834 -0.000012
1.818036 0.849733 1.050749 -0.073592 0.009686 -0.007123
1.275810 0.648642 0.814489 -0.000000 0.602023 0.000009
1.929635 0.409363 0.489568 0.073641 0.003852 -0.003081
1.998217 0.376047 1.019380 0.073639 0.006872 0.005479
2.644208 0.712747 0.583003 0.030066 0.010261 0.008482
0.160254 0.683760 0.742418 -0.149023 0.000124 0.000003
2.557965 0.513021 0.838701 0.030068 -0.016415 -0.012585
1.953890 0.748622 0.952669 0.073644 -0.003852 0.003080
0.200000 0.560115 0.828489 -0.018032 -0.000361 0.001013
1.096508 0.565045 0.645419 -0.000000 -0.262913 -0.000050
2.058435 0.473928 0.879594 0.056036 -0.006157 -0.004901
1.878617 0.711249 0.560554 0.073643 -0.002343 -0.001875
2.530922 0.622451 0.647056 0.000000 0.335483 -0.000038
2.987080 0.729834 0.921707 -0.051733 0.015647 -0.012165
1.818036 0.332547 0.424694 -0.073590 -0.009686 0.007124
1.887817 0.345328 0.450569 0.056037 -0.002258 0.001806
1.966953 0.104284 0.123000 -0.096581 0.006680 -0.005891
1.939034 0.081920 1.373653 -0.073590 -0.008806 -0.006486
3.109102 0.657592 0.818650 -0.051736 -0.009064 0.007049
2.026653 0.109161 0.143168 0.056037 -0.004652 0.003712
1.824727 0.864122 0.406124 -0.073590 0.009099 0.006699
1.724064 0.575416 0.643103 0.000001 -0.160028 -0.000021
1.892417 0.722966 0.882937 0.056037 0.006157 -0.004901
1.603550 0.495267 0.739695 0.000000 -0.999680 0.000000
0.962032 0.503977 0.777770 0.000000 -0.913828 0.000003
1.962253 0.789479 1.002704 0.073639 -0.003644 0.002915
1.378688 0.495271 0.735596 -0.000000 -0.999680 -0.000000
1.858541 0.630911 0.650435 -0.000001 0.405692 -0.000031
3.044076 0.397621 0.490915 -0.051735 -0.011177 0.008874
1.768890 0.683682 0.762937 -0.000000 0.964546 0.000000
1.365461 0.551369 0.650435 0.000000 -0.405938 -0.000031
1.833454 0.664600 0.861968 0.073644 -0.003123 0.002499
1.833454 0.664600 0.613475 0.073641 -0.003124 -0.002499
1.948035 0.232121 0.270395 0.073641 0.010411 -0.008255
1.105327 0.592658 0.833606 0.000000 0.025120 0.000036
1.881126 0.382796 1.024784 0.073641 0.007288 0.005808
1.875441 1.021078 0.200799 -0.096578 -0.002296 -0.002029
3.047130 0.353480 0.436816 -0.051733 -0.006707 0.005402
2.755049 0.505174 0.695172 -0.000000 -0.892215 -0.000002
2.575747 0.678205 0.697467 0.000000 0.903498 -0.000002
0.289651 0.659763 0.804734 -0.000001 0.715897 0.000027
3.104284 0.509008 0.686114 -0.030312 -0.005160 -0.003609
2.306795 0.502540 0.700981 0.000001 -0.923651 -0.000011
2.396446 0.680219 0.773304 -0.000000 0.933163 0.000001
1.758602 0.365717 0.449289 -0.096579 0.003653 -0.003227
1.544763 0.677260 0.779965 -0.000000 0.903274 0.000003
2.191424 0.687029 0.736355 0.000000 0.999675 -0.000000
0.144573 0.604731 0.649006 -0.202329 0.000031 -0.000173
1.717283 0.710897 0.876051 -0.073592 0.007100 -0.005242
0.567421 0.686975 0.734229 0.000000 0.999674 -0.000000
0.558603 0.553034 0.649695 -0.000001 -0.392801 -0.000008
1.765290 0.473517 0.608215 -0.073591 -0.007100 0.005242
1.868262 0.310748 1.073917 -0.073592 -0.004550 -0.003368
2.670938 0.705291 0.885126 0.030073 0.005130 -0.004416
2.985472 0.737352 0.544346 -0.051736 0.003353 0.002718
2.534283 0.512464 0.637187 0.030068 -0.016415 0.012585
0.782730 0.631257 0.650591 -0.000001 0.404790 -0.000008
1.822973 0.457817 0.544052 -0.096580 0.002192 -0.001937
2.938108 0.869692 0.389856 0.030069 0.014773 0.011581
1.901199 0.337593 0.396580 0.073642 0.001614 -0.001292
1.724064 0.508988 0.688215 -0.000000 -0.854491 -0.000004
1.858541 0.674087 0.689554 -0.000000 0.867295 -0.000004
3.139741 0.667820 0.676571 -0.030357 0.001128 -0.000876
3.075749 0.368447 0.461668 -0.051734 0.004521 -0.003556
2.961596 0.420922 0.512827 -0.051736 -0.005589 0.004513
1.840936 0.377412 1.024986 -0.096580 0.007515 0.006623
2.037842 0.675298 0.691704 0.000000 0.880521 -0.000004
2.015780 0.413332 0.951438 0.056037 -0.002531 -0.002025
1.708998 0.662240 0.631144 -0.096582 -0.003523 -0.003112
1.708998 0.677513 0.832069 -0.073592 0.004953 -0.003666
1.810265 0.416313 0.938779 -0.073590 -0.002935 -0.002176
2.755049 0.549753 0.651194 -0.000001 -0.427170 -0.000014
1.006858 0.615183 0.644860 0.000000 0.262885 -0.000025
1.096508 0.644303 0.657884 0.000000 0.560975 -0.000020
2.015780 0.759530 0.516463 0.073641 -0.001926 -0.001542
2.306795 0.632012 0.650949 0.000000 0.428913 -0.000029
1.776921 0.749342 0.554947 -0.073586 0.001541 0.001143
2.942625 0.747246 0.918298 -0.051738 -0.004271 0.003361
2.070144 0.964538 0.266863 0.073641 -0.004789 -0.003827
2.070144 0.217742 1.208579 0.073640 0.004790 0.003827
1.837332 0.428146 0.967062 -0.096580 0.002088 0.001845
1.897435 0.448522 0.578578 0.056039 -0.003078 0.002461
2.058853 0.448253 0.563747 0.056038 -0.009132 0.007218
1.901199 0.865729 0.413429 -0.073592 0.004550 0.003368
2.979176 0.557400 0.827510 -0.000001 -0.358738 0.000035
0.176089 0.504068 0.775087 -0.079848 -0.000444 0.000177
3.086555 0.672817 0.789042 -0.026089 0.001434 0.000818
2.003235 1.008077 0.226498 0.056038 0.005746 0.004577
1.877781 0.705255 0.615938 0.056035 0.002052 0.001642
2.964240 0.703452 0.864631 -0.051731 -0.004272 0.003361
1.358847 0.686975 0.734229 0.000000 0.999675 -0.000000
1.867745 0.769349 0.486711 0.073640 -0.007705 -0.006136
2.755049 0.556620 0.827210 -0.000001 -0.359039 0.000071
1.186159 0.677055 0.780372 -0.000001 0.842419 0.000002
1.475687 0.590533 0.833629 0.000021 -0.000337 0.000656
0.070564 0.538070 0.708265 -0.491023 -0.000041 -0.000021
2.977342 0.295304 0.368271 0.030070 -0.022154 0.015582
3.056455 0.904051 1.126442 -0.051734 -0.009042 0.007032
1.955562 0.403353 0.958493 0.056036 -0.002531 -0.002025
0.334476 0.560909 0.646694 0.000000 -0.311423 -0.000166
1.930472 0.501356 0.641592 0.056039 -0.003078 0.002461
1.903366 0.496217 0.723948 0.000000 -0.990307 -0.000000
0.099058 0.517614 0.752831 -0.379672 -0.000073 0.000013
1.966953 1.077996 0.123000 -0.096580 -0.006680 -0.005891
2.066798 0.250397 0.315944 0.056038 -0.006841 0.005438
2.807012 0.469592 0.597393 0.030069 0.017201 -0.010945
0.121474 0.533636 0.677227 -0.292255 -0.000078 -0.000078
3.104284 0.494750 0.748582 -0.030312 -0.006281 0.000345
1.778920 0.546368 0.650685 -0.096579 0.005219 -0.004607
1.845924 0.880028 1.110747 -0.096579 -0.003131 0.002767
1.981490 1.025496 1.295179 0.073638 -0.003957 0.003164
1.765290 0.708763 0.867228 -0.073588 0.007100 -0.005242
2.127493 0.550954 0.650624 -0.000001 -0.422390 -0.000015
1.296386 0.495244 0.736658 0.000000 -0.999680 -0.000000
1.845924 0.880028 0.364696 -0.096579 -0.006263 -0.005524
1.890744 0.462911 0.878295 0.056036 -0.003079 -0.002462
1.684383 0.495313 0.733926 -0.000000 -0.999680 -0.000000
1.320636 0.622666 0.828310 0.000000 0.335317 0.000038
1.955562 0.763400 0.504516 0.073640 -0.003852 -0.003081
2.082668 0.557542 0.827564 0.000000 -0.359045 0.000035
1.499937 0.522331 0.804543 0.000002 -0.626491 0.000004
2.076835 1.030992 0.184664 0.073641 -0.003956 -0.003164
1.822447 0.227270 1.192135 -0.073591 -0.007925 -0.005845
1.883598 0.282558 0.365420 -0.073592 -0.004256 0.003152
2.108616 0.709824 0.885938 0.073644 -0.003123 0.002499
1.907238 1.060719 0.151294 -0.096580 -0.007932 -0.006988
1.709515 0.427021 0.538621 -0.073591 -0.002862 0.002121
1.813715 0.501570 0.772028 0.000001 -0.855805 0.000001
1.867745 0.412931 0.486711 0.073641 0.007704 -0.006136
2.911264 0.395520 0.973805 0.030067 0.011866 0.008091
1.852690 0.475925 0.858625 0.056038 -0.004105 -0.003278
3.122012 0.688065 0.748642 -0.057182 0.000758 0.000009
0.737905 0.501351 0.703981 -0.000002 -0.656271 -0.000001
0.424127 0.500959 0.705050 0.000000 -0.941989 -0.000005
0.152391 0.666130 0.685527 -0.171921 0.000179 -0.000118
3.139741 0.574109 0.834308 -0.036753 -0.000190 0.001164
1.693280 0.470316 0.594980 -0.073589 -0.007100 0.005242
2.933139 0.734179 0.574489 -0.051733 -0.008544 -0.006655
1.631667 0.465115 0.895106 -0.073590 -0.006605 -0.004879
2.787529 0.418920 0.948175 0.030068 0.008900 0.006255
2.486096 0.631532 0.824721 -0.000002 0.296859 0.000005
3.053401 0.324375 0.401495 -0.051734 -0.008942 0.007157
1.499937 0.686329 0.749538 -0.000000 0.989581 0.000000
2.755049 0.501774 0.772560 0.000000 -0.932841 0.000005
1.768890 0.622845 0.647196 0.000001 0.335105 -0.000038
2.713220 0.466604 0.576492 0.030066 -0.003079 0.002675
1.646485 0.667608 0.826458 -0.073592 0.006605 -0.004879
1.976890 0.527764 0.643014 0.073642 0.004685 -0.003744
0.121474 0.586913 0.821078 -0.299649 -0.000001 0.000054
2.870419 0.587041 0.641902 -0.000000 -0.025512 -0.000035
3.075749 0.811829 1.015379 -0.051735 0.004471 -0.003618
1.320636 0.602014 0.642424 0.000001 0.113588 -0.000119
