2.429134 0.830120 0.570835 -0.000000 0.477498 -0.000008
1.897339 0.101897 0.089619 -0.059062 -0.014992 0.016392
1.665474 0.642470 0.761142 -0.059062 -0.006851 -0.007676
1.639762 0.682878 0.584342 -0.059065 -0.003296 0.003712
1.526865 0.824892 0.743544 -0.000000 0.432116 0.000036
1.940861 1.457030 0.085632 0.059086 -0.012368 -0.014463
1.367642 0.695983 0.698866 -0.000001 -0.900185 0.000004
1.049194 0.825671 0.743171 0.000000 0.432109 0.000073
1.579940 0.739488 0.742662 0.000000 -0.456294 0.000034
2.019129 0.189278 1.152949 0.059087 0.007038 0.008348
1.992315 1.326245 0.203726 0.073251 0.003527 0.004208
1.801717 0.971709 0.792915 -0.059064 0.009565 -0.010650
1.971299 0.166250 1.167645 0.073251 -0.011353 -0.013403
1.939774 0.592168 0.821803 0.059085 0.003892 0.004640
1.712510 0.926635 0.760006 -0.059061 0.006851 -0.007677
1.903901 0.380610 0.310018 0.059085 0.005652 -0.006721
1.930715 1.103508 0.930899 0.059086 -0.013008 0.015176
3.538593 0.939112 0.772193 0.000000 -0.641901 0.001843
1.977096 1.420440 0.126330 0.073251 0.011353 0.013403
1.675561 1.191113 0.997410 -0.047632 -0.017185 0.020236
0.624597 0.826849 0.742587 -0.000000 0.456414 0.000017
1.845313 0.813492 0.748119 0.000000 0.306452 0.000108
1.907524 0.945948 0.781484 0.073253 0.001656 -0.001978
2.747581 0.828020 0.569705 -0.000000 0.455971 -0.000009
1.919120 1.019977 0.449825 0.059085 -0.007358 -0.008722
1.885069 1.444675 0.106043 -0.059061 0.014992 0.016392
1.895204 0.411935 0.954685 0.073251 -0.004903 -0.005844
3.497663 0.669164 0.736962 0.000000 0.641901 0.000539
0.972150 0.780959 0.752946 0.000000 -0.027184 0.000021
1.639762 0.883312 0.727350 -0.059060 0.003297 -0.003713
1.208418 0.821526 0.745080 0.000000 0.407349 0.000005
3.012954 0.690910 0.625175 -0.000001 -0.939586 -0.000001
1.951462 0.878380 0.636893 -0.000001 0.978960 -0.000007
3.283613 0.678029 0.582151 0.000000 0.641901 -0.000504
0.253075 0.738756 0.742287 -0.000001 -0.456383 0.000136
0.229105 0.685972 0.658395 0.000000 -0.999915 0.000000
2.269910 0.809601 0.562379 0.000001 0.280221 -0.000060
1.420716 0.697030 0.610775 0.000000 -0.889814 -0.000009
2.269910 0.876078 0.627683 -0.000001 0.958012 -0.000003
3.569382 0.784411 0.558706 0.000000 0.013547 -0.002660
3.289887 0.895495 0.547493 -0.000000 0.641901 0.000504
3.247510 0.784740 0.558710 0.000004 0.003101 -0.000363
1.420716 0.774555 0.559071 -0.000000 -0.094587 -0.000092
2.906805 0.692559 0.691078 0.000001 -0.927249 0.000002
3.548837 0.880115 0.650750 0.000000 0.999630 -0.000000
0.677671 0.698560 0.607957 -0.000001 -0.843027 -0.000003
3.337314 1.031795 0.451216 0.047956 -0.005853 -0.005802
0.306149 0.757103 0.562229 0.000000 -0.280557 -0.000015
1.759686 0.309355 1.049028 -0.059062 -0.012667 -0.013970
0.068816 0.741619 0.699632 -0.500665 -0.000034 0.000034
1.835416 0.996086 0.495142 0.073252 0.006279 0.007474
2.800656 0.695948 0.612900 -0.000001 -0.900325 -0.000008
0.343815 0.685951 0.656832 0.000000 -0.999910 0.000000
1.994127 0.991668 0.479313 0.059086 -0.007358 -0.008722
2.110686 0.740817 0.743313 0.000001 -0.428948 0.000009
0.412298 0.824781 0.743598 0.000000 0.432071 0.000036
3.331402 0.695965 0.612863 0.000001 -0.900609 -0.000008
0.783821 0.692221 0.690195 0.000000 -0.933931 0.000007
0.571522 0.735422 0.571190 0.000001 -0.479485 -0.000016
3.384477 0.692901 0.691960 0.000000 -0.923578 0.000004
0.148668 0.861636 0.703102 -0.189043 0.000191 0.000122
2.376059 0.695539 0.613753 0.000001 -0.901177 -0.000008
1.865571 1.314670 0.203967 -0.047631 -0.006334 -0.007858
1.821076 0.365607 0.994302 -0.059062 -0.006851 -0.007676
0.157131 0.705880 0.708199 -0.156124 -0.000235 0.000151
3.178443 0.912159 0.774584 0.047956 0.004724 -0.006757
1.654812 0.633194 0.521771 -0.047635 0.007991 -0.009865
0.730746 0.826922 0.569142 0.000000 0.456321 -0.000068
1.845313 0.695219 0.697272 -0.000000 -0.901717 0.000017
2.019129 1.397686 0.141353 0.059085 -0.012368 -0.014463
2.736453 0.780548 0.752935 0.000000 -0.026841 0.000084
2.588358 0.736612 0.741153 0.000000 -0.480200 0.000032
3.483576 0.675196 0.579779 -0.000000 0.641902 -0.001843
3.498510 0.619119 0.778856 -0.000000 0.641902 0.001843
3.498510 0.933035 0.516068 -0.000000 0.641902 0.001843
3.567433 0.641044 0.522671 -0.000000 -0.641902 0.001078
3.567433 0.939183 0.539439 -0.000001 -0.641901 -0.001078
2.482208 0.872078 0.616852 0.000000 0.913175 -0.000008
1.892305 1.133620 0.374559 0.073252 0.005247 0.006252
2.019129 1.148413 0.961665 0.059084 -0.005652 0.006721
2.906805 0.826886 0.742568 -0.000001 0.456023 0.000034
2.959880 0.869986 0.612385 0.000000 0.889376 -0.000009
1.792238 0.826630 0.742699 -0.000000 0.456280 0.000017
0.465373 0.866843 0.606608 0.000001 0.863729 -0.000041
1.686089 0.824633 0.743669 -0.000000 0.432110 0.000073
3.382952 0.569447 0.845392 0.047955 -0.004724 -0.006757
3.512417 0.891066 0.579719 -0.000001 -0.641899 -0.000539
3.384477 0.826557 0.568955 0.000001 0.454622 -0.000017
3.331402 0.869799 0.612019 -0.000000 0.889771 -0.000018
3.261974 0.997125 0.838582 0.047957 0.004526 -0.006477
1.155343 0.698282 0.703231 0.000000 -0.877045 0.000019
0.646854 0.786876 0.752901 0.000000 0.027184 0.000041
3.658591 0.739719 0.745917 -0.049668 -0.000527 0.000982
3.458428 0.940994 0.802288 -0.000000 0.641901 -0.001843
3.458428 0.611159 0.526172 0.000001 0.641902 -0.001843
3.485936 0.601138 0.489264 -0.000001 -0.641900 0.000494
3.437551 0.830480 0.740659 0.000000 0.480248 0.000032
1.799724 0.909485 0.571058 0.073255 0.003656 0.004361
2.959880 0.872011 0.694990 0.000001 0.911890 0.000008
0.553545 0.686047 0.651819 0.000004 -0.243665 -0.000000
1.936513 1.145274 0.965414 0.059084 -0.012156 0.014224
3.054045 0.786629 0.752908 0.000000 0.026821 0.000021
1.879272 0.146088 0.118894 -0.047632 0.009047 -0.011125
1.791413 1.108176 0.938218 -0.047631 -0.004675 0.005823
1.752796 1.135821 0.353743 -0.047632 -0.017486 -0.020549
0.518448 0.736143 0.740896 0.000000 -0.480248 0.000032
3.331402 0.738427 0.569574 -0.000000 -0.456313 -0.000034
1.865491 1.184121 1.003417 0.059086 -0.005652 0.006721
3.328270 0.617272 0.808921 0.000000 -0.641901 -0.001007
3.562030 1.146436 0.960010 0.047955 0.012068 -0.016823
3.548711 1.075829 0.890208 0.047955 -0.011215 0.010906
3.548711 0.490362 0.890208 0.047955 0.011215 0.010906
3.305991 0.975441 0.806170 0.047957 -0.005853 0.005802
3.331825 0.975598 0.484001 0.047957 0.004724 0.006757
2.482208 0.873559 0.691270 0.000000 0.933582 0.000007
0.091606 0.711021 0.648007 -0.411506 -0.000078 -0.000011
2.019129 1.086095 0.909496 0.059087 -0.013008 0.015176
3.278328 0.824262 0.567845 0.000000 0.432071 -0.000018
0.996119 0.694381 0.695440 0.000000 -0.913273 0.000002
2.216835 0.802451 0.751047 0.000000 0.201483 0.000021
3.173267 0.884810 0.556438 -0.000001 0.641901 0.000504
3.490626 0.740446 0.568556 0.000000 -0.432071 -0.000036
2.394892 0.782109 0.558715 -0.000000 -0.027184 -0.000041
3.594197 0.473674 0.924379 -0.100926 -0.006922 -0.008323
2.285319 0.685969 0.656996 -0.000000 -0.511827 0.000000
3.119104 0.871961 0.695102 -0.000000 0.912254 0.000004
2.482208 0.695752 0.613308 -0.000001 -0.892364 -0.000004
3.053010 0.662833 0.751174 0.047957 0.011215 0.010906
1.314567 0.741707 0.567952 -0.000000 -0.432071 -0.000036
2.853731 0.742675 0.567500 0.000000 -0.407349 -0.000020
1.633015 0.874539 0.623039 -0.000001 0.942529 -0.000006
3.570097 0.689018 0.562831 -0.000000 -0.641902 0.001078
3.283613 0.888162 0.729541 0.000000 -0.641901 0.000504
2.004537 0.693121 0.619200 0.000000 -0.923837 -0.000007
1.069739 0.685986 0.654038 0.000000 -0.999630 -0.000000
0.412298 0.820273 0.566092 0.000000 0.382736 -0.000042
1.947383 1.390682 0.154088 0.073252 0.006365 0.007575
0.482494 0.787205 0.558799 0.000000 0.027184 -0.000041
1.844942 0.304989 1.046157 -0.059063 -0.005946 -0.006673
1.579940 0.821713 0.744996 0.000000 0.407349 0.000010
1.049194 0.738756 0.742287 0.000000 -0.456758 0.000008
0.518448 0.718094 0.583638 0.000000 -0.677708 -0.000009
1.930715 0.475928 0.904517 0.073249 -0.005591 -0.006660
1.965501 1.337896 1.115150 0.073251 0.007053 -0.008387
3.445853 0.987050 0.499368 0.000000 -0.641901 -0.000494
1.732247 1.207349 1.007323 -0.059064 0.006851 -0.007676
1.742152 0.698141 0.705722 -0.059062 -0.009307 -0.010370
1.874912 1.039070 0.430429 0.059085 -0.014713 -0.017057
1.744019 0.592408 0.483740 -0.047633 0.005579 -0.006936
1.261492 0.871743 0.695590 0.000000 0.913273 0.000002
1.367642 0.824929 0.568165 0.000000 0.432071 -0.000036
0.783821 0.816367 0.747126 -0.000000 0.332706 0.000012
3.437551 0.693042 0.619390 0.000000 -0.923788 -0.000004
3.066029 0.773327 0.559187 -0.000000 -0.094597 -0.000184
1.982894 1.461712 1.220467 0.073253 0.009977 -0.011810
1.982894 0.104479 0.091225 0.073252 -0.009977 0.011810
0.996119 0.879059 0.640697 -0.000001 0.825349 -0.000000
1.783183 0.556036 0.828466 -0.059062 -0.004524 -0.005088
1.747950 0.870162 0.566289 -0.047631 -0.010856 -0.013249
1.473791 0.821789 0.744962 -0.000001 0.407424 0.000078
2.175745 0.782602 0.752990 0.000000 -0.027184 0.000021
1.871289 0.348489 0.306185 0.073251 -0.009117 0.010808
2.853731 0.691133 0.687179 0.000000 -0.943278 0.000006
1.261492 0.696580 0.611653 0.000001 -0.889227 -0.000009
0.200000 0.826264 0.568805 -0.023115 0.000448 -0.000873
3.553360 0.456952 0.378068 0.047957 -0.009051 0.012785
3.553360 1.109239 0.378068 0.047956 0.009052 0.012785
1.795919 0.951209 0.536493 -0.059063 0.009565 0.010650
1.748883 0.948296 0.535357 -0.059062 0.013700 0.015054
3.148209 0.880169 0.658969 0.000000 0.999630 0.000000
1.727272 0.545768 0.469701 -0.059061 -0.002262 0.002550
3.664933 1.117335 0.935648 -0.100923 0.003461 -0.004169
3.402079 0.930901 0.765319 0.000000 -0.641901 0.000720
3.430920 0.635218 0.765379 0.000000 0.641902 0.000720
1.797548 0.448206 0.946430 -0.047634 0.004373 0.005450
1.745171 0.500305 0.430810 -0.059063 -0.002133 0.002404
1.780990 1.296514 1.082521 -0.059063 0.005817 -0.006530
1.815279 0.396410 0.322797 -0.047631 0.008143 -0.010046
3.119104 0.869574 0.611580 0.000000 0.889772 -0.000018
2.684234 0.880195 0.657983 0.000000 0.999630 0.000000
1.133086 0.780959 0.752946 0.000000 -0.027184 0.000041
2.779255 0.686011 0.653134 0.000000 -0.999640 -0.000000
3.088565 0.680677 0.580803 0.047958 0.005608 -0.005562
3.637986 0.876572 0.688555 -0.045404 0.004797 0.001374
0.412298 0.694988 0.696790 0.000000 -0.901319 0.000004
1.892305 1.122822 0.950031 0.059085 -0.006505 0.007724
1.972929 0.880546 0.732999 0.073251 0.007311 -0.008691
1.888682 1.279199 0.253036 -0.059062 0.005817 0.006530
1.815279 1.169781 0.322797 -0.047631 -0.016281 -0.019286
1.845924 0.892560 0.760852 0.059085 -0.008211 0.009715
1.865491 1.184121 0.308275 0.059086 -0.005652 -0.006721
1.801717 0.594482 0.518777 0.073250 -0.006623 0.007880
0.253075 0.720260 0.581743 0.000002 -0.439308 -0.000004
0.200000 0.742300 0.567668 -0.023116 -0.000424 -0.000884
3.490626 0.872377 0.694163 0.000000 0.923872 0.000029
1.888682 0.298098 0.239769 0.059085 0.004799 -0.005714
1.974922 1.088179 0.404685 0.073250 0.005247 0.006252
1.886508 0.453071 0.392275 0.073251 -0.005247 0.006252
3.066029 0.874294 0.622341 0.000000 0.943201 -0.000006
0.140265 0.787954 0.745463 -0.170252 0.000010 0.000119
1.755952 1.017851 0.837443 -0.059065 0.004524 -0.005088
1.598474 0.868564 0.735002 -0.047631 -0.007690 0.009503
1.820922 0.636933 0.759217 0.073251 -0.006623 -0.007880
3.262919 0.787205 0.752892 0.000000 0.027184 0.000021
1.830865 0.241870 1.103231 -0.059062 -0.010599 -0.011768
2.057611 0.725521 0.577595 -0.000001 -0.587366 -0.000006
3.570097 0.891210 0.579599 0.000000 -0.641902 -0.001078
1.833009 0.344615 1.031359 -0.047631 0.007540 0.009321
1.633015 0.691897 0.689350 0.000000 -0.943258 0.000002
1.957529 0.710936 0.590684 0.059086 0.009064 -0.010702
0.518448 0.873164 0.692263 0.000001 0.859939 0.000001
0.253075 0.870005 0.612421 0.000001 0.888691 -0.000009
2.975149 0.687696 0.739273 0.047957 -0.009051 -0.012785
1.915496 0.319415 1.034081 0.073252 -0.008429 -0.010004
3.357054 0.879467 0.750781 0.000000 0.641901 -0.001259
3.372185 0.686723 0.560910 0.000000 -0.641901 0.000630
3.372185 0.879467 0.560910 -0.000000 0.641902 0.001259
0.715337 0.880160 0.659298 -0.000000 0.999621 0.000000
0.624597 0.749591 0.747044 0.000000 -0.357570 0.000046
2.535283 0.856064 0.719983 0.000000 0.753327 0.000015
1.909698 1.206573 0.292892 0.059086 -0.011302 -0.013262
1.657949 0.683864 0.749629 -0.047632 0.007992 0.009865
3.445853 0.579141 0.499368 0.000001 0.641897 -0.000494
3.485936 0.965053 0.489264 0.000000 0.641902 0.000988
3.458428 0.955031 0.526172 -0.000001 -0.641902 -0.001843
1.473791 0.871131 0.614754 -0.000000 0.901852 -0.000008
1.906800 1.196077 1.010237 0.059088 -0.005652 0.006721
1.575791 0.995797 0.832135 -0.059063 0.001648 -0.001858
1.575791 0.995797 0.479557 -0.059064 0.003296 0.003712
3.490626 0.868857 0.610192 0.000000 0.871451 -0.000002
3.679196 0.691203 0.614149 -0.048199 -0.001052 -0.000461
1.788932 0.342606 0.294456 -0.059062 -0.013700 0.015055
3.311293 0.649327 0.782087 0.000000 -0.641903 -0.000504
0.802654 0.880162 0.659216 0.000000 0.999621 0.000000
3.443494 0.884917 0.755344 0.000003 0.641896 -0.000720
1.807000 0.308534 0.253093 -0.047633 0.006936 -0.008591
1.773682 0.509810 0.895754 -0.047632 0.004976 0.006195
1.659091 0.555118 0.839092 -0.059059 -0.002359 -0.002659
1.889437 0.183314 1.150514 -0.059063 -0.004395 -0.004944
1.665474 0.912676 0.774336 -0.047632 -0.007992 0.009865
2.918790 0.780959 0.558746 0.000000 -0.027184 -0.000021
1.155343 0.859125 0.595364 0.000000 0.787828 -0.000027
1.738382 0.349033 0.296157 -0.059062 -0.006851 0.007676
1.647030 1.048638 0.873350 -0.059062 0.002230 -0.002513
0.391753 0.783095 0.558688 0.000000 0.013593 -0.000663
3.372185 0.672686 0.734013 0.000000 0.641902 0.000630
1.686739 0.448447 0.931478 -0.059061 -0.004201 -0.004727
1.992677 0.587906 0.494980 0.073252 -0.003140 0.003747
1.992677 0.957512 0.799322 0.073251 0.003140 -0.003747
1.915407 0.064864 0.051794 -0.047633 0.013267 -0.015999
1.915407 0.064864 1.259897 -0.047634 0.013267 0.015998
1.509813 0.689913 0.575938 -0.047630 0.010254 -0.012547
0.140265 0.694529 0.670366 -0.221746 -0.000183 0.000025
3.458097 0.880124 0.660613 0.000000 0.999630 0.000000
1.261492 0.805423 0.750395 -0.000000 0.228146 0.000149
3.650958 0.882001 0.742208 -0.100927 0.005262 -0.006333
1.526865 0.872346 0.694239 -0.000000 0.923890 0.000014
1.921205 1.522320 1.277024 -0.047634 -0.013267 0.015998
1.859774 0.272514 0.221093 -0.047632 0.006333 -0.007858
1.888682 1.268093 1.071922 0.059086 -0.004799 0.005714
0.076275 0.816414 0.711222 -0.471461 0.000030 0.000048
2.355514 0.685975 0.657243 0.000004 -0.250527 0.000000
1.953906 1.270571 1.068962 0.059086 -0.009597 0.011316
1.845313 0.771122 0.559437 0.000000 -0.121555 -0.000143
0.807790 0.784000 0.558700 0.000000 0.013767 -0.000020
1.781966 0.685946 0.656175 0.000008 -0.066702 0.000000
1.350521 0.782109 0.752977 0.000000 -0.027184 0.000041
1.935063 0.130154 1.208933 0.059086 0.012368 0.014463
3.637986 0.730406 0.571991 -0.045405 -0.002889 -0.004063
3.378091 0.938234 0.799976 0.000003 0.641893 -0.000630
3.437551 0.818213 0.565265 0.000000 0.357513 -0.000182
1.824907 1.037170 0.883532 0.059086 -0.014713 0.017057
0.157131 0.817626 0.569181 -0.156129 0.000110 -0.000257
0.943045 0.744703 0.745096 0.000001 -0.407459 0.000039
1.641272 0.477529 0.398228 -0.047631 0.002488 -0.003110
1.982894 1.461712 0.091225 0.073254 0.009977 0.011809
1.972007 0.783260 0.558692 0.000000 0.027193 -0.000041
3.378091 0.938234 0.511715 -0.000001 0.641901 0.001259
1.903901 0.390997 0.992979 0.059085 0.005652 0.006721
2.535283 0.851207 0.586571 -0.000001 0.694791 -0.000009
1.579940 0.694850 0.696491 0.000001 -0.912534 0.000008
3.174257 0.601836 0.804019 0.047957 0.005853 0.005802
3.137126 0.945489 0.795355 0.047958 0.004724 -0.006757
3.337314 0.534396 0.860475 0.047957 0.005853 0.005801
0.174196 0.692408 0.625289 -0.089815 -0.000477 -0.000147
1.830705 1.074206 0.430197 -0.059063 0.004201 0.004727
1.848823 0.638248 0.550903 0.073253 -0.006623 0.007880
1.986517 1.274587 0.247526 0.073251 0.003871 0.004618
1.903137 1.484793 1.239788 -0.059063 0.012925 -0.014243
1.871886 1.505011 0.051507 -0.047631 -0.015076 -0.017992
1.942310 1.187040 0.311761 0.059085 -0.005652 -0.006721
0.836895 0.854300 0.721936 0.000001 0.734855 0.000016
1.941586 0.196008 1.139887 0.073253 -0.006365 -0.007575
2.482208 0.746108 0.745679 0.000000 -0.382729 0.000042
0.253075 0.803378 0.560835 -0.000000 0.201672 -0.000170
1.574182 0.608760 0.798247 -0.059062 -0.006593 -0.007390
1.574182 0.957431 0.513444 -0.059061 0.006593 0.007390
0.083875 0.786814 0.587255 -0.449218 0.000001 -0.000032
1.900277 0.256112 1.106175 0.059085 0.004372 0.005209
1.717077 0.392227 0.986243 -0.047631 0.008595 0.010587
3.147433 0.692066 0.565383 -0.000001 -0.641900 0.001007
1.845313 0.764142 0.751130 0.000001 -0.201693 0.000170
2.501041 0.880204 0.654038 0.000000 0.999621 -0.000000
3.675306 0.635665 0.532427 -0.100923 -0.005192 0.006249
3.597039 0.676669 0.734244 -0.100926 0.005389 0.006372
3.437551 0.747020 0.565636 -0.000000 -0.382734 -0.000084
3.597039 0.878994 0.746820 -0.100926 0.005333 -0.006418
1.984848 0.685940 0.655764 0.000000 -0.999621 -0.000000
1.587912 0.938868 0.790527 -0.047642 -0.001922 0.002404
3.405771 0.980973 0.475937 0.000003 0.641896 0.000720
2.305008 0.784328 0.558721 0.000000 0.026821 -0.000042
3.331402 0.841000 0.733852 -0.000000 0.594112 0.000012
3.591764 0.581675 0.813767 -0.100926 0.002694 0.003189
2.906805 0.874376 0.622574 0.000000 0.943030 -0.000002
1.898388 0.839777 0.576935 0.000000 0.594369 -0.000094
0.306149 0.692426 0.620959 -0.000001 -0.933797 -0.000013
1.847841 1.271451 1.055015 -0.059060 0.005947 -0.006674
1.814565 1.355810 0.179254 -0.059062 0.005300 0.005954
3.498510 0.633156 0.516068 0.000001 -0.641902 0.001843
3.458428 0.625196 0.802288 -0.000000 -0.641901 -0.001843
1.790121 0.911212 0.780774 0.059084 -0.004532 0.005398
1.753551 1.247027 0.270876 -0.059062 0.006334 0.007104
3.679196 0.732712 0.653161 1.000000 0.000000 -0.000000
1.835908 1.232072 1.039922 -0.047631 -0.007540 0.009321
1.835908 1.232072 0.271769 -0.047632 -0.007540 -0.009321
1.871706 1.324479 1.115937 -0.047630 -0.005730 0.007121
1.521729 0.685951 0.655353 0.000000 -0.999630 -0.000000
0.763276 0.785890 0.558764 0.000000 0.027184 -0.000041
3.650958 0.684189 0.742208 -0.100926 -0.005263 -0.006333
1.739164 0.823891 0.567668 0.000000 0.432071 -0.000009
1.772868 0.586565 0.802215 -0.059062 -0.009565 -0.010651
3.637986 0.684684 0.644758 -0.045404 -0.004937 -0.000276
0.342103 0.778329 0.752875 0.000000 -0.027193 0.000021
3.066029 0.873070 0.692491 0.000000 0.923700 0.000007
1.225539 0.784575 0.752964 -0.000000 0.027184 0.000010
2.322985 0.712336 0.722420 0.000000 -0.735243 0.000032
2.110686 0.879871 0.647306 -0.000000 0.995515 -0.000003
3.202996 0.784575 0.558708 0.000000 0.013772 -0.000164
1.790121 0.635481 0.554209 0.073253 -0.003656 0.004362
3.498510 0.947072 0.778856 0.000001 -0.641902 0.001843
2.019129 1.127640 0.367416 0.059085 -0.012155 -0.014224
3.158482 0.686042 0.659709 -0.000000 -0.511827 0.000000
3.345983 0.645974 0.555317 0.000000 0.641902 -0.000630
3.354104 0.592551 0.510594 0.000000 0.641901 -0.000630
0.824055 0.780383 0.752930 -0.000002 -0.019180 0.000117
1.972023 1.032373 0.868160 0.059087 -0.006931 0.008224
1.848933 0.206318 1.142824 -0.047631 0.005730 0.007121
1.813312 1.012708 0.828347 -0.059062 0.009048 -0.010089
1.309431 0.685973 0.657161 0.000000 -0.999630 0.000000
2.413725 0.880213 0.657325 0.000000 0.999630 0.000000
0.641718 0.880151 0.659626 0.000000 0.999630 0.000000
3.571429 0.713005 0.728780 -0.003241 -0.137160 0.002756
3.543701 0.686582 0.644729 -0.000001 -0.992316 -0.000004
1.577101 0.890508 0.573008 -0.059059 0.004395 0.004944
2.269910 0.724233 0.578550 0.000002 -0.579662 -0.000006
1.988329 0.859047 0.595215 -0.000000 -0.766788 0.000105
1.904625 0.640879 0.547760 0.073251 -0.006623 0.007880
2.019129 0.899140 0.752991 0.059087 -0.009064 0.010702
1.988329 0.644826 0.543046 0.073253 -0.006623 0.007880
1.328264 0.880222 0.656996 -0.000000 0.999630 0.000000
1.926729 0.691334 0.571897 0.059085 0.008211 -0.009715
0.730746 0.742825 0.567433 0.000000 -0.407349 -0.000020
1.874912 0.527121 0.430429 0.059086 0.007358 -0.008722
1.909698 0.350300 1.007670 0.073250 -0.004559 -0.005436
1.980720 0.377692 0.313505 0.059086 0.005652 -0.006721
3.388756 1.074771 0.900017 0.047956 0.009052 -0.012785
3.388756 0.491420 0.900017 0.047955 -0.009052 -0.012785
3.349691 0.529277 0.446931 0.047957 0.011215 -0.010906
1.473791 0.742300 0.567668 0.000000 -0.432366 -0.000018
0.253075 0.873321 0.691884 0.000003 0.552068 0.000002
1.607776 0.933261 0.524431 -0.047632 -0.007992 -0.009865
1.704390 0.531211 0.437266 -0.047631 0.002601 -0.003251
1.980720 1.160610 0.343495 0.073253 0.004903 0.005844
1.980720 0.405581 0.343495 0.073252 -0.004903 0.005844
1.915496 1.246776 0.277611 0.073251 0.008429 0.010004
2.019129 1.480777 0.071795 0.059087 -0.008957 -0.010579
2.019129 1.522322 0.037016 0.059085 -0.007251 -0.008598
1.876724 0.926627 0.762360 0.073251 0.006623 -0.007880
1.888682 0.298098 1.071922 0.059085 0.004799 0.005714
1.977821 0.440120 0.946150 0.059086 0.012155 0.014223
1.953906 0.316392 1.051573 0.059086 0.009597 0.011316
3.511895 0.490908 0.404117 0.047956 -0.004724 0.006757
3.511895 1.075283 0.404117 0.047956 0.009447 0.013323
3.679196 0.722916 0.574844 -0.046101 -0.000729 -0.000954
0.508175 0.686053 0.660120 0.000000 -0.999630 0.000000
1.622826 0.993960 0.475017 -0.047632 -0.005579 -0.006936
1.622826 0.567480 0.480693 -0.059062 -0.004783 0.005377
1.904625 0.650628 0.775577 0.059085 0.008211 0.009715
1.607677 0.674521 0.737296 -0.059062 -0.006593 -0.007390
1.186161 0.783260 0.558690 0.000000 0.013767 -0.000082
1.782717 1.076687 0.399163 -0.047632 -0.004675 -0.005823
3.278328 0.875031 0.687256 -0.000000 0.943043 0.000003
1.367642 0.693499 0.618289 0.000001 -0.915197 -0.000002
0.157131 0.869760 0.621315 -0.156130 0.000259 -0.000095
1.420716 0.750832 0.747481 0.000000 -0.333123 0.000006
1.723171 0.674099 0.761411 -0.047631 0.005429 0.006751
1.592389 0.675102 0.573702 -0.059062 -0.013183 0.014514
0.200000 0.699845 0.705936 -0.023117 -0.000847 0.000494
1.879623 0.630805 0.517590 0.059087 0.004106 -0.004893
0.624597 0.746526 0.565840 0.000000 -0.382620 -0.000021
2.376059 0.817214 0.564883 0.000000 0.357351 -0.000023
0.027454 0.798262 0.630639 -0.663058 0.000010 -0.000016
2.853731 0.690746 0.625684 0.000000 -0.951846 -0.000006
1.473791 0.694247 0.695140 0.000001 -0.906772 0.000002
1.774855 0.279487 0.237383 -0.059062 -0.005817 0.006530
1.787125 0.259868 1.090732 -0.059061 -0.005817 -0.006530
1.589669 1.053782 0.429246 -0.047633 -0.010404 -0.012722
1.616900 0.520106 0.873469 -0.059065 -0.002262 -0.002550
3.225253 0.726381 0.734732 0.000000 -0.592801 0.000006
1.579940 0.744252 0.566796 0.000001 -0.406321 -0.000020
3.650958 0.882001 0.569484 -0.100927 0.005262 0.006333
0.996119 0.721655 0.580591 -0.000001 -0.636666 -0.000042
1.633015 0.749940 0.747167 0.000000 -0.332059 0.000050
0.465373 0.704429 0.712858 -0.000000 -0.804270 0.000013
1.775974 0.880247 0.655599 0.000000 0.999621 -0.000000
3.048908 0.685940 0.656010 0.000000 -0.999905 0.000000
3.384477 0.686998 0.641591 -0.000000 -0.988670 -0.000003
0.696504 0.786712 0.752906 0.000000 0.026821 0.000042
3.513083 0.701155 0.572992 -0.000000 -0.641901 0.000539
1.776581 1.066877 0.904317 -0.047631 -0.002488 0.003110
1.724643 0.296604 0.248588 -0.059062 -0.012667 0.013970
1.709373 0.591231 0.508593 -0.059062 -0.004783 0.005377
2.163761 0.867195 0.607212 0.000000 0.862776 -0.000003
1.727917 0.881361 0.753127 -0.047630 -0.005429 0.006751
0.677671 0.804142 0.560997 -0.000001 0.228069 -0.000075
3.512523 0.440230 0.942869 0.047957 -0.009051 -0.012785
3.512523 1.125960 0.942869 0.047956 0.009052 -0.012785
0.412298 0.749746 0.564593 -0.000000 -0.332014 -0.000025
1.951462 0.804142 0.750695 0.000001 0.226966 0.000037
0.860865 0.686000 0.658147 0.000000 -0.999630 0.000000
1.813312 0.571007 0.849279 0.059085 0.007785 0.009220
0.499615 0.880230 0.657572 0.000000 0.999905 0.000000
2.110686 0.840967 0.577815 -0.000001 0.571996 -0.000006
1.826719 0.943762 0.805197 0.059087 -0.004106 0.004893
2.090141 0.782767 0.752995 -0.000009 -0.001920 0.000293
2.543844 0.781616 0.752964 0.000000 -0.027184 0.000021
3.645736 0.590149 0.820932 -0.100925 -0.005192 -0.006249
3.672713 0.588963 0.493331 -0.100926 -0.005192 0.006249
3.672713 0.977228 0.493331 -0.100924 0.005192 0.006249
2.906805 0.873412 0.691654 0.000000 0.933726 0.000007
0.545841 0.787205 0.558799 0.000000 0.027184 -0.000010
2.199714 0.685955 0.656503 0.000000 -0.999640 0.000000
1.926729 0.882724 0.730397 0.073251 0.006623 -0.007880
1.788980 1.015630 0.447562 -0.047629 -0.002639 -0.003298
0.282180 0.788027 0.752870 0.000000 0.027184 0.000021
0.996119 0.854133 0.722117 -0.000000 0.735222 0.000032
1.932527 0.916623 0.774311 0.059085 -0.008211 0.009715
3.437551 0.746754 0.745946 0.000000 -0.382620 0.000021
2.694507 0.873588 0.620498 0.000000 0.933825 -0.000013
2.800656 0.818405 0.746353 0.000001 0.354918 0.000011
1.314567 0.841066 0.733803 -0.000002 0.584031 0.000012
1.023513 0.785232 0.558746 0.000000 0.026821 -0.000010
1.793261 0.250059 0.212747 -0.059061 -0.005817 0.006530
0.730746 0.843383 0.732028 -0.000000 0.615892 0.000045
0.624597 0.692015 0.622034 0.000001 -0.933384 -0.000007
3.309546 0.574599 0.837515 0.047956 -0.009447 -0.013323
3.233125 0.967003 0.802671 0.047954 -0.005853 0.005802
1.701908 0.422343 0.350436 -0.047631 0.009198 -0.011304
3.539259 0.639072 0.762153 0.000000 0.641901 0.000539
3.510438 0.566466 0.851453 -0.000000 -0.641902 -0.000988
3.510438 0.999725 0.851453 -0.000000 0.641902 -0.000988
3.637986 0.844842 0.578418 -0.045403 0.003327 -0.003713
3.637986 0.805133 0.752397 -0.045406 0.000836 0.004921
1.898828 0.692394 0.741061 0.059087 0.008211 0.009715
3.278328 0.691985 0.689581 0.000001 -0.841555 0.000001
2.482208 0.812983 0.748283 0.000001 0.306124 0.000054
2.925638 0.779972 0.752919 0.000000 -0.027184 0.000021
1.807514 0.974191 0.479539 0.059085 -0.003892 -0.004640
1.420716 0.694029 0.694652 0.000000 -0.912507 0.000004
1.823599 0.190322 0.162185 -0.059063 -0.004783 0.005377
0.099461 0.822302 0.590684 -0.380819 0.000046 -0.000073
1.405307 0.880213 0.654366 0.000009 0.064566 -0.000000
1.948108 0.358158 0.294635 0.059085 0.005225 -0.006218
3.225253 0.689301 0.681162 0.000001 -0.966616 0.000005
1.261492 0.693278 0.692871 0.000001 -0.923057 0.000007
2.641432 0.867050 0.606963 0.000000 0.863740 -0.000020
2.588358 0.694431 0.616139 0.000000 -0.913124 -0.000008
2.853731 0.747671 0.746309 0.000001 -0.354918 0.000011
3.458097 0.686067 0.660613 0.000000 -0.999630 0.000000
1.739164 0.691638 0.623078 -0.000000 -0.943247 -0.000006
1.980720 0.374422 0.994281 0.073252 -0.004559 -0.005435
1.793497 0.525507 0.456975 -0.059060 -0.002230 0.002514
0.967014 0.782438 0.558697 -0.000000 -0.013777 -0.000082
0.653702 0.686040 0.659626 0.000000 -0.999640 0.000000
3.331402 0.693294 0.692909 0.000000 -0.923872 0.000029
1.787125 1.306323 0.220959 -0.059061 0.005817 0.006530
3.283613 0.678029 0.729541 0.000000 0.641903 0.000504
0.068816 0.733176 0.622000 -0.500666 -0.000042 -0.000030
3.241947 0.938424 0.515120 0.047956 0.004724 0.006757
0.027454 0.759676 0.673649 -0.663059 -0.000015 0.000011
0.518448 0.814273 0.747863 0.000000 0.331948 0.000025
1.834329 0.866308 0.707804 0.000000 -0.766787 -0.000632
0.465373 0.824707 0.743633 0.000000 0.432071 0.000018
1.906075 1.340698 1.111803 -0.059064 0.009823 -0.010930
1.932527 0.923996 0.546189 0.073253 0.006623 0.007880
3.562105 1.021094 0.869342 -0.100927 0.005333 -0.006418
3.562105 0.545097 0.869342 0.000001 -0.641901 -0.000988
3.510438 0.566466 0.460239 -0.000001 -0.641901 0.000988
3.510438 0.999725 0.460239 -0.000001 0.641901 0.000988
3.566101 0.603020 0.792333 0.000000 0.641901 0.000494
3.511085 0.901016 0.768820 0.000000 0.641902 -0.001843
1.767885 1.048160 0.448321 -0.059066 0.002230 0.002513
2.800656 0.872708 0.693365 0.000000 0.923840 0.000007
1.983619 1.222792 1.020528 0.073251 0.004215 -0.005027
2.019129 0.355460 0.297858 0.059086 0.010450 -0.012293
1.924193 0.278279 0.242342 0.073251 -0.003871 0.004618
0.984135 0.686013 0.653051 0.000000 -0.999640 -0.000000
1.824726 0.678658 0.724653 0.073252 -0.003656 -0.004362
0.412298 0.693979 0.617153 -0.000001 -0.905748 -0.000004
3.596775 0.803981 0.750732 -0.045826 0.000270 0.001152
0.200000 0.811614 0.748724 -0.023117 0.000301 0.000933
1.857519 0.969078 0.515634 0.073253 0.003312 0.003952
1.713721 0.575856 0.816386 -0.059062 -0.004783 -0.005377
0.730746 0.689228 0.680884 -0.000000 -0.967071 0.000009
1.830865 1.319261 1.109275 -0.047631 -0.012665 0.015321
3.190820 0.927806 0.545398 0.047954 -0.005853 -0.005802
1.898388 0.836520 0.736986 -0.000001 0.549930 0.000106
1.668294 1.019031 0.452211 -0.047631 -0.002752 -0.003439
1.668294 0.547160 0.452211 -0.047630 0.002752 -0.003439
1.759545 0.654042 0.779656 -0.047633 0.010856 0.013249
1.367642 0.876984 0.630887 0.000001 0.964721 -0.000002
1.824907 0.529021 0.428160 0.059086 0.014713 -0.017057
2.836610 0.880178 0.658640 -0.000000 0.999621 0.000000
1.791413 0.446723 0.386962 -0.059061 -0.007885 0.008816
3.594197 1.092517 0.924379 -0.100926 0.006922 -0.008323
1.900277 1.320198 0.217604 -0.059065 0.005300 0.005954
2.417149 0.783589 0.752990 0.000000 0.027184 0.000083
3.144785 0.779808 0.752915 0.000000 -0.027184 0.000041
2.004537 0.722290 0.580069 0.000000 -0.615996 -0.000006
1.121101 0.685978 0.654366 -0.000000 -0.999630 -0.000000
1.808430 0.220190 0.187466 -0.059063 -0.010599 0.011767
1.808430 0.220190 1.124226 -0.059061 -0.005300 -0.005954
3.107197 0.658289 0.767455 0.047957 -0.009446 -0.013322
0.465373 0.874594 0.688497 -0.000001 0.941413 0.000003
3.379937 0.581866 0.810042 -0.000000 0.641901 0.001259
1.870926 0.885355 0.584437 0.073253 0.006623 0.007880
1.709373 0.974960 0.508593 -0.059061 0.002392 0.002695
1.526865 0.723164 0.579385 -0.000001 -0.614476 -0.000011
3.278328 0.694817 0.615276 0.000000 -0.913152 -0.000016
1.753053 0.994089 0.466965 -0.047631 -0.002639 -0.003298
0.730746 0.691078 0.624668 0.000000 -0.943298 -0.000003
2.906805 0.698664 0.607780 -0.000001 -0.863236 -0.000010
3.207958 0.888162 0.582151 0.000000 -0.641901 -0.001007
1.572723 0.575299 0.828029 -0.059056 -0.001648 -0.001859
1.633015 0.824633 0.568023 -0.000001 0.432173 -0.000073
0.099461 0.743889 0.721007 -0.380824 -0.000046 0.000073
3.173267 0.681381 0.755254 0.000001 -0.641899 -0.000504
3.437551 0.693137 0.692529 0.000000 -0.923860 0.000029
3.627620 0.426238 0.959335 -0.100927 -0.006922 -0.008323
3.119104 0.748170 0.565191 0.000000 -0.357551 -0.000182
3.216815 0.852756 0.728420 0.000000 0.641901 -0.001007
3.376245 0.660011 0.773143 0.000000 -0.641902 -0.001259
3.341923 0.686723 0.750781 0.000000 -0.641901 -0.000630
2.959880 0.805423 0.561297 0.000000 0.228154 -0.000074
3.658591 0.688734 0.688864 -0.045402 -0.004701 0.001937
1.969124 1.015748 0.465875 0.073252 0.011869 0.013996
1.848823 0.652748 0.778110 0.059085 0.008211 0.009715
1.102268 0.868284 0.702545 -0.000000 0.871451 0.000002
2.004537 0.691023 0.686868 0.000000 -0.951825 0.000001
3.339249 1.054295 0.882876 0.047955 0.009052 -0.012785
1.049194 0.691460 0.623582 -0.000000 -0.943226 -0.000012
1.420716 0.852513 0.587881 0.000000 0.716425 -0.000008
1.698592 0.543196 0.846538 -0.059065 -0.002262 -0.002550
1.939273 0.003260 1.310573 -0.000001 -0.766768 0.000084
1.913322 0.608752 0.501730 0.059086 0.001946 -0.002324
1.579940 0.692964 0.619580 0.000000 -0.923858 -0.000007
1.988692 0.045025 1.276057 0.059085 0.008957 0.010580
1.939273 1.565029 0.003624 -0.059061 0.009307 0.010370
0.783821 0.873838 0.690541 0.000000 0.933834 0.000013
1.988692 1.523757 1.272962 0.073251 0.007225 -0.008590
1.840126 0.694624 0.567966 0.059086 0.004532 -0.005398
1.982894 0.086791 1.241542 0.059087 0.010663 0.012536
1.741120 0.963286 0.819388 -0.047633 -0.005579 0.006936
1.739164 0.862100 0.712392 0.000001 0.817886 0.000006
1.820922 0.912382 0.532316 0.059087 -0.008211 -0.009715
1.966226 0.969835 0.495437 0.059087 -0.003892 -0.004640
2.959880 0.733005 0.572595 0.000000 -0.527128 -0.000007
3.298873 0.778822 0.752888 0.000000 -0.027184 0.000041
1.921205 1.524911 0.037764 -0.059063 0.010857 0.012045
1.933475 0.021661 0.021340 -0.059062 -0.010858 0.012045
2.269910 0.692074 0.689811 -0.000001 -0.933082 0.000007
1.952456 1.499016 0.051379 0.059086 -0.010663 -0.012536
3.039058 0.854510 0.585368 0.000001 0.766786 -0.000389
3.124209 0.943656 0.525001 0.047954 -0.005853 -0.005802
3.302436 0.938234 0.799976 0.000000 0.641903 -0.000504
1.972023 0.529807 0.863370 0.073252 -0.005935 -0.007067
3.066029 0.712559 0.722661 0.000000 -0.716648 0.000008
0.253075 0.819057 0.746103 0.000000 0.381625 0.000005
1.969124 0.571216 0.828427 0.073252 -0.006279 -0.007474
1.722458 0.490600 0.403716 -0.047632 0.009952 -0.012193
1.869115 1.030849 0.848879 0.073252 0.005935 -0.007067
3.172179 0.839777 0.734756 -0.000000 0.594420 0.000024
1.901370 1.413186 1.176442 -0.059063 0.004266 -0.004799
2.322985 0.706964 0.595494 -0.000000 -0.787833 -0.000014
1.686089 0.770958 0.559457 -0.000000 -0.121656 -0.000036
0.889970 0.817905 0.746544 -0.000001 0.356885 0.000046
1.898388 0.697887 0.702509 0.000000 -0.877095 0.000038
3.534940 0.531794 0.431214 0.000001 -0.641901 0.000988
3.534940 1.034397 0.431214 0.000000 0.641902 0.000988
3.207958 0.678029 0.582151 0.000000 0.641901 -0.001007
3.484604 0.563114 0.485952 0.000000 0.641901 -0.000494
3.302436 0.938234 0.511715 0.000000 0.641903 0.000504
3.484604 1.003077 0.485952 0.000001 -0.641901 -0.000494
3.376245 0.906179 0.773143 0.000000 0.641901 -0.000630
3.511770 0.576416 0.814604 0.000000 0.641904 0.000988
3.233792 0.667344 0.738486 0.000000 0.641903 0.001511
3.457438 0.563849 0.853644 -0.000002 -0.641893 -0.000494
3.537604 1.000460 0.488143 -0.000001 -0.641901 -0.000988
3.365175 0.619263 0.778736 0.000000 0.641901 0.000630
3.537604 0.565731 0.488143 -0.000001 0.641902 -0.000988
3.264054 0.898847 0.573206 0.000000 -0.641902 -0.001511
3.270328 0.660011 0.538549 0.000001 -0.641901 0.000756
3.379937 0.970288 0.826810 0.000000 0.641903 -0.001259
3.379937 0.595903 0.484882 -0.000000 -0.641902 0.001259
1.989416 1.313466 1.102129 0.059085 -0.004372 0.005209
1.687980 0.500506 0.885226 -0.059064 -0.002230 -0.002513
2.057611 0.873588 0.691193 0.000000 0.933970 0.000003
1.836503 0.487035 0.393907 0.059087 0.013860 -0.016121
3.298744 0.888162 0.582151 -0.000000 -0.641903 -0.001007
3.224935 0.645974 0.555317 -0.000001 0.641901 -0.001007
3.311293 0.930901 0.546372 0.000000 -0.641901 -0.000504
3.345983 0.920216 0.555317 -0.000000 -0.641902 -0.001259
3.233792 0.884810 0.755254 0.000000 0.641901 -0.001511
3.207958 0.888162 0.729541 0.000000 -0.641901 0.001007
3.328270 0.962955 0.519539 -0.000000 -0.641901 -0.001007
1.702086 0.694624 0.567966 -0.047632 0.005429 -0.006751
1.813312 0.553483 0.483345 0.073252 -0.006279 0.007474
3.309145 0.686053 0.651572 -0.000000 -0.999630 -0.000000
1.778526 0.889711 0.722051 -0.059062 0.009307 -0.010370
1.747950 0.696028 0.745403 -0.047631 0.010856 0.013249
1.738222 0.613401 0.810825 -0.047632 0.002790 0.003486
3.274351 0.563947 0.842867 0.047956 -0.004724 -0.006757
3.249597 0.992006 0.477395 0.047957 0.009051 0.012785
3.215482 0.563086 0.471669 0.047958 -0.004724 0.006757
3.028256 0.887856 0.748892 0.047957 0.013575 -0.018776
3.028256 0.887856 0.562800 0.047957 0.013575 0.018776
1.367642 0.867988 0.703086 0.000000 0.877133 0.000005
0.836895 0.818597 0.565412 -0.000000 0.357359 -0.000023
3.631510 0.491613 0.895102 -0.100927 0.005246 0.006203
2.131231 0.685955 0.656503 0.000000 -0.999640 0.000000
3.378091 0.613920 0.528483 -0.000000 0.641903 -0.001259
2.872564 0.685943 0.656257 0.000000 -0.978227 0.000000
1.871706 0.241711 0.195755 -0.047631 0.005730 -0.007121
2.216835 0.690973 0.624980 0.000000 -0.951825 -0.000003
3.081364 0.897217 0.758510 0.047954 0.004526 -0.006477
3.490626 0.700495 0.604708 0.000000 -0.849711 -0.000022
1.722755 1.010394 0.478236 -0.059058 0.002359 0.002659
3.430920 0.916936 0.782147 0.000003 0.641895 -0.000720
3.430920 0.649255 0.529544 0.000003 -0.641896 0.000720
3.430920 0.916936 0.529544 0.000001 0.641901 0.001440
3.483576 0.876958 0.748680 -0.000001 0.641902 -0.001843
3.483576 0.876958 0.563011 -0.000000 0.641901 0.001843
3.511085 0.665175 0.542871 0.000001 -0.641902 0.001843
3.443494 0.681273 0.755344 0.000003 -0.641896 -0.000720
3.541257 0.877101 0.748800 -0.000000 0.641902 -0.001078
3.400234 0.667344 0.573206 0.000000 0.641902 -0.000720
3.400234 0.898847 0.573206 0.000000 -0.641902 -0.000720
1.367642 0.747441 0.565471 0.000000 -0.357570 -0.000046
3.610909 1.123253 0.378219 -0.100925 -0.006994 -0.008262
3.610909 0.442938 0.378219 -0.100927 0.006994 -0.008262
1.861204 0.182133 0.157898 -0.059062 -0.009565 0.010651
2.560964 0.784904 0.558737 0.000000 0.027184 -0.000021
3.611537 1.166912 0.977151 0.047958 0.012067 -0.016822
1.587912 0.627323 0.521164 -0.047633 0.001923 -0.002404
1.963327 0.938566 0.790302 0.059087 -0.004106 0.004893
1.848098 0.445049 0.359654 0.059085 0.013008 -0.015177
3.084862 0.686022 0.658969 0.000000 -0.999630 0.000000
2.435126 0.685980 0.654284 0.000000 -0.999640 -0.000000
2.694507 0.835902 0.737393 0.000000 0.549942 0.000053
2.216835 0.723909 0.732889 0.000000 -0.614981 0.000011
1.133086 0.785232 0.558746 0.000000 0.026821 -0.000042
1.842300 1.100149 0.934911 0.059085 -0.006505 0.007724
1.848098 0.430487 0.934643 0.073252 -0.010493 -0.012409
2.239092 0.880249 0.655681 0.000000 0.999640 -0.000000
3.313875 0.874125 0.746309 0.000000 0.641903 -0.000504
3.296162 0.930901 0.765319 0.000000 -0.641901 0.000504
0.677671 0.865067 0.603694 -0.000001 0.847715 -0.000005
0.624597 0.693341 0.693023 0.000000 -0.923858 0.000004
0.115503 0.720335 0.602537 -0.318226 -0.000088 -0.000079
2.728749 0.685986 0.654038 0.000000 -0.999640 -0.000000
2.482208 0.692412 0.690694 -0.000001 -0.932511 0.000007
1.672999 0.612892 0.786771 -0.059062 -0.006851 -0.007676
1.680524 0.973375 0.823750 -0.047634 -0.002790 0.003486
3.513748 0.853042 0.583032 -0.003239 0.146534 -0.002762
2.959880 0.718094 0.728054 -0.000000 -0.677794 0.000019
1.367642 0.813257 0.748195 0.000000 0.305591 0.000014
1.676255 0.875686 0.593989 -0.059065 0.002327 0.002622
2.299016 0.880231 0.655024 0.000000 0.999640 -0.000000
1.647407 1.098471 0.921675 -0.047628 -0.004901 0.006102
1.857519 0.610873 0.812494 0.059085 0.004106 0.004893
1.959703 1.312337 0.208214 0.059086 -0.004372 -0.005209
3.418345 0.603200 0.792183 0.000000 0.641901 0.000720
3.471687 0.983698 0.838036 0.000001 0.641901 -0.000988
3.445853 0.593178 0.829091 -0.000000 -0.641901 -0.000494
3.471687 0.568456 0.821268 0.000001 0.641902 0.000988
3.445853 0.987050 0.812323 -0.000001 -0.641900 0.000494
1.504608 0.784246 0.558719 0.000000 0.027546 -0.000020
1.681845 1.055876 0.877014 -0.059059 0.004460 -0.005016
3.566101 0.949133 0.502591 -0.100925 0.005333 0.006418
0.996119 0.754933 0.748828 -0.000001 -0.280203 0.000060
2.019129 0.334687 1.031223 0.059086 0.009597 0.011316
2.019129 1.210731 0.297858 0.059086 -0.010450 -0.012293
1.853896 1.142135 0.969164 0.059088 -0.006078 0.007223
1.848098 1.135704 0.377049 -0.059062 0.014992 0.016392
3.534940 0.517757 0.863709 -0.000001 0.641902 0.000988
3.534940 1.048434 0.863709 -0.000001 -0.641902 0.000988
2.057611 0.720197 0.729896 0.000000 -0.637015 0.000042
0.282180 0.783095 0.558688 0.000000 0.013592 -0.001326
3.174257 0.964355 0.507673 0.047954 -0.005853 -0.005802
3.149503 0.615583 0.512051 0.047955 -0.004526 0.006477
1.102268 0.813375 0.748157 0.000000 0.305591 0.000014
3.229570 0.933305 0.792286 0.047959 0.004724 -0.006757
2.030218 0.782931 0.752999 0.000000 -0.027184 0.000021
1.622826 0.572231 0.836674 -0.047633 0.005579 0.006936
1.986517 1.243428 0.273611 0.073253 0.004215 0.005027
1.986517 0.301990 1.055470 0.073251 -0.007741 -0.009197
1.986517 0.301990 0.256221 0.073252 -0.003871 0.004618
3.604498 1.077537 0.894015 -0.100925 -0.005246 0.006203
3.119104 0.812435 0.748460 0.000000 0.306451 0.000108
3.594410 0.926332 0.786448 -0.100925 0.002667 -0.003213
3.616130 0.543997 0.448559 -0.100927 -0.002667 0.003212
3.616130 1.022194 0.448559 -0.100927 0.005333 0.006418
1.898388 0.688809 0.632398 0.000000 -0.973608 -0.000016
2.322985 0.859834 0.596271 0.000000 0.787474 -0.000002
0.359224 0.846304 0.729626 -0.000001 0.651170 0.000010
2.345242 0.880249 0.655681 0.000000 0.999640 -0.000000
3.172179 0.875369 0.625449 0.000001 0.950150 -0.000003
1.951462 0.731608 0.738230 0.000000 -0.527178 0.000028
1.824907 0.529021 0.883532 0.059086 0.014713 0.017057
2.763846 0.880184 0.658394 -0.000000 0.999640 0.000000
0.677671 0.721211 0.730734 0.000000 -0.637078 0.000011
2.535283 0.712002 0.722057 0.000001 -0.734937 0.000016
2.026794 0.782931 0.558692 0.000000 -0.027184 -0.000041
3.384477 0.877298 0.632080 -0.000001 0.965217 -0.000002
2.506178 0.685951 0.655353 0.000000 -0.999630 -0.000000
2.057611 0.801404 0.560429 0.000000 0.201689 -0.000085
1.731620 1.035798 0.855277 -0.059065 0.002262 -0.002550
1.758851 0.538090 0.846301 -0.059061 -0.004525 -0.005088
1.811071 0.880247 0.655599 0.000000 0.999621 -0.000000
0.157131 0.708828 0.599389 -0.156125 -0.000224 -0.000161
1.786082 0.561058 0.456126 -0.047632 0.010554 -0.012898
3.376245 0.660011 0.538549 0.000000 -0.641901 0.000630
3.376245 0.906179 0.538549 -0.000000 0.641900 0.001259
3.627620 0.426238 0.352356 -0.100927 -0.006922 0.008323
3.627620 1.139953 0.352356 -0.100926 0.006922 0.008323
3.610909 0.442938 0.933473 -0.100924 0.006994 0.008263
3.610909 1.123253 0.933473 -0.100926 -0.006994 0.008262
1.913322 0.599744 0.799200 0.073252 -0.003140 -0.003747
3.039058 0.854510 0.726324 0.000001 0.766786 0.000389
3.591764 0.973988 0.826343 -0.100926 0.002667 -0.003212
1.799295 0.505008 0.872433 -0.059063 -0.008531 -0.009524
1.866216 0.568997 0.846878 0.059086 0.007784 0.009220
3.247077 0.852756 0.583272 0.000000 0.641902 0.001511
2.245941 0.783260 0.752999 -0.000000 0.027193 0.000041
1.966226 0.617129 0.512826 0.059086 0.003892 -0.004640
0.174196 0.875305 0.681448 -0.089820 0.000481 0.000120
1.876724 0.914503 0.534848 0.059085 -0.008211 -0.009715
3.194436 0.779315 0.752901 0.000000 -0.027184 0.000021
1.808160 0.493518 0.910875 -0.047632 0.009349 0.011483
1.208418 0.712674 0.588912 0.000001 -0.713619 -0.000009
3.119104 0.695823 0.613159 -0.000001 -0.901177 -0.000008
0.412298 0.877005 0.680725 -0.000001 0.966688 0.000005
1.701848 0.932733 0.792580 -0.047630 -0.007992 0.009866
1.712510 0.639556 0.760006 -0.059062 -0.013700 -0.015055
1.911873 0.214126 1.140428 0.059085 0.007891 0.009344
3.511085 0.665175 0.768820 0.000001 -0.641901 -0.001843
1.420716 0.856551 0.719426 0.000002 0.610092 0.000002
2.198002 0.880231 0.656668 -0.000000 0.999640 0.000000
0.115503 0.855848 0.694417 -0.318216 0.000103 0.000051
2.925642 0.858019 0.722132 -0.000000 0.766788 0.000130
2.925642 0.858019 0.589560 0.000001 0.766771 -0.000130
2.670538 0.780876 0.558748 0.000000 -0.026821 -0.000042
1.980568 0.783342 0.752997 0.000000 0.027546 0.000003
1.917670 1.381696 1.147235 -0.059065 0.008789 -0.009806
3.012954 0.879022 0.640453 0.000000 0.988902 -0.000001
3.012954 0.746260 0.565950 0.000001 -0.382194 -0.000042
3.278328 0.854691 0.721513 0.000001 0.734893 0.000016
2.718476 0.780959 0.558746 -0.000000 -0.027184 -0.000041
1.630620 1.070829 0.417370 -0.059062 0.004460 0.005016
1.668334 1.084305 0.400057 -0.047632 -0.002488 -0.003110
1.712510 0.912412 0.534696 -0.047631 -0.007992 -0.009866
1.712510 0.653778 0.534696 -0.047632 0.015980 -0.018965
1.859693 1.176703 0.970075 -0.059062 0.013959 -0.015324
1.859693 1.176703 0.341617 -0.059062 0.013958 0.015324
0.911371 0.686011 0.658558 0.000000 -0.999640 0.000000
1.771419 0.974501 0.513906 -0.059062 0.002392 0.002695
1.786082 1.005133 0.855566 -0.047632 -0.010554 0.012898
1.833966 0.970003 0.826605 0.059085 -0.003893 0.004640
1.865491 0.368989 0.987791 0.073251 -0.009117 -0.010808
1.865858 0.685940 0.655928 0.000000 -0.999621 0.000000
3.302436 0.613920 0.783208 0.000000 0.641900 0.000504
0.889970 0.869818 0.699636 0.000000 0.889727 0.000004
1.917670 1.373058 0.154137 0.059086 -0.007891 -0.009344
2.004537 0.844473 0.731153 0.000000 0.636970 0.000021
3.459373 0.527312 0.452416 0.047955 0.005853 -0.005802
3.459373 1.038879 0.452416 0.047958 -0.011704 -0.011355
3.595076 0.641324 0.763832 -0.100926 0.002694 0.003189
3.595076 0.914339 0.535283 -0.100927 0.002667 0.003212
0.123673 0.862141 0.624351 -0.286366 0.000128 -0.000047
1.966226 0.602238 0.802180 0.073251 -0.003140 -0.003747
1.778526 0.889711 0.589641 -0.059062 0.009307 0.010370
1.799724 0.909485 0.740634 0.073252 0.003656 -0.004362
1.855526 0.886081 0.726387 0.073250 0.003656 -0.004362
0.677671 0.764062 0.560578 -0.000000 -0.201748 -0.000339
1.713483 0.880249 0.656010 0.000000 0.999640 0.000000
1.778526 0.696965 0.565171 0.059085 0.009064 -0.010703
1.924193 1.287912 1.069350 0.073251 0.003871 -0.004618
3.182538 0.627129 0.518152 0.047956 -0.009447 0.013323
1.701531 1.089757 0.918017 -0.047632 -0.004901 0.006102
3.224935 0.660011 0.773143 0.000001 -0.641901 -0.001007
1.761750 1.025578 0.870416 -0.047633 -0.005202 0.006473
1.681000 0.700464 0.708498 -0.059062 -0.004654 -0.005233
1.769036 0.656561 0.571231 -0.059062 -0.004654 0.005233
0.439692 0.686058 0.651408 0.000000 -0.999640 -0.000000
3.571429 0.853186 0.728780 -0.003240 0.137169 0.002756
3.081364 0.897217 0.553182 0.047956 0.009052 0.012785
3.225253 0.875243 0.686634 0.000001 0.799336 0.000001
1.473791 0.691897 0.622341 0.000000 -0.943258 -0.000003
3.151634 0.785151 0.558729 -0.000066 0.006810 -0.001652
1.769981 0.783260 0.558692 0.000000 0.027184 -0.000041
1.776581 0.499314 0.407375 -0.047632 0.002488 -0.003110
2.975149 0.687696 0.572419 0.047956 -0.009052 0.012785
1.288886 0.782931 0.752999 0.000000 -0.026821 0.000021
3.199101 0.670696 0.547493 0.000000 -0.641903 0.001007
3.434079 1.028418 0.850518 0.047955 -0.005853 0.005802
1.885421 0.956378 0.811228 0.059085 -0.002053 0.002451
1.865129 0.851744 0.586491 0.059085 -0.009064 -0.010703
2.293879 0.781945 0.752973 0.000000 -0.026841 0.000010
3.679196 0.882721 0.671897 -0.047875 0.001144 0.000169
1.825270 0.611172 0.781199 0.073251 -0.003312 -0.003952
1.865491 0.382070 0.308275 0.059085 0.005652 -0.006721
2.946795 0.881127 0.736129 0.047956 -0.011215 0.010906
2.946795 0.881127 0.575563 0.047956 -0.011215 -0.010906
2.897288 0.707294 0.721084 -0.000001 -0.766755 0.000065
1.869115 0.558500 0.456250 0.059086 0.007358 -0.008722
3.247077 0.713435 0.583272 0.000000 -0.766787 -0.000277
1.842663 1.006686 0.455050 0.059087 -0.007784 -0.009219
1.049194 0.689479 0.681838 0.000000 -0.967084 0.000002
3.596775 0.698519 0.608028 -0.039433 -0.001206 -0.000660
2.110686 0.690671 0.625919 -0.000000 -0.951732 -0.000006
0.412298 0.874348 0.622496 0.000000 0.943192 -0.000012
3.571429 0.853186 0.582912 -0.003240 0.137169 -0.002756
1.767070 0.959126 0.784499 -0.059064 0.009565 -0.010650
1.855526 0.694039 0.743026 0.059087 0.004532 0.005398
0.306149 0.692838 0.691808 0.000000 -0.923805 0.000001
0.306149 0.877682 0.633679 0.000000 0.973603 -0.000008
1.815407 0.453980 0.916399 -0.059061 -0.008015 -0.008958
3.172179 0.689756 0.628906 -0.000001 -0.958012 -0.000003
1.892336 0.179420 0.144727 -0.047631 0.010253 -0.012547
1.748883 0.617895 0.535357 -0.059062 -0.006851 0.007676
3.131951 0.918139 0.776025 0.047956 0.009447 -0.013323
3.173267 0.667344 0.573206 0.000000 0.641901 -0.000504
1.843136 1.338880 0.185994 -0.047632 -0.011459 -0.013946
0.571522 0.767053 0.751666 -0.000001 -0.175123 0.000196
3.577485 0.497392 0.404791 -0.100925 -0.005192 0.006249
3.577485 1.068799 0.404791 -0.100925 0.005192 0.006249
3.663637 0.425505 0.955196 -0.100927 -0.006922 -0.008323
3.644332 0.400181 0.974019 -0.100924 0.003497 0.004139
2.641432 0.851911 0.724429 0.000000 0.715927 0.000009
1.706831 0.876848 0.716315 -0.059062 0.004654 -0.005233
1.674469 0.472076 0.391846 -0.047631 0.004901 -0.006102
1.653542 1.110286 0.384200 -0.059061 0.004201 0.004727
2.244229 0.783260 0.558692 0.000000 0.027184 -0.000021
1.102268 0.751840 0.747836 -0.000000 -0.332000 0.000050
1.473791 0.874294 0.689350 -0.000000 0.943258 0.000003
1.871289 1.217701 1.005507 -0.059061 0.012925 -0.014243
