1.915854 0.336291 0.300731 0.074170 -0.008494 0.009972
3.075625 0.430321 0.364726 -0.330005 -0.001117 0.001611
1.717328 1.051698 0.317510 -0.059928 -0.005773 -0.007230
0.873846 0.795605 0.615586 -0.000002 0.981950 0.000002
1.529280 0.712129 0.520795 0.000000 -0.027063 -0.000234
2.580921 0.786639 0.564923 0.000001 0.872644 -0.000003
2.772757 0.866922 0.486580 -0.000001 -0.646011 -0.000273
2.075818 0.361951 0.901263 0.066688 0.008796 0.010304
2.075818 0.487769 0.794780 0.066688 0.005701 0.006712
2.075818 1.297942 0.109107 0.066687 -0.004887 -0.005759
1.772306 0.760928 0.535867 -0.000002 0.505636 -0.000005
1.789281 1.041068 0.887684 -0.059934 -0.001399 0.001760
2.037255 1.093093 0.286233 0.074170 0.007908 0.009292
2.378399 0.714947 0.520818 0.000000 0.027063 -0.000015
2.831919 1.009302 0.353391 0.263200 0.001107 0.002161
3.012842 0.469574 0.797491 -0.000001 0.646016 0.000341
0.334769 0.733865 0.523401 -0.000000 0.254454 -0.000193
2.859361 0.587795 0.697436 -0.000000 0.646021 0.000205
1.914425 0.530685 0.435535 0.066688 0.003176 -0.003749
2.876802 1.050525 0.889623 0.263201 0.001107 -0.002161
1.143384 0.768842 0.542158 0.000001 0.669869 -0.000007
1.592614 0.749043 0.528923 -0.000002 0.288604 -0.000005
2.587549 0.629908 0.607304 0.000000 -0.999634 0.000000
1.098461 0.720577 0.687016 0.000000 0.094708 0.000133
1.985838 0.222044 1.027550 0.066687 0.003421 0.004037
2.075818 0.056393 1.159866 0.066691 0.007167 0.008420
2.075818 0.056393 0.048259 0.066687 0.007167 -0.008420
2.952334 0.549032 0.755619 -0.000001 -0.646020 -0.000983
2.878200 0.480663 0.813482 -0.000001 -0.646010 -0.000205
2.850459 0.768260 0.541645 0.000001 0.656961 -0.000029
1.802763 0.462221 0.380656 -0.059928 0.001574 -0.001980
1.884982 0.713538 0.520779 0.000000 0.027063 -0.000031
2.086767 0.689072 0.683807 0.000001 -0.259731 0.000012
2.742153 0.926857 0.784958 0.263201 0.001107 -0.002161
2.401229 0.639523 0.643079 0.000000 -0.877103 0.000014
1.651852 0.654160 0.663338 -0.059926 0.007872 0.009820
2.820845 0.521969 0.429602 0.000004 -0.645961 0.000341
2.968046 0.443630 0.844824 0.000004 -0.645754 -0.000171
2.042968 0.261515 0.983064 0.074171 -0.006737 -0.007928
1.143384 0.770397 0.664534 -0.000000 0.697477 0.000026
2.509486 0.715652 0.520837 0.000000 0.027063 -0.000061
1.592614 0.766197 0.668243 -0.000000 0.636999 0.000061
1.780300 0.450745 0.834868 -0.059926 0.001575 0.001980
1.188307 0.654217 0.545164 0.000000 -0.716660 -0.000012
0.559384 0.731570 0.685281 -0.000001 0.226101 0.000027
0.184023 0.776696 0.550056 -0.007513 0.003745 -0.002694
0.055229 0.720475 0.559170 -0.509116 0.000006 -0.000033
1.806907 0.972608 0.373503 -0.059927 -0.003061 -0.003847
2.311383 0.635270 0.633675 -0.000001 -0.933128 0.000005
1.994407 1.231517 0.158195 0.066691 -0.003095 -0.003653
3.085451 0.898258 0.460059 -0.330010 -0.000673 -0.000656
2.625844 0.752378 0.530606 0.000000 0.480377 -0.000023
1.944419 1.178437 0.985075 -0.066652 0.003906 -0.004300
2.010118 1.175280 0.988805 0.074170 0.003369 -0.003976
2.871310 0.434677 0.381101 0.000000 0.646024 -0.000171
1.995793 1.424995 1.204042 -0.066651 0.006793 -0.007452
2.012975 1.390831 0.036615 -0.066649 0.007473 0.008189
1.143384 0.631872 0.622415 0.000000 -0.972969 0.000001
1.649320 0.715370 0.520829 0.000000 0.027051 -0.000234
1.814080 0.500006 0.798305 -0.059927 0.001662 0.002090
3.152635 0.692058 0.516354 -0.089634 -0.000126 -0.000495
1.883004 0.866843 0.492745 0.074170 0.007030 0.008269
0.963692 0.728256 0.685964 -0.000000 0.174942 0.000018
1.763756 0.554303 0.456836 -0.059926 0.003586 -0.004504
0.482058 0.716568 0.520862 0.000000 0.027063 -0.000031
1.841585 0.566384 0.705422 0.074169 -0.002636 -0.003113
1.996550 0.524401 0.756053 0.074169 -0.002856 -0.003372
0.739076 0.779928 0.653790 0.000000 0.804141 0.000009
2.014596 0.711988 0.520799 -0.000000 -0.027051 -0.000008
2.266459 0.652988 0.546427 0.000000 -0.708820 -0.000003
2.940305 0.647217 0.654998 0.000000 -0.787828 0.000040
1.094778 0.796307 0.607867 -0.000000 0.999634 0.000000
1.412922 0.692604 0.523338 -0.000000 -0.253018 -0.000012
2.020116 0.553083 0.463745 0.066688 0.003176 -0.003749
1.817229 0.671755 0.676358 -0.000000 -0.503887 0.000043
0.245659 0.708746 0.687239 0.000000 -0.027063 0.000008
1.694216 0.498573 0.427917 -0.066649 -0.001656 0.001825
1.847428 0.233655 1.006643 -0.066650 -0.003906 -0.004300
0.128685 0.673879 0.669274 -0.222473 -0.000078 0.000122
2.876802 0.375705 0.889623 0.263200 -0.001107 -0.002161
2.446151 0.756657 0.533063 -0.000001 0.526663 -0.000020
3.075074 0.662707 0.670373 -0.086158 -0.000302 0.000408
2.491075 0.792309 0.629853 0.000001 0.951603 0.000008
1.847201 1.064179 0.297630 -0.059925 -0.005248 -0.006578
2.957063 0.498061 0.434744 0.000000 0.646020 -0.000983
1.476992 0.796387 0.603217 0.000000 0.999634 -0.000000
2.980605 1.062364 0.912331 -0.000001 0.646019 -0.001092
2.401229 0.654168 0.545215 0.000001 -0.699352 -0.000006
2.850459 0.757705 0.674412 -0.000000 0.527154 0.000010
1.340014 0.796391 0.604767 -0.000000 0.999634 0.000000
2.940305 0.752224 0.677604 -0.000000 0.480290 0.000046
2.142737 0.712058 0.520797 0.000000 -0.026657 -0.000031
1.923774 1.266840 0.130677 -0.059928 -0.006298 -0.007880
0.435662 0.709592 0.687262 0.000000 -0.027063 0.000015
1.998692 1.078923 0.920410 0.066691 -0.004398 0.005185
0.048483 0.719782 0.644731 -0.535533 0.000006 0.000030
2.952538 0.980870 0.817984 0.000000 -0.646019 0.000682
2.024401 0.615807 0.517206 0.066688 0.002932 -0.003461
1.670677 0.796349 0.606317 0.000000 0.999634 0.000000
2.401229 0.727146 0.686161 0.000000 0.175136 0.000142
1.694216 0.927657 0.427917 -0.066650 0.001656 0.001825
1.940134 1.016877 0.360201 0.074173 0.002417 0.002854
1.938706 0.842671 0.725716 0.066688 -0.007818 0.009176
0.469538 0.636033 0.572516 0.000000 -0.923853 -0.000010
1.682460 0.754597 0.676287 -0.000001 0.503774 0.000043
1.878354 0.629859 0.605472 0.000000 -0.999634 0.000000
1.544745 0.796303 0.608008 0.000000 0.999634 0.000000
2.805536 0.659085 0.540671 -0.000000 -0.657112 -0.000004
1.921567 1.107639 0.922930 -0.066652 0.004586 -0.005044
3.101295 0.501635 0.425081 -0.330004 -0.001117 0.001611
3.152635 0.798142 0.634172 -0.088498 0.000490 0.000166
1.904428 0.796256 0.518691 0.066690 -0.004398 -0.005185
2.787036 0.968080 0.388279 0.263200 0.001107 0.002161
2.980097 0.579249 0.503456 0.000000 0.646020 -0.000164
1.912911 0.175567 0.144368 -0.059926 0.006997 -0.008744
1.896335 1.221738 1.028680 -0.066650 0.003567 -0.003927
1.926223 0.712270 0.687334 0.000000 -0.027063 0.000031
2.896505 0.825921 0.495903 0.000000 0.646019 0.000205
1.647625 0.844490 0.708987 -0.066650 0.007642 -0.008373
1.713368 0.960772 0.808513 -0.066651 0.001571 -0.001732
0.289846 0.792719 0.628579 0.000000 0.951685 0.000001
0.469538 0.778861 0.552933 -0.000000 0.787785 -0.000010
1.265633 0.715229 0.687300 0.000000 0.027051 0.000234
2.894572 1.012918 0.363018 -0.000001 -0.646012 -0.000341
2.894572 1.000405 0.859893 0.000001 0.646018 -0.000341
2.762625 0.834874 0.694422 -0.000002 -0.646013 0.000409
1.972984 0.781636 0.556091 0.000001 -0.763318 0.000316
2.723169 0.587795 0.697436 0.000000 0.646020 0.000819
1.543515 0.633358 0.671563 -0.066650 -0.005095 -0.005602
1.942990 0.628309 0.687467 0.066688 0.007818 0.009176
1.992265 0.870580 0.478936 0.074171 0.002856 0.003372
2.892081 0.936715 0.427511 0.000001 -0.646020 -0.000983
1.272261 0.629843 0.604908 0.000000 -0.999634 0.000000
1.912911 0.170616 1.057907 -0.066649 -0.006454 -0.007084
2.221536 0.785962 0.563687 0.000000 0.876973 -0.000003
1.833545 0.525659 0.428717 -0.059927 0.003324 -0.004175
2.745147 0.796410 0.604063 0.000000 0.999909 0.000000
3.097680 0.596342 0.517922 0.000000 0.646020 -0.000328
2.682898 0.811677 0.507958 0.000000 0.646021 0.001092
1.996921 0.659626 0.667906 0.000000 -0.636921 0.000031
2.781947 0.811677 0.507958 0.000000 0.646021 0.000546
0.649230 0.793445 0.626074 0.000000 0.967072 0.000003
1.951998 0.795004 0.619273 0.000000 0.984524 0.000002
1.885146 0.907181 0.749728 0.074172 0.002856 -0.003372
1.920377 0.234872 0.190933 -0.059927 0.003849 -0.004832
2.940305 0.684557 0.525819 0.000000 -0.331592 -0.000009
2.727192 0.513114 0.773329 0.263201 -0.001107 -0.002161
0.328141 0.709028 0.687247 0.000000 -0.027063 0.000015
3.030151 0.635119 0.574845 -0.000002 -0.930857 -0.000010
2.176614 0.644980 0.651963 0.000001 -0.675765 0.000001
1.953702 0.971290 0.810665 0.074171 0.002563 -0.003027
2.535998 0.767782 0.666898 -0.000001 0.655312 0.000015
1.233230 0.787077 0.565768 -0.000001 0.874892 -0.000002
2.047967 0.878843 0.461363 0.066688 -0.001588 -0.001876
1.886575 0.911606 0.454513 0.074171 0.002856 0.003372
1.578218 0.618106 0.521778 -0.059926 0.005248 -0.006578
0.376746 0.796303 0.608008 -0.000000 0.999634 0.000000
2.760613 0.668944 0.674672 0.000001 -0.526905 0.000041
1.892374 0.305711 0.249385 -0.059926 0.004548 -0.005706
0.641866 0.716215 0.687273 0.000000 0.027063 0.000031
2.086767 0.656196 0.543257 -0.000000 -0.677863 -0.000014
1.651926 0.825041 0.517164 -0.066651 0.001911 0.002106
1.835872 0.842146 0.689886 -0.066648 0.002831 -0.003119
3.094464 0.779587 0.551053 -0.081881 0.001684 -0.001504
1.854688 0.958767 0.827285 -0.059927 -0.002974 0.003737
0.800938 0.629878 0.601949 0.000000 -0.999634 -0.000000
2.850459 0.792978 0.627699 -0.000000 0.959837 0.000015
2.999316 1.125036 0.965372 -0.330003 0.001117 -0.001611
1.783189 0.915435 0.420765 -0.059927 -0.001662 -0.002090
1.278153 0.705794 0.521096 -0.000000 -0.094354 -0.000017
1.887289 0.586554 0.515320 0.074170 -0.005273 0.006214
2.980605 0.351352 0.897545 0.000000 0.646019 0.001092
2.676644 0.630526 0.546853 0.000000 -0.763317 -0.000203
2.984228 0.474253 0.389219 -0.000001 -0.646018 0.000341
1.725172 0.616788 0.537916 -0.066650 -0.004699 0.005169
2.895382 0.645383 0.555585 -0.000001 -0.675767 -0.000001
1.367999 0.780598 0.652883 0.000000 0.804216 0.000009
2.793769 0.518409 0.781537 0.000000 -0.646020 -0.000171
2.980097 0.846981 0.503456 0.000000 -0.646021 -0.000328
2.015831 0.220749 0.182106 0.066689 0.006841 -0.008041
0.865008 0.710297 0.520844 0.000000 -0.027063 -0.000234
3.030151 0.758946 0.673606 -0.000000 0.549915 0.000077
3.015918 0.948110 0.790258 0.000001 -0.645997 0.000205
3.006816 1.030723 0.860175 -0.000002 -0.645988 0.000205
0.244923 0.638479 0.641040 0.000000 -0.901417 0.000001
2.787036 0.968080 0.819847 0.263200 0.001107 -0.002161
2.734837 0.711776 0.520786 0.000000 -0.013535 -0.000008
3.030151 0.756477 0.532951 -0.000000 0.527034 -0.000041
3.062790 1.031566 0.334548 -0.330004 0.001117 0.001611
1.053538 0.691036 0.523750 0.000000 -0.253661 -0.000012
3.075074 0.670172 0.532691 -0.086739 -0.000254 -0.000436
2.535998 0.763634 0.537839 0.000001 0.614803 -0.000016
2.715690 0.630709 0.591981 -0.000001 -0.980413 -0.000001
2.985228 0.654368 0.545017 -0.000000 -0.697014 -0.000007
2.794328 0.602039 0.522744 -0.000002 0.646016 -0.000546
2.905962 0.902836 0.777318 -0.000001 0.646020 -0.000983
2.905962 0.510880 0.762532 0.000001 0.646019 0.000983
2.970944 0.906804 0.452826 0.000000 -0.646021 -0.000983
0.694153 0.721489 0.521196 -0.000000 0.094685 -0.000067
2.810714 0.872213 0.751400 0.000000 0.646020 -0.000171
2.940305 0.744792 0.527035 0.000001 0.381417 -0.000031
2.221536 0.786707 0.643079 -0.000000 0.889771 0.000006
2.805536 0.630979 0.590240 0.000001 -0.980248 -0.000001
2.892081 0.489515 0.427511 0.000001 0.646019 -0.000983
2.075818 0.397899 0.337286 0.066688 0.002362 -0.002789
1.751671 0.399229 0.865121 -0.066648 -0.001401 -0.001545
1.825117 0.878307 0.761065 -0.059927 -0.003499 0.004394
1.786078 0.871412 0.487209 -0.066649 0.003482 0.003834
1.964414 0.536338 0.465306 0.074172 -0.001428 0.001687
1.628012 0.645417 0.555118 -0.066653 -0.002547 0.002807
1.729663 0.441193 0.379076 -0.066649 -0.001571 0.001732
1.042491 0.715511 0.687292 0.000000 0.027063 0.000234
2.491075 0.663076 0.537480 0.000000 -0.594403 -0.000017
1.881576 0.460208 0.373012 0.066689 0.005701 -0.006712
1.743383 1.010063 0.357617 -0.066651 0.002972 0.003274
2.131691 0.786013 0.644346 -0.000000 0.872644 0.000002
0.828922 0.781896 0.651038 0.000000 0.820125 0.000009
2.918948 0.629845 0.605895 0.000000 -0.999909 0.000000
2.538207 0.796299 0.599976 0.000000 0.999634 -0.000000
2.010832 1.035947 0.870953 0.074171 0.002270 -0.002681
3.139800 0.608606 0.692512 -0.330005 -0.000971 -0.001401
2.899505 0.795704 0.546853 0.000000 0.763317 -0.000203
1.502768 0.728256 0.685964 -0.000000 0.175220 0.000071
3.076070 0.855527 0.711902 -0.000002 -0.646008 0.000328
3.066879 0.527972 0.460059 0.000000 0.646019 -0.000491
1.951998 0.759535 0.673218 0.000000 0.549780 0.000019
0.379692 0.639659 0.643326 0.000000 -0.877054 0.000002
0.783999 0.779551 0.553825 0.000000 0.804118 -0.000009
0.963692 0.647348 0.655165 0.000001 -0.786651 0.000010
0.963692 0.763098 0.537438 0.000000 0.593866 -0.000004
2.041844 0.725789 0.686380 0.000000 0.148569 0.000084
2.025829 0.467393 0.400971 0.074171 -0.001282 0.001514
2.131691 0.726207 0.686317 -0.000001 0.144853 0.000022
0.041872 0.678313 0.592336 -0.561438 -0.000025 -0.000008
2.309173 0.711565 0.687315 0.000000 -0.027051 0.000008
1.948379 1.269363 1.067177 -0.066652 0.003057 -0.003367
1.639746 0.629931 0.608149 0.000000 -0.999634 0.000000
2.985228 0.780012 0.554449 -0.000000 0.804195 -0.000019
2.915115 0.843013 0.726688 -0.000001 0.646020 -0.000983
2.670767 0.777003 0.550628 -0.000001 0.770836 -0.000042
2.913894 0.436508 0.850852 0.000002 -0.646008 -0.000341
0.604307 0.637505 0.569120 0.000000 -0.913183 -0.000001
1.798478 0.950343 0.816279 -0.059926 -0.001575 0.001980
3.030151 0.640082 0.644099 0.000000 -0.877082 0.000028
2.859361 0.825921 0.712222 0.000000 0.646020 -0.000205
3.005469 0.318286 0.950906 -0.000000 -0.646019 -0.000546
2.047967 0.885878 0.747563 0.074172 0.001428 -0.001687
3.060727 0.915350 0.762532 0.000000 -0.646023 0.000164
1.939420 0.900080 0.749007 0.074172 0.002856 -0.003372
1.817229 0.741174 0.682482 0.000000 0.331377 0.000018
2.022258 0.837684 0.704271 0.074171 0.007030 -0.008269
1.844441 0.638417 0.563388 0.074171 -0.005272 0.006214
0.873846 0.631961 0.622792 -0.000002 -0.965956 0.000003
2.000120 0.167505 0.135669 0.066690 0.003095 -0.003653
1.655459 0.912458 0.769920 -0.066653 0.003482 -0.003834
2.658136 0.614553 0.700167 0.000000 -0.646021 -0.001092
1.756525 0.573547 0.706596 -0.066649 -0.004699 -0.005169
1.323076 0.632614 0.582699 0.000001 -0.965298 -0.000003
1.954416 1.068025 0.293062 0.066688 -0.004724 -0.005568
1.728772 0.846544 0.479695 -0.059927 -0.009679 -0.012022
2.952334 0.549032 0.452506 -0.000001 -0.646020 0.000983
0.694153 0.778036 0.551878 0.000000 0.787790 -0.000010
2.005119 0.430450 0.836402 0.074172 -0.002417 -0.002854
1.644307 0.797260 0.682781 -0.059927 -0.007872 0.009820
3.069917 0.566125 0.741153 0.000000 -0.646019 -0.000491
3.068233 0.975011 0.832057 -0.330003 0.000535 -0.000772
1.862152 0.646637 0.654244 0.000000 -0.804141 0.000005
1.188307 0.643630 0.649982 0.000001 -0.832020 0.000008
3.030079 0.386655 0.893043 0.000000 -0.646021 -0.000546
1.682460 0.693562 0.685024 -0.000000 -0.228192 0.000108
0.694153 0.633770 0.578741 -0.000001 -0.947312 -0.000004
3.054536 0.510880 0.762532 0.000000 0.646022 0.000164
2.901234 0.561852 0.744770 0.000000 -0.646020 -0.000983
0.559384 0.649631 0.657986 0.000000 -0.770935 0.000010
1.628160 0.559019 0.731347 -0.066650 -0.003821 -0.004207
0.783999 0.665071 0.672097 0.000001 -0.549786 0.000005
2.075818 0.595613 0.703508 0.066691 0.002932 0.003461
2.760613 0.756747 0.675007 -0.000001 0.526905 0.000041
2.803710 0.571822 0.736331 0.000000 -0.646020 -0.000171
0.334769 0.649407 0.550411 0.000001 -0.767510 -0.000005
2.190606 0.629870 0.602231 -0.000000 -0.999634 -0.000000
2.805400 0.918504 0.417547 0.000000 0.646020 0.000682
0.828922 0.654571 0.544820 0.000001 -0.696448 -0.000013
0.379692 0.770498 0.543689 0.000001 0.597281 -0.000002
0.877528 0.714665 0.687315 0.000000 0.027063 0.000015
2.506540 0.629889 0.606599 0.000000 -0.999634 0.000000
1.803462 0.814568 0.540327 -0.066652 0.002831 0.003118
2.760613 0.757316 0.533471 -0.000001 0.526857 -0.000041
0.152199 0.657610 0.545467 -0.131042 -0.000187 -0.000187
2.227428 0.709733 0.687266 0.000000 -0.027063 0.000234
0.514461 0.781129 0.652136 0.000000 0.820025 0.000004
1.143384 0.677505 0.528771 -0.000001 -0.425034 -0.000007
1.728772 0.858465 0.714343 -0.066649 0.009397 -0.010261
3.006816 1.030723 0.347950 -0.000003 -0.645931 -0.000205
1.457845 0.630377 0.594497 0.000001 -0.992150 -0.000003
2.051537 1.263160 0.140909 0.074169 0.002490 0.002940
1.457845 0.781250 0.556163 0.000001 0.807495 -0.000004
1.870150 0.496649 0.805273 0.066687 0.006027 0.007093
0.192013 0.637349 0.639116 0.023466 -0.000701 0.000313
2.850459 0.683173 0.526344 0.000000 -0.357116 -0.000017
1.682460 0.670052 0.532765 0.000000 -0.527184 -0.000010
1.727383 0.776182 0.658464 -0.000001 0.752568 0.000011
3.011050 0.846981 0.704669 0.000000 -0.646020 0.000328
0.424615 0.657285 0.665872 -0.000000 -0.677774 0.000027
1.696337 0.448304 0.825605 -0.066650 -0.006284 -0.006899
2.075818 1.010357 0.855628 0.066688 -0.005050 0.005950
2.326848 0.796356 0.602090 -0.000001 0.350648 -0.000000
2.131691 0.664380 0.671609 0.000001 -0.593306 0.000017
2.001340 0.629920 0.607727 0.000000 -0.999634 0.000000
1.883004 0.576977 0.736163 0.066690 0.007818 0.009175
1.457845 0.644018 0.650571 -0.000000 -0.834723 0.000004
0.424615 0.650605 0.549024 0.000000 -0.751130 -0.000006
2.851671 0.566430 0.492607 0.000000 0.646021 -0.000205
2.914523 0.360066 0.298923 0.263202 -0.000574 0.001120
2.989554 0.514848 0.784550 -0.000001 -0.646019 -0.000983
0.604307 0.727701 0.522063 0.000000 0.175015 -0.000036
1.773613 0.514779 0.758352 -0.066649 -0.003312 -0.003648
3.085299 0.817375 0.503136 -0.000000 0.646021 0.000655
0.244923 0.778166 0.656081 -0.000002 0.782346 0.000010
2.311383 0.768971 0.665848 0.000001 0.675443 0.000014
2.037255 0.333137 0.921892 0.074171 -0.007908 -0.009292
1.615035 0.795960 0.540211 -0.066653 0.002547 0.002807
2.050823 0.955356 0.811267 0.066689 -0.002851 0.003365
0.739076 0.646721 0.553768 -0.000001 -0.803217 -0.000009
2.682898 0.824191 0.685381 0.000000 -0.646020 0.001092
1.963700 1.005517 0.861348 0.066691 -0.002688 0.003173
2.828726 0.457873 0.832769 -0.000000 -0.646019 -0.000819
1.873114 0.398785 0.854573 -0.066650 -0.005435 -0.005973
1.907075 0.665909 0.672682 -0.000000 -0.571498 0.000009
0.783999 0.760610 0.672480 0.000001 0.572133 0.000036
2.944847 0.423994 0.372059 0.000002 0.645955 -0.000171
2.993037 1.097668 0.291293 -0.000001 -0.646021 -0.000546
2.993037 0.328562 0.291293 -0.000001 0.646020 -0.000546
1.592614 0.670203 0.675452 0.000000 -0.503766 0.000003
0.559384 0.701313 0.521614 -0.000001 -0.147551 -0.000042
1.906570 0.982542 0.392530 0.074172 0.002563 0.003027
1.789974 1.093231 0.921730 -0.066647 0.004926 -0.005417
1.789974 0.332999 0.921730 -0.066649 -0.004925 -0.005416
1.233230 0.675071 0.529972 -0.000001 -0.455163 -0.000025
0.200000 0.642933 0.559203 0.023470 -0.000652 -0.000404
1.861515 0.385660 0.315297 -0.059925 0.005248 -0.006578
0.783999 0.730123 0.522531 -0.000001 0.201474 -0.000062
1.713995 0.588334 0.487702 -0.059926 0.009679 -0.012022
0.963692 0.642802 0.559412 -0.000002 -0.842648 -0.000008
1.997264 1.256781 1.056529 0.074173 0.002783 -0.003286
0.918769 0.740243 0.525316 0.000001 0.295333 -0.000005
2.980097 0.591763 0.719455 0.000000 -0.646020 -0.000164
2.024401 0.000000 1.202583 0.074173 -0.006444 -0.007585
2.024401 0.000000 0.005542 0.074171 -0.006444 0.007586
0.244923 0.705302 0.521143 -0.000000 -0.094647 -0.000533
1.895858 0.768925 0.667054 0.066689 -0.005864 0.006902
0.152199 0.777369 0.652907 -0.131045 0.000217 0.000156
2.025829 0.945290 0.403189 0.066688 -0.002851 -0.003365
0.424615 0.695072 0.522748 0.000001 -0.223681 -0.000028
1.754982 0.984821 0.826570 -0.066650 0.003057 -0.003368
2.715690 0.666371 0.535121 0.000000 -0.572426 -0.000018
2.940305 0.788026 0.640467 0.000000 0.901804 0.000024
1.188307 0.785759 0.644810 0.000000 0.877103 0.000007
1.633592 0.550931 0.469933 -0.066651 -0.001911 0.002106
2.896505 0.600309 0.495903 0.000000 -0.646021 0.000205
1.727383 0.778817 0.552877 -0.000000 0.787021 -0.000005
1.502768 0.664181 0.671462 0.000000 -0.594050 0.000017
2.262777 0.709310 0.520871 0.000000 -0.027474 -0.000230
0.289846 0.774399 0.547662 -0.000000 0.735269 -0.000023
0.144315 0.704528 0.525109 -0.161538 -0.000024 -0.000423
2.086767 0.637641 0.639291 0.000000 -0.901744 0.000006
0.105700 0.644186 0.596566 -0.377193 -0.000037 -0.000003
0.873846 0.660713 0.668804 0.000001 -0.634975 0.000015
1.946561 0.490545 0.428289 0.074171 -0.002710 0.003199
3.044143 0.708746 0.520886 -0.000000 -0.027051 -0.000015
1.867401 1.009746 0.839037 -0.066649 0.001401 -0.001545
1.412922 0.759712 0.535024 0.000000 0.550795 -0.000002
1.688190 0.965793 0.392788 -0.066649 0.001571 0.001732
2.735677 0.895409 0.462470 0.263200 -0.002019 -0.001502
0.649230 0.698043 0.522149 -0.000001 -0.175000 -0.000143
1.930136 0.615574 0.535705 0.074172 -0.003954 0.004666
2.625844 0.669993 0.675323 -0.000001 -0.524582 0.000010
0.828922 0.685788 0.682739 0.000000 -0.332099 0.000036
0.604307 0.637217 0.638361 0.000000 -0.913183 0.000011
2.827099 0.480969 0.787847 0.000000 0.646021 0.000205
2.012975 1.385098 1.178284 0.066687 -0.007167 0.008420
1.960843 0.419335 0.366631 0.074171 -0.002417 0.002854
0.168069 0.717585 0.686501 -0.151753 0.000010 0.000117
1.741435 0.899154 0.750101 -0.066650 0.006963 -0.007637
1.502768 0.670842 0.532300 -0.000000 -0.503249 -0.000011
2.805536 0.642710 0.648563 -0.000000 -0.849635 0.000008
1.038072 0.796360 0.605895 -0.000000 0.999634 0.000000
0.962955 0.712410 0.520787 0.000000 -0.027485 -0.000008
1.890622 1.198045 0.187899 -0.059925 -0.007697 -0.009605
1.278153 0.648194 0.656247 0.000000 -0.771124 0.000003
1.812032 0.585113 0.517023 -0.066652 -0.002831 0.003118
1.921567 1.107639 0.285195 -0.066651 0.004586 0.005045
1.143384 0.673852 0.677519 0.000000 -0.480214 0.000012
2.356306 0.748598 0.679415 0.000000 0.430988 0.000013
1.962640 1.357243 1.145589 -0.066647 0.008831 -0.009654
1.008615 0.783220 0.649040 0.000000 0.835223 0.000004
2.176614 0.751880 0.530342 -0.000000 0.456289 -0.000025
0.649230 0.649451 0.550356 0.000000 -0.770849 -0.000010
0.504888 0.629914 0.607515 0.000000 -0.999634 0.000000
0.739076 0.644415 0.651153 -0.000001 -0.817018 0.000004
1.412922 0.658713 0.667129 -0.000001 -0.656041 0.000015
1.948703 0.373817 0.329290 0.074170 -0.009080 0.010649
2.311383 0.640048 0.564088 -0.000000 -0.875945 -0.000003
0.244923 0.659246 0.540534 -0.000003 -0.305437 -0.000004
0.739076 0.699639 0.521865 0.000000 -0.175908 -0.000009
1.278153 0.779425 0.654470 -0.000000 0.804141 0.000005
2.356306 0.671634 0.531839 0.000000 -0.503774 -0.000011
1.602058 0.615123 0.682822 -0.066646 -0.005095 -0.005602
1.053538 0.642097 0.647575 0.000001 -0.849472 0.000016
0.873846 0.771180 0.544353 -0.000002 0.696181 -0.000026
1.965237 1.306726 0.095794 -0.059927 -0.005598 -0.007013
2.893708 0.959811 0.382589 -0.000000 0.646021 0.000409
1.806269 0.308735 0.265859 -0.066650 -0.004925 0.005416
1.977268 0.249371 0.986940 0.074171 -0.003369 -0.003976
1.862152 0.789765 0.636652 -0.000001 0.923432 0.000010
1.910141 1.057126 0.909716 0.066687 -0.004724 0.005568
1.547691 0.748407 0.679506 -0.000001 0.429166 0.000013
0.200000 0.735399 0.523804 0.023466 0.000215 -0.000737
1.995836 0.095794 0.074602 0.066687 0.009773 -0.011426
1.053538 0.645303 0.555700 0.000001 -0.817048 -0.000009
3.094464 0.636514 0.567173 -0.083174 -0.000461 -0.000253
3.029622 0.579249 0.503456 0.000002 0.645996 -0.000246
2.625844 0.703759 0.521299 -0.000000 -0.121165 -0.000052
1.727383 0.630463 0.593797 -0.000001 -0.916484 -0.000000
1.323076 0.669423 0.533156 0.000000 -0.527108 -0.000041
1.739931 1.047438 0.884714 -0.066650 0.005605 -0.006158
1.772306 0.651115 0.659686 0.000000 -0.735221 0.000023
1.412922 0.635686 0.573364 0.000001 -0.916613 -0.000002
3.113855 0.639664 0.650215 -0.088556 -0.001737 0.001232
2.491075 0.659032 0.667408 0.000000 -0.657726 0.000004
2.721668 0.847286 0.730304 0.000000 0.646021 -0.000409
2.757312 0.545065 0.474525 0.000000 0.646020 -0.000546
0.559384 0.648194 0.551878 0.000000 -0.787665 -0.000002
0.334769 0.784449 0.647065 0.000000 0.849941 0.000002
3.030151 0.704144 0.686872 0.000000 -0.094650 0.000017
1.824316 0.365774 0.905781 -0.059927 0.010495 0.013007
0.424615 0.784394 0.647155 -0.000000 0.849797 0.000001
2.041844 0.672399 0.531402 0.000000 -0.480036 -0.000003
3.072994 0.574671 0.474205 -0.000001 -0.646016 0.000328
2.024401 1.421540 0.000000 0.066689 -0.005864 -0.006902
1.881576 0.821976 0.677269 0.074168 0.002636 -0.003113
2.842358 0.709451 0.687258 0.000000 -0.027063 0.000031
1.592614 0.631647 0.586744 0.000001 -0.979033 -0.000005
1.921178 0.110047 0.096034 -0.066650 -0.002887 0.003181
1.895231 1.129630 0.966201 -0.059925 -0.009096 0.011315
2.086767 0.782871 0.558555 -0.000001 0.788507 -0.000002
1.772306 0.790453 0.634991 -0.000000 0.923976 0.000001
1.412922 0.704916 0.686946 -0.000001 -0.092786 0.000068
3.047089 0.796291 0.599694 0.000000 0.999634 -0.000000
2.032970 0.126230 1.096586 0.074169 -0.002490 -0.002940
2.049395 0.517954 0.441466 0.074171 -0.002710 0.003199
3.152635 0.743225 0.519035 -0.088942 0.000178 -0.000483
3.075625 0.430321 0.843400 -0.330005 -0.001117 -0.001611
1.987266 1.006534 0.347980 0.066688 -0.010098 -0.011798
0.936443 0.796364 0.605754 0.000000 0.999634 0.000000
2.221536 0.667931 0.534093 -0.000000 -0.549605 -0.000010
2.607504 0.803188 0.680294 0.263200 0.001107 -0.002161
2.985228 0.734376 0.684590 -0.000001 0.254432 0.000096
0.752332 0.796337 0.606740 0.000000 0.999634 0.000000
2.062963 0.813261 0.687567 0.074172 0.002636 -0.003113
1.367999 0.629824 0.603922 0.000000 -0.999634 -0.000000
3.113855 0.780937 0.658149 -0.088556 0.001737 0.001232
2.707660 0.614553 0.507958 0.000000 -0.646021 0.001092
1.694216 0.503654 0.786213 -0.059924 0.001750 0.002200
2.940305 0.702640 0.686689 0.000000 -0.121542 0.000414
1.831912 1.039629 0.338788 -0.066648 0.005435 0.005973
1.885731 1.258804 1.063251 -0.066646 0.003227 -0.003554
2.895382 0.772112 0.662860 -0.000001 0.614337 0.000002
0.649230 0.646595 0.654187 -0.000000 -0.804257 0.000005
2.782201 0.488090 0.426306 0.000000 0.646021 -0.000171
3.036231 0.391234 0.344334 0.000000 0.646019 -0.000409
0.379692 0.729226 0.685780 0.000000 0.201474 0.000031
1.772306 0.678752 0.528194 0.000000 -0.407550 -0.000014
0.559384 0.787350 0.566301 0.000000 0.889622 -0.000003
0.105700 0.772526 0.639809 -0.311991 0.000080 0.000045
0.105700 0.776042 0.574949 -0.311992 0.000084 -0.000036
1.830159 0.601783 0.674350 0.074171 -0.005272 -0.006214
1.898715 1.020685 0.879875 0.066687 -0.005050 0.005950
3.088460 0.465978 0.394903 -0.330003 -0.001117 0.001612
3.139800 0.817624 0.515613 -0.330005 0.000971 0.001401
3.126965 0.572949 0.722689 -0.330003 -0.001117 -0.001611
3.036104 0.460722 0.377767 0.000000 -0.646020 0.000546
0.289846 0.639330 0.565423 -0.000000 -0.889815 -0.000006
1.902285 0.969267 0.803943 0.074169 0.001282 -0.001514
2.311383 0.742366 0.526079 -0.000001 0.357128 -0.000066
0.379692 0.638622 0.566803 -0.000000 -0.887698 -0.000003
1.697419 0.815225 0.530169 -0.066646 0.005095 0.005602
2.015831 1.205482 1.026019 0.066689 -0.006841 0.008041
2.086767 0.630782 0.591493 -0.000000 -0.987613 -0.000001
2.131691 0.637839 0.568421 0.000000 -0.901245 -0.000006
0.694153 0.633035 0.626955 -0.000001 -0.951934 0.000002
1.813453 0.381951 0.316035 -0.059927 0.005598 -0.007013
2.645728 0.716004 0.687279 0.000000 0.027063 0.000031
0.649230 0.761304 0.671996 -0.000001 0.567350 0.000009
2.745147 0.712833 0.687353 0.000000 -0.013529 0.000246
2.962020 0.357049 0.315402 -0.000000 0.646022 -0.000409
1.623859 0.886660 0.458752 -0.066651 0.001911 0.002106
1.938706 0.278001 0.223807 0.066688 0.008144 -0.009552
0.649230 0.787889 0.567372 -0.000001 0.895706 -0.000003
1.800837 1.105629 0.268240 -0.059927 -0.010145 -0.012586
0.514461 0.767225 0.540741 0.000001 0.630270 -0.000004
1.892374 1.120519 0.249385 -0.059924 -0.009097 -0.011316
1.945847 0.382667 0.871067 0.074172 -0.004540 -0.005355
2.580921 0.754109 0.676571 -0.000000 0.503950 0.000011
1.772306 0.790595 0.573495 0.000000 0.923477 -0.000001
0.334769 0.648913 0.657117 0.000000 -0.770935 0.000010
1.754725 0.828171 0.684529 -0.066651 0.004699 -0.005169
2.809087 0.849117 0.706477 0.000000 -0.646020 0.000171
2.032970 1.314065 1.116416 0.066688 -0.004887 0.005759
0.090769 0.702818 0.666873 -0.370222 -0.000013 0.000068
2.034398 0.377934 0.324425 0.074170 -0.004247 0.005010
2.967640 0.613434 0.675737 0.000000 0.646020 0.000328
1.739949 0.607424 0.677369 -0.066650 -0.009397 -0.010261
2.535998 0.676742 0.529137 0.000001 -0.431360 -0.000026
2.921775 1.066332 0.317813 0.263199 -0.001010 -0.000751
1.950132 1.184671 0.193966 0.066688 -0.007493 -0.008798
1.554378 0.809049 0.522871 -0.059930 -0.005248 -0.006577
1.945458 1.391406 0.030005 -0.059925 -0.008397 -0.010462
1.912868 1.342877 0.071077 -0.059926 -0.010495 -0.013007
1.804235 1.181111 1.000141 -0.059925 -0.008747 0.010889
1.804235 0.245120 0.207984 -0.066649 -0.008492 0.009289
1.717328 0.374532 0.890615 -0.066650 -0.005605 -0.006158
1.869415 1.278170 0.125840 -0.059928 -0.006647 -0.008312
1.673875 0.986991 0.835852 -0.059928 -0.006472 0.008096
1.945458 0.034824 1.178120 -0.066647 -0.007473 -0.008189
1.869415 0.148060 1.082285 -0.066650 -0.006454 -0.007083
1.945458 0.034824 0.030005 -0.066649 -0.007473 0.008189
1.771645 0.293649 0.959069 -0.066649 -0.009171 -0.010018
1.858551 0.164237 0.139531 -0.066650 -0.003227 0.003554
1.652148 0.471592 0.399655 -0.066650 -0.006624 0.007268
3.075625 0.995909 0.364726 -0.330005 0.001117 0.001611
0.559384 0.788941 0.638522 0.000000 0.913183 0.000003
2.008690 0.131187 0.105682 0.066687 0.002769 -0.003269
1.098461 0.780766 0.652656 -0.000000 0.820055 0.000009
2.491075 0.754231 0.676500 0.000000 0.503950 0.000022
1.143384 0.642134 0.560491 -0.000001 -0.835010 -0.000004
1.457845 0.785339 0.645544 0.000000 0.863733 0.000015
0.379692 0.718890 0.520976 0.000000 0.067641 -0.000187
1.682460 0.633480 0.628478 0.000001 -0.935259 0.000002
1.098461 0.664068 0.536747 -0.000001 -0.593922 -0.000034
2.805536 0.769723 0.665155 -0.000000 0.677770 0.000014
1.053538 0.747961 0.528409 0.000000 0.407550 -0.000014
0.469538 0.790947 0.633708 -0.000001 0.933534 0.000010
1.828277 1.159460 0.229787 -0.066650 0.004246 0.004673
1.233230 0.749393 0.529091 -0.000001 0.431799 -0.000026
2.868742 0.868652 0.459739 -0.000000 0.646020 0.000819
1.188307 0.778948 0.553044 -0.000000 0.787760 -0.000010
1.994407 0.582714 0.501633 0.074171 -0.007030 0.008269
1.008615 0.774686 0.547973 0.000001 0.734800 -0.000023
0.482794 0.716638 0.687262 0.000000 0.027063 0.000031
2.041844 0.788117 0.640277 -0.000001 0.895706 0.000003
2.401229 0.777654 0.656709 0.000000 0.770479 0.000003
2.816958 0.430669 0.365020 0.263200 -0.001107 0.002161
0.289846 0.633173 0.627429 0.000000 -0.959827 0.000007
2.027257 1.277871 1.086284 0.066693 -0.005538 0.006521
2.446151 0.644859 0.556336 -0.000001 -0.819410 -0.000009
2.221536 0.654318 0.663059 0.000001 -0.690001 0.000007
1.008615 0.747510 0.679917 0.000000 0.407550 0.000004
1.233230 0.791780 0.631423 0.000000 0.935500 0.000001
2.612588 0.796328 0.601033 -0.000001 0.350648 -0.000000
2.682309 0.554337 0.469684 0.263199 -0.001148 0.002240
2.940305 0.788855 0.569410 0.000000 0.913183 -0.000003
2.075818 0.451821 0.382921 0.066688 0.005375 -0.006331
2.075818 0.956436 0.398133 0.066688 -0.005375 -0.006331
2.075818 0.613587 0.519829 0.066689 0.005864 -0.006902
2.075818 1.387812 1.175078 0.066691 -0.005864 0.006902
2.075818 1.190098 0.200378 0.066688 -0.006841 -0.008041
2.075818 1.387812 0.033047 0.066691 -0.005864 -0.006902
2.075818 0.397899 0.870840 0.066689 0.004724 0.005568
0.828922 0.787061 0.565737 -0.000001 0.889049 -0.000007
0.873846 0.759447 0.673276 -0.000001 0.547820 0.000010
2.900788 0.401917 0.353375 -0.000000 0.646020 -0.000546
1.233230 0.640998 0.562398 -0.000001 -0.659019 -0.000001
2.891814 0.621675 0.694140 0.000000 -0.646021 -0.000819
3.003435 0.902531 0.751682 -0.000001 -0.646021 0.000983
0.918769 0.639794 0.643573 0.000000 -0.877064 0.000014
2.580921 0.648666 0.551307 0.000001 -0.739258 -0.000003
1.323076 0.785215 0.562368 -0.000001 0.845231 -0.000002
2.004405 1.133092 0.242371 0.066691 -0.004072 -0.004803
2.401229 0.784338 0.560880 -0.000001 0.846498 -0.000008
0.604307 0.769801 0.543042 -0.000000 0.677572 -0.000007
2.975461 1.128390 0.258947 0.263199 -0.001010 -0.000751
2.975461 0.297840 0.258947 0.263199 0.001010 -0.000751
2.990571 0.405884 0.876769 0.000003 -0.645949 -0.000205
1.921567 0.332663 0.939557 0.066689 0.004398 0.005185
2.921685 0.334482 0.924511 0.263203 -0.001107 -0.002161
2.637426 0.830670 0.703553 0.263202 0.001107 -0.002161
2.652387 0.844411 0.492943 0.263201 0.001148 0.002240
2.697270 0.540596 0.750070 0.263200 -0.001107 -0.002161
2.712231 0.899375 0.761700 0.263201 0.001107 -0.002161
2.906724 1.078007 0.912882 0.263202 0.001107 -0.002161
2.981529 0.279518 0.971028 0.263200 -0.001107 -0.002161
1.457845 0.741041 0.682529 -0.000000 0.328989 0.000009
2.580921 0.659409 0.667726 0.000000 -0.636936 0.000008
1.781685 1.076293 0.301009 -0.066650 0.005265 0.005788
1.770822 0.366114 0.893426 -0.066651 -0.002632 -0.002901
2.401229 0.630099 0.597267 0.000001 -0.764633 -0.000000
1.323076 0.666313 0.672964 0.000000 -0.572327 0.000005
2.311383 0.783613 0.559712 -0.000001 0.849612 -0.000031
1.951998 0.633084 0.581001 0.000000 -0.958126 -0.000001
1.098461 0.758799 0.534423 0.000000 0.549950 -0.000038
2.356306 0.646134 0.653563 0.000001 -0.804018 0.000019
1.912997 0.587789 0.694265 0.074170 -0.007030 -0.008269
1.367999 0.723170 0.686740 -0.000000 0.121527 0.000103
2.895382 0.640404 0.644686 0.000000 -0.876874 0.000003
1.800606 0.641489 0.523309 -0.059925 0.005831 -0.007302
1.219237 0.711776 0.687321 0.000000 -0.027063 0.000008
1.875863 0.947802 0.387932 0.066689 -0.005701 -0.006712
3.072994 0.864073 0.488991 -0.000001 -0.646019 -0.000328
0.469538 0.672986 0.531080 -0.000000 -0.480294 -0.000046
2.131691 0.668764 0.533564 0.000001 -0.524582 -0.000010
1.502768 0.633662 0.579077 0.000000 -0.951868 -0.000004
2.940305 0.639218 0.565643 0.000001 -0.889731 -0.000026
3.029622 0.834467 0.488671 -0.000002 0.645996 0.000246
1.547691 0.630420 0.613978 -0.000000 -0.991274 0.000001
1.987266 0.401722 0.332768 0.066688 0.005050 -0.005950
2.041844 0.678141 0.679659 0.000000 -0.407550 0.000057
1.968699 0.817005 0.701367 0.066688 -0.007818 0.009175
0.918769 0.649631 0.550139 0.000000 -0.770781 -0.000003
1.870085 0.358329 0.915209 -0.059926 0.005248 0.006578
2.943182 0.937021 0.401876 -0.000001 0.646020 0.000819
0.192013 0.792227 0.630719 0.023474 0.000731 0.000235
2.625844 0.638311 0.640690 -0.000002 -0.787361 0.000002
1.862152 0.795339 0.590761 -0.000001 0.985560 -0.000001
1.367999 0.642561 0.648323 0.000002 -0.556045 0.000002
1.951998 0.675009 0.678121 -0.000002 -0.439509 0.000013
2.469718 0.714665 0.687315 -0.000000 0.027051 0.000031
0.469538 0.672677 0.676876 0.000000 -0.480294 0.000023
2.031542 1.026420 0.335027 0.066689 -0.005050 -0.005949
2.850459 0.793008 0.580527 0.000000 0.959712 -0.000002
2.805536 0.775533 0.548917 0.000000 0.752721 -0.000011
1.502768 0.748916 0.528863 -0.000001 0.345461 -0.000004
0.963692 0.777273 0.657171 0.000000 0.770709 0.000001
1.637537 0.789171 0.638007 0.000000 0.913183 0.000001
0.694153 0.785321 0.645575 0.000001 0.845231 0.000002
0.144315 0.641037 0.637410 -0.161688 -0.000193 0.000083
2.760613 0.674758 0.530133 -0.000001 -0.455201 -0.000025
2.041844 0.633684 0.629115 -0.000000 -0.951288 0.000002
2.266459 0.781694 0.651327 -0.000000 0.819827 0.000018
2.723169 0.838435 0.510689 -0.000000 -0.646019 -0.000819
2.221536 0.754657 0.676251 0.000000 0.503774 0.000022
1.862152 0.674820 0.530101 -0.000001 -0.446283 -0.000013
1.907075 0.792859 0.628105 -0.000000 0.959350 0.000004
1.772306 0.629943 0.608572 0.000000 -0.999634 0.000000
1.727383 0.741839 0.525877 0.000000 0.357647 -0.000017
0.783999 0.641744 0.561120 0.000000 -0.863733 -0.000007
1.940351 1.301237 1.106060 -0.059923 -0.005598 0.007013
2.985228 0.783892 0.647964 0.000000 0.849799 0.000016
1.323076 0.785179 0.645818 -0.000000 0.863823 0.000007
0.514461 0.644516 0.651298 0.000002 -0.813661 0.000009
0.334769 0.688062 0.524631 -0.000000 -0.306412 -0.000079
2.373980 0.796406 0.603781 0.000000 0.996550 -0.000000
1.588195 0.716779 0.687258 0.000000 0.027063 0.000234
1.938706 0.855179 0.497189 0.074170 0.007030 0.008269
0.289846 0.726103 0.521792 0.000000 0.148367 -0.000084
1.760781 0.309826 0.262747 -0.066649 -0.009850 0.010745
1.767966 0.379264 0.317387 -0.059926 0.002799 -0.003518
1.943704 0.508382 0.764462 0.074170 -0.002710 -0.003199
1.943704 0.917848 0.443664 0.074170 0.002710 0.003199
2.859590 0.928475 0.799016 0.000000 0.646020 -0.000983
2.715690 0.750124 0.678684 0.000000 0.456321 0.000025
1.907075 0.752378 0.530606 0.000000 0.480377 -0.000023
1.946064 0.102864 1.116361 -0.066650 -0.010189 -0.011107
0.873846 0.667725 0.534229 -0.000001 -0.549073 -0.000039
0.424615 0.782910 0.558614 -0.000001 0.834572 -0.000017
1.819512 0.477455 0.420064 -0.066649 -0.003142 0.003461
2.131691 0.793517 0.582324 0.000000 0.967072 -0.000003
1.543515 0.792872 0.671563 -0.059926 -0.005248 0.006578
2.715690 0.751880 0.530342 -0.000001 0.455642 -0.000025
1.996921 0.752626 0.530742 0.000001 0.445385 -0.000003
2.401229 0.670872 0.675843 0.000001 -0.502452 0.000022
2.446151 0.642412 0.648084 -0.000000 -0.849635 0.000008
2.037255 0.324150 0.278627 0.074170 -0.003954 0.004666
2.032970 1.314065 0.091709 0.066687 -0.004887 -0.005759
0.739076 0.786504 0.564676 -0.000000 0.875945 -0.000003
1.784089 0.710860 0.687296 0.000000 -0.027051 0.000234
3.030151 0.666371 0.535121 -0.000000 -0.572348 -0.000145
0.244923 0.786723 0.565078 -0.000000 0.889769 -0.000052
1.875517 0.350240 0.286071 -0.059926 0.004898 -0.006142
2.961893 0.999693 0.859290 -0.000001 0.646008 -0.000273
3.152635 0.714296 0.558977 1.000000 0.000000 0.000000
3.152635 0.754783 0.586803 1.000000 0.000000 -0.000000
3.152635 0.672930 0.583587 1.000000 0.000000 -0.000000
3.152635 0.739625 0.640550 1.000000 0.000000 0.000000
3.152635 0.681224 0.635954 1.000000 -0.000000 0.000000
2.311383 0.662235 0.670004 0.000000 -0.615898 0.000065
2.850459 0.643320 0.558614 0.000001 -0.834572 -0.000017
1.878373 1.096175 0.291697 -0.066648 0.004756 0.005231
2.670767 0.673048 0.677079 0.000002 -0.479349 0.000046
2.580921 0.755358 0.532283 -0.000000 0.503906 -0.000022
1.547691 0.667961 0.534074 -0.000000 -0.548513 -0.000010
1.098461 0.632641 0.625528 -0.000001 -0.963838 0.000003
1.957273 0.349095 0.285602 0.066688 0.004724 -0.005568
2.047967 0.569854 0.727747 0.066690 0.003176 0.003749
2.221536 0.754262 0.531643 0.000000 0.503766 -0.000005
2.176614 0.784771 0.561607 0.000000 0.863733 -0.000015
2.491075 0.755175 0.532176 -0.000000 0.503774 -0.000011
2.446151 0.787797 0.567181 0.000000 0.901826 -0.000003
1.457845 0.691786 0.523553 -0.000000 -0.251867 -0.000012
1.952274 0.459365 0.806781 0.074170 -0.001282 -0.001514
1.992979 0.365527 0.905490 0.066689 0.004724 0.005568
1.905142 0.463684 0.830108 0.066689 0.001425 0.001684
3.133245 0.799371 0.584375 -0.088558 0.002047 -0.000589
1.008615 0.640404 0.644686 0.000000 -0.877077 0.000014
0.559384 0.686787 0.683083 -0.000000 -0.306380 0.000039
0.963692 0.683371 0.681857 0.000002 -0.356765 0.000066
1.367999 0.680722 0.527331 0.000000 -0.382663 -0.000015
1.855867 0.823212 0.532316 0.074169 0.002636 0.003113
1.880862 0.554602 0.452838 0.066687 0.001588 -0.001876
1.188307 0.754170 0.676535 0.000000 0.503766 0.000005
2.075818 1.261994 1.068595 0.066689 -0.005538 0.006521
2.075818 1.208072 1.022959 0.066695 -0.003095 0.003653
1.813831 0.579299 0.472864 -0.059926 0.003586 -0.004504
0.334769 0.752068 0.677687 0.000001 0.427893 0.000007
0.424615 0.751974 0.677735 -0.000000 0.456660 0.000003
2.004405 0.304597 0.942845 0.074170 -0.003954 -0.004666
2.985228 0.640678 0.645179 0.000000 -0.863840 0.000002
3.030151 0.788239 0.640022 -0.000001 0.901623 0.000024
2.401229 0.751880 0.530342 0.000000 0.456407 -0.000025
2.985092 0.992571 0.354863 -0.000002 0.645995 0.000273
1.907075 0.637347 0.638651 0.000000 -0.913183 0.000003
0.918769 0.731021 0.685410 -0.000000 0.227390 0.000014
1.904428 0.371690 0.331804 0.074170 -0.004540 0.005355
2.828472 0.854408 0.471794 -0.000000 0.646021 0.000682
0.514461 0.746834 0.680219 0.000001 0.400291 0.000014
3.113855 0.703402 0.690265 -0.088557 -0.000115 0.002042
1.800079 0.520181 0.457059 -0.066650 -0.001656 0.001825
1.908712 0.868337 0.750064 0.066688 -0.001588 0.001876
1.727383 0.669274 0.674877 -0.000001 -0.524582 0.000010
1.824316 1.068534 0.896236 -0.066650 0.005265 -0.005788
1.760781 1.116404 0.945378 -0.059928 -0.010145 0.012586
2.003691 0.962308 0.821278 0.066689 -0.002851 0.003365
2.038683 0.090556 1.127334 0.074172 -0.008787 -0.010311
2.075818 1.333890 1.129442 0.066689 -0.008470 0.009928
1.995836 1.330436 0.074602 0.066687 -0.009773 -0.011426
1.995836 1.330436 1.133523 0.066688 -0.009773 0.011426
2.625844 0.784301 0.560820 -0.000001 0.777466 -0.000001
1.826545 0.543368 0.764795 -0.059926 0.003499 0.004395
2.021544 0.197577 1.035090 0.074171 -0.003076 -0.003631
1.817229 0.777946 0.656356 -0.000000 0.769242 0.000005
3.036841 0.961642 0.406416 0.000002 -0.646002 -0.000341
1.323076 0.753986 0.531487 0.000001 0.478741 -0.000012
1.053538 0.674099 0.677654 0.000000 -0.480214 0.000023
1.787117 0.345888 0.289391 -0.059926 0.005248 -0.006578
2.785201 0.882895 0.447684 -0.000001 0.646017 0.000546
1.875517 1.087325 0.908660 -0.066651 0.004925 -0.005416
1.809175 0.812072 0.707197 -0.059924 -0.002916 0.003664
0.032224 0.742731 0.604063 -0.605459 0.000009 0.000000
2.805536 0.674977 0.678105 0.000000 -0.456347 0.000049
1.816623 0.431868 0.852658 -0.059927 0.002974 0.003737
2.221536 0.638735 0.566583 -0.000001 -0.883940 -0.000003
3.001707 0.808829 0.510369 0.000000 0.646021 0.000491
0.094468 0.713115 0.538905 -0.403433 0.000003 -0.000033
2.828726 0.980870 0.817984 0.263201 -0.002019 0.001502
0.694153 0.698564 0.686069 0.000001 -0.174993 0.000143
0.244923 0.667313 0.673625 0.000001 -0.549878 0.000077
2.625844 0.787447 0.641636 -0.000000 0.889633 0.000006
2.854861 0.523699 0.456443 0.000000 0.646020 -0.000409
3.022045 0.519121 0.427191 -0.000001 -0.646020 0.000983
0.604307 0.737564 0.683688 -0.000000 0.306413 0.000079
1.972984 1.266935 0.145369 -0.066648 0.006114 0.006714
2.266459 0.637580 0.639164 0.000000 -0.901662 0.000003
2.176614 0.681373 0.527062 0.000000 -0.382626 -0.000061
1.694216 0.922576 0.786213 -0.059923 -0.003499 0.004395
1.951998 0.686187 0.525245 0.000001 -0.331569 -0.000036
2.625844 0.634251 0.577267 -0.000001 -0.740063 -0.000001
1.852860 1.200663 1.013488 -0.066651 0.003906 -0.004300
1.852860 0.225567 0.194637 -0.066650 -0.003906 0.004300
1.825420 1.150610 0.970570 -0.066648 0.004586 -0.005045
1.814557 0.291797 0.956879 -0.066649 -0.009171 -0.010018
1.825420 0.275620 0.237555 -0.066649 -0.004586 0.005045
2.749431 0.621675 0.694140 0.000000 -0.646021 -0.000819
2.747931 0.587795 0.510689 0.000000 0.646019 -0.000819
1.771417 1.007182 0.859380 -0.059932 -0.001487 0.001870
1.637537 0.755084 0.532123 -0.000000 0.503886 -0.000087
2.895382 0.670294 0.675505 -0.000000 -0.503249 0.000011
0.289846 0.794350 0.585676 -0.000000 0.973619 -0.000003
1.682460 0.785073 0.646001 0.000000 0.863432 0.000004
1.910855 0.425920 0.377075 0.074171 -0.002417 0.002854
2.075818 0.308029 0.261226 0.066688 0.008144 -0.009552
2.075818 1.136176 0.962111 0.066688 -0.003747 0.004420
2.075818 0.272081 0.230802 0.066689 0.007493 -0.008798
2.075818 1.100228 0.931687 0.066691 -0.004072 0.004803
1.957273 1.087949 0.909745 0.074170 0.008494 -0.009972
2.986211 0.613434 0.532388 0.000000 0.646020 -0.000164
2.702434 0.796329 0.607022 0.000000 0.999634 0.000000
3.054536 0.902836 0.430808 0.000000 0.646021 0.000164
1.202299 0.796360 0.602231 0.000000 0.999634 -0.000000
0.822294 0.709874 0.520856 0.000000 -0.027051 -0.000234
2.086767 0.751065 0.529924 -0.000000 0.456336 -0.000025
2.535998 0.678398 0.679774 0.000000 -0.407550 0.000028
1.772306 0.720893 0.521140 0.000000 0.094709 -0.000133
1.188307 0.675542 0.678394 0.000000 -0.456358 0.000012
2.850459 0.730020 0.522509 -0.000001 0.201728 -0.000246
1.645512 0.871905 0.742203 -0.059928 -0.004840 0.006069
2.838413 0.625235 0.691126 0.000000 -0.646020 -0.000341
1.098461 0.787415 0.566427 0.000000 0.889633 -0.000006
1.817229 0.750249 0.529506 0.000000 0.456660 -0.000006
1.233230 0.637404 0.638780 0.000000 -0.913183 0.000006
2.670767 0.670172 0.532691 0.000000 -0.527184 -0.000020
2.763439 0.586066 0.724277 0.000000 -0.646020 -0.000546
2.052251 0.461825 0.818800 0.066688 0.002688 0.003173
2.015831 1.210954 0.188572 0.074171 0.006151 0.007243
1.586968 0.857579 0.726326 -0.059923 -0.005248 0.006578
0.963692 0.789458 0.570762 0.000000 0.913183 -0.000003
2.984228 0.951977 0.818906 0.000000 0.646021 -0.000341
1.412922 0.787704 0.566991 0.000000 0.889641 -0.000002
3.133245 0.626859 0.584375 -0.094928 -0.000475 -0.000082
3.075074 0.763523 0.670373 -0.088883 0.000303 0.000388
1.864437 0.911361 0.417773 0.066687 -0.001507 -0.001780
2.011546 0.797758 0.538690 0.074169 0.002636 0.003113
0.739076 0.746673 0.680291 0.000000 0.407550 0.000028
2.962020 1.056667 0.300616 -0.000001 0.646020 0.000409
3.146218 0.799796 0.677423 -0.330002 0.000503 -0.000725
0.783999 0.637930 0.639895 0.000000 -0.901782 0.000012
1.825225 0.459756 0.803598 -0.066649 -0.003057 -0.003368
1.874045 0.262582 0.991615 -0.059928 0.008396 0.010462
1.799055 0.569966 0.706009 -0.066650 -0.009397 -0.010261
0.783999 0.788071 0.640372 0.000000 0.900904 0.000003
2.607504 0.623042 0.527831 0.263199 -0.001107 0.002161
1.959524 0.137725 1.097411 -0.059927 0.005598 0.007012
1.938706 0.265493 0.969539 0.074172 -0.007323 -0.008610
1.412922 0.783576 0.648473 -0.000001 0.845557 0.000004
1.727383 0.658448 0.541228 -0.000000 -0.651572 -0.000004
1.784278 0.829636 0.488877 -0.059926 -0.009679 -0.012022
3.030151 0.785588 0.563007 0.000000 0.863840 -0.000001
3.029622 0.591763 0.719455 0.000000 -0.646020 -0.000246
3.054308 0.613434 0.675737 0.000000 0.646020 0.000655
3.026469 0.808829 0.697756 0.000000 0.646021 -0.000491
2.231110 0.796398 0.603640 0.000000 0.999634 -0.000000
2.086767 0.785552 0.645179 0.000000 0.863733 0.000004
1.963700 0.420714 0.861348 0.066690 0.002688 0.003173
1.867293 0.586642 0.478766 0.066688 0.002932 -0.003461
1.932993 1.143038 0.954003 -0.066651 0.004246 -0.004672
1.637537 0.757016 0.674840 0.000000 0.525676 0.000005
3.152635 0.717836 0.694140 -0.093224 0.000032 0.000490
1.143384 0.731947 0.522933 -0.000000 0.228080 -0.000054
1.932993 1.130009 0.238727 0.066686 -0.004072 -0.004803
2.034398 1.066270 0.898912 0.074170 0.004247 -0.005010
0.326668 0.796299 0.608149 -0.000000 0.999634 0.000000
2.895382 0.756777 0.533137 0.000001 0.526663 -0.000020
2.715690 0.674601 0.677912 0.000001 -0.455770 0.000025
1.732519 0.436904 0.842205 -0.059927 0.001574 0.001980
0.986521 0.629870 0.602231 0.000000 -0.999634 -0.000000
1.367999 0.743748 0.526608 0.000001 0.281093 -0.000005
0.739076 0.675730 0.678491 -0.000000 -0.456282 0.000049
2.625844 0.751127 0.678169 -0.000000 0.456317 0.000006
1.636762 0.603780 0.702224 -0.059927 0.003936 0.004942
2.075818 0.146263 0.124319 0.066689 0.004887 -0.005759
2.075818 0.092341 0.078683 0.066688 0.008470 -0.009928
1.835872 0.605973 0.715750 0.066687 0.002932 0.003461
1.841585 0.859846 0.502703 -0.066647 0.001741 0.001919
2.446151 0.790872 0.633906 0.000001 0.931615 0.000005
1.690561 0.716074 0.520848 0.000000 0.027063 -0.000234
0.286900 0.709028 0.687247 0.000000 -0.027063 0.000015
3.036104 0.460722 0.830359 0.000004 -0.645607 -0.000137
2.849586 0.472829 0.388013 0.000001 -0.646009 0.000205
1.846606 0.313156 0.258812 -0.059926 0.004898 -0.006142
1.713995 0.577129 0.707183 -0.066651 -0.004699 -0.005169
1.637537 0.790897 0.574285 0.000000 0.927181 -0.000001
1.637537 0.676106 0.529441 -0.000000 -0.456364 -0.000099
2.670767 0.788300 0.639895 -0.000000 0.901781 0.000024
1.998692 1.078923 0.287715 0.066689 -0.008796 -0.010304
0.192013 0.794645 0.586116 0.023473 0.000752 -0.000155
0.963692 0.672708 0.531233 0.000000 -0.477976 -0.000006
