1.676927 0.941832 0.709306 0.071752 -0.001944 0.002671
1.407869 0.667315 0.622853 0.000000 -0.541681 0.000016
2.673255 0.693956 0.635519 -0.000001 -0.301192 0.000033
0.051251 0.769194 0.565658 -0.606707 0.000027 0.000021
3.248431 0.669197 0.437859 -0.000000 -0.516973 -0.000009
0.487588 0.824358 0.582299 -0.000000 0.881078 0.000023
1.005246 0.774189 0.431701 -0.000000 0.425412 -0.000022
2.730773 0.628791 0.482632 0.000000 -0.893308 -0.000011
3.420984 0.785254 0.624205 -0.000000 0.516973 0.000009
1.292834 0.825772 0.579535 0.000000 0.890026 0.000003
0.315035 0.663213 0.441886 0.000000 -0.585590 -0.000058
2.558220 0.832273 0.498749 0.000000 0.953464 -0.000003
2.385667 0.785567 0.624016 -0.000000 0.541681 0.000016
2.788291 0.743584 0.639512 0.000000 0.145865 0.000143
2.730773 0.818300 0.592395 -0.000000 0.825698 0.000014
1.593157 1.082703 0.267626 -0.078069 -0.009174 -0.013825
1.577684 0.393191 0.778867 -0.078071 0.004679 0.007087
0.717658 0.685043 0.429675 0.000000 -0.376903 -0.000006
1.711506 1.034185 0.288504 0.071751 -0.006702 -0.009173
1.758350 0.154345 0.942531 -0.071687 -0.013549 -0.016759
3.959474 0.749608 0.610828 0.322640 0.000039 0.000147
0.717658 0.652720 0.611459 0.000001 -0.681332 0.000011
0.775176 0.770358 0.429976 0.000000 0.401076 -0.000096
3.133396 0.679878 0.629930 0.000000 -0.425050 0.000022
1.177799 0.707634 0.638939 0.000001 -0.171682 0.000060
2.155597 0.677464 0.433188 -0.000000 -0.449234 -0.000042
1.522904 0.636232 0.469753 -0.000001 -0.822093 -0.000007
0.717658 0.803623 0.452034 -0.000000 0.688141 -0.000011
0.524696 0.722779 0.640608 0.000000 -0.026705 0.000051
3.248431 0.637813 0.594462 -0.000000 -0.810511 0.000015
1.235316 0.622021 0.561860 0.000000 -0.960606 0.000003
0.947728 0.803557 0.609951 -0.000001 0.681676 0.000006
1.877917 1.102404 0.808244 0.071751 -0.006166 0.008445
3.633244 0.642011 0.577223 0.040757 -0.007840 0.005601
3.075878 0.620847 0.557543 0.000001 -0.941240 0.000001
3.563944 0.533878 0.687527 -0.000001 -0.588298 -0.001661
2.100863 0.727434 0.421195 0.000000 0.026753 -0.000013
3.540562 0.654004 0.461788 0.040758 -0.015678 -0.010647
1.005246 0.619620 0.552016 0.000000 -0.980126 0.000001
1.451740 0.541676 0.398974 -0.071690 -0.003952 0.004967
1.350351 0.796123 0.616497 0.000000 0.628033 0.000007
1.899529 0.159975 0.115694 0.071752 0.006970 -0.009536
1.062763 0.654991 0.448413 0.000000 -0.667424 -0.000006
1.781744 0.464243 0.351462 0.065871 -0.003870 0.005310
3.722576 0.432615 0.308634 0.138339 -0.002084 0.005049
1.465386 0.619566 0.551747 0.000000 -0.980126 0.000001
3.420984 0.632961 0.474923 -0.000000 -0.854561 -0.000013
2.615738 0.630414 0.479462 0.000000 -0.881078 -0.000011
2.558220 0.728256 0.640705 -0.000000 0.026762 0.000025
3.630645 0.722414 0.421323 -0.000000 -0.026607 -0.000051
1.757448 1.243783 0.164243 -0.071686 0.003840 0.004826
0.832693 0.821678 0.587077 0.000001 0.826218 0.000002
3.849582 0.730174 0.640692 0.000000 0.013054 0.000013
1.695457 0.767317 0.633193 -0.000000 0.376421 0.000052
1.580422 0.767317 0.633193 -0.000000 0.376281 0.000026
1.779583 0.984846 0.355710 0.065870 0.001935 0.002658
1.836854 0.617950 0.443301 0.071751 0.009249 -0.012609
2.443185 0.621133 0.558648 -0.000000 -0.968075 0.000005
1.520354 0.526661 0.393343 -0.071688 -0.007114 0.008911
1.728795 0.857912 0.452202 0.065871 0.003796 0.005210
0.430070 0.657852 0.615923 0.000000 -0.627874 0.000013
3.536019 0.789607 0.440570 0.000000 0.563831 -0.000062
2.788291 0.832803 0.561378 0.000001 0.960796 0.000006
3.075878 0.820052 0.589722 0.000000 0.840584 0.000007
1.235316 0.805019 0.453414 0.000001 0.703111 -0.000005
1.177799 0.676448 0.433709 0.000001 -0.472574 -0.000039
2.500703 0.772701 0.431002 0.000000 0.425671 -0.000006
2.960843 0.792806 0.619074 -0.000000 0.606960 0.000055
1.533077 1.070599 0.281239 -0.078070 -0.004679 -0.007087
1.780636 1.409921 1.027544 -0.078070 -0.006973 0.010538
1.780636 1.409921 0.034378 -0.078068 -0.006973 -0.010538
1.703274 1.303883 0.950400 -0.078069 -0.011009 0.016540
1.780636 0.044765 1.027544 -0.071686 -0.008131 -0.010169
1.594967 0.299257 0.842399 -0.071688 -0.009485 -0.011836
1.471187 0.468918 0.718968 -0.071687 -0.006550 -0.008210
1.656856 1.240260 0.157808 -0.078068 -0.003211 -0.004869
1.656856 0.214426 0.904114 -0.071687 -0.007679 -0.009611
1.672329 0.193219 0.142379 -0.071687 -0.007679 0.009611
1.983045 0.702404 0.637850 0.000000 -0.224335 0.000091
0.947728 0.679464 0.629736 0.000000 -0.425671 0.000006
0.602623 0.818403 0.469677 0.000000 0.825875 -0.000004
1.766994 0.136518 0.096130 -0.078069 0.009908 -0.014914
3.695032 0.659099 0.465495 0.040757 -0.015678 -0.010647
3.675393 0.617528 0.626670 0.000001 -0.588297 -0.001075
0.104686 0.781044 0.462562 -0.397307 0.000061 -0.000074
1.867111 0.862487 0.634663 0.071752 -0.009248 0.012609
3.778007 0.832828 0.591885 0.000001 -0.588298 0.000655
3.018361 0.675522 0.627717 -0.000000 -0.472972 0.000039
1.120281 0.635475 0.591027 0.000000 -0.840584 0.000002
2.916313 0.837044 0.528405 0.000000 0.999642 -0.000000
1.927624 0.295994 0.844772 0.071752 0.010187 0.013864
1.927624 0.393876 0.773562 0.071752 0.012330 0.016705
1.927624 0.889518 0.412977 0.071750 -0.003754 -0.005152
1.927624 0.442816 0.323965 0.071753 0.003351 -0.004601
1.927624 0.051291 1.022797 0.071751 0.007507 0.010262
1.927624 1.354455 0.987192 0.071752 -0.009651 0.013147
1.927624 0.987399 0.720155 0.071752 -0.007238 0.009899
1.927624 0.589638 0.631143 0.071752 0.007506 0.010262
1.927624 0.369405 0.270557 0.071752 0.012330 -0.016705
3.702985 1.002595 0.715392 -0.000001 -0.588300 0.001205
1.177799 0.630242 0.479784 -0.000000 -0.880300 -0.000006
0.257518 0.810840 0.602202 0.000001 0.761145 0.000072
3.647369 0.493836 0.345264 -0.000001 -0.588298 0.001075
1.810492 0.837107 0.531144 0.000000 0.999650 0.000000
2.903326 0.814597 0.464374 -0.000000 0.794709 -0.000032
0.832693 0.807433 0.455907 0.000001 0.724534 -0.000010
2.443185 0.827687 0.486482 -0.000000 0.915971 -0.000005
1.823887 0.120353 0.080140 0.071753 0.006702 -0.009173
3.690017 0.836981 0.535890 0.000000 0.999650 0.000000
1.463238 0.876529 0.646224 -0.078069 -0.004817 0.007295
1.409297 0.900937 0.404669 -0.078069 -0.006423 -0.009712
3.248431 0.685297 0.632350 0.000001 -0.376499 0.000052
1.836854 0.329175 0.813223 0.065870 -0.005987 -0.008195
2.270632 0.827302 0.485603 0.000000 0.916165 -0.000002
1.849822 1.409913 1.021187 -0.071689 0.008130 -0.010169
1.849822 1.409913 0.040735 -0.071688 0.008130 0.010169
1.177799 0.830474 0.493381 0.000001 0.935085 -0.000008
0.832693 0.770191 0.632019 0.000000 0.401076 0.000024
3.708720 0.515385 0.700981 -0.000000 -0.588297 -0.001205
3.708571 0.778802 0.434011 -0.000000 0.472866 -0.000078
2.845808 0.759816 0.635808 -0.000000 0.300988 0.000033
3.536136 0.532175 0.404792 0.000001 0.588297 -0.000700
3.808901 0.622877 0.591143 -0.000002 0.588294 0.000655
3.872461 0.904496 0.644024 0.000001 -0.588296 0.000655
3.882168 0.590488 0.646342 0.000000 -0.588298 -0.001309
1.646409 0.357998 0.808508 -0.078070 0.004312 0.006533
1.646409 0.357998 0.253414 -0.078069 0.008624 -0.013006
1.589530 0.995181 0.346339 -0.071688 0.006550 0.008210
1.646195 0.998052 0.743478 -0.078069 -0.005046 0.007641
1.695457 0.776896 0.433024 -0.000000 0.448864 -0.000021
3.133396 0.629714 0.480796 0.000001 -0.888105 -0.000003
0.191053 0.775107 0.629186 -0.065308 0.000367 0.000707
1.650993 0.872567 0.661222 0.071752 -0.006970 0.009536
1.350351 0.641348 0.599172 -0.000001 -0.755917 0.000002
3.789192 0.375519 0.786917 0.138340 -0.003846 -0.009316
3.583912 0.980636 0.715235 0.138340 0.004168 -0.010095
3.305948 0.785333 0.624158 -0.000000 0.514399 0.000004
3.712212 1.042218 0.301886 0.138339 0.003846 0.009316
3.686552 0.424785 0.751076 0.138340 -0.003846 -0.009315
3.352971 0.584897 0.427330 0.138340 -0.001923 0.004659
3.327311 0.857473 0.625632 0.138340 0.004168 -0.010095
1.522904 0.773445 0.431351 0.000000 0.425257 -0.000045
1.869272 0.461017 0.729907 0.071751 0.003619 0.004969
1.407869 0.631684 0.477138 0.000000 -0.868303 -0.000012
1.465386 0.661300 0.443292 -0.000000 -0.607026 -0.000014
1.530358 0.985388 0.724267 -0.078069 -0.005322 0.008056
0.602623 0.677953 0.432942 0.000000 -0.449220 -0.000084
1.549940 0.930378 0.667733 -0.071688 0.003501 -0.004401
3.558284 0.722596 0.640603 0.000000 -0.026435 0.000051
2.270632 0.714043 0.422011 0.000000 -0.119446 -0.000044
2.040562 0.646688 0.456504 -0.000000 -0.743714 -0.000076
2.328150 0.759207 0.425921 0.000000 0.301506 -0.000017
2.960843 0.779888 0.434594 -0.000000 0.472820 -0.000078
3.651054 0.783225 0.625438 -0.000001 0.519063 0.000069
3.472726 0.598912 0.608578 0.000000 0.588298 0.002574
1.407869 0.777630 0.433393 0.000000 0.449170 -0.000021
1.810920 0.454747 0.739660 0.071751 0.001810 0.002487
1.120281 0.743358 0.639545 -0.000001 0.145943 0.000285
1.062763 0.697760 0.636661 0.000001 -0.275875 0.000146
3.593536 0.816445 0.595054 -0.000000 0.810032 0.000008
3.536019 0.782672 0.625759 0.000000 0.496139 0.000018
0.487588 0.777304 0.433229 0.000000 0.449040 -0.000010
2.673255 0.632477 0.586171 -0.000000 -0.868146 0.000006
2.443185 0.784747 0.437408 0.000000 0.518980 -0.000017
1.120281 0.777957 0.433557 0.000000 0.472873 -0.000020
2.155597 0.627274 0.576068 -0.000000 -0.915562 0.000005
2.213115 0.654618 0.613173 0.000000 -0.668441 0.000023
0.372553 0.777834 0.433496 -0.000001 0.445153 -0.000011
3.305948 0.680663 0.431623 0.000000 -0.425153 -0.000011
3.363466 0.681283 0.630590 0.000001 -0.424755 0.000045
1.292834 0.678402 0.629206 0.000001 -0.446334 0.000021
1.819565 0.431659 0.306234 0.071753 0.003351 -0.004601
0.487588 0.668966 0.438005 0.000001 -0.541057 -0.000016
1.983045 0.819013 0.470588 -0.000001 0.839300 -0.000014
3.305948 0.833976 0.504910 0.000000 0.974435 -0.000001
2.040562 0.785567 0.437906 0.000000 0.519387 -0.000004
3.163082 0.730173 0.421268 0.000000 0.026427 -0.000103
2.558220 0.831393 0.565912 0.000000 0.944877 0.000004
0.372553 0.673441 0.435347 -0.000000 -0.496156 -0.000074
1.752568 0.993974 0.740511 0.071752 -0.003619 0.004969
3.708571 0.671855 0.625669 0.000000 -0.496139 0.000005
1.804437 0.879445 0.430361 0.065869 0.010074 0.013689
2.328150 0.632985 0.474884 0.000001 -0.854334 -0.000013
2.960843 0.680663 0.431623 0.000000 -0.425153 -0.000011
3.563944 0.920808 0.374395 -0.000001 0.588298 0.001661
3.075878 0.656728 0.446931 0.000000 -0.648396 -0.000025
1.235316 0.624726 0.492013 0.000000 -0.936081 -0.000004
3.650898 0.869911 0.618863 0.000003 -0.588292 0.001018
3.081444 0.837032 0.533973 0.000000 0.999642 0.000000
1.548470 0.588230 0.444840 -0.071687 -0.005463 0.006856
3.743368 0.503164 0.352050 -0.000000 -0.588298 0.001480
2.903326 0.823473 0.583948 0.000001 0.879264 0.000006
1.925527 0.663583 0.441618 -0.000000 -0.585624 -0.000058
1.548470 0.866456 0.444840 -0.071688 0.005463 0.006856
0.487588 0.626578 0.574478 0.000000 -0.916060 0.000018
2.615738 0.815830 0.466017 0.000000 0.810511 -0.000015
1.613647 0.415911 0.313918 -0.071688 -0.012194 0.015133
3.305948 0.618572 0.516211 0.000000 -0.989307 -0.000002
1.772019 0.552527 0.389937 0.071752 0.009249 -0.012609
1.447765 0.593226 0.439564 -0.071687 -0.003953 0.004968
0.430070 0.826992 0.484942 0.000000 0.905092 -0.000005
0.238964 0.617725 0.525301 0.000000 -0.999642 -0.000000
2.270632 0.740280 0.639955 0.000001 0.118741 0.000044
0.430070 0.620096 0.507580 -0.000001 -0.960668 -0.000001
1.120281 0.835589 0.549141 0.000000 0.984491 0.000001
2.903326 0.718267 0.640350 0.000001 -0.093128 0.000225
3.735646 0.466418 0.736605 -0.000001 -0.588297 -0.000707
3.478501 0.775958 0.629370 -0.000000 0.449235 0.000084
2.788291 0.790548 0.441217 -0.000000 0.585335 -0.000015
3.651054 0.620342 0.506512 0.000000 -0.974439 -0.000005
3.248431 0.774065 0.431643 -0.000000 0.425281 -0.000089
3.804047 0.844433 0.461595 -0.000000 -0.588298 -0.000655
0.200000 0.650765 0.452316 -0.060999 -0.000303 -0.000303
1.062763 0.814403 0.597802 -0.000001 0.794186 0.000016
1.728795 0.374324 0.805474 0.071753 0.006166 0.008445
1.873595 1.021834 0.321126 0.065869 0.003578 0.004910
3.363466 0.779606 0.627479 0.000000 0.472762 0.000020
3.075878 0.774106 0.431662 -0.000001 0.425127 -0.000045
3.018361 0.633482 0.587858 -0.000001 -0.825134 0.000003
2.443185 0.669393 0.437740 0.000000 -0.517085 -0.000009
3.651054 0.783537 0.436674 0.000001 0.518275 -0.000017
1.522904 0.687285 0.633158 -0.000001 -0.375506 0.000026
1.062763 0.623101 0.496572 0.000000 -0.953464 -0.000002
1.925527 0.779325 0.434292 -0.000000 0.472427 -0.000010
0.660141 0.633340 0.587623 0.000001 -0.853515 0.000006
1.862789 1.260821 0.137082 0.071752 -0.004022 -0.005519
0.832693 0.669276 0.437811 -0.000001 -0.518249 -0.000017
1.630052 0.558841 0.387321 -0.078070 0.005780 -0.008746
2.615738 0.630112 0.581896 0.000000 -0.881130 0.000011
0.545105 0.670759 0.625011 -0.000000 -0.519118 0.000069
1.810492 0.669119 0.437906 0.000000 -0.541829 -0.000016
1.465386 0.779486 0.434378 -0.000000 0.472762 -0.000020
2.903326 0.630652 0.479020 0.000000 -0.881128 -0.000023
2.673255 0.751481 0.638034 -0.000000 0.224316 0.000091
3.429951 0.547948 0.400449 0.138339 -0.004168 0.010095
3.424904 0.854072 0.422946 0.000000 0.588298 0.001716
1.925527 0.834304 0.506334 -0.000001 0.967868 -0.000001
3.686647 0.576977 0.405750 -0.000000 -0.588298 0.000537
1.465386 0.765265 0.633964 0.000000 0.351731 0.000028
1.530358 0.469298 0.724267 -0.078069 0.005322 0.008056
0.890211 0.824315 0.582379 -0.000000 0.881078 0.000011
1.292834 0.836841 0.523388 0.000000 0.997778 -0.000003
2.259500 0.617582 0.530687 0.000000 -0.999642 -0.000000
1.828210 0.376032 0.283494 0.065871 -0.006571 0.008987
2.730773 0.775015 0.629833 -0.000001 0.425120 0.000045
1.983045 0.759424 0.635932 -0.000000 0.301331 0.000066
1.637939 0.776937 0.433045 0.000000 0.448924 -0.000021
3.480520 0.895816 0.424213 0.000000 -0.588298 -0.002574
3.651054 0.669119 0.624016 0.000000 -0.541978 0.000008
1.447765 0.599365 0.630796 -0.078068 0.003211 0.004869
1.632746 1.148206 0.220740 -0.078071 -0.003945 -0.005978
1.648219 0.285272 0.205312 -0.078069 0.003854 -0.005840
1.490769 0.919884 0.384540 -0.078070 -0.005780 -0.008746
1.871433 1.308380 0.958671 0.071751 -0.006970 0.009536
2.213115 0.756355 0.425097 0.000000 0.275889 -0.000073
1.440242 0.943353 0.688111 -0.078071 -0.005780 0.008746
1.641873 0.986508 0.326458 -0.078070 -0.005046 -0.007641
1.886562 0.255783 0.877679 0.071752 0.005094 0.006984
3.766089 0.679340 0.629677 0.000000 -0.449040 0.000010
0.257518 0.681985 0.630920 0.000000 -0.425298 0.000358
1.925527 0.777304 0.628693 0.000000 0.449203 0.000084
2.730773 0.823451 0.477933 0.000000 0.881266 -0.000003
3.478501 0.828017 0.574687 -0.000000 0.915562 0.000005
3.690840 0.851698 0.456309 -0.000001 -0.588297 -0.001075
1.819565 1.031797 0.743634 0.065870 0.007155 -0.009777
1.728795 0.358188 0.278628 0.065870 -0.005987 0.008195
2.385667 0.823926 0.583103 0.000000 0.881266 0.000003
3.789192 1.079167 0.786917 0.138339 0.003846 -0.009316
1.580422 0.702360 0.424082 -0.000001 -0.215451 -0.000012
3.046192 0.724239 0.421275 0.000000 -0.026762 -0.000025
3.766089 0.784396 0.624727 -0.000000 0.519091 0.000069
1.836854 1.125511 0.248699 0.065869 0.005987 0.008195
3.536019 0.672727 0.626167 -0.000000 -0.496190 0.000074
1.810492 0.779727 0.434507 -0.000000 0.472762 -0.000020
1.867111 0.004911 1.061922 0.000000 -0.808642 0.000337
1.752974 0.632137 0.585577 0.000001 -0.867722 0.000012
3.283684 0.731177 0.421294 0.000000 0.026598 -0.000051
1.407869 0.629939 0.581575 0.000000 -0.893446 0.000011
1.864950 0.516415 0.382625 0.065870 -0.004235 0.005809
1.625492 0.968075 0.690747 -0.071687 0.006550 -0.008210
1.752974 0.830752 0.494155 -0.000000 0.944928 -0.000007
0.088632 0.672237 0.474368 -0.460090 -0.000052 -0.000051
3.823606 0.680002 0.431934 0.000000 -0.425259 -0.000089
1.695457 0.682822 0.430635 -0.000000 -0.399708 -0.000012
1.350351 0.745523 0.639206 0.000001 0.172213 0.000240
1.810492 0.779888 0.627328 0.000000 0.472782 0.000078
1.005246 0.777059 0.628816 0.000000 0.449152 0.000042
3.472726 0.598912 0.453344 0.000000 0.588298 -0.002574
1.877917 0.376753 0.790442 0.071752 0.012330 0.016705
1.927624 1.085281 0.791365 0.071751 -0.012330 0.016705
3.420984 0.672569 0.435845 0.000000 -0.496139 -0.000018
1.828210 1.078654 0.283494 0.065869 0.006571 0.008987
1.787147 1.122198 0.806755 0.065869 0.011972 -0.016192
3.754838 0.855034 0.639675 0.000000 0.588298 -0.001480
0.775176 0.678606 0.629308 -0.000001 -0.449230 0.000084
0.104686 0.715801 0.617153 -0.397307 -0.000015 0.000095
1.557889 1.028744 0.306498 -0.078067 -0.004955 -0.007503
3.651054 0.672727 0.435755 0.000001 -0.495986 -0.000037
3.480520 0.573920 0.658396 0.000000 -0.588298 -0.002574
3.480520 0.573920 0.403526 0.000000 -0.588298 0.002574
2.673255 0.781681 0.435596 -0.000000 0.496101 -0.000037
1.565412 0.951586 0.378760 -0.071688 0.007001 0.008771
2.098080 0.625129 0.490945 0.000001 -0.848275 -0.000001
1.745553 0.728256 0.640705 0.000000 0.026435 0.000051
1.685572 0.470122 0.363589 0.065871 -0.007739 0.010565
3.018361 0.629550 0.481122 -0.000000 -0.893343 -0.000011
1.621170 0.513414 0.358214 -0.078070 0.010825 -0.016270
2.788291 0.629016 0.579739 0.000001 -0.885520 0.000003
3.939886 0.816406 0.520926 0.306258 0.000160 -0.000002
1.541295 0.558270 0.666653 -0.078070 0.005780 0.008746
2.270632 0.829506 0.571104 -0.000000 0.926232 0.000004
0.200000 0.792806 0.442848 -0.060999 0.000260 -0.000341
1.637939 0.674758 0.627307 -0.000000 -0.472845 0.000039
3.920299 0.645769 0.582217 0.323803 -0.000532 0.000294
1.927624 1.109751 0.252755 0.071753 -0.011258 -0.015289
1.868009 0.623681 0.494888 -0.000000 -0.944950 -0.000007
3.424904 0.869122 0.618289 0.000000 -0.588298 0.001716
0.315035 0.628394 0.483454 -0.000000 -0.904902 -0.000010
0.315035 0.774685 0.431934 0.000000 0.425345 -0.000045
0.660141 0.628627 0.482958 0.000000 -0.904937 -0.000002
1.653932 0.431823 0.731665 -0.071688 -0.006098 -0.007648
1.754730 0.291028 0.227651 0.065870 -0.010804 0.014656
1.005246 0.836643 0.540992 0.000001 0.973523 0.000001
2.159308 0.727252 0.640727 0.000000 -0.026770 0.000013
1.589530 0.459506 0.346339 -0.071687 -0.006550 0.008210
0.602623 0.777957 0.433557 0.000000 0.472873 -0.000039
1.582277 0.837075 0.532330 0.000000 0.999642 0.000000
0.955150 0.617588 0.531965 0.000000 -0.999915 0.000000
1.062763 0.828310 0.487904 0.000000 0.915955 -0.000009
1.637939 0.825321 0.481490 -0.000000 0.893196 -0.000011
3.221528 0.731086 0.640630 -0.000016 0.000686 0.000496
1.799034 0.382764 0.771149 0.065871 -0.006571 -0.008987
3.786618 0.891377 0.395806 0.000000 0.588297 0.001480
3.786618 0.563309 0.666116 0.000001 -0.588297 -0.001480
3.849582 0.617612 0.533792 0.000000 -0.999915 0.000000
1.451527 0.820513 0.472441 0.000002 -0.808619 0.000132
0.372553 0.677586 0.628795 0.000000 -0.449235 0.000084
0.088632 0.663937 0.578068 -0.460090 -0.000060 0.000042
0.058376 0.756320 0.478648 -0.578704 0.000020 -0.000039
1.925527 0.670524 0.624869 0.000001 -0.509999 0.000009
1.471187 0.985768 0.342954 -0.078070 -0.005413 -0.008194
3.478501 0.675362 0.627630 -0.000000 -0.472845 0.000078
1.708264 0.498532 0.679516 0.065869 -0.002117 -0.002909
1.637939 0.822708 0.585299 -0.000001 0.864309 0.000006
0.372553 0.781245 0.626575 -0.000000 0.496100 0.000074
1.292834 0.646876 0.456305 0.000000 -0.725781 -0.000005
3.900712 0.800214 0.458090 0.323803 0.000521 -0.000466
3.339346 0.727708 0.640725 -0.000000 0.013380 0.000051
1.662576 1.045250 0.313265 -0.071688 0.011517 0.014314
3.725926 0.809618 0.486923 0.040758 0.007840 -0.005601
3.627945 0.865381 0.414719 0.000000 0.588297 0.001774
1.717989 0.545229 0.415584 0.065872 -0.005694 0.007798
3.756820 0.646087 0.574258 0.040757 -0.007840 0.005601
3.512826 0.836988 0.535616 -0.000000 0.999642 0.000000
3.810677 0.490219 0.342633 0.000000 -0.588298 0.001414
3.860339 0.402455 0.767321 -0.258810 -0.003052 -0.005027
3.446959 0.731542 0.640618 0.000000 0.026435 0.000051
1.486660 0.447710 0.327525 -0.071688 -0.006550 0.008210
1.612525 0.520191 0.665259 -0.071687 -0.007001 -0.008771
0.890211 0.630112 0.480026 0.000000 -0.881130 -0.000011
1.695457 0.835714 0.548421 -0.000000 0.989280 0.000003
1.871433 1.308380 0.103251 0.071752 -0.006970 -0.009536
1.787147 0.332488 0.255167 0.065870 -0.011972 0.016191
3.420984 0.772366 0.430855 0.000000 0.401056 -0.000048
1.661881 1.117896 0.823936 -0.078071 -0.003945 0.005978
1.564022 0.341672 0.250381 -0.071688 -0.005195 0.006522
2.960843 0.679340 0.629677 0.000000 -0.449040 0.000010
3.532592 0.498683 0.364608 0.138339 -0.004168 0.010095
3.248431 0.829007 0.572330 0.000000 0.926410 0.000017
3.248431 0.618599 0.545891 0.000000 -0.989300 0.000002
1.718746 0.129596 0.965829 -0.071688 -0.011743 -0.014587
0.177682 0.835163 0.530961 -0.121534 0.000211 0.000006
3.766089 0.628588 0.483041 0.000000 -0.905053 -0.000039
3.018361 0.764192 0.634355 0.000001 0.326526 0.000061
3.190913 0.776488 0.629103 -0.000000 0.449193 0.000042
3.660892 1.017585 0.742115 0.138340 0.003846 -0.009315
1.864950 0.938271 0.382625 0.065870 0.002117 0.002909
0.344722 0.836971 0.536255 0.000000 0.999642 0.000000
3.327311 0.597213 0.625632 0.138340 -0.004168 -0.010095
1.604789 0.907580 0.381956 -0.078070 -0.005780 -0.008746
0.257518 0.827147 0.485273 0.000001 0.903720 -0.000010
1.407869 0.716266 0.640163 0.000000 -0.092974 0.000113
1.873595 1.054154 0.773526 0.071752 -0.006702 0.009173
0.602623 0.823581 0.583747 0.000000 0.880922 0.000011
1.925527 0.833701 0.558073 -0.000000 0.967857 0.000003
1.759052 0.856737 0.611335 0.065869 0.005695 -0.007799
2.385667 0.680911 0.630415 -0.000000 -0.425311 0.000045
1.637939 0.624887 0.570336 0.000000 -0.936072 0.000008
1.795792 1.146121 0.214567 0.071753 -0.004960 -0.006801
1.864950 0.962741 0.697099 0.065871 0.001935 -0.002658
3.118552 0.617637 0.528588 -0.000000 -0.999642 -0.000000
1.737440 1.118885 0.261635 -0.071687 0.009711 0.012113
1.300255 0.727891 0.640715 0.000000 0.026762 0.000051
1.739601 0.947106 0.354354 0.071752 -0.001944 -0.002671
2.443185 0.831750 0.564827 -0.000000 0.953445 0.000007
2.903326 0.629983 0.581655 -0.000001 -0.868237 0.000003
2.443185 0.761166 0.635382 0.000000 0.301357 0.000066
0.146900 0.802183 0.600050 -0.232639 0.000153 0.000134
0.717658 0.831110 0.495190 -0.000000 0.944449 -0.000004
1.580422 0.624340 0.493039 0.000000 -0.936092 -0.000016
3.018361 0.825424 0.481694 0.000001 0.893238 -0.000021
2.938578 0.726065 0.421226 0.000000 -0.026598 -0.000025
3.635232 0.449417 0.733155 0.138338 -0.003846 -0.009316
2.500703 0.812535 0.600167 0.000000 0.778187 0.000004
2.500703 0.660139 0.617743 0.000000 -0.606982 0.000055
1.120281 0.680002 0.431934 -0.000000 -0.425309 -0.000089
1.752974 0.786334 0.438401 -0.000000 0.541659 -0.000065
2.385667 0.827147 0.485273 0.000000 0.905015 -0.000010
1.882239 0.316268 0.834060 0.071752 0.005630 0.007715
1.882239 1.138418 0.227861 0.071752 -0.005630 -0.007715
1.772019 1.195804 0.885614 0.071750 -0.008847 0.012069
2.845808 0.651759 0.610548 0.000000 -0.687926 0.000011
3.929734 0.871742 0.425909 -0.258809 0.003052 0.005027
0.775176 0.703339 0.423857 0.000000 -0.224335 -0.000091
1.880078 0.119360 0.969395 0.065869 -0.007301 -0.009974
1.880078 0.119360 0.092527 0.065869 -0.007301 0.009974
3.872461 0.889446 0.397211 -0.258810 0.001494 0.002462
1.708305 1.144811 0.823559 -0.071688 0.004743 -0.005957
3.341480 0.814030 0.452077 -0.000000 0.588297 0.001716
1.877917 0.364517 0.262579 0.071752 0.012330 -0.016705
1.573362 1.049951 0.770853 -0.078071 -0.004679 0.007087
3.591753 0.505480 0.385371 0.000001 0.588297 -0.000887
3.591753 0.949206 0.676551 0.000001 -0.588297 0.000887
1.896287 0.500512 0.698771 0.071752 0.001944 0.002671
1.177799 0.810426 0.602689 0.000000 0.761269 0.000036
1.532544 0.824010 0.618110 -0.078070 -0.004817 0.007295
0.037591 0.687521 0.546532 -0.660459 -0.000022 0.000008
0.545105 0.768163 0.632849 0.000000 0.376545 0.000052
1.350351 0.623367 0.495795 0.000000 -0.945234 -0.000002
1.758350 1.300341 0.119391 -0.071687 0.013549 0.016759
3.615148 0.622673 0.622927 -0.000001 -0.588297 -0.000887
1.758350 1.295079 0.949764 -0.078070 -0.009908 0.014914
0.372553 0.618685 0.546479 -0.000000 -0.989287 0.000006
3.920299 0.695524 0.440027 0.323802 -0.000168 -0.000584
3.472726 0.855774 0.453344 0.000000 -0.588298 -0.002574
1.711506 0.420501 0.773418 0.071752 0.006702 0.009173
1.711506 0.420501 0.288504 0.071751 0.006702 -0.009173
1.875431 0.727799 0.421204 -0.000000 0.025458 -0.000027
0.522840 0.617701 0.535708 0.000000 -0.999642 0.000000
3.959474 0.689043 0.515096 1.000000 0.000000 -0.000000
3.363466 0.771153 0.430324 0.000000 0.401037 -0.000192
0.947728 0.775222 0.432186 0.000000 0.425137 -0.000006
0.257518 0.770609 0.631836 0.000000 0.401068 0.000096
2.213115 0.780411 0.627047 -0.000000 0.472620 0.000005
1.797953 0.189618 0.128224 0.071753 0.004021 -0.005519
3.818608 0.806561 0.572775 0.040758 0.007840 0.005601
2.328150 0.628063 0.577765 -0.000001 -0.903264 0.000010
0.667562 0.837000 0.535160 0.000000 0.999651 0.000000
1.804437 1.179207 0.849641 0.065871 0.005403 -0.007401
2.673255 0.681407 0.431274 -0.000000 -0.425257 -0.000045
2.845808 0.618262 0.518749 0.000001 -0.969800 -0.000001
1.761213 0.437624 0.305383 0.071752 0.003284 -0.004510
0.121256 0.816394 0.501501 -0.332611 0.000122 -0.000037
1.720151 1.057274 0.789446 0.071751 -0.012062 0.016352
3.420984 0.623248 0.565782 0.000000 -0.944975 0.000007
3.627945 0.574255 0.435406 0.000000 0.588298 -0.001774
3.420984 0.828328 0.487946 0.000000 0.915811 -0.000009
1.612951 1.115455 0.817739 -0.078069 -0.004221 0.006395
3.619560 0.962553 0.375661 0.000000 -0.588298 -0.002036
3.619560 0.492133 0.686261 0.000000 0.588298 0.002036
2.845808 0.670446 0.437100 0.000000 -0.519097 -0.000069
1.868009 0.832602 0.562080 -0.000001 0.957956 0.000003
1.666899 1.043289 0.775235 -0.078070 -0.004679 0.007087
0.717658 0.818429 0.592207 0.000000 0.825795 0.000007
0.947728 0.761471 0.635285 -0.000000 0.301506 0.000033
3.870688 0.624915 0.472261 0.000000 0.588298 -0.001309
3.920299 0.645769 0.479705 0.323803 -0.000532 -0.000294
0.674984 0.723327 0.421299 -0.000000 -0.026598 -0.000051
0.315035 0.827376 0.576151 -0.000000 0.915750 0.000005
1.062763 0.654787 0.613326 -0.000001 -0.667957 0.000023
3.420984 0.690450 0.634340 0.000001 -0.326512 0.000061
0.315035 0.627966 0.577559 -0.000000 -0.905021 0.000020
1.772019 0.914788 0.654626 0.065871 0.010074 -0.013689
1.976551 0.727252 0.421195 0.000000 -0.026770 -0.000025
3.862753 0.539992 0.378843 -0.000001 -0.588298 0.001964
3.862753 0.524942 0.662392 0.000002 0.588299 0.001964
1.770938 0.523295 0.693347 0.071752 0.003887 0.005336
0.947728 0.679506 0.432167 0.000001 -0.423825 -0.000022
1.810492 0.628627 0.482958 0.000000 -0.905063 -0.000005
1.782467 1.339375 0.981220 -0.078068 -0.008441 0.012733
1.782467 1.339375 0.080702 -0.078068 -0.008441 -0.012733
0.602623 0.622633 0.563869 -0.000000 -0.953248 0.000007
0.146900 0.713824 0.430008 -0.232641 -0.000032 -0.000201
0.890211 0.825403 0.481653 0.000000 0.893426 -0.000011
1.868009 0.621145 0.558692 -0.000000 -0.963424 0.000001
2.500703 0.638161 0.466979 0.000000 -0.810032 -0.000008
3.843339 0.489496 0.719815 -0.000001 -0.588298 -0.001414
3.609849 0.554918 0.672220 -0.000001 -0.588297 -0.000887
1.888723 0.075660 0.053393 0.071752 0.009651 -0.013147
3.787714 0.807580 0.488406 0.040758 0.007840 -0.005601
1.925527 0.626724 0.487109 -0.000000 -0.915111 -0.000005
1.328086 0.725700 0.421236 0.000000 -0.026762 -0.000025
2.355981 0.837088 0.530048 0.000000 0.999642 -0.000000
1.625911 1.197844 0.873256 -0.078070 -0.003578 0.005424
1.800114 0.286673 0.841145 0.065870 -0.005403 -0.007401
3.959474 0.722337 0.448200 0.322062 -0.000011 -0.000152
3.118552 0.724605 0.640657 0.000000 -0.026435 0.000051
3.532592 0.498683 0.697314 0.138339 -0.004168 -0.010095
1.539603 0.728438 0.421221 0.000000 0.026598 -0.000013
1.702861 0.584405 0.445321 0.065872 -0.003796 0.005210
3.814217 1.055984 0.307689 -0.000001 -0.588298 -0.001414
1.888723 0.075660 1.008529 0.071752 0.009651 0.013147
1.888723 1.379027 1.008529 0.071752 -0.009651 0.013147
1.642348 0.605207 0.416727 0.071751 0.006970 -0.009537
1.522904 0.625266 0.571315 0.000000 -0.926666 0.000001
1.642348 0.582055 0.613371 0.065869 -0.007593 -0.010368
1.888723 1.379027 0.053393 0.071751 -0.009651 -0.013147
3.190913 0.829767 0.491500 -0.000000 0.935263 -0.000004
0.088632 0.799274 0.563600 -0.460096 0.000067 0.000028
0.841970 0.723874 0.640637 0.000000 -0.026762 0.000051
0.031071 0.762660 0.521330 -0.686158 0.000018 -0.000004
2.155597 0.640228 0.464192 -0.000000 -0.794326 -0.000004
1.695457 0.662399 0.619448 -0.000000 -0.585590 0.000029
0.112912 0.641400 0.502530 -0.365168 -0.000105 -0.000032
1.235316 0.774602 0.630027 -0.000000 0.419320 0.000006
2.098080 0.773941 0.630338 -0.000001 0.403121 0.000006
2.730773 0.620018 0.553985 0.000000 -0.980126 0.000001
2.960843 0.619475 0.551300 0.000000 -0.985039 0.000001
1.235316 0.833793 0.557719 -0.000000 0.968272 0.000001
3.708571 0.775468 0.629616 -0.000000 0.449268 0.000084
3.778015 0.978794 0.363846 -0.000000 -0.588298 -0.001480
3.705852 0.476213 0.364079 -0.000000 0.588298 -0.001205
3.786409 0.412049 0.744523 0.000001 0.588297 0.001414
3.786618 0.548259 0.416493 0.000000 0.588298 -0.001480
3.853046 0.954992 0.381162 -0.000001 -0.588298 -0.001480
3.823924 1.030736 0.735865 -0.000001 -0.588298 0.001414
3.746235 0.512236 0.671636 0.000001 0.588298 0.001480
3.746235 0.942450 0.671636 0.000001 -0.588298 0.001480
3.833631 1.005488 0.344425 -0.000001 -0.588296 -0.000707
3.720191 0.596824 0.610097 0.000001 0.588296 0.001205
1.810492 0.826759 0.484446 0.000000 0.904738 -0.000002
3.248431 0.830362 0.493082 -0.000001 0.935783 -0.000008
3.814217 0.413752 0.287002 0.000000 -0.588298 0.001414
3.881124 0.715675 0.421814 0.323966 -0.000021 -0.000175
2.558220 0.623353 0.495838 0.000000 -0.944977 -0.000007
0.257518 0.683407 0.430379 0.000001 -0.401032 -0.000192
1.570146 0.576303 0.624569 -0.071688 -0.010925 -0.013594
0.775176 0.628394 0.483454 0.000001 -0.896848 -0.000002
3.171432 0.837017 0.534521 -0.000000 0.999642 0.000000
3.508704 0.919416 0.678605 0.138340 0.004168 -0.010094
1.407869 0.831005 0.567034 -0.000000 0.944987 0.000007
1.637939 0.688438 0.428328 -0.000000 -0.351709 -0.000056
3.643632 0.836981 0.526032 0.000000 0.999642 -0.000000
0.832693 0.831612 0.496659 0.000000 0.953317 -0.000007
1.695457 0.618240 0.518931 0.000000 -0.992840 -0.000003
3.959474 0.752910 0.563594 1.000000 0.000000 0.000000
3.424904 0.600614 0.638976 0.000000 -0.588298 -0.001716
1.663960 0.605617 0.463928 0.065871 -0.007593 0.010368
3.480520 0.880766 0.658396 0.000000 0.588298 -0.002574
3.667008 0.934330 0.396194 0.000001 -0.588297 -0.001075
1.650993 0.582119 0.661222 0.071751 0.006970 0.009537
1.754730 1.149627 0.853558 0.071751 -0.009919 0.013506
1.729009 0.265691 0.856762 -0.071688 -0.004291 -0.005392
2.213115 0.618513 0.516664 -0.000001 -0.992099 -0.000003
3.856128 0.852593 0.424022 -0.000001 0.588297 0.000655
2.328150 0.701292 0.637594 0.000000 -0.250283 0.000081
3.763454 1.016666 0.725629 0.000001 -0.588293 0.000707
0.832693 0.768670 0.429280 0.000000 0.376167 -0.000013
1.650993 0.559669 0.431559 0.065870 -0.007593 0.010368
1.802276 0.516603 0.387878 0.065870 -0.002117 0.002909
1.465386 0.830722 0.567854 0.000000 0.945133 0.000007
1.407869 0.830811 0.494327 -0.000000 0.945023 -0.000007
3.633244 0.649536 0.474355 0.040757 -0.007840 -0.005601
1.789308 1.253205 0.902241 -0.071687 0.007002 -0.008771
1.774180 0.598536 0.612143 0.065871 -0.011387 -0.015425
3.190913 0.688908 0.428151 -0.000000 -0.351713 -0.000056
1.808759 1.192989 0.181624 0.071752 -0.004424 -0.006069
3.749390 0.617715 0.536255 0.000000 -0.999642 0.000000
0.602623 0.685678 0.632505 -0.000001 -0.376028 0.000052
1.637764 1.082369 0.281497 -0.071687 0.005646 0.007085
1.622291 0.393524 0.764996 -0.071688 -0.011291 -0.014040
2.586979 0.728712 0.421229 0.000000 0.026444 -0.000051
1.650993 0.872567 0.400699 0.071751 -0.006970 -0.009537
2.155597 0.797611 0.446635 0.000000 0.648120 -0.000012
3.939886 0.707399 0.618340 0.322640 -0.000039 0.000147
1.001535 0.724422 0.421270 -0.000000 -0.026598 -0.000013
1.094305 0.724513 0.421268 0.000000 -0.026427 -0.000026
2.727062 0.725335 0.421246 0.000000 -0.026598 -0.000013
3.695032 0.810637 0.575740 0.040756 0.007840 0.005601
2.098080 0.681985 0.630920 0.000000 -0.424885 0.000011
0.200000 0.750546 0.423673 -0.060999 0.000096 -0.000418
1.817404 0.238609 0.896326 0.071752 0.008847 0.012069
3.369288 0.827377 0.619555 -0.000001 0.588298 -0.001716
3.646042 0.830994 0.439736 0.000000 0.588298 0.000887
1.766093 0.196760 0.926002 -0.078070 0.005689 0.008608
1.522904 0.827011 0.484983 0.000001 0.903560 -0.000010
3.363466 0.619973 0.553761 0.000000 -0.980118 0.000009
1.882239 0.316268 0.227861 0.071752 0.011258 -0.015289
1.594967 1.155429 0.842399 -0.078071 -0.003945 0.005978
3.566594 0.567756 0.399041 0.000002 -0.588295 0.000831
3.566594 0.901981 0.419728 -0.000001 -0.588298 -0.000831
1.580422 0.621259 0.559134 0.000000 -0.968207 0.000005
0.947728 0.834017 0.505088 -0.000001 0.974222 -0.000005
2.845808 0.828578 0.488534 0.000000 0.926028 -0.000004
3.478501 0.625232 0.490691 0.000000 -0.926329 -0.000004
2.558220 0.683282 0.631488 -0.000000 -0.401023 0.000048
1.782467 0.115311 0.981220 -0.078069 0.008441 0.012733
2.730773 0.674959 0.627414 0.000001 -0.471872 0.000020
3.900712 0.824615 0.496924 0.323805 0.000628 -0.000181
3.690840 0.851698 0.605613 -0.000002 -0.588297 0.001075
1.663960 0.827671 0.627406 0.071750 -0.006970 0.009537
3.723058 0.620946 0.469374 0.000003 0.588283 -0.000603
3.075878 0.701115 0.637548 0.000000 -0.250283 0.000041
1.518300 0.486009 0.360857 -0.071689 -0.007001 0.008771
0.545105 0.625593 0.489803 0.000000 -0.926355 -0.000017
2.558220 0.685804 0.429365 -0.000000 -0.376545 -0.000026
3.510541 0.613962 0.629265 0.000000 -0.588298 -0.002574
3.510541 0.855774 0.608578 0.000000 -0.588298 0.002574
1.550153 0.431811 0.741201 -0.071687 -0.006098 -0.007648
1.550153 1.022875 0.741201 -0.071687 0.006098 -0.007648
1.557889 0.421207 0.313007 -0.071688 -0.006098 0.007648
1.538095 1.001078 0.336932 -0.071687 0.006550 0.008210
3.786618 0.906427 0.645429 0.000000 -0.588299 0.001480
3.751971 0.560480 0.636538 0.000000 0.588299 0.001480
3.711588 0.915179 0.378490 -0.000001 0.588297 0.000603
2.845808 0.762596 0.427015 0.000000 0.326679 -0.000122
1.668282 0.939791 0.397574 -0.071688 0.013323 0.016489
1.533077 0.384088 0.780683 -0.071688 -0.011291 -0.014040
2.615738 0.790955 0.620411 0.000000 0.583627 0.000007
0.392962 0.837088 0.532787 0.000000 0.999915 0.000000
1.617530 0.728438 0.421221 0.000000 0.026444 -0.000026
1.661881 1.117896 0.237986 -0.078069 -0.007890 -0.011911
3.133396 0.814430 0.464156 -0.000000 0.794703 -0.000032
1.593157 1.087088 0.788269 -0.071689 0.011291 -0.014040
1.780664 0.223867 0.176674 0.065871 -0.009636 0.013107
3.580498 0.908654 0.647049 -0.000000 -0.588299 0.000831
1.522904 0.828328 0.573976 -0.000000 0.915866 0.000009
3.369288 0.612259 0.463054 0.000000 0.588298 -0.001716
3.925468 0.824731 0.593903 -0.258811 -0.001882 0.002179
3.406140 0.837000 0.535160 0.000000 0.999650 0.000000
1.834693 0.551946 0.650978 0.065871 -0.010074 -0.013689
2.788291 0.626450 0.487736 -0.000000 -0.915562 -0.000005
3.190913 0.692349 0.634996 -0.000001 -0.326388 0.000030
0.469034 0.836981 0.535890 0.000000 0.999642 0.000000
1.598997 0.827991 0.626966 -0.078070 -0.006881 0.010400
1.804437 0.575241 0.430361 0.065871 -0.010074 0.013689
3.860981 0.839969 0.628716 0.000000 0.588297 -0.001309
1.756891 1.005518 0.313397 0.071751 -0.006568 -0.008991
1.869272 0.448782 0.323113 0.071752 0.001810 -0.002487
0.760332 0.837010 0.527127 0.000000 0.999642 -0.000000
0.775176 0.773031 0.630765 0.000000 0.425215 0.000045
2.270632 0.626578 0.487444 0.000001 -0.914514 -0.000005
3.881124 0.770024 0.429830 0.326740 0.000070 -0.000160
3.478501 0.829848 0.491714 -0.000001 0.935783 -0.000008
1.873595 1.058539 0.294423 0.065870 0.006571 0.008987
1.694643 0.262741 0.199662 -0.071688 -0.004291 0.005392
1.882239 1.142102 0.828998 0.065870 0.006133 -0.008393
2.040562 0.799627 0.613570 -0.000000 0.668471 0.000094
3.075878 0.788551 0.622072 -0.000000 0.563926 0.000031
1.685572 0.984565 0.698333 -0.071688 0.012420 -0.015405
1.685572 0.984565 0.363589 -0.071688 0.012420 0.015405
1.676927 0.512854 0.352616 0.071752 0.001944 -0.002671
1.563723 0.726065 0.640696 0.000000 -0.026435 0.000026
3.584259 0.728439 0.421207 0.000000 0.013380 -0.000203
1.510563 0.952636 0.700824 -0.078069 -0.005689 0.008608
2.558220 0.623248 0.565782 -0.000000 -0.945028 0.000007
2.960843 0.836810 0.522932 -0.000000 0.997761 -0.000000
3.190913 0.764752 0.427766 0.000000 0.351778 -0.000056
2.129622 0.837112 0.530961 0.000000 0.999642 0.000000
3.275991 0.832840 0.607711 0.138340 0.001923 -0.004659
1.029366 0.727434 0.640729 0.000000 0.013706 0.000049
3.272551 0.837015 0.534612 0.000000 0.999642 0.000000
0.890211 0.625937 0.572965 0.000000 -0.926207 0.000009
3.536019 0.624533 0.569396 -0.000001 -0.936035 0.000016
1.900609 0.433909 0.746841 0.071752 0.006702 0.009173
3.830087 0.613698 0.629457 -0.000001 -0.588296 -0.000655
3.849502 0.664194 0.592720 0.040757 -0.015678 0.010647
1.895206 0.193358 0.145127 0.065871 -0.004235 0.005809
1.895206 0.193358 0.916795 0.065871 -0.004235 -0.005809
1.326231 0.617628 0.532969 0.000000 -0.999642 0.000000
0.257518 0.832411 0.562737 -0.000000 0.946714 0.000001
1.350351 0.687712 0.428601 -0.000000 -0.351642 -0.000056
1.580422 0.646199 0.604875 0.000000 -0.743705 0.000019
3.823606 0.775304 0.432225 -0.000000 0.419788 -0.000006
3.478501 0.621820 0.561158 -0.000000 -0.961129 0.000012
1.420857 0.727708 0.421202 0.000000 0.026762 -0.000025
2.632436 0.617599 0.530048 0.000000 -0.999642 -0.000000
2.495136 0.725974 0.421229 0.000002 -0.015084 -0.000090
1.708444 0.728347 0.421219 0.000004 0.004895 -0.000139
1.774180 1.076383 0.289557 0.065871 0.006571 0.008987
0.545105 0.769009 0.429417 0.000000 0.376466 -0.000052
3.959474 0.765874 0.457546 0.319890 0.000073 -0.000135
1.886562 1.190001 0.197724 0.065870 0.011096 0.015041
1.658254 0.434486 0.302715 -0.078070 0.004679 -0.007087
0.545105 0.829832 0.491671 0.000000 0.936081 -0.000016
1.492089 0.853059 0.611615 -0.071687 0.011856 -0.014724
3.571456 0.807188 0.472873 0.040758 0.015678 -0.010647
3.669104 0.898749 0.671479 -0.000002 0.588292 -0.000537
2.098080 0.770651 0.430104 0.000000 0.401038 -0.000096
1.716909 0.487129 0.337457 0.071752 0.003552 -0.004877
1.265003 0.725517 0.421241 0.000000 -0.026598 -0.000025
1.694216 0.546206 0.378418 0.071752 0.003485 -0.004785
1.778503 1.075474 0.797496 0.071753 -0.006166 0.008444
1.741763 0.578278 0.655942 0.071751 0.009249 0.012609
1.695338 0.355557 0.247217 -0.078070 0.003945 -0.005979
1.741763 0.891492 0.426713 0.065869 0.005695 0.007799
1.672605 0.871456 0.446936 0.065870 0.007593 0.010368
1.687602 0.354059 0.790356 -0.071687 -0.005195 -0.006522
3.190913 0.625180 0.490818 0.000000 -0.926392 -0.000004
3.708571 0.682529 0.430764 -0.000000 -0.400823 -0.000024
1.694216 0.908480 0.378418 0.071753 -0.003485 -0.004785
3.959474 0.665282 0.585942 0.322060 -0.000116 0.000099
3.502747 0.800682 0.600134 0.000000 0.588298 -0.002574
2.255789 0.837100 0.530505 -0.000008 0.086753 -0.000000
1.845499 0.288983 0.204743 0.071752 0.005094 -0.006984
3.190913 0.627539 0.576649 0.000000 -0.905063 0.000010
0.463468 0.617706 0.535890 0.000000 -0.999642 0.000000
1.732037 0.424733 0.735146 0.065869 -0.007155 -0.009777
3.630595 0.831503 0.622557 -0.000002 0.588297 -0.000887
3.402430 0.617686 0.526762 0.000000 -0.999642 -0.000000
2.385667 0.685593 0.429451 0.000000 -0.376610 -0.000026
0.430070 0.697409 0.425362 -0.000000 -0.275896 -0.000073
3.036915 0.725335 0.640676 0.000000 -0.026762 0.000025
0.191053 0.618276 0.525148 -0.069661 -0.000373 -0.000010
1.428278 0.617616 0.529409 0.000000 -0.996500 -0.000000
3.282001 0.644083 0.462479 0.138340 -0.001923 0.004659
2.040562 0.836859 0.523661 -0.000000 0.997786 -0.000006
1.591822 0.872947 0.405998 -0.078069 -0.002890 -0.004382
1.695457 0.803921 0.609606 -0.000000 0.707025 0.000021
1.598997 0.827991 0.434956 -0.078069 -0.006881 -0.010400
1.492089 0.612370 0.626381 -0.078071 0.002409 0.003653
1.492089 0.601627 0.450307 -0.071688 -0.011856 0.014724
2.500703 0.835274 0.510982 -0.000000 0.985049 -0.000007
1.177799 0.749785 0.423519 0.000000 0.198374 -0.000052
1.694216 0.625735 0.436276 0.071752 0.006970 -0.009536
1.694216 0.988009 0.741362 0.071751 -0.001810 0.002487
1.702861 0.852040 0.641674 0.071755 -0.006970 0.009536
2.328150 0.788400 0.622175 -0.000001 0.563791 0.000062
1.810492 0.625662 0.572288 0.000000 -0.926028 0.000004
1.898448 0.990534 0.336891 0.071752 -0.003619 -0.004969
2.788291 0.689122 0.428071 0.000000 -0.351730 -0.000028
1.600893 0.361379 0.802010 -0.078071 0.004312 0.006533
2.443185 0.710064 0.639359 -0.000000 -0.145883 0.000071
1.235316 0.769262 0.429520 0.000000 0.376545 -0.000026
1.668013 1.202166 0.880053 -0.078067 -0.003487 0.005285
1.668013 1.202166 0.181869 -0.078069 -0.003487 -0.005285
1.683486 0.231313 0.166440 -0.078069 0.003211 -0.004868
1.810920 1.009411 0.335281 0.065872 0.007154 0.009777
1.867111 0.592199 0.427259 0.071752 0.009248 -0.012609
1.897368 0.863767 0.429019 0.071751 -0.003753 -0.005152
1.897368 0.814826 0.464624 0.071753 -0.007506 -0.010262
1.897368 0.028101 1.042359 0.071754 0.007506 0.010262
1.897368 0.888238 0.650705 0.071752 -0.009249 0.012609
1.897368 0.566449 0.650705 0.071752 0.009249 0.012609
1.864950 0.528650 0.670396 0.065870 -0.004235 -0.005809
1.836854 0.610584 0.608495 0.065871 -0.010074 -0.013689
1.810492 0.684832 0.632161 -0.000001 -0.375506 0.000026
3.478501 0.769728 0.429709 -0.000000 0.376415 -0.000013
1.383749 0.837068 0.529318 0.000000 0.999650 -0.000000
2.328150 0.716630 0.421725 -0.000000 -0.092880 -0.000056
1.836854 0.836736 0.618620 0.071751 -0.009249 0.012609
1.483940 0.837083 0.529866 0.000000 0.999650 -0.000000
1.752974 0.820200 0.589492 0.000001 0.840284 0.000014
2.098080 0.829816 0.491629 -0.000000 0.936070 -0.000016
1.502494 0.617599 0.530048 -0.000000 -0.999650 -0.000000
2.638003 0.729169 0.421241 0.000000 0.026598 -0.000013
0.775176 0.831140 0.566645 -0.000000 0.945116 0.000015
3.351487 0.654004 0.600134 0.000000 -0.808644 0.000352
1.685998 1.162192 0.855393 -0.078069 -0.003578 0.005424
1.620688 0.328628 0.825453 -0.078071 0.008441 0.012733
1.620688 0.328628 0.236469 -0.078070 0.004221 -0.006395
1.839016 0.161462 0.935413 0.065870 -0.004235 -0.005809
1.709345 0.545566 0.682624 0.071752 0.009249 0.012609
1.845499 1.196839 0.865820 0.065870 0.004819 -0.006606
1.695457 0.810307 0.459094 -0.000000 0.761071 -0.000018
0.027893 0.727343 0.564407 -0.708863 0.000000 0.000009
1.670526 0.313702 0.839964 -0.078069 0.003945 0.005979
1.770938 0.504943 0.355223 0.071753 0.003887 -0.005336
1.776341 0.644982 0.457584 0.071751 0.005228 -0.007167
0.430070 0.762855 0.634817 0.000000 0.326596 0.000061
3.683779 0.537805 0.653034 0.000002 0.588289 0.000603
3.678044 0.965126 0.688133 0.000000 -0.588297 0.001205
3.830087 0.598648 0.453152 -0.000000 0.588298 -0.000655
1.694216 0.988009 0.320560 0.071752 -0.001810 -0.002487
2.385667 0.626005 0.488788 -0.000000 -0.926399 -0.000009
1.862789 0.218336 0.154884 0.071754 0.004021 -0.005519
1.845744 0.727526 0.640725 0.000000 0.026435 0.000051
1.773100 0.968056 0.693468 0.065871 0.001935 -0.002658
0.430070 0.750546 0.423673 0.000000 0.224353 -0.000183
0.482022 0.732090 0.640603 0.000000 0.026435 0.000051
3.536019 0.681985 0.431002 0.000000 -0.425282 -0.000089
3.075878 0.693303 0.426609 0.000000 -0.301356 -0.000033
1.741763 0.578278 0.405980 0.071752 0.009249 -0.012609
0.146900 0.766946 0.624801 -0.232644 0.000084 0.000185
3.569243 0.601633 0.638234 -0.000001 -0.588297 -0.001400
2.213115 0.690796 0.634459 0.000000 -0.326830 0.000061
1.791112 0.092222 0.064674 -0.078069 0.008441 -0.012733
0.155617 0.635111 0.578887 -0.198712 -0.000224 0.000109
1.522904 0.783967 0.624988 -0.000001 0.517697 0.000017
1.927624 1.183162 0.862575 0.071752 -0.010187 0.013864
1.927624 0.271524 0.199347 0.071752 0.010186 -0.013864
2.673255 0.835620 0.512961 -0.000001 0.978751 -0.000002
1.062763 0.690925 0.427418 0.000000 -0.326662 -0.000061
1.042354 0.617637 0.533334 0.000000 -0.999650 0.000000
1.702861 0.852040 0.420248 0.071752 -0.003485 -0.004785
2.443185 0.639230 0.596424 0.000000 -0.810602 0.000030
1.740682 0.396229 0.305333 0.065870 -0.003285 0.004510
3.862753 0.914694 0.683079 -0.258809 0.001494 -0.002462
3.833631 0.990438 0.738184 -0.258812 0.001494 -0.002462
3.891875 0.615736 0.433948 0.000000 -0.588297 0.001309
3.833631 0.449198 0.717497 0.000000 0.588299 0.000707
2.886627 0.724787 0.421260 0.000000 -0.026598 -0.000025
3.843339 0.474446 0.362793 -0.000001 0.588299 -0.001414
3.702985 0.987545 0.325843 0.000000 0.588298 0.001205
1.720151 1.074111 0.295620 -0.071688 0.010614 0.013217
3.959474 0.727343 0.530961 1.000000 0.000000 0.000000
1.261292 0.617603 0.529866 -0.000000 -0.999642 -0.000000
3.248431 0.762078 0.635086 -0.000001 0.305809 0.000008
3.599102 0.729535 0.640701 -0.000000 0.013054 0.000104
0.073170 0.747529 0.597906 -0.520652 0.000017 0.000052
0.856814 0.617590 0.529774 -0.000000 -0.999915 -0.000000
0.832693 0.641721 0.599634 0.000001 -0.777546 0.000017
2.615738 0.656310 0.447286 -0.000000 -0.648314 -0.000025
0.628599 0.723144 0.640618 0.000000 -0.026762 0.000051
1.630052 0.915051 0.648202 -0.071687 0.003557 -0.004472
3.651054 0.618918 0.548060 0.000001 -0.987752 0.000002
3.563944 0.920808 0.687527 -0.000001 0.588298 -0.001661
3.569243 0.868103 0.617547 -0.000000 -0.588298 0.001400
3.397096 0.855774 0.453344 0.000001 -0.588298 -0.000858
3.508328 0.894114 0.393815 0.000000 0.588298 0.001287
3.510541 0.613962 0.432657 0.000000 -0.588298 0.002574
3.647369 0.493836 0.716658 -0.000001 -0.588298 -0.001075
3.735646 0.988268 0.736605 -0.000001 0.588298 -0.000707
3.637657 0.526520 0.400678 -0.000002 0.588298 -0.001018
3.341480 0.829080 0.589158 0.000001 -0.588298 0.001716
3.786409 0.412049 0.317399 0.000000 0.588297 -0.001414
3.655753 0.575958 0.656913 -0.000001 -0.588297 -0.001075
3.563944 0.533878 0.374395 -0.000001 -0.588298 0.001661
3.796116 0.452347 0.315080 -0.000001 -0.588298 0.000707
3.714455 0.548580 0.416726 -0.000002 0.588291 -0.000603
0.200000 0.831557 0.496485 -0.061000 0.000409 -0.000129
0.487588 0.809860 0.458575 0.000000 0.743651 -0.000002
2.788291 0.702404 0.637850 -0.000000 -0.224197 0.000046
3.478501 0.689122 0.428071 0.000000 -0.351699 -0.000112
1.451740 0.909941 0.394754 -0.078070 -0.004817 -0.007295
1.451740 0.909941 0.667167 -0.078071 -0.004817 0.007295
1.436267 0.565953 0.651739 -0.078067 0.003212 0.004869
2.944144 0.728986 0.640686 -0.000000 0.026762 0.000013
2.814266 0.837049 0.528588 0.000000 0.999642 -0.000000
2.213115 0.662584 0.442340 -0.000000 -0.585335 -0.000015
0.930102 0.723966 0.640640 -0.000008 -0.002074 0.000326
0.337300 0.617715 0.525667 -0.000000 -0.999642 -0.000000
1.708264 0.956154 0.382406 0.065871 0.002117 0.002909
1.708264 0.956154 0.679516 0.065871 0.004235 -0.005809
1.685572 0.470122 0.698333 0.065870 -0.007739 -0.010565
2.463594 0.837080 0.529774 -0.000000 0.952474 -0.000000
1.983045 0.829655 0.570721 -0.000001 0.935671 0.000008
3.552717 0.836990 0.526397 0.000000 0.999642 -0.000000
2.363403 0.727526 0.640725 0.000000 0.026435 0.000051
1.925527 0.623845 0.567508 0.000000 -0.945151 0.000007
1.670526 0.306336 0.232083 -0.071688 -0.004743 0.005957
3.554903 0.826868 0.619184 0.000000 0.588298 -0.001400
2.960843 0.619475 0.510622 0.000000 -0.985060 -0.000007
3.018361 0.829420 0.571315 -0.000000 0.926229 0.000009
0.545105 0.685170 0.429623 0.000000 -0.370317 -0.000007
0.315035 0.762337 0.634996 0.000000 0.326596 0.000061
1.005246 0.634733 0.589876 0.000000 -0.840552 0.000007
2.040562 0.649732 0.608572 0.000000 -0.707107 0.000003
2.535955 0.617608 0.532239 0.000000 -0.999642 0.000000
1.720151 0.380575 0.766302 0.065871 -0.013139 -0.017713
3.762560 0.833338 0.469667 0.000002 -0.588277 -0.000327
1.898448 0.470269 0.341341 0.071752 0.003619 -0.004969
3.823606 0.830826 0.494370 0.000000 0.945137 -0.000015
2.535955 0.837078 0.532239 0.000000 0.999650 0.000000
3.708383 0.815608 0.450929 -0.000000 0.588298 0.001075
2.183428 0.727160 0.421197 0.000000 -0.026599 -0.000025
