3.263636 0.748333 0.306116 -0.337763 0.001018 0.000777
2.054599 0.617601 0.556275 0.000001 0.958810 -0.000009
1.011767 0.516382 0.687949 0.000000 -0.024473 0.000010
1.886968 0.643384 0.740791 0.052552 -0.005165 0.004540
1.345443 0.621613 0.585879 0.000010 0.049800 0.000000
2.944569 0.421556 0.713037 0.000000 -0.749493 -0.000330
2.750073 0.475384 0.678566 -0.000000 -0.422611 0.000128
2.887732 0.367991 0.414469 0.142182 -0.003014 0.005204
2.083482 0.518310 0.687998 0.000000 -0.024835 0.000157
2.100964 0.551022 0.486940 -0.000000 0.306643 -0.000046
1.886968 0.393558 0.740791 0.052551 0.005165 0.004540
2.991525 0.640373 0.465304 -0.000000 -0.749494 -0.000770
2.001153 0.990520 1.109532 -0.052510 0.009438 -0.007540
1.776409 0.435946 0.522929 0.000000 -0.804529 -0.000011
0.744218 0.518632 0.481668 0.000000 0.012420 -0.000039
2.446801 0.516061 0.687941 0.000000 -0.025215 0.000010
2.417917 0.415392 0.581299 0.000000 -0.999687 -0.000000
0.135545 0.520798 0.678138 -0.301324 0.000003 0.000060
1.683679 0.596663 0.517544 0.000001 0.757932 -0.000051
0.151392 0.421634 0.594524 -0.197588 -0.000199 0.000015
1.776409 0.607119 0.532075 -0.000000 0.858342 -0.000004
3.122401 0.680867 0.382497 -0.000001 0.749493 0.001209
2.021757 -0.000000 0.004660 -0.000000 -0.662009 -0.000383
3.074628 0.480705 0.488828 0.000000 -0.376920 -0.000147
2.165570 0.621611 0.583709 0.000000 0.999691 -0.000000
0.397621 0.415326 0.583066 0.000003 -0.361966 -0.000000
1.756516 0.384813 0.421468 -0.029509 0.017417 -0.013889
3.158154 0.445814 0.685573 -0.000001 -0.749493 -0.001209
2.657343 0.428968 0.636137 0.000000 -0.872130 0.000004
1.838040 0.126636 0.145355 -0.052508 -0.015280 0.011909
0.617285 0.613296 0.544208 -0.000001 0.905386 -0.000002
1.689229 0.401245 0.698394 -0.052508 -0.010365 -0.008254
1.939339 0.851253 0.226564 -0.052508 0.004270 0.003454
1.127299 0.487297 0.683172 0.000000 -0.306410 0.000023
1.689492 0.374853 0.438778 -0.052508 -0.005183 0.004187
2.286423 0.581050 0.666850 0.000000 0.611939 0.000005
1.556880 0.674298 0.756996 -0.052505 0.003933 -0.003183
3.238173 0.542686 0.492886 0.108704 0.000107 -0.000384
2.811646 0.443100 0.651684 0.000000 -0.662011 0.000344
1.893461 0.621635 0.584673 0.000000 0.999691 -0.000000
1.920787 0.135446 1.006555 -0.052508 -0.007416 -0.005960
3.110240 0.401614 0.434054 -0.000002 -0.749480 0.000247
1.435892 0.415348 0.583066 0.000000 -0.999687 -0.000000
3.180557 0.706679 0.353274 -0.000001 0.749488 0.000247
1.683487 0.792198 0.891692 -0.052508 0.005618 -0.004534
0.988204 0.609638 0.536560 0.000000 0.884125 -0.000032
3.073877 0.620431 0.487881 0.000000 -0.749493 -0.000440
2.518248 0.621090 0.574242 0.000000 0.993711 -0.000002
1.080934 0.598647 0.649749 -0.000000 0.773931 0.000012
0.236484 0.523453 0.481791 0.000000 0.025029 -0.000020
1.220029 0.494342 0.484536 0.000000 -0.234625 -0.000062
1.961869 0.571368 0.673400 0.000001 0.509857 0.000025
1.889071 0.785774 0.898312 -0.029514 -0.004249 0.003893
1.528578 0.412528 0.461308 -0.029509 0.009914 -0.008701
0.467549 0.415400 0.588691 0.000000 -0.999687 0.000000
1.836803 0.268880 0.849163 -0.052509 -0.005618 -0.004534
1.723136 0.678620 0.421219 -0.052507 0.010366 0.008254
3.015342 0.514132 0.481775 -0.000000 -0.025029 -0.000039
2.193694 0.545947 0.485398 0.000000 0.258816 -0.000028
1.996001 0.908519 1.032294 0.052549 -0.004609 0.004055
0.895474 0.603890 0.526986 -0.000001 0.832216 -0.000010
1.978732 0.043828 1.126158 -0.029510 0.007931 0.007092
3.152866 0.321846 0.343745 0.000000 -0.749494 0.000494
1.004166 0.516382 0.481719 0.000000 -0.025029 -0.000010
1.800989 0.748942 0.854701 -0.029509 -0.010009 0.008776
2.347990 0.415348 0.583066 -0.000000 -0.999687 -0.000000
1.665977 0.641607 0.732901 -0.029509 -0.004958 0.004526
2.981898 0.454147 0.665494 0.000000 -0.633157 0.000005
2.889168 0.552163 0.682337 0.000000 0.330252 0.000085
1.266394 0.458741 0.668945 0.000001 -0.573190 0.000021
1.886968 0.643384 0.428877 0.052552 -0.005165 -0.004540
1.969470 0.415392 0.588369 0.000000 -0.999687 0.000000
2.800999 0.415323 0.583307 0.000000 -0.999921 -0.000000
0.292730 0.415834 0.574402 0.000000 -0.993711 -0.000000
2.972503 0.398290 0.430291 -0.000001 -0.749492 0.000330
1.869139 0.493795 0.484668 0.000000 -0.234450 -0.000031
1.951358 0.246680 0.293911 0.093377 -0.003667 0.003236
1.749121 0.457877 0.668962 -0.029509 0.016049 0.013055
1.571187 0.415328 0.583870 0.000000 -0.999687 -0.000000
1.757734 0.859069 0.967887 -0.052508 0.009438 -0.007540
2.975635 0.375024 0.765717 0.000000 -0.749493 -0.000660
3.238173 0.481193 0.614339 1.000000 0.000000 0.000000
0.534436 0.522007 0.481755 0.000000 0.025029 -0.000039
1.836803 0.283012 0.308022 -0.029509 0.005005 -0.004568
1.694980 0.766493 0.310605 -0.052508 0.006068 0.004892
1.312759 0.422799 0.546249 0.000001 -0.882498 -0.000001
1.451854 0.481080 0.488684 0.000000 -0.353712 -0.000039
1.637314 0.618272 0.558717 0.000001 0.965787 -0.000008
1.571187 0.518792 0.481674 0.000000 0.024844 -0.000020
0.617285 0.434290 0.525203 0.000000 -0.819167 -0.000042
2.379153 0.621388 0.577726 0.000000 0.998058 -0.000000
1.561695 0.583214 0.665298 0.000001 -0.662006 -0.000400
0.524555 0.610145 0.537519 0.000000 0.884112 -0.000002
1.637087 0.253058 0.284348 -0.052507 -0.012135 0.009597
0.604363 0.522167 0.481759 0.000000 0.024844 -0.000020
0.941839 0.427867 0.634174 0.000000 -0.884036 0.000004
1.173664 0.416028 0.596983 0.000000 -0.993711 0.000001
1.930458 1.005263 1.137182 -0.029510 -0.007931 0.007092
1.873232 0.404439 0.483586 0.093377 -0.002907 0.002566
1.723136 0.358322 0.748449 -0.052508 -0.010365 -0.008254
1.849796 0.307941 0.799954 -0.052508 -0.006405 -0.005160
0.573960 0.415416 0.589334 0.000000 -0.999692 0.000000
1.068013 0.520239 0.481710 0.000000 0.025029 -0.000020
0.246365 0.434383 0.525072 0.000000 -0.819042 -0.000021
3.097597 0.416570 0.718681 -0.000000 -0.749494 -0.000495
1.978831 0.177585 0.191667 0.052553 0.005244 -0.004609
1.978732 0.043828 0.043510 -0.029508 0.015861 -0.012936
1.627400 0.394294 0.457550 -0.052509 -0.004916 0.003973
3.019943 0.675212 0.388899 -0.000001 0.749494 0.000770
2.981898 0.547801 0.683736 -0.000001 0.282674 0.000051
1.813149 0.395910 0.694628 -0.052508 -0.004776 -0.003860
2.595777 0.415376 0.587727 0.000000 -0.999687 0.000000
0.175557 0.440794 0.650013 -0.103655 -0.000310 0.000247
2.960459 0.461440 0.501785 0.000000 -0.662012 -0.000344
3.167358 0.419159 0.556892 0.120651 -0.000365 -0.000098
0.885593 0.516382 0.481719 -0.000000 -0.024844 -0.000020
1.902422 0.711156 0.390404 0.093378 0.004740 0.004181
2.703708 0.535989 0.483169 -0.000001 0.147379 -0.000012
3.235932 0.656392 0.759462 -0.337764 0.002229 -0.001701
3.235932 0.380550 0.410206 0.000001 -0.749494 0.000742
1.187346 0.621582 0.582584 0.000000 0.999682 -0.000000
1.776409 0.612475 0.627338 0.000000 0.906259 0.000002
1.528578 0.629360 0.703991 -0.052506 0.005900 -0.004759
1.803134 0.876287 0.184356 -0.052508 0.008540 0.006842
1.940197 0.376005 0.441908 0.093377 -0.006417 0.005655
0.135545 0.592870 0.528479 -0.259269 0.000115 -0.000083
1.675842 0.621155 0.458429 -0.029507 -0.009915 -0.008702
0.292730 0.573355 0.497486 0.000000 0.532039 -0.000047
2.657343 0.614862 0.548082 0.000001 0.933249 -0.000006
3.213787 0.716650 0.827682 0.000000 0.749492 -0.000494
0.941839 0.429125 0.533250 0.000000 -0.872050 -0.000002
2.011455 0.871960 0.192904 0.093379 0.002951 0.002606
1.989992 0.650686 0.446459 0.093377 0.006417 0.005655
1.405489 0.428889 0.635997 -0.000000 -0.872102 0.000008
1.495461 0.371327 0.418245 -0.052507 -0.007866 0.006314
1.877525 0.690882 0.795316 0.052555 -0.008422 0.007345
1.823540 0.381961 0.415474 -0.029508 0.011519 -0.009936
1.836803 0.768062 0.320504 -0.052509 0.005618 0.004534
3.213770 0.435763 0.659991 0.000001 0.749491 0.000342
0.756380 0.615948 0.618602 0.000003 0.516796 0.000001
1.926840 0.957649 0.084071 -0.029510 -0.018879 -0.014727
2.796438 0.620794 0.597981 -0.000001 0.979967 0.000001
2.008234 0.608230 0.635682 0.000001 0.867557 0.000004
1.034569 0.419614 0.555350 -0.000001 -0.955889 -0.000002
1.830461 0.231569 0.274006 -0.052507 -0.002585 0.002095
3.134319 0.650954 0.753305 0.000001 0.749494 -0.001209
0.802745 0.419045 0.612349 0.000000 -0.962069 0.000001
1.722018 0.247712 0.274882 -0.029509 0.009442 -0.008326
3.028263 0.428437 0.534477 0.000000 -0.872050 -0.000008
0.802745 0.429207 0.533112 0.000000 -0.859758 -0.000004
1.702848 0.268966 0.870995 -0.029510 0.010197 0.008924
1.127299 0.557503 0.489343 -0.000000 0.376907 -0.000037
2.850657 0.602092 0.697986 0.000000 0.749494 -0.000880
1.869139 0.428418 0.635156 0.000000 -0.871945 0.000008
1.784035 0.739822 0.350895 -0.052509 0.003202 0.002594
0.042185 0.557313 0.563682 -0.624293 0.000020 -0.000010
1.220029 0.607653 0.532974 0.000000 0.859906 -0.000002
2.069835 0.878903 0.992896 0.052552 -0.010805 0.009349
1.984841 0.406454 0.699612 0.093377 -0.006417 -0.005655
1.791831 0.174963 0.968627 -0.052505 -0.002360 -0.001913
2.700478 0.612765 0.478079 0.142183 0.003014 0.005204
0.478190 0.461962 0.671142 -0.000001 -0.552834 0.000045
1.498219 0.476776 0.679193 -0.000001 -0.398674 0.000017
1.971963 0.834537 0.950447 0.052554 -0.006038 0.005299
3.241473 0.343822 0.764081 -0.000001 0.749493 0.000742
2.981898 0.610921 0.630604 0.000000 0.895299 0.000007
1.593871 0.342405 0.778845 -0.052505 -0.004916 -0.003973
3.074628 0.553681 0.681806 -0.000001 0.322298 0.000011
0.191835 0.586517 0.507729 -0.040476 0.000348 -0.000385
0.112327 0.589107 0.632992 -0.349772 0.000078 0.000051
2.802519 0.522328 0.481763 0.000000 0.025029 -0.000020
2.886052 0.443100 0.517984 0.000000 -0.662011 -0.000344
3.170316 0.400276 0.432539 0.000000 -0.749494 0.001209
1.824810 0.798219 0.887319 -0.052509 0.002753 -0.002231
3.120993 0.614550 0.547255 -0.000000 0.933371 -0.000003
1.915504 0.606503 0.638629 -0.000000 0.859710 0.000009
0.698613 0.415384 0.588048 0.000000 -0.999691 0.000000
3.122401 0.356075 0.382497 -0.000000 -0.749494 0.001209
2.889168 0.600948 0.522864 0.000000 0.804382 -0.000006
1.835014 0.874410 0.991699 -0.029512 -0.007176 0.006455
0.119982 0.494542 0.499787 -0.319919 -0.000031 -0.000102
2.803701 0.423158 0.495407 0.000000 0.749493 -0.000660
1.869139 0.607078 0.532006 -0.000001 0.855730 -0.000004
2.425518 0.501191 0.483130 -0.000000 -0.161570 -0.000023
0.292730 0.596139 0.652733 0.000000 0.757780 0.000013
2.712829 0.521524 0.687925 0.000000 0.025215 0.000078
2.030343 0.783483 0.879271 0.093378 0.004114 -0.003630
1.918734 0.804830 0.282040 -0.052506 0.010113 0.008060
1.730044 0.473708 0.491883 0.000000 -0.444840 -0.000008
2.039786 0.637137 0.721570 0.052554 -0.011401 0.009842
1.995143 0.670883 0.746805 0.093379 0.002594 -0.002290
1.730044 0.419353 0.556237 0.000001 -0.958958 -0.000009
1.266394 0.571506 0.673317 0.000000 0.497103 0.000003
1.995143 0.374255 0.415623 0.052554 0.002304 -0.002033
0.183685 0.426349 0.540470 -0.072096 -0.000525 -0.000237
1.405489 0.428811 0.533811 0.000001 -0.866350 -0.000004
1.822774 0.591387 0.657807 -0.000002 0.691358 0.000008
2.610978 0.541584 0.484291 -0.000000 0.234562 -0.000062
1.961869 0.610384 0.537984 -0.000001 0.872253 -0.000002
0.756380 0.617510 0.555967 0.000000 0.957526 -0.000002
1.953075 0.882201 0.980088 -0.052506 0.007641 -0.006137
0.663650 0.492237 0.485065 -0.000000 -0.258780 -0.000111
0.431825 0.528623 0.482169 0.000000 0.086726 -0.000021
0.431825 0.609225 0.535778 0.000001 0.883749 -0.000016
1.869139 0.426522 0.538056 0.000001 -0.892820 -0.000004
2.610978 0.465643 0.673441 0.000000 -0.510731 0.000025
0.849110 0.612959 0.626234 0.000000 0.916386 0.000007
1.590949 0.470978 0.676414 0.000000 -0.467174 0.000028
3.235941 0.295305 0.819009 -0.000000 0.749493 0.000494
0.292730 0.618448 0.559377 0.000000 0.972081 -0.000014
0.802745 0.532573 0.482643 0.000000 0.136800 -0.000027
1.482895 0.403123 0.713296 -0.052509 -0.007865 -0.006314
1.764484 0.237972 0.893277 -0.052508 -0.002809 -0.002277
1.978732 0.993114 0.043510 -0.029510 -0.007931 -0.007092
1.911103 0.092434 0.098949 -0.029508 0.021898 -0.016286
0.292730 0.459367 0.500285 0.000001 -0.573299 -0.000043
2.295544 0.621558 0.581620 0.000000 0.999691 -0.000000
0.431825 0.605348 0.640467 -0.000000 0.846620 0.000019
1.789896 0.639346 0.433824 -0.029509 -0.034805 -0.020858
2.193694 0.472305 0.677087 -0.000002 -0.435583 0.000015
2.033777 0.219945 0.917700 0.093378 -0.007512 -0.006614
3.206312 0.640718 0.464913 -0.000000 -0.749494 -0.001209
1.961869 0.477955 0.679708 -0.000000 -0.399212 0.000017
1.034569 0.419364 0.613470 0.000001 -0.956252 0.000002
2.576015 0.516061 0.687941 0.000000 -0.025215 0.000010
2.703708 0.446151 0.511264 0.000001 -0.699219 -0.000008
3.238173 0.556547 0.671960 0.113766 0.000157 0.000347
0.941839 0.488062 0.486250 0.000000 -0.306645 -0.000012
3.213787 0.301953 0.358184 0.000000 0.749494 -0.000494
1.923885 0.350369 0.382915 0.052554 0.008422 -0.007345
0.802745 0.505404 0.687168 0.000000 -0.136587 0.000108
3.224860 0.704861 0.392295 -0.000001 -0.749494 -0.000494
1.940197 0.376005 0.727760 0.093378 -0.006417 -0.005655
1.034569 0.571644 0.673235 -0.000001 0.438718 0.000004
2.471883 0.566639 0.676058 0.000002 0.466478 0.000057
1.544584 0.469415 0.494080 0.000000 -0.467175 -0.000028
1.312759 0.434705 0.645057 0.000000 -0.819232 0.000003
2.750073 0.609319 0.633712 0.000000 0.883873 0.000008
1.904235 0.928280 1.052893 -0.029511 -0.010952 0.009507
2.712829 0.415380 0.581781 -0.000000 -0.999687 -0.000000
2.100964 0.425062 0.628613 0.000000 -0.906075 0.000003
1.656639 0.312206 0.358852 -0.052507 -0.006855 0.005517
1.459291 0.612458 0.692436 -0.029509 -0.026423 0.018234
3.063283 0.647020 0.711890 0.000000 -0.749494 0.000880
2.023435 0.520399 0.481715 0.000000 0.025029 -0.000298
0.478190 0.564529 0.677141 0.000000 0.445087 0.000060
2.889168 0.471621 0.676747 0.000000 -0.444729 0.000015
0.617285 0.506322 0.687277 0.000001 -0.111810 0.000133
2.803701 0.613784 0.495407 0.000000 -0.749494 -0.000660
1.586003 0.687967 0.398261 -0.052516 0.002458 0.001993
2.054599 0.470552 0.676189 -0.000000 -0.467189 0.000056
1.405489 0.620071 0.602749 -0.000000 0.986910 0.000002
1.776409 0.504210 0.687003 0.000001 -0.134488 0.000055
3.238173 0.551652 0.550787 1.000000 0.000000 0.000000
1.776409 0.565750 0.493141 -0.000000 0.467270 -0.000014
1.220029 0.610670 0.631108 0.000002 0.812942 0.000002
1.127299 0.424909 0.628285 0.000001 -0.905320 0.000007
1.220029 0.417349 0.564392 0.000000 -0.982577 -0.000003
1.941056 0.287075 0.341104 0.093379 -0.004382 0.003867
2.610978 0.605391 0.640399 -0.000001 0.812657 0.000002
1.873232 0.404439 0.686082 0.093377 -0.002907 -0.002566
2.044938 0.346237 0.393367 0.093376 -0.002370 0.002093
1.884249 0.078310 1.079999 -0.052508 -0.011685 -0.009259
1.413850 0.521846 0.481751 0.000000 0.025029 -0.000298
2.610978 0.599131 0.520510 0.000000 0.774023 -0.000006
1.869139 0.496457 0.685618 -0.000000 -0.210504 0.000017
2.610978 0.448418 0.509099 0.000000 -0.671010 -0.000008
1.961869 0.572402 0.496888 0.000000 0.531997 -0.000012
1.080934 0.433030 0.527019 -0.000000 -0.833184 -0.000010
1.920978 0.187800 0.968142 -0.029508 0.013974 0.011694
0.849110 0.431852 0.640874 0.000000 -0.833133 0.000002
1.683679 0.433968 0.644004 0.000001 -0.677533 0.000002
0.292730 0.462974 0.671797 0.000000 -0.531976 0.000024
1.173664 0.527222 0.482046 -0.000000 0.087123 -0.000085
0.339095 0.606332 0.530767 0.000000 0.846579 -0.000002
1.836664 0.626267 0.723749 -0.029509 -0.008026 0.007170
3.012980 0.337945 0.389692 0.142182 0.005538 -0.002346
2.223337 0.415348 0.586602 0.000000 -0.999691 0.000000
2.193694 0.426254 0.538596 -0.000001 -0.872375 -0.000002
2.039786 0.413692 0.470466 0.093376 -0.003130 0.002763
2.040645 0.152918 0.994558 0.093378 -0.006082 -0.005360
2.903393 0.625357 0.724326 0.000000 0.749493 -0.000275
1.645896 0.394890 0.732509 -0.029512 0.004957 0.004526
0.663650 0.597240 0.518215 0.000000 0.757789 -0.000006
1.800462 0.692106 0.376379 -0.029510 -0.005760 -0.005234
1.654997 0.438932 0.484334 -0.029512 0.004131 -0.003788
2.147329 0.446843 0.510592 0.000000 -0.689100 -0.000016
1.405489 0.495750 0.685466 -0.000000 -0.210089 0.000009
1.695170 0.718283 0.816988 -0.029509 -0.011519 0.009935
0.339095 0.555335 0.681183 -0.000000 0.353711 0.000158
1.785752 0.293251 0.346272 -0.052508 -0.006068 0.004893
0.802745 0.605068 0.528760 0.000000 0.833189 -0.000001
3.202765 0.609026 0.625152 0.113273 0.001445 0.000736
1.776409 0.567172 0.675776 0.000001 0.466897 0.000028
0.923598 0.415340 0.583388 0.000000 -0.999692 -0.000000
1.127299 0.567811 0.675438 -0.000000 0.489196 0.000027
1.637314 0.505683 0.687205 -0.000001 -0.092966 0.000020
0.399141 0.621614 0.582825 0.000000 0.999930 -0.000000
2.286423 0.565857 0.493197 0.000000 0.467270 -0.000028
0.617285 0.620717 0.598538 -0.000001 0.989696 0.000002
2.021757 -0.000000 1.165008 0.000000 -0.662007 0.000383
2.025191 0.920093 0.136464 0.093375 0.002594 0.002290
2.023474 0.694184 0.787452 0.052553 -0.008581 0.007480
1.173664 0.467308 0.495252 0.000001 -0.487818 -0.000013
0.508593 0.621538 0.588852 0.000000 0.999691 0.000000
2.147329 0.567811 0.675438 -0.000000 0.489196 0.000027
2.887020 0.401614 0.735614 0.000001 -0.749492 -0.000440
1.590949 0.427567 0.633606 0.000000 -0.884115 0.000008
1.764532 0.403641 0.480508 -0.052508 -0.005183 0.004187
2.889168 0.618386 0.610524 0.000001 0.963423 0.000002
2.564613 0.568477 0.494604 0.000000 0.487756 -0.000007
0.663650 0.478546 0.679961 0.000000 -0.376690 0.000018
2.471883 0.611982 0.541273 0.000001 0.905794 -0.000014
1.822774 0.589021 0.509567 0.000000 0.689159 -0.000016
3.185062 0.507898 0.685426 0.113273 -0.000088 0.001685
3.220469 0.488464 0.492482 0.110848 -0.000133 -0.000368
3.025597 0.598768 0.475445 0.000000 0.749494 0.000385
3.061476 0.416511 0.487881 0.000000 0.749494 -0.000880
1.080934 0.617006 0.554272 -0.000000 0.950532 -0.000002
1.173664 0.586400 0.507192 0.000000 0.652499 -0.000004
2.872446 0.519677 0.481681 0.000000 0.012610 -0.000155
1.544584 0.426558 0.537984 -0.000001 -0.892820 -0.000004
2.193694 0.469486 0.494042 -0.000000 -0.462515 -0.000004
1.940197 0.660937 0.727760 0.093377 0.006417 -0.005655
2.054811 0.639378 0.450078 0.093375 0.003130 0.002763
0.042185 0.496357 0.623136 -0.624293 -0.000013 0.000021
2.811646 0.575503 0.667883 0.000000 0.749494 -0.000660
2.471883 0.428201 0.534898 0.000000 -0.869751 -0.000002
2.974297 0.415412 0.589173 0.000000 -0.999687 0.000000
0.941839 0.481381 0.681097 -0.000001 -0.347350 0.000010
3.206312 0.622379 0.720953 -0.000000 0.749494 -0.001209
3.028263 0.434849 0.645251 -0.000001 -0.663694 0.000002
2.193694 0.426665 0.631900 0.000000 -0.895481 0.000015
1.952217 0.327445 0.784440 0.093378 -0.002370 -0.002093
2.864866 0.647020 0.457778 0.000000 -0.749493 -0.000880
1.312759 0.475457 0.491068 -0.000001 -0.405584 -0.000004
1.498219 0.430867 0.639310 -0.000000 -0.846183 0.000005
2.147329 0.607529 0.636901 0.000000 0.859710 0.000009
2.240058 0.607570 0.636832 -0.000000 0.835710 0.000001
3.120993 0.609094 0.634139 0.000000 0.884112 0.000001
2.518248 0.444901 0.512514 0.000001 -0.701905 -0.000008
2.564613 0.585304 0.663419 -0.000002 0.647786 0.000017
1.915504 0.534601 0.482942 -0.000000 0.161356 -0.000091
1.576139 0.332645 0.372959 -0.029509 0.008262 -0.007366
0.570920 0.570608 0.673851 -0.000001 0.509328 0.000013
2.215736 0.520078 0.687961 -0.000000 0.024844 0.000039
0.976803 0.621578 0.587245 -0.000000 0.999682 0.000000
2.286423 0.427097 0.632717 -0.000001 -0.880115 0.000004
2.542571 0.415356 0.582745 -0.000000 -0.999687 -0.000000
0.505553 0.520159 0.687980 -0.000000 0.012610 0.000039
1.909485 0.887189 0.179798 -0.052506 0.007641 0.006137
1.451854 0.609976 0.632469 -0.000000 0.884153 0.000008
2.193694 0.611279 0.539783 0.000000 0.895463 -0.000004
1.858717 0.205692 0.946111 -0.029510 0.007743 0.006934
1.747974 0.651429 0.712875 -0.052509 0.005183 -0.004186
1.627400 0.642648 0.457550 -0.052510 0.004916 0.003973
2.949025 0.635328 0.434054 0.000000 0.749493 0.000330
0.191835 0.615106 0.620006 -0.040470 0.000490 0.000171
1.822774 0.469948 0.493798 -0.000000 -0.467183 -0.000028
0.849110 0.616240 0.551901 0.000000 0.943985 -0.000001
3.235941 0.741637 0.350658 -0.000000 -0.749492 -0.000494
2.026908 0.278381 0.850570 0.093377 -0.004025 -0.003552
0.663650 0.425592 0.629741 0.000000 -0.895463 0.000004
1.266394 0.584319 0.505421 -0.000001 0.632114 -0.000018
1.854973 0.252099 0.895824 -0.029508 0.004627 0.004232
3.146236 0.621041 0.450229 0.000001 0.749494 0.001209
1.498219 0.549645 0.683172 -0.000000 0.306586 0.000093
2.044938 0.359126 0.761709 0.093377 -0.005187 -0.004575
1.611604 0.676534 0.768263 -0.029509 -0.008262 0.007366
0.183685 0.541223 0.684518 -0.072093 0.000142 0.000559
2.518248 0.424943 0.628358 0.000000 -0.905832 0.000007
3.167358 0.469131 0.494230 0.113418 -0.000196 -0.000350
0.247125 0.513489 0.687877 0.000000 -0.024844 0.000010
1.359124 0.584847 0.505855 0.000000 0.652499 -0.000009
1.933708 0.063065 1.103423 -0.029510 0.009442 0.008326
3.112632 0.516060 0.481696 0.000000 -0.012230 -0.000020
1.938957 0.931278 0.127936 -0.052508 0.006517 0.005250
3.158403 0.700032 0.808868 0.000001 0.749496 -0.000371
3.202765 0.584799 0.511170 0.113272 0.001000 -0.001235
1.220029 0.428968 0.636137 0.000000 -0.872174 0.000008
2.286423 0.462297 0.498304 -0.000000 -0.552905 -0.000011
3.120993 0.572777 0.497123 -0.000000 0.532009 -0.000047
1.127299 0.448299 0.509207 0.000000 -0.689229 -0.000016
1.961869 0.429987 0.637869 0.000001 -0.855730 0.000004
2.069835 1.033563 1.167993 0.000001 0.662003 0.000383
2.069835 1.033563 0.001675 0.000001 0.662008 -0.000383
2.069835 0.964825 1.090172 0.052553 -0.011441 0.009875
2.069835 0.278329 0.312958 0.052554 0.007310 -0.006395
2.069835 0.844535 0.953986 0.052553 -0.012076 0.010396
2.069835 0.707060 0.371324 0.052555 -0.008580 -0.007480
2.425518 0.470268 0.676039 -0.000000 -0.467237 0.000056
0.385460 0.532255 0.687069 -0.000001 0.136676 0.000108
1.838040 0.126636 1.024313 -0.052508 -0.007641 -0.006137
2.069835 0.758613 0.856710 0.052554 -0.007310 0.006395
2.518248 0.469628 0.675701 -0.000000 -0.467201 0.000028
0.339095 0.552542 0.487463 0.000000 0.330235 -0.000043
3.298926 0.275177 0.860278 -0.337760 -0.001018 -0.000777
3.298926 0.761765 0.860278 -0.337762 0.001018 -0.000777
0.089958 0.568415 0.528241 -0.437113 0.000043 -0.000046
1.614834 0.610852 0.673991 -0.052507 0.004916 -0.003973
2.069835 0.586769 0.507511 0.052553 -0.011123 -0.009612
1.623259 0.731678 0.828331 -0.029510 -0.005760 0.005234
3.122401 0.699206 0.770972 -0.000001 -0.749494 0.001209
3.120993 0.573934 0.671818 -0.000000 0.532023 0.000047
3.057288 0.703122 0.803127 0.142182 0.001507 -0.002603
0.035967 0.495748 0.553229 -0.648738 -0.000011 -0.000015
1.312759 0.561485 0.491068 -0.000000 0.422301 -0.000016
2.012034 0.621635 0.584995 -0.000002 0.623534 0.000000
1.776409 0.429047 0.636277 -0.000001 -0.862500 0.000002
2.747292 0.410131 0.707491 0.142183 -0.003014 -0.005204
2.723885 0.619788 0.699540 0.142183 0.003184 -0.005498
2.747292 0.626812 0.462177 0.142184 0.003014 0.005204
3.145205 0.746206 0.327004 0.142183 0.003184 0.005498
0.663650 0.611064 0.630316 -0.000001 0.762531 0.000001
1.849796 0.307941 0.369714 -0.052508 -0.003203 0.002595
0.802745 0.601974 0.645413 0.000002 0.733127 0.000003
2.332788 0.561995 0.678362 0.000000 0.422571 0.000064
0.756380 0.427116 0.632753 0.000000 -0.883394 0.000004
1.683679 0.553756 0.487888 0.000000 0.353804 -0.000010
0.941839 0.609676 0.633037 0.000001 0.883641 0.000016
0.756380 0.442197 0.515377 0.000000 -0.741448 -0.000013
1.590949 0.610563 0.538344 0.000000 0.895463 -0.000007
2.002870 0.104847 1.043630 0.093379 -0.002594 -0.002290
2.703708 0.604957 0.528593 0.000000 0.833189 -0.000002
1.498219 0.612169 0.541674 0.000000 0.906259 -0.000003
0.524555 0.450877 0.506904 0.000000 -0.652260 -0.000035
1.961869 0.469273 0.494155 0.000000 -0.467343 -0.000014
0.710015 0.609300 0.535920 -0.000001 0.882765 -0.000008
1.080934 0.435875 0.646642 0.000001 -0.798728 0.000006
0.570920 0.471693 0.676783 0.000000 -0.444840 0.000008
2.020040 0.682942 0.405683 0.093377 0.002594 0.002290
1.686719 0.415416 0.589334 0.000000 -0.999687 0.000000
1.959085 0.725706 0.341410 0.052554 -0.007786 -0.006803
1.080934 0.472089 0.492688 -0.000000 -0.443537 -0.000008
1.977114 0.725852 0.806484 0.093378 0.002191 -0.001935
0.941839 0.590041 0.510536 -0.000001 0.688772 -0.000031
2.989499 0.621530 0.580495 0.000000 0.999682 -0.000000
0.849110 0.441496 0.516152 0.000000 -0.741488 -0.000013
0.339095 0.608171 0.635787 -0.000000 0.872122 0.000017
2.425518 0.448776 0.508775 0.000000 -0.665591 -0.000004
0.710015 0.425717 0.539675 0.000000 -0.895161 -0.000007
2.240058 0.563522 0.677642 -0.000001 0.378448 0.000004
1.715769 0.187353 0.209960 -0.052507 -0.002360 0.001913
1.542670 0.331904 0.796055 -0.052508 -0.007866 -0.006314
1.589878 0.744461 0.328980 -0.029509 -0.005760 -0.005234
1.825923 0.941576 0.105818 -0.029508 -0.022653 -0.016642
1.605615 0.279340 0.855565 -0.052509 -0.013033 -0.010268
2.564613 0.610202 0.537626 0.000001 0.881768 -0.000004
3.258095 0.748284 0.826535 -0.000001 -0.749494 0.000494
1.881012 0.834196 0.242712 -0.052508 0.002360 0.001913
1.080934 0.590620 0.511093 -0.000001 0.702095 -0.000008
0.756380 0.469273 0.675513 0.000000 -0.467103 0.000014
2.842803 0.426397 0.538308 0.000000 -0.895435 -0.000015
2.935533 0.611332 0.539891 0.000000 0.895610 -0.000001
1.859026 0.167399 0.182183 -0.029508 0.006988 -0.006296
0.756380 0.579471 0.668027 -0.000000 0.593592 0.000020
2.957952 0.690021 0.779053 0.142182 0.001592 -0.002750
1.730044 0.582287 0.503780 -0.000001 0.613489 -0.000038
1.865585 0.856616 0.955866 -0.052507 0.002304 -0.001868
0.385460 0.447600 0.509872 0.000000 -0.689034 -0.000016
0.710015 0.569143 0.494977 -0.000001 0.485674 -0.000013
2.889168 0.594260 0.654827 -0.000000 0.735460 0.000003
1.034569 0.609375 0.633606 0.000000 0.884115 0.000016
1.752086 0.621627 0.584352 0.000000 0.999691 -0.000000
1.789633 0.632503 0.483586 -0.052509 0.010365 0.008254
0.849110 0.473781 0.677819 0.000000 -0.422723 0.000008
2.840918 0.382038 0.739296 0.142183 -0.003014 -0.005204
2.881239 0.418232 0.452868 0.000001 -0.749493 0.000440
0.988204 0.440253 0.517575 0.000001 -0.757839 -0.000026
2.286423 0.460489 0.670164 0.000001 -0.542961 0.000011
1.359124 0.609883 0.632646 0.000001 0.881835 0.000004
1.764793 0.206745 0.940893 -0.029508 0.008498 0.007561
1.791831 0.174963 0.201041 -0.052509 -0.002360 0.001913
1.909290 0.730926 0.802620 0.093378 0.002191 -0.001935
2.100964 0.610688 0.538596 0.000001 0.893741 -0.000007
1.929895 0.605185 0.694131 0.052554 -0.005164 0.004540
3.134319 0.669293 0.432562 0.000000 -0.749494 -0.001209
3.181935 0.357506 0.748590 -0.000001 0.749494 0.000371
3.253362 0.426394 0.689078 -0.337761 -0.002037 -0.001554
2.471883 0.612509 0.627265 -0.000000 0.916361 0.000002
0.849110 0.578694 0.668600 -0.000000 0.593932 0.000010
1.312759 0.415924 0.596065 0.000000 -0.993704 0.000001
1.925602 0.216638 0.263548 0.093377 -0.003309 0.002921
0.988204 0.465090 0.673112 0.000000 -0.510920 0.000013
0.104766 0.436081 0.584834 -0.386598 -0.000040 0.000001
0.339095 0.475093 0.491238 -0.000000 -0.422576 -0.000032
2.516728 0.518069 0.481671 0.000000 -0.012230 -0.000020
1.683679 0.490529 0.485522 -0.000000 -0.282818 -0.000202
2.379153 0.604757 0.641376 0.000001 0.833085 0.000040
1.683679 0.426093 0.538920 0.000001 -0.762641 -0.000001
0.075618 0.468885 0.538824 -0.493199 -0.000036 -0.000032
1.873144 0.209317 0.250151 -0.052509 -0.002360 0.001913
3.074628 0.482133 0.681382 -0.000000 -0.353697 0.000079
0.663650 0.445413 0.512003 -0.000001 -0.706778 -0.000030
2.069835 0.707060 0.798344 0.052553 -0.008581 0.007480
2.100964 0.593793 0.655326 -0.000001 0.721539 0.000007
2.286423 0.428555 0.534267 0.000000 -0.871945 -0.000008
2.054599 0.433599 0.643477 0.000001 -0.819034 0.000021
0.617285 0.555486 0.681126 0.000002 0.264912 0.000007
1.789896 0.639346 0.735844 -0.029509 -0.008711 0.007735
1.451854 0.566568 0.676095 0.000002 0.463956 0.000028
2.100964 0.456437 0.667263 0.000000 -0.593768 0.000020
1.405489 0.466265 0.495858 -0.000001 -0.493347 -0.000006
1.220029 0.438320 0.519888 0.000001 -0.756204 -0.000003
3.038481 0.408261 0.441579 0.000000 -0.749494 0.000880
1.579780 0.418082 0.686782 -0.052507 -0.007866 -0.006314
2.025191 0.104564 0.112682 0.052554 0.008263 -0.007210
0.339095 0.450147 0.662133 0.000001 -0.596920 0.000002
0.570920 0.608131 0.635857 0.000001 0.869751 0.000004
0.292730 0.429086 0.636348 0.000000 -0.872050 0.000001
2.657343 0.548456 0.683543 -0.000001 0.282247 0.000051
2.379153 0.492082 0.684562 0.000000 -0.258793 0.000056
2.116925 0.415340 0.583388 -0.000000 -0.999687 -0.000000
1.220029 0.472197 0.677033 -0.000001 -0.443697 0.000030
0.617285 0.567669 0.494155 -0.000001 0.461772 -0.000014
1.937622 0.309321 0.832133 0.052553 0.015570 0.013188
0.710015 0.554132 0.681638 0.000000 0.353804 0.000010
2.858765 0.514453 0.687901 0.000000 -0.024844 0.000079
0.431825 0.471765 0.492849 0.000000 -0.439974 -0.000004
1.918305 0.424236 0.466100 0.052552 0.002582 -0.002278
3.248299 0.443196 0.499612 -0.337761 -0.002037 0.001554
1.080934 0.473420 0.677642 0.000002 -0.403780 0.000008
0.988204 0.561412 0.491034 0.000000 0.422587 -0.000064
1.590949 0.546413 0.684146 -0.000000 0.282548 0.000025
1.683679 0.573355 0.672182 -0.000001 0.526147 0.000006
3.224860 0.704861 0.777373 -0.000001 -0.749493 0.000247
1.904998 0.263060 0.319024 0.093378 -0.004025 0.003552
0.988204 0.558173 0.680052 -0.000000 0.376884 0.000037
2.969371 0.633726 0.696838 0.000000 -0.749493 0.000660
2.657343 0.436504 0.522192 -0.000000 -0.789579 -0.000012
1.838040 0.910306 1.024313 -0.052508 0.015280 -0.011909
3.170316 0.655006 0.720930 0.000001 -0.749493 0.001209
3.206312 0.396224 0.464913 0.000000 0.749494 -0.001209
0.478190 0.601473 0.523576 -0.000001 0.804120 -0.000011
1.451854 0.463927 0.672395 0.000000 -0.532263 0.000003
1.869139 0.613087 0.625939 0.000001 0.913782 0.000003
2.100964 0.461326 0.498948 -0.000000 -0.552935 -0.000011
2.935533 0.603756 0.642883 0.000000 0.833189 0.000001
2.054599 0.422208 0.547744 0.000000 -0.935339 -0.000006
1.432516 0.613051 0.477756 -0.029511 -0.026422 -0.018234
2.796438 0.612895 0.543287 -0.000000 0.915783 -0.000003
1.870656 0.674654 0.392178 0.052554 -0.002304 -0.002033
1.127299 0.421525 0.549549 0.000000 -0.943870 -0.000005
2.610978 0.490684 0.485481 -0.000000 -0.258754 -0.000028
2.564613 0.613795 0.624275 -0.000001 0.921992 0.000006
3.074628 0.596715 0.652063 -0.000001 0.757805 0.000026
3.074628 0.618731 0.560549 0.000000 0.971956 -0.000007
0.478190 0.427379 0.536418 -0.000000 -0.884114 -0.000008
2.332788 0.531538 0.482500 -0.000000 0.136618 -0.000054
2.931328 0.369980 0.435201 0.000000 0.749494 -0.000550
2.425518 0.425249 0.629014 0.000000 -0.903998 0.000002
2.069835 0.003379 0.001675 -0.000000 -0.662009 -0.000383
0.431825 0.575516 0.498882 0.000000 0.553031 -0.000011
0.895474 0.422236 0.621999 0.000001 -0.840163 0.000001
2.875459 0.602092 0.471682 0.000000 0.749494 0.000880
0.570920 0.427416 0.536346 0.000000 -0.884014 -0.000004
0.061803 0.571552 0.610397 -0.547315 0.000035 0.000018
2.069835 0.089301 1.070717 0.052555 0.013982 0.011936
2.032060 0.969935 0.079062 0.093378 0.007512 0.006614
2.032060 0.067007 0.079062 0.093378 -0.007512 0.006614
2.656583 0.521765 0.481749 0.000000 0.024844 -0.000020
2.332788 0.443232 0.514255 0.000000 -0.723350 -0.000004
1.915504 0.437293 0.648492 0.000000 -0.789374 0.000012
0.246365 0.620838 0.572006 0.000000 0.990649 -0.000000
2.379153 0.471693 0.492885 0.000000 -0.445099 -0.000030
0.570920 0.434896 0.645316 0.000000 -0.804776 0.000003
2.069835 0.295514 0.837254 0.052554 0.015888 0.013435
1.983982 0.758510 0.844431 0.093377 0.002012 -0.001777
0.292730 0.619086 0.607634 -0.000000 0.975522 0.000002
3.152866 0.321846 0.825923 0.000000 -0.749493 -0.000494
1.815198 0.730543 0.804741 -0.052508 0.006405 -0.005160
2.935533 0.560939 0.490813 0.000000 0.422723 -0.000008
2.054599 0.613780 0.624312 -0.000001 0.925739 0.000006
0.478190 0.611490 0.629451 0.000000 0.906325 0.000003
1.312759 0.560313 0.679129 0.000000 0.399803 0.000068
0.895474 0.423533 0.544465 0.000000 -0.916554 -0.000007
2.842803 0.421952 0.621247 0.000000 -0.935339 0.000011
3.016327 0.640373 0.704364 0.000000 -0.749494 0.000770
2.425518 0.556758 0.489040 0.000000 0.377032 -0.000009
2.379153 0.587242 0.507939 -0.000001 0.670958 -0.000066
0.385460 0.427266 0.633037 0.000000 -0.884115 0.000008
2.889168 0.429700 0.637385 0.000000 -0.859703 0.000018
2.703708 0.614507 0.622525 -0.000000 0.935319 0.000003
0.385460 0.540799 0.484118 0.000000 0.210390 -0.000035
1.683679 0.524897 0.687793 0.000000 0.062286 0.000060
2.332788 0.438982 0.650589 -0.000000 -0.773970 0.000024
1.637314 0.432163 0.528325 0.000001 -0.833076 -0.000020
1.220029 0.560903 0.678872 -0.000000 0.422652 0.000032
1.730044 0.612621 0.542660 -0.000001 0.915449 -0.000007
1.590949 0.617601 0.613393 0.000000 0.959178 0.000009
0.849110 0.485614 0.487039 0.000000 -0.330152 -0.000021
1.451854 0.435183 0.523964 -0.000001 -0.796881 -0.000003
1.544584 0.422602 0.622935 -0.000000 -0.926235 0.000012
0.246365 0.477292 0.490250 0.000000 -0.399882 -0.000137
1.714841 0.302232 0.835585 -0.029509 0.010764 0.009363
1.637314 0.422693 0.623158 -0.000000 -0.926225 0.000012
3.028263 0.615457 0.620006 0.000001 0.943713 0.000010
1.451854 0.606790 0.531523 0.000000 0.858844 -0.000004
1.528167 0.395657 0.726565 -0.029510 0.009914 0.008701
1.312759 0.477808 0.679643 0.000000 -0.399865 0.000034
2.286423 0.601998 0.524287 0.000000 0.804304 -0.000011
1.947924 0.263009 0.856783 0.093377 -0.004025 -0.003552
0.183685 0.510830 0.482872 -0.072095 -0.000057 -0.000573
2.703708 0.434896 0.645316 0.000000 -0.804515 0.000003
1.498219 0.563810 0.492169 0.000000 0.444988 -0.000015
1.571089 0.393385 0.451732 -0.052508 -0.007866 0.006314
2.008234 0.460157 0.499731 -0.000000 -0.573506 -0.000021
1.756925 0.827960 0.929626 -0.052509 0.005169 -0.004175
1.405489 0.555862 0.680984 0.000000 0.353743 0.000039
1.961869 0.433829 0.525862 -0.000000 -0.818741 -0.000010
3.238173 0.518471 0.584834 1.000000 0.000000 0.000000
0.431825 0.471227 0.676546 -0.000000 -0.466984 0.000014
1.266394 0.605541 0.640161 -0.000001 0.731086 0.000001
1.869139 0.549186 0.683319 0.000001 0.304855 0.000023
2.981898 0.606417 0.530903 0.000001 0.844498 -0.000005
2.023474 0.320486 0.802414 0.093377 -0.004830 -0.004260
1.451854 0.424273 0.626897 -0.000001 -0.916295 0.000013
2.008234 0.419936 0.615396 0.000000 -0.951824 0.000002
0.135545 0.611340 0.594127 -0.259266 0.000141 0.000011
2.471883 0.582541 0.503977 -0.000001 0.612344 -0.000019
1.870656 0.340431 0.758184 0.093378 -0.004740 -0.004181
0.524555 0.572538 0.496973 -0.000000 0.532004 -0.000047
1.765059 0.686086 0.754150 -0.052507 0.005183 -0.004187
1.703038 0.303892 0.352480 -0.052508 -0.006517 0.005250
0.385460 0.612509 0.627265 -0.000000 0.916361 0.000002
0.617285 0.477145 0.490314 0.000000 -0.399893 -0.000068
1.877525 0.346060 0.374352 0.052553 0.008422 -0.007345
2.332788 0.575851 0.499104 0.000001 0.551212 -0.000011
1.266394 0.419671 0.555157 0.000001 -0.849132 -0.000001
1.683679 0.609676 0.633037 -0.000001 0.841451 0.000001
1.544584 0.610903 0.630640 -0.000000 0.895476 0.000015
2.981898 0.424369 0.542550 -0.000000 -0.916531 -0.000013
1.822774 0.424369 0.627118 -0.000001 -0.913715 0.000003
0.431825 0.556311 0.680809 -0.000000 0.376150 0.000018
3.074628 0.424401 0.542476 -0.000000 -0.916561 -0.000026
1.952217 0.709497 0.385228 0.093377 0.002370 0.002093
1.822774 0.430931 0.530256 -0.000000 -0.846693 -0.000009
1.776409 0.481757 0.488428 0.000000 -0.353641 -0.000020
3.130713 0.726788 0.367469 0.000000 -0.749494 -0.000371
2.147329 0.559061 0.489993 0.000000 0.399865 -0.000034
3.120993 0.473781 0.677819 -0.000000 -0.418298 0.000004
1.297558 0.621619 0.585637 -0.000000 0.999700 0.000000
2.759954 0.522087 0.687911 0.000000 0.025215 0.000019
1.888499 0.121803 1.038015 -0.029508 0.012463 0.010631
1.765059 0.670247 0.401527 -0.029510 -0.008710 -0.007735
3.018135 0.666962 0.435201 0.000001 -0.749492 -0.000385
3.018135 0.369980 0.734467 -0.000001 0.749491 0.000385
3.061476 0.602092 0.697986 0.000000 0.749494 -0.000440
3.120993 0.424450 0.627302 -0.000001 -0.768511 0.000001
2.564613 0.460723 0.499348 -0.000001 -0.545166 -0.000006
1.405489 0.566674 0.493629 0.000000 0.467274 -0.000004
1.528578 0.629360 0.465676 -0.052507 0.005899 0.004758
0.988204 0.424637 0.627703 0.000000 -0.906259 0.000003
1.915504 0.563594 0.677606 0.000001 0.444994 0.000060
2.008234 0.565141 0.676837 0.000001 0.444393 0.000030
1.359124 0.425592 0.629741 0.000000 -0.895463 0.000004
2.703708 0.486302 0.486817 -0.000000 -0.306595 -0.000046
2.935533 0.459630 0.669568 0.000001 -0.570959 0.000011
1.915504 0.613280 0.544171 0.000000 0.916527 -0.000007
0.524555 0.477845 0.679659 0.000000 -0.399844 0.000068
1.640712 0.288066 0.322003 -0.029510 0.010952 -0.009507
1.640712 0.748876 0.322003 -0.029509 -0.021898 -0.016286
3.224860 0.332082 0.392295 -0.000001 0.749488 -0.000247
1.511197 0.678756 0.766300 -0.029508 -0.009915 0.008702
0.246365 0.567669 0.494155 -0.000001 0.461482 -0.000014
1.888499 0.116150 0.136646 -0.052508 -0.006742 0.005428
2.796438 0.469415 0.494080 -0.000000 -0.467270 -0.000028
0.895474 0.561194 0.490932 0.000001 0.422330 -0.000032
2.240058 0.480631 0.680809 0.000000 -0.376755 0.000009
3.146236 0.415901 0.719439 0.000001 -0.749494 -0.001209
2.610978 0.426236 0.631036 0.000001 -0.894800 0.000007
2.008234 0.563378 0.491955 0.000001 0.443684 -0.000015
2.023474 0.311894 0.357527 0.093377 -0.004382 0.003867
2.703708 0.470126 0.675964 -0.000000 -0.467250 0.000056
2.286423 0.610796 0.630856 0.000000 0.895297 0.000007
1.034569 0.607160 0.532144 0.000000 0.859580 -0.000002
1.590949 0.424369 0.542550 0.000000 -0.916497 -0.000002
0.089958 0.498028 0.657492 -0.437118 -0.000016 0.000064
1.891261 0.313604 0.830969 0.052554 0.015570 0.013188
2.750073 0.611046 0.539315 -0.000000 0.895498 -0.000015
1.080934 0.619052 0.607791 -0.000000 0.977613 0.000006
0.617285 0.423839 0.625902 -0.000000 -0.916558 0.000026
2.008234 0.608466 0.534407 0.000001 0.870970 -0.000008
0.941839 0.578694 0.668600 -0.000000 0.593932 0.000005
1.915504 0.577740 0.500400 0.000000 0.573203 -0.000011
1.173664 0.552353 0.682271 -0.000000 0.330183 0.000043
2.069800 0.516543 0.481715 -0.000000 -0.025029 -0.000298
2.703708 0.565750 0.676527 -0.000001 0.460313 0.000014
2.850657 0.416511 0.487881 0.000000 0.749494 -0.000880
1.173664 0.481569 0.681168 0.000001 -0.353591 0.000079
2.842803 0.468535 0.675104 -0.000001 -0.488417 0.000027
1.730044 0.607935 0.636207 0.000000 0.871799 0.000008
0.570920 0.611965 0.541237 0.000000 0.906259 -0.000003
0.478190 0.429659 0.637316 -0.000000 -0.859616 0.000009
0.339095 0.491034 0.684281 0.000001 -0.258145 0.000028
1.961869 0.605001 0.641008 0.000000 0.833189 0.000001
1.904998 0.755793 0.866621 0.052554 -0.014299 0.012189
3.028263 0.545287 0.684447 0.000000 0.258627 0.000056
2.518248 0.568863 0.674848 -0.000000 0.489143 0.000027
2.316067 0.519757 0.687969 0.000000 0.024844 0.000079
0.710015 0.476445 0.679049 -0.000000 -0.399709 0.000034
2.981898 0.500874 0.686486 0.000000 -0.161617 0.000046
2.889168 0.562432 0.491510 0.000000 0.422577 -0.000064
0.339095 0.415987 0.573044 0.000000 -0.993711 -0.000002
0.151392 0.474073 0.671436 -0.197589 -0.000094 0.000173
2.796438 0.567811 0.494230 0.000000 0.467274 -0.000007
1.544584 0.471192 0.676527 -0.000001 -0.466670 0.000028
1.915504 0.473348 0.677606 0.000000 -0.444832 0.000015
1.690019 0.330829 0.803619 -0.029507 0.011520 0.009936
3.061476 0.416511 0.681787 0.000000 0.749494 0.000440
2.935533 0.549990 0.683061 -0.000000 0.306610 0.000185
2.750073 0.539267 0.483788 0.000000 0.210346 -0.000139
1.266394 0.612407 0.542184 0.000001 0.903643 -0.000003
0.895474 0.553832 0.681751 0.000000 0.351197 0.000010
0.663650 0.581906 0.666184 -0.000001 0.613474 0.000038
1.762977 0.889012 0.165328 -0.029509 -0.014351 -0.011950
1.359124 0.612605 0.542624 0.000001 0.915783 -0.000007
1.765768 0.415307 0.584995 0.000000 -0.999691 0.000000
1.953075 0.154741 0.980088 0.093377 -0.005187 -0.004575
1.873144 0.827626 0.919517 -0.052508 0.002360 -0.001913
0.151392 0.461661 0.505816 -0.197586 -0.000119 -0.000157
1.808330 0.321873 0.786249 -0.052512 -0.003258 -0.002640
1.933708 0.973877 1.103423 -0.029511 -0.018878 0.014727
1.883534 0.401672 0.437791 0.052554 0.010328 -0.008952
2.193694 0.615696 0.619323 -0.000001 0.939762 0.000003
2.889168 0.619638 0.564629 -0.000000 0.981363 -0.000001
0.698613 0.521846 0.481751 0.000000 0.024844 -0.000010
1.865894 0.885770 0.164356 -0.029509 -0.013973 -0.011693
1.593167 0.619388 0.483352 -0.052507 0.003933 0.003183
2.471883 0.423774 0.625755 0.000001 -0.912937 0.000007
1.127299 0.602046 0.645316 0.000001 0.804120 0.000011
1.915504 0.424273 0.542771 0.000000 -0.916521 -0.000013
2.756745 0.448145 0.486734 -0.000000 -0.749493 0.000880
2.425518 0.555561 0.681097 0.000001 0.349050 0.000010
0.876472 0.621568 0.587646 0.000000 0.999682 0.000000
3.185062 0.610873 0.543694 0.113272 0.001545 -0.000593
2.889168 0.478397 0.489768 0.000000 -0.400041 -0.000009
2.564613 0.473492 0.677677 0.000000 -0.444987 0.000007
3.120993 0.472521 0.492474 -0.000000 -0.445083 -0.000120
1.790160 0.351654 0.418596 -0.052508 -0.006854 0.005517
2.025191 0.937277 1.052659 0.093376 0.008943 -0.007864
1.790160 0.369178 0.766550 -0.029508 0.005760 0.005234
3.268550 0.375989 0.746145 -0.337763 -0.002229 -0.001701
1.544584 0.554659 0.488229 0.000000 0.353682 -0.000079
2.040645 0.161510 0.184838 0.093378 -0.003041 0.002684
1.767918 0.230235 0.267144 -0.052508 -0.005506 0.004445
1.689492 0.387665 0.742207 -0.029508 0.008711 0.007735
1.723399 0.705012 0.780944 -0.052507 0.003427 -0.002776
2.796438 0.425663 0.539783 0.000000 -0.895610 -0.000002
1.794450 0.121648 0.135573 -0.052508 -0.007641 0.006137
1.359124 0.425130 0.540909 0.000000 -0.906259 -0.000003
0.029920 0.539314 0.610970 -0.672520 0.000010 0.000011
3.074628 0.419546 0.614087 -0.000000 -0.959130 0.000009
1.857738 0.415372 0.582102 -0.000000 -0.999691 -0.000000
1.833842 0.338306 0.405794 -0.052507 -0.003427 0.002776
1.359124 0.492548 0.484981 -0.000000 -0.258770 -0.000028
1.858208 0.633559 0.685149 0.093378 0.002907 -0.002566
1.823093 0.794351 0.286972 -0.052507 0.005506 0.004445
1.876551 0.762204 0.297359 -0.029508 -0.018503 -0.014516
1.746004 0.314243 0.345702 -0.029509 0.005382 -0.004902
3.238173 0.522140 0.632234 1.000000 0.000000 0.000000
0.292730 0.559576 0.679450 0.000001 0.399726 0.000068
2.610978 0.422980 0.545802 -0.000000 -0.926157 -0.000006
1.961660 0.223468 0.903495 0.093378 -0.003667 -0.003236
1.958226 0.793489 0.264601 0.052553 -0.013029 -0.011171
3.028263 0.556274 0.488843 0.000000 0.376538 -0.000018
3.064251 0.688507 0.373848 -0.000001 0.749494 0.000880
3.064251 0.348435 0.373848 0.000000 -0.749494 0.000880
3.120993 0.621433 0.591220 0.000000 0.998057 0.000004
2.971257 0.520320 0.481689 0.000000 0.012239 -0.000080
1.658931 0.615721 0.676311 -0.052505 0.002458 -0.001993
1.730044 0.577871 0.669176 -0.000001 0.573174 0.000021
1.767918 0.800018 0.261236 -0.029508 -0.004627 -0.004232
0.988204 0.476040 0.490796 0.000000 -0.422614 -0.000128
1.891261 0.742934 0.356008 -0.052507 0.011910 0.009428
0.663650 0.421582 0.549398 0.000000 -0.935319 -0.000003
2.657343 0.458741 0.668945 -0.000002 -0.557272 0.000011
2.147329 0.422321 0.547443 0.000000 -0.935366 -0.000006
2.796438 0.475457 0.678600 0.000000 -0.422582 0.000016
3.167358 0.565537 0.493028 0.116899 0.000182 -0.000344
1.915504 0.490529 0.485522 0.000000 -0.282804 -0.000051
2.911970 0.415408 0.589012 0.000000 -0.999687 0.000000
1.850052 0.410971 0.724011 0.052553 0.005165 0.004540
0.941839 0.614962 0.548346 0.000000 0.935319 -0.000001
2.240058 0.480780 0.488798 0.000000 -0.377008 -0.000018
1.689756 0.359247 0.396755 -0.029509 0.034805 -0.020858
1.987416 0.086415 1.080537 0.052553 0.015888 0.013435
2.796438 0.605990 0.639446 0.000000 0.846183 0.000005
2.069835 0.054933 1.109627 0.052553 0.011440 0.009875
1.855447 0.718349 0.824024 -0.029507 -0.010009 0.008776
2.756914 0.415321 0.583468 -0.000000 -0.999925 -0.000000
3.000794 0.598768 0.694223 0.000000 0.749494 -0.000770
2.026908 0.749969 0.328825 0.093377 0.008943 0.007864
0.802745 0.573900 0.497828 0.000000 0.532263 -0.000003
2.981898 0.426236 0.631036 0.000000 -0.895126 0.000007
3.133478 0.352752 0.790933 -0.000002 -0.749485 -0.000371
3.238173 0.612421 0.599466 0.109099 0.000392 0.000066
1.869139 0.454274 0.504076 0.000000 -0.613662 -0.000010
3.097597 0.620372 0.450986 0.000000 0.749494 0.000495
1.836664 0.387381 0.466493 -0.052508 -0.004776 0.003860
2.949025 0.635328 0.735614 0.000000 0.749493 -0.000330
2.030343 0.783483 0.290397 0.093377 0.008228 0.007240
0.385460 0.612441 0.542257 0.000000 0.906358 -0.000003
2.100964 0.557689 0.680249 -0.000000 0.376784 0.000037
0.524555 0.415592 0.592544 0.000000 -0.998058 0.000000
3.273612 0.677755 0.765167 -0.337764 0.002037 -0.001554
3.273612 0.359187 0.404501 -0.337764 -0.002037 0.001554
2.820558 0.633726 0.696838 0.000000 -0.749494 0.000660
3.238173 0.591483 0.645743 0.106960 0.000315 0.000256
3.238173 0.431345 0.622910 0.112815 -0.000354 0.000149
0.191835 0.420203 0.615146 -0.040469 -0.000498 0.000147
1.873232 0.610928 0.464530 0.052552 -0.005165 -0.004540
2.014889 1.015438 1.151842 0.052553 -0.010805 0.009349
2.014889 1.015438 0.017826 0.052553 -0.010805 -0.009349
1.173664 0.612407 0.542184 0.000000 0.906259 -0.000002
1.599802 0.370264 0.412563 -0.029511 0.008262 -0.007366
0.119982 0.558777 0.663454 -0.319921 0.000051 0.000094
1.735728 0.276921 0.305835 -0.029509 0.005099 -0.004652
3.029212 0.670286 0.738230 -0.000001 -0.749493 0.000385
3.007058 0.373303 0.438964 0.000000 0.749493 -0.000385
2.619339 0.521605 0.687923 -0.000010 0.001372 0.000356
1.782318 0.300988 0.814150 -0.052509 -0.006405 -0.005160
2.193694 0.584475 0.505549 0.000000 0.633521 -0.000005
0.292730 0.429207 0.533112 -0.000000 -0.856260 -0.000002
2.240058 0.552694 0.487516 0.000000 0.330252 -0.000085
0.756380 0.477513 0.490153 0.000000 -0.399889 -0.000034
1.895554 0.691386 0.755908 0.093377 0.002594 -0.002290
1.730044 0.493639 0.684962 0.000001 -0.234394 0.000124
1.845909 0.913673 0.135087 -0.029508 -0.012463 -0.010630
3.064251 0.348435 0.795820 0.000000 -0.749493 -0.000880
1.836422 0.848088 0.221877 -0.052506 0.002360 0.001913
3.019943 0.361730 0.780769 0.000000 -0.749494 -0.000770
3.028172 0.711090 0.366761 0.142182 0.003014 0.005204
2.969371 0.403216 0.472830 0.000000 0.749494 -0.000660
2.972503 0.379951 0.723179 0.000002 0.749477 0.000330
1.961869 0.530740 0.687264 -0.000001 0.111875 0.000132
1.936077 1.033563 0.001675 -0.029507 -0.025671 -0.017939
1.978917 0.001690 0.003168 -0.000000 -0.662006 -0.000171
1.978917 0.001690 1.166500 0.000001 -0.661993 0.000171
3.059668 0.584672 0.509885 0.000001 0.662011 -0.000687
1.549011 0.667727 0.420111 -0.052507 0.007866 0.006314
1.486066 0.421779 0.479621 -0.052508 -0.007866 0.006314
1.990850 0.254441 0.279634 0.052554 0.014617 -0.012440
1.983982 0.305037 0.336371 0.052554 0.007945 -0.006939
1.245872 0.519837 0.687967 0.000000 0.025215 0.000010
0.727496 0.621570 0.587566 0.000000 0.999691 0.000000
1.556880 0.362644 0.756996 -0.052507 -0.007866 -0.006314
2.647243 0.589257 0.655734 0.000000 0.662013 0.000559
2.047513 0.908090 1.022777 0.093376 0.002594 -0.002290
3.028263 0.474765 0.491391 -0.000000 -0.422557 -0.000032
2.518248 0.422009 0.548270 -0.000000 -0.935339 -0.000006
1.456415 0.522649 0.481771 0.000000 0.025029 -0.000298
1.405489 0.457019 0.667693 0.000000 -0.593613 0.000020
0.075618 0.464550 0.625678 -0.493201 -0.000040 0.000032
1.997719 0.798729 0.907860 0.052554 -0.006674 0.005848
1.526933 0.345045 0.388490 -0.052508 -0.005899 0.004758
1.675842 0.401773 0.470807 -0.052510 -0.002950 0.002390
1.938957 0.105664 0.127936 -0.052508 -0.006517 0.005250
3.085921 0.683581 0.416386 0.000000 -0.749494 -0.000495
1.127299 0.450207 0.662187 0.000000 -0.671010 0.000008
1.498219 0.477071 0.490346 0.000000 -0.398797 -0.000009
2.193694 0.555523 0.681112 0.000000 0.352928 0.000020
3.219310 0.619567 0.680809 0.000000 -0.749492 0.000426
3.200772 0.432952 0.700135 -0.000000 -0.749494 -0.000475
1.975397 0.851243 0.200580 0.052553 -0.005244 -0.004609
