3.096753 0.232470 0.890747 -0.243674 -0.001394 -0.001727
3.177844 0.754708 0.395423 -0.243673 0.001393 0.001725
3.170472 0.401348 0.730572 -0.243672 -0.001394 -0.001727
1.674598 1.045869 0.119266 -0.020630 -0.017674 -0.014633
1.414724 0.811132 0.341906 -0.020631 -0.005055 -0.005352
1.644025 1.018253 0.964519 -0.020631 -0.019751 0.015555
1.751032 0.058033 1.056194 -0.043523 -0.011444 -0.010881
1.724890 0.747014 0.683573 -0.043524 0.005202 -0.005078
2.917872 0.812926 0.324113 0.000000 0.688164 0.000189
0.986068 0.695627 0.506789 -0.000000 0.911938 -0.000004
3.175005 0.575439 0.666999 0.396170 -0.000064 0.000433
1.864615 0.646136 0.658332 -0.000000 0.509841 0.000007
1.494700 0.528434 0.450731 -0.000000 -0.490112 -0.000056
1.679734 0.268043 0.846990 -0.043522 -0.003252 -0.003188
2.696922 0.551346 0.440949 0.000000 -0.302515 -0.000099
1.858187 0.767620 0.394796 0.091681 0.001124 0.001185
2.604444 0.551022 0.441052 0.000000 -0.302472 -0.000049
1.263504 0.591563 0.435775 0.000000 0.022817 -0.000344
1.775298 0.451865 0.416838 0.043549 0.009461 -0.009748
1.830558 0.760494 0.704917 0.091680 0.002247 -0.002369
1.445297 0.334194 0.315713 -0.043521 -0.010115 0.009686
1.587179 0.520958 0.455260 0.000000 -0.546156 -0.000006
1.779511 0.974641 0.198244 -0.043520 0.004943 0.004828
0.246239 0.471237 0.524024 0.000000 -0.965923 -0.000017
2.879258 0.335088 0.316560 0.187654 -0.003326 0.005061
2.716442 0.710121 0.437712 0.187654 0.001574 0.002396
2.558204 0.489306 0.485727 -0.000000 -0.809558 -0.000006
2.968034 0.667061 0.494643 -0.000000 0.725556 -0.000568
1.879051 0.009377 0.012243 -0.043522 -0.009364 0.009000
1.910854 0.591393 0.674207 0.000000 0.022825 0.000344
1.907131 0.804922 0.345235 0.043549 -0.008241 -0.008537
2.881880 0.608251 0.672313 0.000000 0.192335 0.000020
1.858187 0.396118 0.368944 0.043549 0.008851 -0.009145
1.910854 0.476230 0.600652 0.000000 -0.921668 0.000007
1.402222 0.695471 0.603537 -0.000000 0.912529 0.000007
1.749762 0.467145 0.554819 0.000000 -0.489293 -0.000000
1.513147 0.820760 0.771749 -0.043526 0.007080 -0.006870
1.217265 0.652482 0.654392 -0.000000 0.548365 0.000012
1.858777 1.117387 0.048494 -0.020631 -0.022866 -0.016703
1.949759 0.269099 0.856005 0.043549 0.012817 0.012965
2.959636 0.349896 0.314514 0.000000 -0.688164 0.000566
2.511965 0.662236 0.647174 -0.000000 0.639830 0.000019
3.133612 0.856034 0.810660 -0.243674 0.001393 -0.001725
3.011238 0.879599 0.293059 -0.000000 -0.688164 -0.000566
2.870426 0.755575 0.378509 0.000000 0.688164 0.000503
1.915223 0.719623 0.433082 0.091683 0.002537 0.002674
3.060366 0.316159 0.282517 0.000002 -0.688159 0.000566
0.136932 0.692946 0.564711 -0.298971 0.000128 0.000009
2.814524 0.727786 0.672930 0.000000 -0.688163 0.000377
3.121861 0.726099 0.438648 0.000000 -0.688163 -0.000629
0.523675 0.549242 0.441617 -0.000001 -0.301528 -0.000025
0.191974 0.531886 0.660333 -0.084872 -0.000121 0.000227
0.986068 0.698882 0.595030 -0.000000 0.932402 0.000001
1.933228 0.705782 0.554140 0.000000 0.999739 -0.000000
1.855029 0.147668 0.976869 0.043549 0.004578 0.004801
1.804507 0.895293 0.280514 -0.043520 0.002992 0.002934
1.796627 1.007574 0.944173 -0.043521 0.004422 -0.004325
0.384957 0.640158 0.448426 0.000000 0.449950 -0.000031
1.355983 0.597153 0.673838 -0.000000 0.079669 0.000098
2.881880 0.473178 0.517517 0.000000 -0.946017 -0.000001
1.600603 0.467145 0.555159 0.000000 -0.999740 0.000000
1.881870 1.041294 0.132220 0.091681 0.004349 0.004581
1.494700 0.632135 0.444748 0.000000 0.387853 -0.000019
2.924142 0.808753 0.749724 0.000000 -0.688163 0.000189
0.801111 0.645988 0.658415 0.000000 0.490078 0.000014
0.043805 0.586471 0.502662 -0.674742 0.000001 -0.000011
1.384839 0.422780 0.707907 -0.043522 -0.006070 -0.005909
3.159315 0.470863 0.525418 0.399154 -0.000103 -0.000028
1.171025 0.624746 0.441971 -0.000000 0.324116 -0.000092
1.879051 1.163566 1.097735 -0.043523 0.009364 -0.008999
1.679658 0.691146 0.497692 0.000000 0.871594 -0.000001
0.893590 0.629061 0.666459 0.000001 0.351140 0.000010
1.810822 0.260296 0.263254 0.091681 -0.006669 0.007013
0.304411 0.591393 0.674207 0.000000 0.022825 0.000022
2.942377 0.659027 0.623805 0.000000 0.725555 0.000568
1.540940 0.703607 0.532252 0.000000 0.981329 -0.000001
3.173290 0.667061 0.494643 -0.000004 0.725305 -0.000141
2.419487 0.525638 0.452339 0.000000 -0.509793 -0.000007
1.521731 0.265154 0.250231 -0.043522 -0.014044 0.013140
3.175005 0.482487 0.598061 0.400579 -0.000100 0.000037
3.025792 0.220127 0.902454 0.187652 -0.001574 -0.002396
1.864615 0.642420 0.449596 0.000000 0.470095 -0.000015
2.714872 0.483631 0.465494 0.187654 0.004879 -0.003588
0.662393 0.703305 0.530711 0.000000 0.981329 -0.000002
3.109867 0.752201 0.728269 0.000000 0.688164 -0.000472
1.567591 0.223730 0.899037 -0.043522 -0.011964 -0.011341
1.525174 0.431919 0.420089 -0.043522 -0.006070 0.005909
1.640814 0.769761 0.398041 -0.043522 0.015272 0.014168
1.589482 0.805896 0.341817 -0.020631 -0.012535 -0.011678
1.659312 0.140881 0.977615 -0.043521 -0.008844 -0.008520
0.754872 0.689641 0.614946 0.000000 0.860126 0.000009
1.725897 0.484146 0.616370 -0.000000 -0.860225 0.000019
0.801111 0.525419 0.657509 -0.000001 -0.508871 0.000027
1.124786 0.701728 0.524106 0.000000 0.966048 -0.000001
3.222075 0.541050 0.474733 0.393599 -0.000048 -0.000082
0.654189 0.585156 0.435674 -0.000000 -0.011921 -0.000085
2.604444 0.656525 0.458395 -0.000000 0.585894 -0.000022
1.587179 0.670965 0.639242 0.000001 0.696796 0.000008
1.768983 0.703136 0.433476 0.043548 -0.005342 -0.005590
0.413297 0.581889 0.435763 -0.000000 -0.022817 -0.000022
2.511965 0.567369 0.672778 0.000000 -0.169919 0.000046
3.066866 0.438409 0.679330 -0.000000 0.688164 0.000660
2.814092 0.667061 0.494643 -0.000000 0.725556 -0.000568
1.815661 1.109220 1.046390 -0.043523 0.005723 -0.005577
1.402222 0.477090 0.602685 0.000000 -0.912643 0.000004
1.785561 0.843234 0.777683 -0.043522 0.014044 -0.013140
0.754872 0.503918 0.468834 -0.000001 -0.690271 -0.000016
1.339668 0.675386 0.475331 0.000001 -0.725537 0.000164
3.113076 0.554277 0.440084 -0.000000 -0.280741 -0.000429
2.726754 0.582737 0.674234 0.000000 -0.022825 0.000044
1.957093 0.690605 0.613248 0.000000 0.871635 0.000009
1.584162 0.925936 0.878145 -0.020630 -0.012998 0.011988
1.703948 0.881158 0.840417 -0.020629 -0.012998 0.011988
3.053003 0.299291 0.843460 0.000001 -0.688163 -0.000566
3.020597 0.639741 0.448216 0.000001 0.449854 -0.000062
0.183973 0.645328 0.656931 -0.115936 0.000192 0.000316
0.523675 0.696482 0.601200 -0.000001 0.921454 0.000013
0.338718 0.488212 0.622686 0.000000 -0.823473 0.000011
0.292479 0.620622 0.440656 0.000000 0.280755 -0.000054
1.889764 0.943151 0.885674 0.091680 0.006089 -0.006406
1.823453 0.225590 0.881244 0.091682 -0.006089 -0.006406
1.907131 0.817779 0.768966 0.091682 0.003915 -0.004123
2.716442 0.462822 0.672266 0.187654 -0.001574 -0.002396
2.780267 0.721039 0.443447 0.187653 -0.002439 -0.001794
2.003333 0.600783 0.673451 0.000000 0.124985 0.000031
1.770038 0.939325 0.895634 -0.020630 -0.005460 0.005753
1.402222 0.627707 0.443018 0.000000 0.345575 -0.000005
1.715589 0.995698 0.164148 -0.020630 -0.009879 -0.009712
2.188290 0.671415 0.638792 0.000001 0.699605 0.000008
2.142051 0.486463 0.489901 -0.000000 -0.836073 -0.000010
2.003333 0.468497 0.537103 -0.000000 -0.988904 -0.000001
0.569914 0.554605 0.669982 -0.000000 -0.258668 0.000059
2.327008 0.545315 0.442989 -0.000000 -0.345577 -0.000085
2.980325 0.590884 0.435759 0.000000 0.022642 -0.000045
3.092279 0.376041 0.339312 0.000001 -0.688163 0.000425
3.207331 0.687156 0.650485 -0.243672 0.001394 -0.001727
2.667597 0.501142 0.635920 0.187654 -0.001574 -0.002396
2.881880 0.481278 0.611312 -0.000001 -0.881998 0.000008
2.095811 0.506308 0.643373 0.000000 -0.674146 0.000017
0.040854 0.545322 0.582654 -0.675001 -0.000017 0.000011
1.756079 0.914479 0.237531 -0.020628 -0.011959 -0.011278
1.448461 0.689230 0.494338 0.000001 0.858312 -0.000009
1.889764 0.960905 0.207465 0.091681 0.005509 0.005798
3.070662 0.505882 0.615335 0.000000 -0.725555 0.000568
3.066837 0.633465 0.664670 0.000001 0.387624 0.000037
0.292479 0.551103 0.441026 0.000001 -0.302259 -0.000050
1.752746 0.586302 0.674315 0.000000 -0.023168 0.000011
2.367281 0.467197 0.552528 -0.000000 -0.999740 -0.000000
3.045005 0.521950 0.477702 0.000000 -0.725555 -0.000284
1.524704 0.690357 0.660345 -0.020631 -0.012131 0.011399
1.677157 0.412581 0.700117 -0.043520 -0.015273 -0.014168
3.066837 0.691186 0.497767 0.000001 0.873627 -0.000002
1.910289 0.337611 0.323962 0.091681 -0.003625 0.003819
0.107048 0.648034 0.482742 -0.415561 0.000051 -0.000057
0.107048 0.524909 0.482742 -0.415565 -0.000053 -0.000059
1.821874 0.349763 0.346707 0.091682 -0.003915 0.004123
0.801111 0.467983 0.569090 -0.000000 -0.992169 0.000002
1.701336 0.236882 0.232631 -0.043522 -0.011964 0.011342
1.571487 0.308938 0.820970 -0.020630 0.015076 0.013269
2.976948 0.258447 0.243869 0.187654 -0.001663 0.002531
1.843188 0.359990 0.756276 0.091681 -0.003915 -0.004123
2.723013 0.695699 0.650542 0.187655 -0.002309 0.001698
2.968034 0.521950 0.632276 0.000000 -0.725555 0.000568
1.644025 0.154690 0.145459 -0.043522 -0.009884 0.009475
1.704730 0.347390 0.764720 -0.043522 -0.003772 -0.003694
1.772457 0.126045 0.985677 -0.043522 -0.015604 -0.014441
2.835640 0.688047 0.617603 -0.000000 0.848249 0.000010
2.511965 0.473316 0.592862 -0.000000 -0.944887 0.000001
0.569914 0.616698 0.670421 0.000000 0.258342 0.000029
3.222075 0.627171 0.576659 1.000000 0.000000 0.000000
2.643225 0.705732 0.558044 -0.000000 0.999740 0.000000
0.477436 0.496816 0.633728 0.000000 -0.753711 0.000027
1.729253 0.193968 0.179109 -0.020630 0.021828 -0.016349
1.505722 0.732702 0.411315 -0.020631 -0.006066 -0.006344
2.280769 0.562610 0.671905 -0.000000 -0.192174 0.000080
2.373247 0.562610 0.671905 -0.000001 -0.191802 0.000080
3.011238 0.879599 0.816919 0.000001 -0.688161 0.000566
0.352142 0.467246 0.559572 0.000000 -0.999739 0.000000
1.818376 0.532178 0.661246 0.000000 -0.449880 0.000031
0.616154 0.638945 0.447815 0.000000 0.429504 -0.000033
1.654856 0.919423 0.235829 -0.020630 -0.006500 -0.006757
2.604444 0.651204 0.655230 -0.000000 0.548435 0.000048
2.835640 0.532178 0.448732 0.000000 -0.450020 -0.000008
1.913446 0.888391 0.273237 0.091682 0.003335 0.003513
2.944384 0.283994 0.841878 0.187655 -0.001663 -0.002531
1.680767 0.844922 0.303456 -0.020630 -0.014037 -0.012651
1.660551 0.968931 0.919730 -0.020631 -0.010918 0.010519
2.142051 0.683413 0.485417 0.000001 0.803088 -0.000003
3.159315 0.517656 0.652478 0.399976 -0.000062 0.000086
3.159315 0.634013 0.664440 0.396275 0.000042 0.000099
1.802928 0.753368 0.415326 0.091682 0.001124 0.001185
1.949759 0.726312 0.687622 0.043552 -0.005341 0.005589
2.280769 0.691325 0.498029 -0.000000 0.882233 -0.000008
1.448461 0.481418 0.498404 -0.000000 -0.882497 -0.000008
0.477436 0.662953 0.646577 0.000000 0.639864 0.000038
2.419487 0.660184 0.461156 0.000001 0.613895 -0.000005
1.467975 0.426960 0.698488 -0.043522 -0.010115 -0.009686
2.234529 0.698911 0.594950 -0.000000 0.945946 0.000003
1.725897 0.527398 0.658665 0.000001 -0.489979 0.000056
2.049572 0.526222 0.451992 0.000000 -0.509806 -0.000013
2.234529 0.470421 0.582745 0.000000 -0.971378 0.000002
1.949759 1.045869 0.119266 0.043549 -0.007935 -0.008231
1.949759 1.116882 0.051913 0.043548 -0.010987 -0.011233
2.835640 0.631783 0.444600 -0.000000 0.387846 -0.000019
1.675543 0.231775 0.894679 -0.020631 0.011958 0.011277
2.234529 0.482629 0.496212 -0.000000 -0.871558 -0.000009
0.766804 0.589696 0.674245 0.000000 0.022817 0.000022
1.810822 0.912647 0.846724 -0.043522 0.011964 -0.011342
3.222075 0.542200 0.567876 1.000000 0.000000 0.000000
0.986068 0.630956 0.665712 -0.000001 0.365782 0.000020
2.465726 0.566574 0.437337 0.000000 -0.169918 -0.000091
2.419487 0.705029 0.568542 -0.000001 0.994422 0.000003
2.177849 0.705767 0.553461 0.000000 0.999747 -0.000000
0.465503 0.467242 0.550576 0.000000 -0.999748 -0.000000
0.072177 0.650418 0.593876 -0.551997 0.000038 0.000022
2.928119 0.562318 0.438130 0.000000 -0.191659 -0.000010
1.715416 0.720985 0.452295 -0.043524 0.005202 0.005078
1.309743 0.703087 0.580262 0.000001 0.873151 0.000000
2.974880 0.711718 0.420106 0.000000 0.688164 0.000189
2.870426 0.401300 0.714527 -0.000000 0.688164 0.000503
0.616154 0.478715 0.606236 0.000000 -0.903032 0.000004
1.640814 0.403182 0.398041 -0.043521 -0.015272 0.014168
1.903973 0.755842 0.709821 0.091682 0.002247 -0.002369
1.124786 0.562193 0.671823 0.000000 -0.214848 0.000018
2.095811 0.620948 0.440751 0.000000 0.280755 -0.000054
2.234529 0.550698 0.441155 0.000000 -0.302455 -0.000049
2.928119 0.572160 0.673451 0.000001 -0.124651 0.000125
2.180832 0.587320 0.674300 -0.000000 0.022817 0.000044
1.957093 0.495155 0.631797 0.000000 -0.768498 0.000013
1.804507 0.291209 0.843761 0.043548 0.007020 0.007307
1.791087 0.794063 0.731747 0.091682 0.002102 -0.002216
0.338718 0.695089 0.505588 0.000000 0.912612 -0.000028
2.925752 0.734534 0.679330 0.000000 -0.688163 0.000629
1.442038 0.745204 0.699309 -0.043524 0.008092 -0.007821
1.888480 0.587150 0.435674 0.000000 0.022817 -0.000022
2.770010 0.705712 0.558893 0.000000 0.999739 0.000000
3.147633 0.521950 0.477702 0.000000 -0.725556 -0.000568
0.872707 0.705743 0.557535 0.000000 0.999740 0.000000
0.708632 0.482442 0.496545 0.000000 -0.871603 -0.000018
1.743256 1.029867 0.977953 -0.020631 -0.008839 0.008856
1.772136 0.533391 0.448121 0.000000 -0.449880 -0.000031
1.309743 0.562193 0.671823 0.000001 -0.214551 0.000143
2.942377 0.505882 0.494643 0.000000 -0.725557 -0.000284
1.897658 0.443330 0.684142 0.091682 -0.004494 -0.004733
2.234529 0.624345 0.441834 0.000000 0.324142 -0.000046
1.540940 0.501708 0.638972 0.000000 -0.707107 0.000008
1.633418 0.477888 0.604467 0.000001 -0.912264 0.000014
1.834505 0.856003 0.817555 0.043549 -0.007630 0.007924
1.455695 0.705362 0.437799 -0.020631 -0.010110 -0.009896
0.708632 0.691784 0.498891 0.000000 0.882469 -0.000002
0.616154 0.691784 0.498891 0.000000 0.882469 -0.000004
3.017738 0.741281 0.685729 0.000000 -0.688163 0.000660
3.042302 0.721839 0.410507 0.000000 0.688163 0.000660
2.558204 0.535454 0.662855 0.000000 -0.429501 0.000066
1.686968 0.736639 0.402627 -0.020631 -0.050012 -0.020840
2.651316 0.659027 0.623805 0.000000 0.725555 0.000333
2.373247 0.696696 0.600691 -0.000001 0.921656 0.000026
0.616154 0.537265 0.446284 0.000000 -0.408777 -0.000070
1.864615 0.687171 0.619008 0.000000 0.847612 0.000005
1.375566 0.476456 0.653881 -0.043521 -0.006070 -0.005910
2.835640 0.639514 0.661876 -0.000000 0.449948 0.000062
3.206385 0.624356 0.463528 0.390707 0.000167 -0.000353
1.402222 0.632995 0.664868 0.000001 0.387624 0.000037
0.246239 0.650490 0.454289 -0.000001 0.527596 -0.000025
1.921340 0.054260 0.053811 0.091681 -0.006379 0.006710
1.921340 0.054260 1.056166 0.091682 -0.006379 -0.006710
1.454662 0.414972 0.389561 -0.020631 0.010109 -0.009895
1.368864 0.403235 0.381195 -0.043523 -0.012137 0.011494
2.986674 0.306039 0.272917 -0.000001 -0.688163 0.000849
0.523675 0.524652 0.657055 -0.000001 -0.503114 0.000013
0.195984 0.467452 0.554989 -0.077088 -0.000142 0.000002
1.748067 0.218279 0.909092 -0.020630 0.005460 0.005753
2.974358 0.697786 0.597973 -0.000000 0.930251 0.000003
1.309743 0.633387 0.664703 0.000000 0.387903 0.000075
0.708632 0.640234 0.448465 -0.000000 0.449578 -0.000016
1.032308 0.490984 0.483431 0.000000 -0.796872 -0.000003
1.957093 0.468020 0.569385 0.000000 -0.992159 0.000000
2.465726 0.634749 0.664110 0.000001 0.408585 0.000035
0.662393 0.629456 0.666303 0.000001 0.351140 0.000010
0.523675 0.479006 0.606849 -0.000000 -0.903081 0.000015
2.327008 0.618010 0.439908 0.000000 0.258689 -0.000015
0.246239 0.521916 0.454632 0.000000 -0.548229 -0.000024
2.993174 0.444357 0.705871 0.000000 -0.688164 -0.000660
1.550423 0.397788 0.723041 -0.043526 -0.003540 -0.003469
1.516035 0.312525 0.811913 -0.043521 -0.003772 -0.003694
1.908315 0.479512 0.458801 0.091681 -0.002537 0.002674
1.810040 0.205133 0.187091 -0.020627 0.004941 -0.005237
2.373247 0.492638 0.628702 0.000000 -0.782920 0.000003
0.986068 0.634013 0.445538 0.000000 0.387916 -0.000075
3.066837 0.467697 0.543547 0.000000 -0.994589 -0.000002
2.003333 0.695176 0.505782 0.000001 0.906871 -0.000004
1.309743 0.632135 0.444748 0.000000 0.387725 -0.000019
2.327008 0.474530 0.513674 0.000000 -0.938390 -0.000012
1.922919 0.196386 0.188412 0.091682 -0.002465 0.002598
2.881880 0.659450 0.460579 -0.000000 0.598807 -0.000003
1.794510 0.705798 0.555159 -0.000002 0.629948 0.000000
2.814668 0.424915 0.692129 0.000000 0.688164 0.000377
1.780189 1.103388 0.067316 -0.043521 0.006763 0.006570
2.465726 0.487022 0.620928 -0.000001 -0.835729 0.000021
1.864615 0.480367 0.500393 0.000000 -0.892490 -0.000004
2.650683 0.611123 0.671741 0.000001 0.206597 0.000019
0.616154 0.480176 0.500772 0.000000 -0.893045 -0.000032
0.431197 0.703501 0.531710 -0.000001 0.981278 -0.000012
2.480642 0.705743 0.552443 0.000000 0.999739 -0.000000
1.269470 0.467174 0.556432 0.000000 -0.999739 0.000000
1.821084 0.456232 0.447789 0.091682 -0.004494 0.004733
1.910854 0.694666 0.504662 0.000001 0.902471 -0.000007
1.660551 0.972026 0.193512 -0.043522 0.005463 0.005328
0.246239 0.497887 0.634933 -0.000000 -0.738456 0.000029
1.864615 0.561032 0.671568 -0.000000 -0.214157 0.000036
1.494700 0.470502 0.526903 -0.000000 -0.968456 -0.000001
2.980325 0.467250 0.550237 -0.000000 -0.999744 -0.000000
2.604444 0.474970 0.512479 0.000000 -0.938391 -0.000001
1.766615 0.774077 0.366048 0.043548 -0.004426 -0.004642
2.764044 0.467230 0.551085 -0.000000 -0.999740 -0.000000
3.033328 0.812926 0.785864 0.000000 0.688165 -0.000566
0.708632 0.534151 0.447742 0.000001 -0.428508 -0.000017
1.163567 0.467184 0.556856 0.000000 -0.999740 0.000000
1.957093 0.561778 0.671732 0.000000 -0.214815 0.000036
0.580356 0.467223 0.558553 0.000000 -0.999739 0.000000
2.806259 0.752974 0.720956 0.187656 0.000787 -0.001198
2.049572 0.700511 0.590115 0.000001 0.952678 0.000005
1.818376 0.489181 0.624079 0.000001 -0.807616 0.000011
1.401159 0.709643 0.674579 -0.020628 -0.006067 0.006344
1.385183 0.730907 0.416337 -0.020630 -0.012131 -0.011399
1.513147 0.356196 0.775980 -0.020631 0.025057 0.017369
0.616154 0.704913 0.569469 0.000000 0.992159 0.000002
3.040691 0.376885 0.769866 0.000000 -0.688164 -0.000566
3.004248 0.798632 0.740125 0.000000 -0.688163 0.000660
3.054986 0.455277 0.446647 -0.000001 0.688163 -0.000660
2.602952 0.583247 0.674245 0.000000 -0.022817 0.000044
2.280769 0.705242 0.566474 0.000001 0.987874 0.000001
1.494700 0.483908 0.615968 0.000000 -0.857269 0.000002
1.725897 0.477316 0.506789 -0.000001 -0.912396 -0.000014
1.791876 0.845848 0.299494 0.043548 -0.007630 -0.007925
2.696922 0.704044 0.534631 0.000000 0.985457 -0.000005
2.955120 0.805380 0.363453 -0.000000 -0.688164 -0.000660
1.032308 0.681035 0.482214 0.000000 0.796764 -0.000024
0.523675 0.481298 0.498628 -0.000000 -0.882036 -0.000004
3.114498 0.446044 0.704271 0.000000 -0.688164 -0.000472
3.121861 0.726099 0.671330 0.000005 -0.688074 0.000314
3.025792 0.220127 0.207524 0.187653 -0.001574 0.002396
1.633418 0.546510 0.442549 0.000000 -0.345616 -0.000021
2.993979 0.465398 0.456246 0.000000 0.688164 -0.000189
1.362598 0.476845 0.455687 -0.043522 -0.008092 0.007821
1.171025 0.512725 0.461182 -0.000000 -0.622069 -0.000010
2.924142 0.364190 0.360254 0.000000 0.688164 -0.000189
2.280769 0.637603 0.662801 0.000000 0.429464 0.000033
1.217265 0.469710 0.530379 0.000000 -0.976703 -0.000003
1.597575 0.275275 0.265239 -0.043521 -0.003512 0.003441
2.738687 0.590036 0.435740 0.000000 0.022825 -0.000044
3.045640 0.890520 0.859459 0.000000 0.688164 -0.000566
1.217265 0.695020 0.505433 -0.000000 0.912278 -0.000007
0.986068 0.467605 0.565459 0.000000 -0.996550 0.000001
0.893590 0.680932 0.482078 -0.000000 0.796562 -0.000012
1.869239 0.981318 0.934324 0.043548 -0.005189 0.005433
1.787744 0.116659 0.106543 -0.020631 0.015595 -0.013562
3.113076 0.481159 0.498891 0.000000 -0.882593 -0.000033
3.135450 0.705771 0.552357 0.000000 0.999937 -0.000000
1.828979 0.416787 0.409376 0.091681 -0.001124 0.001185
1.705083 0.149044 0.143510 -0.043522 -0.004422 0.004325
2.095811 0.504102 0.468658 0.000000 -0.690776 -0.000008
0.847350 0.570223 0.436770 0.000000 -0.147414 -0.000026
1.877133 0.306784 0.824626 0.043548 0.014038 0.014088
2.188290 0.519614 0.653826 -0.000001 -0.566741 0.000023
1.818376 0.668227 0.641906 0.000000 0.690767 0.000008
1.778456 0.754918 0.693017 0.091680 0.002247 -0.002369
2.234529 0.675625 0.475674 -0.000000 0.752634 -0.000003
1.124786 0.493272 0.480479 0.000001 -0.758256 -0.000002
3.066837 0.532861 0.661590 -0.000000 -0.449865 0.000062
2.465726 0.467294 0.560929 0.000000 -0.998372 0.000000
1.772136 0.681086 0.482281 -0.000000 0.796780 -0.000024
0.775008 0.589781 0.435734 -0.000005 0.002148 -0.000236
0.107048 0.609993 0.646948 -0.415569 0.000021 0.000076
0.035084 0.630026 0.560975 -0.697722 0.000019 0.000002
2.465726 0.538930 0.664440 0.000000 -0.408612 0.000009
0.384957 0.506025 0.643115 0.000000 -0.674253 0.000017
2.881880 0.699544 0.593103 -0.000000 0.945667 0.000005
2.419487 0.469000 0.534046 0.000000 -0.985242 -0.000001
1.772136 0.635407 0.446163 0.000000 0.408579 -0.000018
2.743162 0.526806 0.451646 0.000000 -0.509829 -0.000026
1.540940 0.655562 0.457699 0.000000 0.585644 -0.000005
0.616154 0.529811 0.660002 0.000001 -0.469808 0.000029
1.217265 0.493695 0.479947 0.000000 -0.782834 -0.000012
1.217265 0.540104 0.664934 -0.000001 -0.387004 0.000037
1.910854 0.667638 0.642457 -0.000001 0.672119 0.000017
3.222075 0.669994 0.515896 0.394415 0.000086 -0.000039
2.419487 0.681138 0.627629 -0.000000 0.796719 0.000006
1.652849 0.795228 0.760149 -0.020629 -0.016116 0.013845
0.708632 0.477021 0.602530 0.000000 -0.921668 0.000003
2.835640 0.484189 0.493535 0.000000 -0.860276 -0.000019
1.450967 0.357386 0.770321 -0.043515 -0.002529 -0.002482
1.910854 0.539752 0.445192 0.000000 -0.387825 -0.000009
3.118180 0.438409 0.430648 -0.000001 0.688161 -0.000314
1.464280 0.799269 0.357053 -0.043525 0.002529 0.002482
0.523675 0.641144 0.661055 -0.000000 0.450302 0.000008
1.633418 0.538620 0.664301 0.000000 -0.408824 0.000035
1.217265 0.495318 0.631993 -0.000001 -0.767831 0.000013
1.586766 0.765756 0.711221 -0.043522 0.015272 -0.014168
2.915182 0.437610 0.397708 0.000000 -0.688164 0.000314
1.734094 0.368917 0.368981 -0.043523 -0.003772 0.003694
2.373247 0.684322 0.486698 -0.000000 0.819981 -0.000003
2.049572 0.488982 0.623804 0.000000 -0.810327 0.000006
1.829768 0.964706 0.211473 -0.043521 0.002471 0.002425
1.402222 0.699843 0.517759 0.000001 0.952678 -0.000005
1.078547 0.595757 0.673950 -0.000004 0.034945 0.000056
1.209807 0.588084 0.435696 0.000000 0.020848 -0.000024
0.523675 0.626152 0.442453 -0.000001 0.318557 -0.000012
0.523675 0.699021 0.515349 -0.000000 0.945970 -0.000011
1.957093 0.636492 0.446649 0.000000 0.408759 -0.000035
2.878738 0.737907 0.427448 -0.000001 -0.688155 -0.000252
1.818376 0.663345 0.463727 0.000000 0.639891 -0.000019
2.873223 0.359399 0.762314 0.187655 0.001155 0.000849
0.616154 0.686293 0.620360 -0.000000 0.836073 0.000021
2.993691 0.650993 0.632276 -0.000000 0.725555 0.000284
1.078547 0.694392 0.605891 -0.000002 0.882091 0.000004
0.477436 0.651346 0.454841 0.000000 0.548432 -0.000048
0.801111 0.646721 0.451992 0.000000 0.509971 -0.000013
2.511965 0.469376 0.532043 -0.000000 -0.979810 -0.000002
2.280769 0.647122 0.452230 0.000000 0.509726 -0.000026
0.893590 0.577016 0.673936 0.000000 -0.079596 0.000393
0.939829 0.486696 0.489546 -0.000000 -0.836155 -0.000021
3.113076 0.606704 0.437394 0.000001 0.169905 -0.000364
1.830948 0.053157 1.062905 -0.020631 0.022866 0.016703
1.550423 0.405813 0.378477 -0.020631 0.025057 -0.017369
1.620136 0.211453 0.198206 -0.020629 0.005980 -0.006260
0.431197 0.488332 0.487117 -0.000000 -0.823417 -0.000005
2.558204 0.679380 0.629865 -0.000001 0.780053 0.000006
1.724890 0.425929 0.683573 -0.043524 -0.002601 -0.002552
2.514948 0.584095 0.435713 -0.000000 -0.022642 -0.000022
3.028812 0.393753 0.356111 0.000001 -0.688163 0.000660
1.448461 0.653399 0.456200 0.000000 0.567273 -0.000023
1.078547 0.489256 0.624183 0.000000 -0.808540 0.000003
3.062840 0.920083 0.254662 -0.243672 -0.001649 -0.001482
2.142051 0.539321 0.445373 0.000001 -0.371744 -0.000005
1.864615 0.682369 0.483972 0.000000 0.810161 -0.000003
0.939829 0.501137 0.638402 0.000000 -0.723069 0.000008
0.085746 0.508426 0.584744 -0.498852 -0.000050 0.000018
1.908710 0.128305 0.992010 0.043548 0.007936 0.008231
1.848714 0.165611 0.149747 0.043549 0.010377 -0.010643
2.765287 0.424502 0.708611 0.187654 -0.001574 -0.002396
0.338718 0.542382 0.665867 -0.000000 -0.366866 0.000080
0.893590 0.695263 0.604002 -0.000000 0.912278 0.000007
0.338718 0.693225 0.608296 -0.000000 0.893061 0.000032
0.847350 0.521526 0.454888 -0.000000 -0.547430 -0.000012
2.373247 0.640196 0.448446 -0.000001 0.449853 -0.000062
2.095811 0.654483 0.653032 -0.000000 0.567115 0.000023
1.609553 0.586302 0.674315 0.000000 -0.022817 0.000178
2.789401 0.616042 0.670597 -0.000001 0.258581 0.000059
1.078547 0.693454 0.502136 0.000000 0.893301 -0.000002
1.512214 0.854829 0.810892 -0.020629 -0.008060 0.008183
1.910854 0.661844 0.462478 0.000000 0.637532 -0.000005
2.465726 0.506903 0.466061 -0.000000 -0.673995 -0.000017
1.725897 0.681497 0.627155 -0.000003 0.453458 0.000003
1.604471 0.393783 0.723756 -0.043522 -0.015272 -0.014168
1.641747 0.439388 0.434930 -0.043521 -0.015272 0.014168
1.639881 0.366976 0.361152 -0.043521 -0.015272 0.014168
1.313730 0.500628 0.637884 -0.020629 0.032320 0.018971
0.292479 0.640006 0.661628 -0.000001 0.449888 0.000062
1.818376 0.471912 0.521613 -0.000000 -0.959650 -0.000005
1.015154 0.705749 0.552698 0.000000 0.999747 -0.000000
1.864615 0.504163 0.641379 -0.000000 -0.690288 0.000008
2.696922 0.534305 0.662308 0.000000 -0.429443 0.000008
3.222075 0.581730 0.600854 1.000000 -0.000000 0.000000
0.408823 0.467161 0.553291 -0.000000 -0.999935 -0.000000
1.402222 0.560203 0.438592 0.000000 -0.214681 -0.000036
2.837132 0.582907 0.674238 0.000000 -0.022466 0.000045
0.431197 0.578455 0.674048 0.000000 -0.056170 0.000035
1.679658 0.660716 0.648400 -0.000001 0.606628 0.000005
1.078547 0.645063 0.658935 -0.000000 0.490053 0.000028
2.234529 0.540808 0.665230 -0.000000 -0.387935 0.000075
0.338718 0.659111 0.460323 0.000000 0.604148 -0.000010
3.159315 0.628982 0.443488 0.400578 0.000037 -0.000100
3.121976 0.505882 0.615335 0.000000 -0.725555 0.000284
1.679658 0.497429 0.634432 0.000001 -0.753649 0.000055
0.801111 0.684538 0.487013 -0.000000 0.823473 -0.000022
1.355983 0.537962 0.445972 -0.000000 -0.408785 -0.000070
1.866107 0.467153 0.554480 0.000000 -0.999739 -0.000000
2.188290 0.694593 0.504509 -0.000001 0.900380 -0.000004
1.721846 0.858487 0.797158 -0.043520 0.007024 -0.006816
1.742594 0.412525 0.413870 -0.043522 -0.005202 0.005078
0.121803 0.491738 0.518871 -0.357961 -0.000091 -0.000032
1.856608 0.236387 0.217350 0.043548 0.006410 -0.006686
1.957093 0.476625 0.508387 0.000001 -0.921104 -0.000007
0.616154 0.649698 0.656183 0.000001 0.528721 0.000050
1.309743 0.697474 0.511215 -0.000001 0.928078 -0.000006
3.019348 0.521950 0.632276 0.000000 -0.725555 0.000568
3.019348 0.667061 0.494643 -0.000000 0.725556 -0.000568
1.657227 0.487474 0.450406 -0.020631 0.020790 -0.015967
1.494700 0.687171 0.619008 0.000002 0.773385 0.000003
3.096319 0.659027 0.623805 0.000000 0.725555 0.000568
2.143542 0.467176 0.556516 0.000000 -0.999740 0.000000
1.309743 0.676852 0.632896 -0.000000 0.753673 0.000027
1.217265 0.698589 0.595826 -0.000000 0.933846 0.000001
1.524704 0.482586 0.449633 -0.020631 0.012131 -0.011399
3.014920 0.301778 0.808920 -0.000000 0.688164 0.000425
0.384957 0.675737 0.634176 -0.000000 0.752634 0.000007
1.758204 0.983060 0.921623 -0.043522 0.002471 -0.002425
0.246239 0.540143 0.664950 -0.000000 -0.387931 0.000149
0.662393 0.552240 0.669298 -0.000000 -0.280761 0.000027
0.708632 0.524725 0.657098 0.000001 -0.503114 0.000013
1.441350 0.394385 0.733280 -0.043520 -0.002529 -0.002482
2.588782 0.705726 0.558299 -0.000000 0.999748 0.000000
1.514091 0.585962 0.435671 -0.000000 -0.022817 -0.000022
2.095811 0.669915 0.469685 0.000001 0.641104 -0.000002
0.172035 0.586471 0.439145 -0.170059 0.000001 -0.000062
3.206385 0.673778 0.601655 0.392991 0.000085 0.000041
2.696922 0.476988 0.602452 -0.000001 -0.912903 0.000002
2.280769 0.486091 0.619509 0.000000 -0.836028 0.000003
1.124786 0.643769 0.450315 0.000000 0.470233 -0.000015
1.867660 1.068824 1.002066 -0.043522 0.006763 -0.006570
0.939829 0.522741 0.454109 0.000000 -0.529268 -0.000050
2.118185 0.587744 0.674290 -0.000005 0.004893 0.000207
1.494700 0.698090 0.512797 -0.000000 0.938056 -0.000003
1.812401 0.397492 0.742481 0.043549 0.004426 0.004642
1.035291 0.467169 0.553801 0.000000 -0.999740 -0.000000
2.952273 0.316959 0.794521 0.000001 0.688163 0.000566
1.217265 0.642944 0.449876 0.000000 0.470157 -0.000029
2.737121 0.650993 0.632276 -0.000000 0.725555 0.000284
0.969661 0.587490 0.435682 0.000000 0.022817 -0.000044
3.044992 0.815500 0.353854 0.000000 -0.688163 -0.000142
2.558204 0.481099 0.610975 -0.000001 -0.880155 0.000004
0.893590 0.641970 0.449357 -0.000001 0.469765 -0.000059
1.171025 0.667920 0.642200 -0.000000 0.690818 0.000033
2.881364 0.811896 0.776842 0.187655 0.003326 -0.005061
1.355983 0.468834 0.574970 -0.000000 -0.985457 0.000005
0.338718 0.485659 0.491150 0.000000 -0.847842 -0.000005
2.743162 0.477420 0.506557 0.000000 -0.911876 -0.000004
1.633418 0.683563 0.624355 0.000001 0.809910 0.000023
1.171025 0.483087 0.614580 -0.000001 -0.860701 0.000002
1.263504 0.481518 0.611762 0.000000 -0.881964 0.000004
0.477436 0.691021 0.497470 -0.000000 0.870974 -0.000002
1.124786 0.501978 0.639242 0.000001 -0.706729 0.000016
0.200000 0.665914 0.465947 -0.084871 0.000173 -0.000190
2.095811 0.704690 0.571238 -0.000000 0.992180 0.000004
2.894041 0.769069 0.744268 0.000000 0.688163 -0.000157
2.234529 0.656800 0.651384 -0.000000 0.585861 0.000022
1.752921 0.915677 0.853405 -0.043521 0.005983 -0.005827
1.731171 1.051077 0.112904 -0.020630 -0.017674 -0.014633
1.540940 0.643019 0.660062 -0.000000 0.470370 0.000015
1.772136 0.475686 0.599316 -0.000000 -0.930282 0.000012
2.049572 0.704817 0.539751 0.000000 0.992106 -0.000001
0.569914 0.655287 0.457500 0.000000 0.567602 -0.000003
2.142051 0.638638 0.447670 0.000000 0.429504 -0.000033
2.928119 0.633817 0.664522 -0.000000 0.387906 0.000037
0.847350 0.486231 0.490256 -0.000000 -0.832761 -0.000003
1.896079 0.991000 0.168083 0.043549 -0.005189 -0.005432
1.679658 0.613403 0.671240 0.000000 0.236749 0.000258
0.292479 0.678928 0.630427 -0.000001 0.760205 0.000003
0.200000 0.507029 0.465947 -0.084876 -0.000173 -0.000190
3.121747 0.403874 0.744268 0.000000 -0.688164 -0.000472
2.969474 0.853410 0.824261 0.000000 0.688164 -0.000849
0.754872 0.542066 0.665743 0.000001 -0.363067 0.000020
2.696922 0.625067 0.442081 0.000000 0.324155 -0.000092
1.402222 0.546351 0.667370 0.000000 -0.345461 0.000021
1.078547 0.469490 0.578518 -0.000000 -0.981088 0.000003
2.511965 0.642944 0.449876 0.000000 0.470113 -0.000029
2.974358 0.479298 0.607462 0.000000 -0.902480 0.000004
1.741354 0.451180 0.453116 0.091681 -0.005074 0.005342
0.121803 0.681205 0.518871 -0.357964 0.000091 -0.000032
1.171025 0.557313 0.439280 0.000000 -0.236916 -0.000016
0.160199 0.501841 0.630496 -0.208365 -0.000149 0.000127
1.694862 0.773766 0.712652 -0.043521 0.015272 -0.014168
1.712567 0.787170 0.384791 -0.043522 0.015272 0.014168
1.513147 0.356196 0.333998 -0.020631 0.050010 -0.020840
2.003333 0.493906 0.479681 0.000000 -0.782834 -0.000006
1.587179 0.702562 0.582580 0.000000 0.971581 0.000008
1.621243 0.352722 0.782194 -0.020633 0.008058 0.008182
2.003333 0.659145 0.649630 0.000001 0.603637 0.000021
1.813743 1.040508 0.133367 -0.043521 0.007804 0.007551
0.893590 0.489778 0.624905 0.000000 -0.810327 0.000003
3.064048 0.848349 0.290516 -0.000001 0.688159 0.000283
1.910854 0.697973 0.597499 -0.000000 0.938376 0.000006
2.916720 0.521950 0.632276 0.000000 -0.725555 0.000568
1.448461 0.514846 0.650425 -0.000000 -0.604227 0.000021
1.540940 0.543961 0.443488 0.000000 -0.366847 -0.000020
0.662393 0.670965 0.639242 0.000000 0.707107 0.000031
1.032308 0.506151 0.643230 -0.000001 -0.674084 0.000034
2.743162 0.694648 0.605354 -0.000000 0.903034 0.000015
1.078547 0.558261 0.439049 -0.000001 -0.233631 -0.000016
2.558204 0.669547 0.469332 -0.000002 0.628057 -0.000005
0.986068 0.485277 0.618215 -0.000001 -0.848402 0.000039
3.048775 0.943236 0.208565 0.187653 0.001574 0.002396
0.847350 0.666416 0.466405 0.000000 0.674117 -0.000017
1.494700 0.576466 0.673892 0.000000 -0.079609 0.000098
0.848842 0.467192 0.557195 0.000000 -0.999739 0.000000
0.035084 0.547907 0.533880 -0.697721 -0.000015 -0.000008
0.893590 0.544519 0.443282 0.000000 -0.345598 -0.000021
0.847350 0.511695 0.647977 0.000000 -0.618902 0.000005
1.845556 0.715160 0.663823 0.091681 0.004494 -0.004733
1.838503 0.098345 0.088320 -0.020630 0.013517 -0.012325
2.373247 0.619359 0.669691 -0.000000 0.280761 0.000027
2.003333 0.541043 0.444649 0.000000 -0.387885 -0.000037
0.200000 0.705307 0.544138 -0.084870 0.000256 -0.000020
2.327008 0.689425 0.615311 0.000000 0.860232 0.000019
1.750855 0.162218 0.960604 -0.020631 0.004940 0.005236
2.835640 0.522957 0.656003 0.000000 -0.529240 0.000050
1.402222 0.467998 0.540762 0.000000 -0.992180 -0.000001
2.095811 0.688182 0.617387 -0.000000 0.848212 0.000005
1.738814 0.112751 0.108687 -0.043522 -0.007803 0.007551
1.772136 0.655699 0.652179 0.000000 0.585762 0.000022
1.949759 1.081376 1.024388 0.043547 -0.013428 0.013530
1.949759 0.886091 0.839167 0.043548 -0.006410 0.006686
1.949759 0.464384 0.670784 0.043548 0.010682 0.010939
1.949759 0.269099 0.253973 0.043548 0.012818 -0.012965
1.949759 0.957103 0.203458 0.043547 -0.010377 -0.010643
1.949759 0.393372 0.738137 0.043549 0.008241 0.008537
1.949759 0.127073 0.119266 0.043548 0.007936 -0.008232
3.062840 0.252860 0.855316 -0.000000 0.688163 0.000566
2.049572 0.631509 0.665494 -0.000000 0.387555 0.000009
2.003333 0.666322 0.466319 -0.000000 0.674074 -0.000017
1.902394 0.146247 0.134606 0.043549 0.009156 -0.009447
3.072429 0.225787 0.220938 -0.243674 0.001651 -0.001484
3.133612 0.316909 0.810660 -0.243674 -0.001393 -0.001725
3.148356 0.822259 0.778625 -0.243675 0.001393 -0.001725
3.207331 0.485786 0.650485 -0.243672 -0.001394 -0.001727
3.089381 0.957361 0.906764 -0.243674 0.001394 -0.001727
3.140984 0.839146 0.315336 -0.243674 0.001394 0.001727
2.465726 0.689641 0.495032 -0.000001 0.858177 -0.000009
1.506444 0.893981 0.263327 -0.020629 -0.007540 -0.007719
1.720459 1.087294 1.030001 -0.020633 -0.015594 0.013562
1.781605 1.142526 1.082387 -0.020630 -0.011438 0.010904
1.338290 0.742092 0.407388 -0.020631 -0.016172 -0.013876
1.292430 0.472275 0.446677 -0.043523 -0.016182 0.014912
1.679658 0.471948 0.521490 0.000000 -0.958737 -0.000001
1.837263 1.137728 1.079544 -0.020630 -0.022867 0.016703
2.049572 0.687890 0.492123 0.000000 0.835769 -0.000001
1.903973 0.421375 0.395650 0.043549 0.004426 -0.004642
1.633418 0.674798 0.474762 -0.000001 0.737634 -0.000014
1.634463 0.942637 0.888192 -0.043522 0.005983 -0.005827
0.246239 0.692996 0.608751 0.000000 0.893059 0.000032
0.431197 0.537884 0.446007 -0.000000 -0.408572 -0.000018
2.928119 0.699907 0.517962 0.000001 0.951056 -0.000002
2.327008 0.650778 0.655509 -0.000000 0.548365 0.000012
1.032308 0.527472 0.451272 -0.000001 -0.466392 -0.000004
2.049572 0.469637 0.579267 0.000000 -0.981329 0.000000
1.481632 0.467949 0.672567 -0.020627 0.010111 0.009897
1.078547 0.617559 0.439787 0.000001 0.258307 -0.000029
0.431197 0.626751 0.442666 0.000000 0.345561 -0.000085
3.222075 0.555151 0.521150 1.000000 -0.000000 0.000000
1.743567 0.815979 0.781728 -0.020630 -0.015076 0.013269
3.066837 0.626352 0.442521 0.000000 0.324118 -0.000011
1.791876 0.312356 0.315034 0.091681 -0.003625 0.003819
0.754872 0.697786 0.512005 -0.000001 0.909757 -0.000002
0.338718 0.537187 0.446319 0.000000 -0.408822 -0.000140
1.604008 0.855429 0.308608 -0.043521 0.003772 0.003694
0.477436 0.542066 0.665743 0.000001 -0.365782 0.000020
3.074229 0.717665 0.446647 -0.000000 -0.688163 -0.000943
1.725897 0.546550 0.442535 0.000001 -0.309635 -0.000006
0.384957 0.688429 0.492987 0.000000 0.848510 -0.000001
1.540940 0.542184 0.665789 -0.000000 -0.366835 0.000020
3.113076 0.697085 0.510228 0.000002 0.925635 -0.000006
1.679658 0.622568 0.441258 -0.000000 0.302510 -0.000198
1.679658 0.705678 0.560420 0.000000 0.999740 0.000000
1.683164 0.685101 0.450018 -0.020631 -0.010398 -0.010122
2.188290 0.474295 0.595667 -0.000001 -0.896748 0.000001
1.880291 0.075898 1.043424 0.043547 0.013428 0.013530
1.902394 1.031117 0.970709 0.091681 0.002175 -0.002292
0.662393 0.474853 0.512797 0.000000 -0.938384 -0.000006
1.741354 0.702307 0.677375 0.043552 -0.005341 0.005589
2.327008 0.696910 0.509795 0.000000 0.921721 -0.000003
0.246239 0.473357 0.592983 0.000000 -0.946001 0.000011
0.662393 0.472535 0.590438 0.000000 -0.953147 0.000001
2.934065 0.684729 0.664274 0.000000 0.688164 -0.000314
2.558204 0.563443 0.437910 -0.000000 -0.192174 -0.000040
0.569914 0.700804 0.589139 0.000000 0.959756 0.000002
1.587179 0.475967 0.509952 0.000000 -0.930281 -0.000003
0.092727 0.564777 0.639803 -0.471543 -0.000016 0.000058
2.846695 0.360635 0.340791 0.187654 -0.003326 0.005061
2.814131 0.786761 0.365021 0.187653 0.003326 0.005061
2.960666 0.901722 0.255985 0.187655 0.001574 0.002396
2.895540 0.850629 0.304445 0.187655 0.001574 0.002396
2.781568 0.411728 0.389251 0.187656 -0.001574 0.002396
1.908710 0.106719 0.105170 0.091681 -0.007539 0.007922
1.263504 0.508564 0.464608 -0.000000 -0.657360 -0.000009
1.309743 0.485412 0.491546 -0.000000 -0.848103 -0.000005
2.789401 0.653050 0.455959 0.000000 0.548933 -0.000006
1.882659 0.788261 0.737864 0.091680 0.002102 -0.002216
0.754872 0.634942 0.664023 -0.000000 0.408674 0.000035
3.113076 0.698925 0.594910 0.000000 0.945983 0.000001
0.754872 0.472894 0.518407 0.000000 -0.952932 -0.000005
1.355983 0.699895 0.592057 0.000001 0.950260 0.000005
0.325294 0.705693 0.550237 0.000000 0.999739 -0.000000
1.870818 0.342480 0.791149 0.043549 0.015258 0.015184
0.986068 0.501197 0.471516 0.000000 -0.707107 -0.000004
2.797323 0.474719 0.432905 0.000000 -0.688163 0.000503
2.906941 0.779190 0.356111 0.000000 0.688163 0.000629
3.096319 0.521950 0.477702 0.000000 -0.725555 -0.000284
1.772136 0.543408 0.666272 0.000000 -0.366801 0.000080
1.766615 0.381768 0.725903 0.091683 -0.004204 -0.004428
2.789401 0.472843 0.591409 0.000001 -0.950765 0.000002
2.857238 0.704971 0.683472 0.000000 0.688163 -0.000503
1.587179 0.645470 0.451272 -0.000000 0.490053 -0.000028
1.384150 0.783516 0.741879 -0.020631 -0.016172 0.013875
2.928119 0.668995 0.468805 -0.000000 0.690847 -0.000066
1.903973 0.755842 0.400157 0.091681 0.001124 0.001185
1.903973 0.399347 0.726660 0.091681 -0.002102 -0.002216
2.049572 0.523893 0.656587 -0.000001 -0.500106 0.000003
2.095811 0.476922 0.507682 -0.000000 -0.921666 -0.000007
2.928103 0.876175 0.829763 0.187653 0.001574 -0.002396
2.969474 0.853410 0.285716 -0.000000 0.688163 0.000849
1.338290 0.742092 0.702590 -0.020632 -0.016171 0.013875
2.373247 0.535263 0.447214 0.000000 -0.429492 -0.000066
1.850293 0.918613 0.875989 0.043549 -0.006410 0.006686
2.419487 0.644360 0.659330 -0.000000 0.489188 0.000014
1.899237 1.150873 0.016639 0.043548 -0.010987 -0.011233
1.124786 0.529774 0.449995 0.000000 -0.470370 -0.000007
1.818376 0.698633 0.595707 -0.000000 0.938042 0.000003
0.939829 0.467528 0.545492 -0.000000 -0.996820 -0.000003
2.327008 0.499495 0.473294 0.000000 -0.723029 -0.000015
3.020597 0.606202 0.672670 0.000000 0.169919 0.000364
1.124786 0.702079 0.584560 -0.000000 0.971561 0.000004
0.168077 0.678967 0.623486 -0.177719 0.000191 0.000135
1.818376 0.524871 0.452793 0.000000 -0.509803 -0.000053
0.292479 0.699352 0.516313 0.000000 0.946018 -0.000011
0.292479 0.469131 0.533293 0.000000 -0.981329 -0.000001
0.708632 0.694046 0.606619 0.000001 0.902884 0.000015
2.831868 0.761522 0.405050 0.187655 -0.002439 -0.001794
0.847350 0.637565 0.662819 -0.000001 0.429035 0.000033
0.801111 0.485053 0.617855 0.000000 -0.848314 0.000002
2.604444 0.598167 0.436240 0.000000 0.102247 -0.000153
3.029617 0.414794 0.701728 -0.000000 0.688164 0.000660
2.980489 0.748828 0.384909 0.000000 0.688163 0.000660
1.448461 0.536451 0.446649 0.000000 -0.429433 -0.000033
1.355983 0.640272 0.448484 0.000000 0.449201 -0.000016
2.650683 0.559996 0.438638 -0.000000 -0.214569 -0.000071
2.373247 0.703132 0.529923 -0.000001 0.973954 -0.000003
2.604444 0.527546 0.658748 -0.000000 -0.490053 0.000028
0.662393 0.630877 0.444235 0.000000 0.367390 -0.000005
2.874582 0.418168 0.411450 -0.000000 0.688164 -0.000503
0.939829 0.691784 0.498891 0.000000 0.882469 -0.000002
0.384957 0.637412 0.662892 -0.000000 0.429344 0.000033
0.477436 0.692652 0.609434 -0.000000 0.892939 0.000008
1.541150 0.721478 0.440964 -0.043520 0.006070 0.005910
2.604444 0.509598 0.463727 0.000001 -0.636997 -0.000009
2.095811 0.476099 0.600339 -0.000001 -0.921228 0.000007
2.974358 0.647159 0.452252 -0.000000 0.509726 -0.000026
2.511965 0.494340 0.479159 0.000000 -0.767537 -0.000003
3.020597 0.543329 0.443737 0.000000 -0.366859 -0.000159
0.569914 0.687710 0.491835 0.000000 0.848570 -0.000005
1.704730 0.359918 0.332049 -0.020632 0.015075 -0.013269
2.511965 0.697941 0.597578 0.000000 0.930401 0.000002
1.714085 0.911175 0.258739 -0.043520 0.003252 0.003188
2.935072 0.826421 0.798663 0.000000 0.688163 -0.000566
2.003333 0.694101 0.606504 0.000000 0.902980 0.000007
2.974358 0.551184 0.668977 0.000001 -0.300611 0.000025
1.795166 0.932958 0.219482 -0.020630 -0.010919 -0.010519
0.893590 0.470311 0.582292 -0.000000 -0.971194 0.000004
1.638589 0.462665 0.681811 -0.020631 0.025057 0.017369
2.280769 0.518670 0.653176 0.000000 -0.567120 0.000023
1.171025 0.627986 0.666857 -0.000001 0.340672 0.000022
1.448461 0.480329 0.609509 0.000000 -0.893044 0.000016
3.113076 0.626472 0.667414 0.000000 0.345584 0.000341
1.263504 0.658266 0.650296 0.000000 0.604062 0.000010
0.384957 0.478277 0.605316 0.000000 -0.903101 0.000002
2.558204 0.699682 0.517276 0.000000 0.945909 -0.000003
1.812179 1.170142 0.001398 -0.020630 -0.018713 -0.015111
1.540940 0.467796 0.542575 0.000000 -0.994589 -0.000002
2.511965 0.620866 0.669250 0.000000 0.280761 0.000027
2.959636 0.839116 0.331456 0.000000 -0.688163 -0.000566
2.789401 0.474970 0.512479 -0.000000 -0.938381 -0.000006
1.757259 0.090267 1.023017 -0.043522 -0.006763 -0.006570
1.766319 0.044225 0.040687 -0.043522 -0.011444 0.010881
1.124786 0.471805 0.521979 0.000000 -0.943933 -0.000001
0.569914 0.543013 0.443861 0.000001 -0.365994 -0.000020
0.986068 0.562693 0.671921 0.000000 -0.192335 0.000040
1.448461 0.638638 0.662308 0.000000 0.429504 0.000033
2.743162 0.539791 0.664802 -0.000001 -0.387179 0.000037
2.743162 0.474794 0.597021 0.000000 -0.938376 0.000003
1.032308 0.696778 0.600496 -0.000001 0.919095 0.000003
0.939829 0.540808 0.665230 0.000001 -0.331696 0.000005
0.477436 0.543724 0.443581 -0.000001 -0.365994 -0.000020
0.801111 0.686596 0.619899 -0.000001 0.832842 0.000005
2.789401 0.518215 0.652863 -0.000000 -0.567366 0.000023
1.481288 0.722530 0.688646 -0.020630 -0.010110 0.009896
2.789401 0.696844 0.600339 0.000000 0.919986 0.000002
2.419487 0.485951 0.490682 0.000000 -0.848363 -0.000005
1.494700 0.490276 0.484385 0.000000 -0.810339 -0.000023
3.066837 0.483778 0.494229 -0.000000 -0.860232 -0.000019
1.587179 0.475780 0.599553 0.000000 -0.930281 0.000006
0.986068 0.674970 0.635027 0.000000 0.738668 0.000004
1.587179 0.626592 0.667370 -0.000002 0.318236 0.000012
2.968610 0.440983 0.400908 0.000000 -0.688164 0.000189
0.754872 0.470421 0.582745 -0.000000 -0.971557 0.000004
2.650683 0.476823 0.507917 -0.000001 -0.921201 -0.000007
1.469949 0.776078 0.728981 -0.043518 0.002529 -0.002482
0.754872 0.548116 0.441999 -0.000000 -0.324003 -0.000046
1.725897 0.693339 0.501909 0.000001 0.892437 -0.000016
2.881880 0.467460 0.563640 0.000001 -0.834025 0.000000
2.949223 0.461225 0.689872 0.000000 -0.688164 -0.000189
1.171025 0.702814 0.528472 0.000001 0.973596 -0.000002
0.939829 0.696976 0.600026 -0.000000 0.930401 0.000002
1.448461 0.693645 0.607462 -0.000000 0.903133 0.000007
1.587179 0.546032 0.667253 -0.000000 -0.345427 0.000043
3.113076 0.536490 0.663347 0.000000 -0.408612 0.000004
2.095811 0.547434 0.667745 -0.000000 -0.323973 0.000011
3.222075 0.500181 0.587519 0.391980 -0.000089 0.000032
3.222075 0.569938 0.645713 0.396924 -0.000018 0.000092
1.402222 0.483045 0.495472 0.000000 -0.871637 -0.000004
1.263504 0.555835 0.670311 -0.000000 -0.258870 0.000059
2.188290 0.697801 0.597934 0.000000 0.928720 0.000002
1.766998 0.292601 0.816585 -0.043522 -0.006503 -0.006323
1.864615 0.477437 0.603460 -0.000001 -0.877980 0.000002
1.587179 0.703014 0.529384 -0.000000 0.976040 -0.000001
1.608745 0.868443 0.814315 -0.043520 0.003512 -0.003441
0.477436 0.477506 0.506363 0.000001 -0.912393 -0.000014
2.789401 0.699682 0.517276 -0.000000 0.945660 -0.000005
2.696922 0.475873 0.510188 0.000001 -0.928119 -0.000003
2.650683 0.698134 0.512917 -0.000000 0.938373 -0.000006
0.939829 0.632761 0.664967 -0.000000 0.387890 0.000075
2.188290 0.632096 0.665247 0.000001 0.374120 0.000010
2.928119 0.471674 0.522427 0.000001 -0.956581 -0.000002
1.124786 0.679671 0.480479 0.000000 0.782920 -0.000012
0.065603 0.626947 0.497648 -0.577775 0.000022 -0.000029
0.801111 0.504439 0.468335 0.000000 -0.686716 -0.000004
0.065603 0.545996 0.497648 -0.577776 -0.000023 -0.000031
1.611045 0.586641 0.435663 0.000000 0.022825 -0.000022
3.020597 0.699503 0.593224 0.000000 0.945965 0.000011
0.893590 0.668473 0.641672 0.000000 0.690814 0.000033
1.582288 0.879880 0.274140 -0.020633 -0.007019 -0.007243
2.003333 0.626672 0.442637 0.000000 0.345575 -0.000011
3.159315 0.699792 0.592380 0.399693 0.000101 0.000035
2.650683 0.476214 0.600613 0.000000 -0.921453 0.000007
3.222075 0.586471 0.554989 1.000000 0.000000 0.000000
1.217265 0.705693 0.550237 0.000000 0.999740 -0.000000
1.696304 0.289477 0.285822 -0.043522 -0.006503 0.006323
1.494700 0.703914 0.576100 0.000000 0.983940 0.000001
0.384957 0.699021 0.594629 0.000000 0.945611 0.000003
1.032308 0.646575 0.451906 0.000000 0.509867 -0.000053
2.789401 0.537691 0.446093 0.000000 -0.408890 -0.000018
1.309743 0.468942 0.534380 0.000000 -0.985461 -0.000005
0.292479 0.488212 0.622686 0.000000 -0.823473 0.000022
1.494700 0.468478 0.572749 0.000000 -0.989063 0.000002
1.877133 0.300004 0.292501 0.091681 -0.007249 0.007619
3.158563 0.472145 0.647332 0.000000 0.688164 0.000629
3.092294 0.320333 0.318657 0.000001 0.688163 -0.000566
3.107020 0.370137 0.776265 0.000003 -0.688150 -0.000425
3.114383 0.785937 0.349712 -0.243673 0.001393 0.001725
3.158563 0.700797 0.462646 -0.243671 -0.001649 -0.001482
2.749005 0.735668 0.413482 0.187656 0.001574 0.002396
0.144618 0.545210 0.656229 -0.269021 -0.000057 0.000132
0.569914 0.474149 0.514709 0.000000 -0.936971 -0.000001
1.510635 0.850343 0.303246 -0.020631 -0.008059 -0.008182
0.477436 0.473729 0.594067 0.000000 -0.946003 0.000011
0.246239 0.683761 0.485899 0.000000 0.810357 -0.000011
2.142051 0.671385 0.638822 0.000001 0.705918 0.000016
1.949759 0.957103 0.906520 0.043549 -0.005189 0.005432
1.949759 1.010363 0.957035 0.043549 -0.009156 0.009447
1.847135 0.262597 0.849150 0.091681 -0.003335 -0.003514
2.881880 0.539634 0.445242 -0.000000 -0.387873 -0.000037
2.188290 0.486440 0.489937 0.000000 -0.836167 -0.000021
1.796627 1.000057 0.157880 -0.020628 -0.004940 -0.005237
1.864502 0.802726 0.360698 0.091681 0.004204 0.004428
1.624042 0.720151 0.662513 -0.043521 0.015272 -0.014168
1.864502 0.360423 0.335468 0.043549 0.008241 -0.008537
2.899951 0.474719 0.677073 0.000000 -0.688163 -0.000503
2.814380 0.465398 0.653732 0.000000 0.688164 0.000755
3.078745 0.751402 0.695328 0.000002 -0.688162 0.000660
3.121747 0.403874 0.365710 0.000000 -0.688164 0.000472
3.043107 0.700797 0.647332 0.000000 -0.688163 0.000660
3.151200 0.471346 0.429705 0.000000 -0.688164 0.000314
1.608376 0.909564 0.246176 -0.020633 -0.006499 -0.006756
2.881880 0.705586 0.547947 -0.000001 0.997471 -0.000001
0.523675 0.509826 0.463537 -0.000001 -0.639805 -0.000038
1.567431 0.467363 0.651208 -0.043526 -0.003540 -0.003469
