1.926214 0.903427 0.354350 -0.054428 0.005152 0.004174
2.161748 0.804406 0.897683 0.076858 0.001614 -0.001417
2.840617 0.715873 0.581482 -0.000000 -0.751576 -0.000270
1.907045 0.511501 0.809711 -0.038556 0.012742 0.011197
2.237695 1.181450 1.336149 -0.054427 0.006869 -0.005547
2.224504 0.737378 0.828649 0.076858 0.006012 -0.005261
0.070753 0.591434 0.748514 -0.498337 -0.000011 0.000042
2.100990 0.432531 0.473959 0.054466 0.002443 -0.002142
2.234497 0.980714 1.107063 0.076857 0.009170 -0.007992
0.244854 0.525320 0.630365 -0.000001 -0.794929 -0.000003
2.798174 0.707143 0.784357 0.000000 -0.751575 0.000405
0.941195 0.604043 0.589426 -0.000000 -0.024847 -0.000018
1.680183 0.509252 0.665938 0.000000 -0.956577 -0.000000
1.948301 0.371501 0.435372 -0.054429 -0.011551 0.009197
1.825191 0.335740 0.380801 -0.054427 -0.002732 0.002221
2.160948 0.203631 0.247471 0.076858 -0.004211 0.003691
0.469124 0.673711 0.758721 0.000000 0.688774 0.000002
0.702954 0.506792 0.686665 0.000068 -0.062648 -0.000003
1.979819 0.492762 0.541691 -0.038556 0.006371 -0.005818
1.983836 0.760460 0.495342 -0.038557 -0.008443 -0.007632
1.761250 0.713027 0.801733 -0.054430 0.007025 -0.005670
1.904294 0.835195 0.436296 -0.054426 0.002888 0.002347
2.011764 1.002834 0.239596 -0.054428 0.003903 0.003168
1.321351 0.509675 0.711601 0.000000 -0.972076 0.000001
0.647070 0.602816 0.589457 0.000066 -0.001209 -0.001770
1.366205 0.534442 0.619452 -0.000000 -0.722789 -0.000007
2.949934 0.671235 0.612735 0.000001 0.659646 -0.000685
1.097081 0.556290 0.602442 0.000001 -0.488685 -0.000025
3.070058 0.354997 0.953439 0.000000 0.751576 0.000450
2.622118 0.645148 0.597836 -0.000001 0.399737 -0.000063
2.936096 0.534257 0.619647 0.000000 -0.724481 -0.000052
2.261678 0.312122 0.359309 0.076858 -0.002667 0.002339
0.783103 0.528991 0.625590 0.000001 -0.770590 -0.000011
0.603686 0.537330 0.616589 -0.000001 -0.689130 -0.000029
1.097081 0.657800 0.771204 -0.000001 0.530595 0.000022
0.383828 0.603352 0.786366 0.000000 -0.012431 0.000009
2.930436 0.772614 0.858952 0.000000 -0.751576 0.000118
3.158075 0.565627 0.711697 1.000000 0.000000 0.000000
3.006707 0.487920 0.534582 0.000000 -0.751575 0.000360
0.244854 0.534760 0.756667 0.000000 -0.724520 0.000105
2.308045 0.161265 0.182010 0.054464 0.004490 -0.003928
3.132781 0.780254 0.498326 -0.277563 -0.001490 -0.001297
1.455913 0.522955 0.741971 -0.000000 -0.832828 0.000005
3.068727 0.722621 0.841203 0.000000 0.751575 -0.000720
3.041280 0.823010 0.420203 0.000000 0.751575 0.000225
2.849622 0.483555 0.529609 0.000000 -0.751576 0.000338
1.791468 0.545459 0.766451 -0.038555 0.009381 0.008436
1.234584 0.703660 0.683597 0.000000 0.999681 -0.000000
3.025805 0.673628 0.758800 -0.000001 0.689080 0.000029
1.321351 0.650274 0.600279 -0.000001 0.463216 -0.000013
1.545621 0.675887 0.619230 0.000000 0.722789 -0.000007
2.711826 0.536718 0.758615 0.000000 -0.689200 0.000014
2.210514 1.038695 1.170322 0.076856 0.003837 -0.003363
2.111692 1.072224 0.162965 -0.054427 0.011864 0.009435
2.248087 0.505237 0.580926 0.076852 -0.001404 0.001232
2.877813 0.785708 0.501915 0.157617 -0.003006 -0.001591
2.233697 0.327390 0.995810 0.076857 -0.002901 -0.002544
2.711826 0.536496 0.617382 0.000000 -0.707107 -0.000014
1.904454 0.560541 0.600141 0.000001 -0.420729 -0.000004
2.278466 0.413117 0.472417 0.076858 -0.001614 0.001417
2.622118 0.517313 0.643576 0.000001 -0.895044 -0.000014
0.383828 0.506877 0.692035 0.000000 -0.999691 0.000000
2.142161 0.778122 0.510338 0.076859 0.006012 0.005261
1.186789 0.507102 0.679920 0.000000 -0.996178 -0.000001
2.124921 0.131543 1.232663 -0.038555 0.015424 0.013255
2.068428 0.603583 0.589438 0.000000 -0.024856 -0.000277
1.791468 0.545459 0.609334 -0.038555 0.009381 -0.008436
0.872811 0.698827 0.657107 -0.000001 0.951359 -0.000009
2.266474 1.128291 0.088546 0.054464 -0.006867 -0.005980
2.284062 0.687426 0.778695 0.076858 0.002807 -0.002462
3.065437 0.514108 0.811365 -0.000001 -0.751573 -0.000270
1.455913 0.562534 0.599150 0.000000 -0.445038 -0.000014
1.946960 0.329396 1.008758 -0.038555 0.006880 0.006268
3.108821 0.374437 0.405284 0.000000 -0.751574 0.000450
2.000043 0.403047 0.897185 -0.054428 -0.006011 -0.004862
1.791468 0.665082 0.609334 0.000001 -0.659640 0.000206
1.653215 0.501943 0.570165 -0.054428 -0.007025 0.005671
1.007373 0.639102 0.595390 -0.000000 0.353162 -0.000018
1.366205 0.698207 0.720494 -0.000001 0.941648 0.000005
0.636775 0.703695 0.690808 0.000000 0.999691 0.000000
2.250486 1.210541 0.004998 -0.054428 0.013112 0.010376
3.080159 0.731351 0.524636 0.000003 0.751558 0.000360
2.227702 0.461994 0.518005 0.054466 0.007477 -0.006502
3.108038 0.871022 0.365500 -0.277561 0.000740 0.000655
2.899010 0.389041 0.441529 0.157617 -0.001993 0.002809
2.907419 0.506797 0.689811 0.000000 -0.999923 0.000000
2.003390 0.338127 0.399121 -0.054428 -0.002693 0.002189
2.143360 0.388241 0.427000 0.054467 0.004292 -0.003755
1.808070 0.763364 0.502189 -0.038557 -0.007036 -0.006405
2.150010 0.049008 1.319247 -0.054431 -0.008117 -0.006534
3.155538 0.451902 0.513151 -0.277561 -0.001479 0.001309
2.159349 0.890748 0.995778 0.076857 0.001334 -0.001170
3.156263 0.726317 0.825809 -0.277564 0.001479 -0.001309
2.277667 0.157311 1.194730 0.076855 -0.003463 -0.003036
2.268073 0.269945 1.073254 0.054466 0.006603 0.005753
2.061528 0.855414 0.425030 -0.054429 0.010771 0.008600
1.186789 0.617670 0.590181 0.000000 0.136678 -0.000050
2.280065 0.816853 0.450093 0.076857 0.006551 0.005729
0.738249 0.656102 0.603533 0.000000 0.510332 -0.000012
2.846388 0.531548 0.753209 0.000000 -0.741903 0.000002
2.167344 1.021454 0.230151 -0.054427 0.014049 0.011072
2.083870 0.690834 0.639113 -0.000000 0.872143 -0.000008
0.121514 0.686867 0.662724 -0.300120 0.000104 -0.000029
2.168943 0.912566 0.354028 0.076860 0.001333 0.001170
2.552999 0.703693 0.684901 0.000000 0.999691 -0.000000
2.936096 0.591426 0.785405 -0.000000 -0.136697 0.000399
0.494125 0.606805 0.589415 0.000000 0.012431 -0.000036
1.914216 0.836004 0.958120 -0.038551 -0.003857 0.003552
2.272870 0.051278 0.053788 0.054465 0.011620 -0.009975
2.019707 0.326568 1.015946 -0.038558 0.006775 0.006175
2.308045 0.224437 0.253986 0.054467 0.005546 -0.004843
2.308045 0.066507 1.301739 0.054468 0.011619 0.009974
2.308045 1.033483 0.200004 0.054464 -0.010036 -0.008663
0.693394 0.632463 0.782556 0.000001 0.282212 0.000047
0.099149 0.563605 0.623382 -0.387346 -0.000041 -0.000060
2.442702 0.665410 0.765890 0.000001 0.612745 0.000018
2.227302 0.381510 0.426272 0.054466 0.004292 -0.003755
1.590475 0.530518 0.623766 0.000001 -0.757529 -0.000012
0.962519 0.550584 0.769805 0.000001 -0.552162 0.000021
2.020778 0.488463 0.841067 -0.038557 0.006371 0.005817
2.133767 0.401663 0.899509 0.076858 -0.003229 -0.002831
1.904454 0.644163 0.597406 0.000000 0.399621 -0.000032
2.218432 0.518881 0.735200 0.000000 -0.872466 0.000002
2.891243 0.687926 0.741460 0.000000 0.828539 0.000002
1.967690 0.506781 0.688200 0.000000 -0.999691 0.000000
2.162547 0.326915 1.017072 0.054466 0.001882 0.001651
2.040633 0.791734 0.458322 -0.038557 -0.003805 -0.003504
2.976715 0.856856 0.401245 0.157614 0.001993 0.002809
0.050762 0.652731 0.675808 -0.576647 0.000029 -0.000007
1.917523 0.362561 0.954056 -0.054425 -0.002888 -0.002347
1.029432 0.506789 0.687279 0.000000 -0.999691 -0.000000
2.129455 1.168851 0.045771 -0.038557 -0.010840 -0.009657
1.917793 0.246246 1.096951 -0.054427 -0.009054 -0.007269
2.647589 0.680955 0.754519 0.000000 0.659645 0.000685
0.962519 0.518481 0.641329 0.000001 -0.883898 -0.000015
2.240892 0.737901 0.531226 0.054465 -0.007477 -0.006502
2.021228 0.754986 0.876652 -0.038555 -0.008443 0.007633
2.026642 0.536918 0.586745 0.054466 0.007483 -0.006507
1.776295 0.441806 0.868883 -0.054428 -0.002195 -0.001785
2.532410 0.638234 0.780703 -0.000000 0.330281 0.000039
2.111383 0.706928 0.555806 0.054465 -0.007478 -0.006502
0.358827 0.600974 0.589503 -0.000000 -0.024856 -0.000018
2.846388 0.580076 0.592680 0.000000 -0.258775 -0.000206
2.028190 0.187649 1.159416 -0.054431 -0.003591 -0.002916
2.820257 0.740080 0.861095 -0.000001 0.751576 -0.000675
1.790236 0.496041 0.556004 -0.038559 0.002931 -0.002705
2.180135 0.172650 0.184406 0.054466 0.010827 -0.009321
0.136825 0.629632 0.774480 -0.240479 0.000036 0.000143
1.904454 0.513958 0.650984 -0.000001 -0.925410 -0.000006
2.514763 0.608032 0.589465 0.000000 0.024856 -0.000073
1.859600 0.703046 0.699759 0.000000 0.993707 0.000003
1.725037 0.687671 0.633942 0.000000 0.833213 -0.000018
2.166544 0.967322 1.083864 0.076855 0.004960 -0.004344
2.308045 0.828174 0.941860 0.054468 -0.002179 0.001911
3.088142 0.575205 0.595361 0.074398 -0.000204 -0.000540
2.069812 0.743708 0.817784 0.076858 0.002651 -0.002326
2.352994 0.688990 0.739772 -0.000001 0.835598 0.000002
2.039016 0.544404 0.765325 0.000000 -0.612571 0.000009
1.321351 0.578593 0.593077 0.000000 -0.282802 -0.000093
1.891335 0.938725 0.307968 -0.038555 -0.012924 -0.011341
2.145759 0.310494 0.338616 0.054467 0.001915 -0.001680
1.590475 0.685442 0.745107 0.000000 0.819168 0.000010
1.590475 0.632168 0.593142 -0.000002 0.280704 -0.000047
1.657389 0.605424 0.786386 0.000000 0.024856 0.000009
1.957147 0.714937 0.787163 -0.054429 0.004771 -0.003868
0.424270 0.683032 0.627450 0.000000 0.789582 -0.000005
2.894532 0.435744 0.514347 0.000000 0.751575 -0.000236
2.135366 0.278895 1.074031 0.054466 0.006999 0.006093
3.105625 0.557225 0.771110 0.068544 -0.001380 0.002124
0.930900 0.703708 0.690271 -0.000000 0.999691 0.000000
1.639986 0.695813 0.791054 -0.038556 -0.009381 0.008436
2.880162 0.661515 0.604204 0.000001 0.659646 -0.000685
1.528709 0.603889 0.786355 0.000000 -0.024856 0.000277
2.229700 1.098123 0.135511 0.076860 0.006176 0.005403
0.388240 0.703664 0.692035 0.000000 0.999681 0.000000
3.155538 0.451902 0.862635 -0.277563 -0.001479 -0.001309
0.729425 0.703691 0.684824 0.000000 0.999691 -0.000000
0.579421 0.601895 0.786306 0.000000 -0.024856 0.000018
1.411059 0.698372 0.655762 0.000001 0.916593 -0.000001
1.879615 0.743385 0.546973 -0.054429 0.019080 0.014657
2.116179 0.480384 0.529737 0.054466 0.014952 -0.012657
3.105625 0.693054 0.726977 0.068546 0.002286 0.001164
2.084131 0.898169 1.001337 -0.054425 0.002420 -0.001968
2.756680 0.584253 0.591672 -0.000001 -0.209540 -0.000064
2.487556 0.697865 0.654313 0.000000 0.941758 -0.000001
0.244854 0.677474 0.620898 0.000000 0.723990 -0.000002
2.039016 0.662044 0.768372 -0.000000 0.573635 0.000020
2.820844 0.477209 0.814195 0.000000 0.751576 0.000270
0.160248 0.696040 0.715891 -0.149374 0.000244 0.000069
3.154452 0.807122 0.917874 -0.277560 0.001598 -0.001415
3.029573 0.470461 0.861095 -0.000001 -0.751575 -0.000360
0.200000 0.605270 0.786390 -0.018292 0.000007 0.000536
2.226502 0.135654 0.146087 0.054466 0.004490 -0.003927
1.852488 0.515198 0.772126 -0.054429 -0.002195 -0.001785
2.128724 0.508505 0.669545 0.000001 -0.976428 -0.000001
1.749578 0.732140 0.539252 -0.038559 -0.009380 -0.008435
2.962699 0.426813 0.910825 -0.000000 -0.751575 -0.000540
3.052047 0.794438 0.883817 0.000000 -0.751575 0.000225
2.308045 0.780795 0.887878 0.054468 -0.009771 0.008441
1.913809 0.494139 0.546929 -0.038555 0.025472 -0.019676
0.144580 0.516240 0.665223 -0.210305 -0.000166 -0.000038
2.767710 0.506858 0.691268 0.000000 -0.999691 0.000000
1.384588 0.605807 0.786376 0.000000 0.024856 0.000036
0.648540 0.524328 0.744007 0.000000 -0.818898 0.000010
1.965681 0.260606 0.300615 -0.054429 -0.004527 0.003672
0.448536 0.603659 0.786370 0.000000 -0.012414 0.000073
2.244090 0.014545 1.353468 0.076856 -0.007861 -0.006864
2.352994 0.693740 0.644607 0.000000 0.895512 -0.000014
2.801534 0.523761 0.632599 0.000000 -0.828539 -0.000002
2.801534 0.577931 0.782513 -0.000000 -0.282687 0.000047
2.006052 0.956247 0.282517 -0.038555 -0.002971 -0.002741
2.352994 0.506896 0.682983 0.000000 -0.999681 -0.000000
1.789745 0.605731 0.786378 0.000000 0.024856 0.000005
2.980951 0.698258 0.720349 0.000001 0.943535 0.000010
0.447065 0.506792 0.686358 -0.000000 -0.999923 -0.000000
0.767661 0.608185 0.786317 0.000000 0.024856 0.000036
2.224104 0.396995 0.932135 0.054465 0.004622 0.004042
2.248087 0.949428 0.290816 0.054466 -0.006603 -0.005753
1.186789 0.638958 0.780450 -0.000000 0.353718 0.000036
1.500767 0.698827 0.657107 0.000000 0.951782 -0.000002
1.276497 0.553131 0.771449 0.000001 -0.525124 0.000006
1.817990 0.383475 0.936954 -0.054429 -0.012176 -0.009671
1.759046 0.810877 0.453633 -0.038558 -0.011725 -0.010382
1.904454 0.630984 0.782967 0.000000 0.258679 0.000051
3.070659 0.508726 0.668376 0.069597 -0.000606 -0.000115
1.740628 0.666557 0.765157 0.000001 -0.659634 -0.000137
0.044382 0.587105 0.647634 -0.601682 -0.000010 -0.000021
0.144580 0.607561 0.596050 -0.217925 0.000001 -0.000041
1.069139 0.603889 0.786355 0.000000 -0.025244 0.000018
1.186789 0.552546 0.771082 0.000000 -0.531689 0.000022
2.155752 0.512322 0.806387 0.054464 0.007478 0.006502
3.157712 0.661674 0.752156 -0.277563 0.001465 -0.001297
0.962519 0.668286 0.763589 -0.000002 0.626981 0.000017
0.872811 0.587186 0.591078 -0.000000 -0.185881 -0.000073
2.004453 0.952453 1.089078 -0.038559 -0.002971 0.002741
2.754474 0.703687 0.684671 0.000000 0.999691 -0.000000
2.980951 0.570362 0.595797 -0.000000 -0.353713 -0.000073
3.088142 0.615440 0.784654 0.068546 0.000138 0.002626
1.827134 0.762811 0.874082 -0.038556 -0.012742 0.011197
0.334562 0.656531 0.603787 -0.000001 0.493403 -0.000006
0.558832 0.513365 0.652482 0.000001 -0.928199 -0.000003
0.905900 0.506835 0.685438 0.000000 -0.999691 -0.000000
0.710307 0.602355 0.589468 -0.000000 -0.024856 -0.000036
2.247288 1.057183 0.180102 0.076858 0.006925 0.006053
1.780921 0.605424 0.589400 0.000000 0.024856 -0.000018
0.334562 0.640466 0.779880 0.000000 0.353723 0.000146
2.102998 1.143282 1.300882 -0.038555 -0.012507 0.011011
1.680183 0.703158 0.677018 0.000001 0.992290 -0.000002
1.500767 0.507810 0.702117 0.000000 -0.990614 0.000002
2.957628 0.503196 0.823798 0.000000 -0.751577 -0.000118
2.272071 0.525979 0.781209 0.054467 0.003962 0.003468
3.109603 0.801186 0.445068 -0.277560 0.001598 0.001415
0.842663 0.506823 0.685898 -0.000000 -0.999691 -0.000000
2.936096 0.522933 0.741939 0.000000 -0.833155 0.000037
2.050226 0.814501 0.942610 -0.038556 -0.007609 0.006909
2.168143 0.818951 0.460783 0.076858 0.001638 0.001437
2.410348 0.607879 0.786325 -0.000000 0.024856 0.000005
2.048667 0.877097 0.365624 -0.038557 -0.006775 -0.006175
2.724330 0.696433 0.811365 0.000001 0.751576 -0.000540
2.084280 0.955817 1.072157 -0.054429 0.002108 -0.001714
2.144545 1.106960 0.111792 -0.038555 -0.013757 -0.011992
2.942221 0.702980 0.818825 -0.000000 0.751575 -0.000236
3.018140 0.731351 0.524636 0.000000 0.751576 0.000720
3.158075 0.578477 0.650205 1.000000 -0.000000 0.000000
2.397848 0.522530 0.634454 0.000000 -0.846686 -0.000002
1.052227 0.525707 0.629840 0.000001 -0.683549 -0.000001
1.052227 0.595463 0.589885 0.000000 -0.112030 -0.000244
3.025805 0.688317 0.634941 -0.000001 0.846141 -0.000017
2.216110 0.219330 1.116875 0.076857 -0.004305 -0.003772
2.020778 0.722078 0.534719 -0.038556 -0.006371 -0.005817
0.136825 0.524229 0.726920 -0.240488 -0.000135 0.000061
0.258825 0.703653 0.683290 0.000000 0.999691 -0.000000
3.081021 0.411738 0.888790 0.000000 0.751575 0.000338
2.263286 0.687544 0.633750 -0.000000 0.832060 -0.000005
1.994162 0.673600 0.616959 0.000000 0.689216 -0.000029
2.173578 0.527038 0.628056 0.000000 -0.789436 -0.000001
1.913809 0.716402 0.828857 -0.038555 -0.025472 0.019676
2.704825 0.490469 0.566896 0.157617 0.003006 -0.001591
2.308045 0.508711 0.577877 0.054466 0.007923 -0.006882
2.125773 0.525396 0.581815 0.054464 0.005612 -0.004900
1.895523 0.459362 0.837015 -0.054430 -0.009542 -0.007649
2.212912 0.457575 0.845054 0.076858 -0.006012 -0.005261
0.783103 0.700920 0.711377 -0.000000 0.969559 0.000002
1.276497 0.681112 0.625055 0.000000 0.772637 -0.000006
2.044128 0.287222 1.059850 -0.038556 0.006046 0.005527
3.088695 0.514108 0.564420 0.000000 -0.751576 0.000540
2.970568 0.499033 0.586455 0.000000 0.751575 -0.000236
0.513978 0.695834 0.726610 -0.000001 0.902499 0.000002
2.308045 0.429746 0.887878 0.054467 0.009771 0.008442
1.141935 0.699793 0.660222 -0.000000 0.957780 -0.000001
2.870844 0.731351 0.524636 -0.000001 0.751576 0.000810
2.245689 1.136213 1.297984 0.054467 -0.006866 0.005979
1.943987 0.549883 0.770335 -0.038555 0.010944 0.009744
3.003105 0.816261 0.467104 0.000001 -0.751569 -0.000338
2.859272 0.420195 0.888957 0.157614 0.003006 0.001591
2.217709 0.766782 0.879383 0.054466 -0.004820 0.004214
2.229461 0.703702 0.690501 0.000000 0.999681 0.000000
3.050873 0.363726 0.432293 0.000001 0.751574 -0.000225
2.127630 0.970278 0.260448 -0.038555 -0.002554 -0.002358
3.069667 0.853563 0.990393 0.000000 0.751578 -0.000450
2.210744 1.168688 0.041329 -0.038553 -0.005212 -0.004780
1.680183 0.552838 0.771266 -0.000000 -0.532005 0.000088
2.159949 0.681281 0.786743 0.054467 -0.007477 0.006502
2.801534 0.688378 0.635038 0.000001 0.845216 -0.000009
1.276497 0.696727 0.724446 -0.000001 0.925665 0.000011
2.675061 0.703679 0.684364 0.000000 0.999691 -0.000000
0.160248 0.671595 0.619893 -0.149379 0.000179 -0.000175
2.053940 0.273241 0.300270 -0.038556 0.005941 -0.005434
3.001852 0.444272 0.484852 0.000001 -0.751571 0.000360
2.010958 0.240897 1.095479 -0.054429 -0.002108 -0.001714
0.603686 0.646755 0.598566 0.000000 0.422592 -0.000118
2.959801 0.451021 0.531752 -0.000004 0.751354 -0.000135
2.030927 0.703741 0.686819 0.000000 0.999691 -0.000000
1.366205 0.679722 0.623417 0.000000 0.757939 -0.000012
2.955922 0.376219 0.939062 0.157617 0.003006 0.001591
1.612535 0.703760 0.688200 0.000000 0.999682 0.000000
1.761250 0.505077 0.808371 -0.038560 0.004690 0.004309
1.955869 0.931366 0.312254 -0.038556 -0.006358 -0.005806
2.316228 0.603889 0.589430 0.000000 -0.025244 -0.000018
1.936026 0.298352 0.334104 -0.038554 0.006463 -0.005899
3.130158 0.887554 1.019319 -0.277563 0.001479 -0.001309
2.992925 0.838085 0.933547 0.157617 -0.003006 0.001591
1.754701 0.427388 0.487322 -0.054428 -0.001756 0.001429
1.753715 0.506812 0.686359 -0.000000 -0.999691 -0.000000
1.965959 0.813238 0.468599 -0.054431 0.006010 0.004862
2.176137 0.848977 0.950148 0.076859 0.003041 -0.002667
0.244854 0.571619 0.595323 0.000001 -0.298873 -0.000005
1.978214 0.925453 1.044008 -0.054425 0.002420 -0.001968
2.732474 0.678974 0.584312 0.000001 0.751576 0.000540
2.982197 0.692068 0.569393 0.000000 0.751575 0.000236
1.896558 0.865049 0.387284 -0.038555 -0.003648 -0.003361
1.719360 0.438019 0.878453 -0.054426 -0.002635 -0.002142
3.108038 0.320079 0.382563 0.000001 0.751575 -0.000450
2.250486 0.000000 0.004998 0.076856 -0.007861 0.006864
2.072830 0.333749 0.976046 -0.054428 -0.005074 -0.004112
2.475056 0.506838 0.685284 -0.000000 -0.999691 -0.000000
1.969407 0.659920 0.770982 -0.000000 -0.659647 -0.000960
2.115793 1.045866 1.180081 -0.054427 0.003279 -0.002663
1.725037 0.574850 0.594219 -0.000001 -0.305869 -0.000021
3.123108 0.512455 0.707621 0.068548 -0.002502 0.000396
1.091934 0.703723 0.689657 0.000000 0.999691 0.000000
1.455913 0.619190 0.590391 -0.000000 0.136687 -0.000050
2.913717 0.446455 0.888447 -0.000001 -0.751571 -0.000236
2.218432 0.559826 0.775274 -0.000001 -0.464985 0.000013
2.063416 0.505579 0.554080 0.054466 0.003741 -0.003276
1.231643 0.654017 0.602310 -0.000001 0.488371 -0.000025
1.097081 0.555758 0.773037 0.000000 -0.510729 0.000046
1.927338 0.766766 0.522366 -0.054428 0.009542 0.007650
2.973740 0.400625 0.435122 0.000000 -0.751576 0.000338
2.149756 0.837477 0.410236 0.054466 -0.004358 -0.003813
1.859600 0.532603 0.621410 -0.000001 -0.740332 -0.000012
2.129770 0.352387 0.385025 0.054466 0.004028 -0.003525
1.680183 0.663724 0.608626 0.000000 0.593321 -0.000009
2.270639 0.506804 0.686665 0.000000 -0.999691 -0.000000
1.870472 0.458349 0.535362 -0.054429 -0.004771 0.003868
2.089798 0.751448 0.872489 0.054465 -0.009639 0.008331
1.974321 0.870475 0.377003 -0.038555 -0.003596 -0.003314
1.590475 0.572814 0.780881 -0.000001 -0.298873 0.000005
3.158075 0.685757 0.642341 0.067849 0.000538 -0.000295
1.635329 0.518768 0.734999 0.000000 -0.871949 0.000001
2.095324 0.923623 0.344139 -0.054426 0.002264 0.001841
2.215310 0.298430 0.330622 0.054466 0.007659 -0.006657
2.045430 0.407423 0.930037 -0.038556 0.015216 0.013100
2.128724 0.557863 0.774226 -0.000001 -0.485716 0.000012
2.153753 0.451426 0.499850 0.054466 0.002410 -0.002113
2.107102 0.220122 0.263083 -0.054429 -0.003903 0.003168
0.424270 0.569931 0.595960 0.000000 -0.353688 -0.000073
2.848761 0.678974 0.791473 0.000000 0.751576 -0.000270
2.873595 0.703746 0.686205 0.000000 0.999923 -0.000000
2.218432 0.627038 0.783953 0.000000 0.210337 0.000032
1.940484 0.602202 0.589472 0.000000 -0.025244 -0.000273
1.321351 0.584215 0.784106 0.000001 -0.205109 0.000016
1.957855 0.783710 0.904091 -0.038554 -0.008131 0.007363
2.724330 0.494668 0.794303 -0.000000 0.751576 0.000540
2.173578 0.507923 0.702876 -0.000001 -0.985776 0.000002
1.855796 0.698539 0.775767 -0.054420 0.002196 -0.001786
2.261678 0.898419 1.016476 0.076858 0.002667 -0.002339
0.827957 0.675781 0.619119 0.000000 0.707107 -0.000003
2.260079 0.092682 1.266311 0.076858 -0.005428 -0.004752
0.469124 0.519219 0.735803 0.000001 -0.871446 0.000008
2.128724 0.688010 0.741332 -0.000000 0.846741 0.000009
1.242673 0.506785 0.687432 0.000000 -0.999691 -0.000000
2.064216 0.451593 0.834493 0.076858 -0.001326 -0.001163
1.545621 0.555692 0.602788 -0.000001 -0.504395 -0.000012
2.801072 0.459750 0.541698 0.000000 0.751576 -0.000270
3.009996 0.748809 0.871041 0.000000 0.751576 -0.000720
3.111952 0.696433 0.564420 -0.277559 0.001598 0.001415
1.141935 0.520910 0.637061 -0.000000 -0.859695 -0.000008
1.754376 0.700503 0.588848 -0.054428 0.005269 0.004268
0.648540 0.517943 0.642347 0.000000 -0.883939 -0.000002
1.843042 0.440509 0.882788 -0.038556 0.025471 0.019676
0.603686 0.695051 0.647382 0.000000 0.916585 -0.000006
2.647589 0.549026 0.771581 -0.000001 -0.659646 0.000685
2.647589 0.549026 0.604204 0.000000 -0.659648 -0.000685
2.352994 0.579186 0.782867 0.000001 -0.254201 0.000013
2.150940 0.088403 1.280758 -0.038557 0.006879 0.006268
1.963911 0.499982 0.825389 -0.038557 0.012741 0.011197
2.103928 0.101908 0.117558 -0.054427 -0.005308 0.004300
2.980951 0.700848 0.664110 0.000000 0.971906 -0.000003
2.916184 0.783727 0.910825 0.000000 0.751576 -0.000118
1.141935 0.586055 0.591292 0.000000 -0.186023 -0.000036
0.827957 0.557494 0.601766 0.000001 -0.488146 -0.000025
0.513978 0.701154 0.665378 0.000000 0.972076 -0.000001
2.173578 0.677577 0.621012 0.000000 0.735416 -0.000003
1.902287 0.754047 0.868881 -0.038556 -0.012741 0.011197
1.545621 0.508270 0.670789 0.000000 -0.986862 -0.000001
0.038154 0.568468 0.701288 -0.626130 -0.000020 0.000008
2.135366 0.948729 0.316749 -0.054426 0.002108 0.001714
2.397848 0.675808 0.619146 0.000000 0.724193 -0.000007
0.827957 0.643103 0.778829 0.000001 0.355272 0.000009
2.577264 0.526732 0.747335 0.000000 -0.804821 0.000001
2.255282 0.847068 0.408035 0.054465 -0.004358 -0.003813
2.128171 0.356181 0.986569 0.054465 0.002014 0.001766
2.107102 0.990419 1.112703 -0.054430 0.003903 -0.003168
0.917665 0.556557 0.602292 0.000001 -0.488874 -0.000049
1.913277 0.703691 0.690961 0.000000 0.999691 0.000000
0.252943 0.506802 0.685591 0.000000 -0.999923 -0.000000
2.039016 0.648522 0.599406 0.000000 0.444932 -0.000028
2.352994 0.543383 0.611273 0.000001 -0.627144 -0.000009
2.218432 0.549188 0.606929 -0.000000 -0.573553 -0.000020
0.872811 0.559792 0.775256 -0.000001 -0.467135 0.000052
1.815613 0.405507 0.465697 -0.054428 -0.009542 0.007650
1.815613 0.805034 0.910089 -0.054428 0.009542 -0.007650
1.952389 0.444789 0.525774 -0.054429 -0.004771 0.003868
3.091103 0.448637 0.489825 -0.000000 -0.751576 0.000450
0.334562 0.702228 0.705223 -0.000000 0.972399 0.000000
2.253684 1.066350 1.217724 0.054468 -0.004490 0.003927
0.693394 0.694208 0.645574 0.000000 0.906283 -0.000006
0.424270 0.693706 0.731248 -0.000001 0.894723 0.000014
2.666972 0.670530 0.614119 -0.000001 0.668993 -0.000008
2.622118 0.640466 0.779880 -0.000001 0.347877 0.000009
2.277667 1.037436 1.176736 0.076856 0.003556 -0.003118
1.726946 0.487621 0.550501 -0.038553 0.003518 -0.003243
0.192014 0.526921 0.747240 -0.026035 -0.000606 0.000447
3.109212 0.391896 0.950609 0.000001 -0.751575 -0.000450
0.783103 0.530418 0.751903 0.000000 -0.757939 0.000003
3.042963 0.549026 0.771581 0.000000 -0.659647 0.000685
2.622118 0.700884 0.711526 0.000000 0.972073 0.000007
2.086600 0.512552 0.767655 0.076857 -0.002652 -0.002326
0.038154 0.624852 0.721810 -0.626129 0.000011 0.000019
2.532410 0.526482 0.628790 -0.000001 -0.794929 -0.000003
1.680183 0.548308 0.607545 0.000000 -0.573599 -0.000039
0.244854 0.643459 0.778684 -0.000003 0.167343 0.000010
3.070659 0.643530 0.597130 0.071103 0.000228 -0.000559
3.133897 0.480067 0.820741 -0.277564 0.001610 0.001401
2.209814 1.206026 1.374750 -0.038556 -0.017507 0.014755
2.442702 0.598293 0.589647 -0.000000 -0.062135 -0.000111
0.424270 0.650068 0.775611 -0.000000 0.445038 0.000007
2.980951 0.632095 0.593121 -0.000000 0.282575 -0.000023
2.040633 0.398322 0.476301 -0.054428 -0.002888 0.002347
1.725037 0.701064 0.710780 0.000001 0.962554 0.000002
0.558832 0.510455 0.714570 0.000000 -0.965928 0.000004
1.097081 0.680523 0.624347 -0.000001 0.757529 -0.000012
1.814746 0.695419 0.727559 -0.000001 0.912949 0.000003
2.916184 0.783727 0.464960 0.000000 0.751576 0.000118
2.801072 0.750791 0.541698 0.157618 -0.003006 -0.001591
1.276497 0.552351 0.604826 0.000000 -0.531961 -0.000044
2.694103 0.661515 0.771581 0.000000 0.659645 0.000685
1.995337 0.227764 0.262822 -0.054429 -0.004215 0.003420
1.455913 0.508726 0.668376 0.000000 -0.982616 -0.000001
2.920843 0.748809 0.504744 -0.000004 0.751500 0.000236
2.880436 0.735715 0.856122 0.000000 0.751575 -0.000405
2.224104 0.825798 0.446441 0.076859 0.001638 0.001437
0.832368 0.703668 0.691882 -0.000000 0.999691 0.000000
1.052227 0.679322 0.752834 0.000002 0.751109 0.000012
2.096193 0.766626 0.486532 0.054466 -0.009639 -0.008331
1.680183 0.651800 0.774700 0.000000 0.467274 0.000052
2.281664 0.350569 0.975007 0.076857 -0.001427 -0.001252
1.677242 0.609566 0.589503 0.000000 0.024856 -0.000277
2.068451 1.039845 0.199015 -0.054428 0.007025 0.005671
1.007373 0.703054 0.676103 -0.000000 0.993678 -0.000003
1.900280 0.700363 0.601619 -0.054428 0.009542 0.007650
1.321351 0.682702 0.748759 -0.000002 0.758609 0.000006
2.110583 0.824259 0.914325 0.076858 0.003229 -0.002831
2.173578 0.535519 0.757427 0.000000 -0.707107 0.000014
1.858950 0.433289 0.484292 -0.038556 0.012742 -0.011197
2.711826 0.583353 0.783920 0.000000 -0.234489 0.000014
0.469124 0.651970 0.601175 -0.000001 0.463216 -0.000013
1.880718 0.318671 1.011163 -0.054428 -0.005464 -0.004425
2.189728 0.438106 0.888137 0.054466 0.009771 0.008442
2.756680 0.679697 0.752398 0.000000 0.757946 0.000024
1.913680 0.925457 1.054750 -0.038554 -0.006463 0.005899
2.267874 0.756774 0.863832 0.054467 -0.007477 0.006502
2.039016 0.514392 0.649917 0.000000 -0.926251 -0.000006
2.801534 0.516430 0.730420 0.000001 -0.895905 0.000003
0.738249 0.515749 0.728960 0.000001 -0.902993 0.000003
3.034428 0.696433 0.811365 -0.000001 0.751572 -0.000360
1.639986 0.695813 0.584732 -0.038558 -0.009380 -0.008435
2.197722 0.982897 0.248517 0.054466 -0.006074 -0.005299
0.738249 0.514876 0.648789 0.000001 -0.748213 -0.000001
0.558832 0.681890 0.749780 -0.000000 0.773970 0.000011
1.903172 0.871441 0.995785 -0.038558 -0.007296 0.006635
2.233697 0.879743 0.369021 0.054464 -0.002047 -0.001795
1.141935 0.660500 0.606341 0.000000 0.553086 -0.000010
2.352994 0.529817 0.751205 0.000000 -0.757939 0.000003
2.263286 0.693774 0.731110 0.000000 0.892146 0.000002
2.308045 0.240230 1.103805 0.054466 0.012147 0.010407
2.284062 1.104884 1.259116 0.054466 -0.007923 0.006882
1.950382 0.675835 0.588687 -0.038555 -0.010944 -0.009744
2.980951 0.565956 0.778195 -0.000001 -0.399821 0.000063
2.308140 0.670154 0.613791 0.000001 0.650587 -0.000016
2.532410 0.547156 0.767411 0.000000 -0.593657 0.000019
1.500767 0.649553 0.599919 -0.000000 0.444618 -0.000014
0.379416 0.522615 0.741460 0.000000 -0.832060 0.000005
2.891243 0.554834 0.603297 0.000000 -0.510660 -0.000023
2.577264 0.687692 0.633974 0.000000 0.833165 -0.000009
2.074272 0.134750 1.220435 -0.054429 -0.005932 -0.004800
2.021228 0.433805 0.857563 -0.054428 -0.006323 -0.005111
2.233697 0.346590 0.387015 0.054467 0.002047 -0.001795
2.891243 0.649244 0.776021 0.000000 0.444932 0.000028
1.814746 0.698436 0.655943 0.000000 0.943880 -0.000010
2.583882 0.506838 0.685284 -0.000000 -0.999691 -0.000000
3.123108 0.699639 0.677974 0.068544 0.002466 -0.000129
3.045861 0.485938 0.571536 0.000000 0.751576 -0.000360
0.513978 0.559249 0.774969 0.000000 -0.467442 0.000013
3.025805 0.508505 0.706241 -0.000001 -0.982518 0.000010
2.218108 0.702091 0.570142 0.054466 -0.007477 -0.006502
1.052227 0.661699 0.607171 -0.000001 0.568531 -0.000010
2.397848 0.623920 0.591185 0.000000 0.185924 -0.000073
2.013280 0.606344 0.786363 0.000000 0.024856 0.000018
2.212112 0.096761 0.100585 0.054464 0.003962 -0.003468
1.928676 0.411169 0.919357 -0.038557 0.016049 0.013714
1.863276 0.506785 0.688353 0.000000 -0.999691 0.000000
0.192014 0.516715 0.645247 -0.026033 -0.000683 -0.000318
2.967945 0.742061 0.551644 -0.000000 -0.751575 -0.000118
3.111169 0.750791 0.834087 -0.277563 -0.001610 0.001401
1.455913 0.639676 0.780178 -0.000001 0.353656 0.000073
3.089635 0.846814 0.432293 0.000001 -0.751575 -0.000450
1.500767 0.694921 0.728682 -0.000002 0.898888 0.000006
2.139518 1.036874 0.187811 -0.038553 -0.008548 -0.007723
2.448585 0.703763 0.687509 0.000000 0.963569 -0.000000
2.891243 0.518123 0.642007 -0.000001 -0.882640 -0.000007
0.827957 0.625312 0.591462 0.000000 0.210276 -0.000064
0.917665 0.669979 0.613641 0.000000 0.652267 -0.000032
2.150940 0.088403 0.095028 -0.038558 0.013757 -0.011992
1.411059 0.650884 0.600602 -0.000000 0.467294 -0.000052
2.045029 0.715313 0.782535 0.076856 0.002652 -0.002326
2.086600 0.676081 0.588903 0.054466 -0.003742 -0.003276
2.980951 0.622450 0.784879 0.000000 0.184633 0.000009
0.603686 0.694873 0.728786 0.000000 0.903363 0.000002
2.801534 0.657865 0.771164 -0.000001 0.530595 0.000022
2.024992 1.011664 1.154227 -0.038557 -0.005108 0.004686
1.183848 0.703741 0.688967 0.000000 0.999691 0.000000
3.140591 0.558428 0.606759 0.066672 -0.000328 -0.000531
2.160149 0.272395 0.296398 0.054466 0.006999 -0.006093
2.106186 0.756517 0.539158 0.076858 0.001989 0.001745
0.334562 0.589265 0.785073 0.000000 -0.161375 0.000084
0.738249 0.561160 0.599833 0.000002 -0.309763 -0.000005
2.167344 0.189086 1.145634 0.076858 -0.008422 -0.007348
2.150010 0.051065 0.054734 -0.038557 0.005420 -0.004967
2.217697 0.603429 0.589442 -0.000000 -0.024856 -0.000018
1.846047 0.856272 0.405368 -0.054428 0.005776 0.004675
1.455913 0.681015 0.750849 -0.000003 0.591761 0.000004
1.097081 0.511479 0.717948 0.000000 -0.951831 0.000004
2.263286 0.630835 0.592779 -0.000000 0.258778 -0.000103
1.500767 0.562638 0.776684 0.000000 -0.422800 0.000004
2.588187 0.530467 0.602664 0.157616 -0.001993 0.002809
0.289708 0.520597 0.738197 0.000000 -0.859712 0.000016
2.817359 0.494668 0.581482 0.000000 0.751576 -0.000270
1.635329 0.517074 0.644057 -0.000001 -0.845856 -0.000001
2.128724 0.599518 0.589571 -0.000000 -0.062232 -0.000442
2.024992 0.194922 0.225029 -0.054429 -0.001951 0.001587
2.173578 0.698182 0.720567 -0.000001 0.943700 0.000010
2.254083 0.483286 0.831340 0.054466 0.007477 0.006502
2.128724 0.642499 0.779075 0.000000 0.376819 0.000034
2.173578 0.627636 0.591973 -0.000000 0.234659 -0.000057
2.066047 0.215431 1.138671 -0.038555 0.010215 0.009138
1.276497 0.617518 0.785625 -0.000000 0.136690 0.000050
2.923172 0.479190 0.851149 0.000001 -0.751576 -0.000473
1.856574 0.702699 0.564987 -0.038559 -0.007035 -0.006405
1.545621 0.513473 0.723591 0.000000 -0.935352 0.000003
2.263286 0.532501 0.621524 0.000000 -0.740005 -0.000006
2.018030 0.463144 0.507515 -0.038556 0.016882 -0.014314
0.603686 0.556022 0.773194 0.000000 -0.489265 0.000025
1.725037 0.516528 0.645157 0.000000 -0.906362 -0.000002
2.798174 0.687703 0.574366 -0.000000 0.751577 0.000405
2.532410 0.515490 0.728403 0.000000 -0.906143 0.000003
1.007373 0.517040 0.731660 -0.000001 -0.866958 0.000002
1.988962 0.730524 0.572218 -0.054428 0.009542 0.007650
0.917665 0.533913 0.755777 0.000000 -0.724359 0.000003
1.411059 0.521145 0.636665 0.000001 -0.855633 -0.000004
3.158075 0.694068 0.713740 0.063977 0.000627 0.000174
1.186789 0.689317 0.739253 -0.000000 0.859695 0.000008
2.311816 0.606805 0.786352 0.000000 0.024856 0.000036
1.900280 0.510178 0.601619 -0.054430 -0.009542 0.007649
2.801534 0.691844 0.734864 0.000001 0.871643 0.000002
2.268073 0.250198 0.288008 0.076858 -0.004585 0.004017
0.738249 0.652106 0.774538 0.000000 0.467138 0.000026
2.308045 0.922932 0.325962 0.054466 -0.006603 -0.005753
2.026723 0.480509 0.576083 -0.054430 -0.004098 0.003326
1.680183 0.510715 0.715453 0.000000 -0.959136 0.000004
1.690826 0.697897 0.789224 -0.054428 0.007025 -0.005671
0.513978 0.657215 0.771572 -0.000000 0.531218 0.000011
2.176937 0.731360 0.816233 0.076858 0.006012 -0.005261
2.442702 0.688704 0.635558 -0.000000 0.846202 -0.000009
2.102989 0.469739 0.859269 0.054464 0.007478 0.006502
2.644913 0.601818 0.589482 0.000000 -0.024856 -0.000009
0.917665 0.579186 0.782867 0.000001 -0.254202 0.000013
2.126518 0.703729 0.686359 0.000000 0.999691 -0.000000
0.106514 0.555459 0.750354 -0.358608 -0.000052 0.000068
1.411059 0.564936 0.777750 0.000000 -0.399351 0.000004
1.811830 0.697412 0.802544 -0.038558 -0.002932 0.002705
0.648540 0.676998 0.755388 0.000000 0.718035 0.000003
2.442702 0.516903 0.731385 -0.000000 -0.895300 0.000007
2.622118 0.590287 0.785240 0.000000 -0.161344 0.000084
1.994162 0.561984 0.776362 0.000002 -0.308691 0.000005
1.231643 0.527674 0.627238 0.000000 -0.789236 -0.000005
2.801534 0.560953 0.599936 0.000001 -0.444109 -0.000028
2.308140 0.558944 0.774807 -0.000000 -0.467308 0.000026
2.724172 0.741948 0.532168 0.157616 0.001968 0.002774
2.891243 0.571727 0.780500 0.000000 -0.327883 0.000010
0.192014 0.588203 0.591097 -0.029851 -0.000260 -0.001285
2.891243 0.692275 0.641736 -0.000000 0.883891 -0.000007
2.137764 0.702482 0.597032 0.076858 0.001989 0.001745
2.781887 0.742061 0.824141 0.157615 -0.003006 0.001591
2.021306 0.900184 1.009239 -0.054431 0.002537 -0.002062
0.873546 0.607572 0.786332 0.000000 0.024856 0.000009
2.033037 0.494533 0.781925 0.076858 -0.005303 -0.004643
0.693394 0.537330 0.759197 -0.000000 -0.689409 0.000007
1.928676 0.411169 0.456429 -0.038555 0.004013 -0.003694
3.152278 0.904087 0.347433 -0.277564 0.001479 0.001309
3.155538 0.758639 0.862635 -0.277562 0.001479 -0.001309
3.151553 0.274132 0.310607 -0.277566 -0.000740 0.000655
3.156988 0.693995 0.586803 -0.277561 0.001479 0.001309
3.152278 0.306454 1.028352 -0.277564 -0.001479 -0.001309
3.153727 0.371097 0.954700 -0.277562 -0.001598 -0.001415
0.289708 0.515490 0.647382 0.000000 -0.916798 -0.000001
2.577264 0.619152 0.785400 0.000000 0.136637 0.000025
0.917665 0.682278 0.749305 -0.000000 0.789728 0.000003
0.872811 0.660372 0.769529 -0.000000 0.552907 0.000010
2.175131 1.110532 1.254412 -0.054430 0.005152 -0.004174
2.839442 0.461731 0.871041 0.000000 -0.751576 -0.000338
2.756680 0.560030 0.775381 -0.000001 -0.442541 0.000007
1.321351 0.510067 0.662661 0.000000 -0.965439 -0.000004
1.007373 0.652377 0.774395 -0.000000 0.489233 0.000049
2.666972 0.520126 0.737405 0.000000 -0.859610 0.000002
1.994162 0.515490 0.728403 0.000000 -0.906143 0.000003
2.200920 0.998382 1.144647 0.054464 -0.005943 0.005185
3.070659 0.658710 0.770633 0.072065 0.000317 0.000504
3.153002 0.338776 0.384259 -0.277564 -0.001598 0.001415
3.153002 0.871765 0.384259 -0.277564 0.001598 0.001415
3.158075 0.617047 0.732609 1.000000 0.000000 0.000000
0.558832 0.556022 0.602592 0.000000 -0.510951 -0.000006
1.590475 0.529428 0.750730 -0.000001 -0.773622 0.000023
1.366205 0.516009 0.729516 0.000000 -0.906223 0.000001
0.289708 0.554042 0.603768 0.000000 -0.508485 -0.000006
1.321351 0.532912 0.754717 -0.000000 -0.741370 0.000012
2.113498 0.205577 1.130022 -0.054428 -0.003825 -0.003105
2.980951 0.522530 0.634454 0.000000 -0.846687 -0.000002
0.827957 0.682749 0.748699 -0.000000 0.789569 0.000011
2.914461 0.707143 0.591428 0.000000 -0.751576 -0.000405
2.338288 0.703718 0.689887 0.000000 0.999691 0.000000
2.208915 0.881140 1.010405 0.054466 -0.008187 0.007106
0.827957 0.543919 0.764948 0.000000 -0.614317 0.000004
1.893147 0.539511 0.761231 0.000000 0.659649 -0.000343
3.012698 0.389915 0.462131 0.000001 0.751572 -0.000338
2.859802 0.505378 0.821311 0.000000 -0.751576 -0.000338
2.781887 0.487920 0.841203 0.000000 -0.751575 -0.000540
2.577264 0.627449 0.591928 -0.000000 0.234442 -0.000029
1.722341 0.523701 0.786036 -0.038559 0.007035 0.006405
3.089477 0.529586 0.621266 0.000000 -0.659648 -0.000343
2.096993 0.349082 0.420665 0.076858 -0.001427 0.001252
0.827957 0.518696 0.640922 0.000000 -0.884184 -0.000004
0.244854 0.682230 0.749364 -0.000002 0.523849 0.000002
0.289708 0.659605 0.770039 0.000000 0.552949 0.000041
0.648540 0.556156 0.602517 0.000000 -0.488970 -0.000012
0.379416 0.553651 0.604009 0.000000 -0.531218 -0.000011
2.954555 0.820626 0.462131 0.157618 -0.003006 -0.001591
2.442702 0.533966 0.619953 -0.000000 -0.724431 -0.000013
1.141935 0.672152 0.760199 -0.000001 0.665340 0.000008
0.558832 0.685948 0.631402 0.000000 0.819104 -0.000005
3.093274 0.909891 0.340820 0.157616 0.001993 0.002809
1.097081 0.691097 0.736204 -0.000001 0.800888 0.000002
2.983508 0.696232 0.771925 0.000000 -0.751576 0.000473
3.088852 0.348248 1.000339 0.000002 -0.751571 -0.000450
0.289708 0.688664 0.635493 0.000000 0.846714 -0.000017
2.263286 0.643882 0.778502 0.000001 0.399623 0.000032
2.442702 0.565534 0.778011 0.000001 -0.399613 0.000032
1.276497 0.662767 0.767866 -0.000000 0.593768 0.000009
2.397848 0.678272 0.754006 0.000001 0.740643 0.000025
2.308140 0.557996 0.601484 -0.000001 -0.487032 -0.000012
2.045469 0.341033 0.374006 -0.038555 0.006776 -0.006176
0.379416 0.516596 0.645019 0.000001 -0.866959 -0.000002
0.469124 0.554306 0.603611 0.000002 -0.351070 -0.000004
2.238494 0.303621 1.037331 0.054468 0.003829 0.003353
2.086076 0.506884 0.692342 0.000000 -0.999691 0.000000
0.379416 0.670444 0.614042 0.000000 0.670985 -0.000030
2.228101 0.942466 1.078691 0.054462 -0.003302 0.002892
2.063416 0.704962 0.554080 0.054465 -0.003742 -0.003276
0.469124 0.516698 0.644813 0.000001 -0.888110 -0.000003
1.635329 0.649106 0.599697 -0.000001 0.445013 -0.000111
1.994162 0.571582 0.595336 0.000000 -0.353506 -0.000009
3.012111 0.383166 0.960555 0.000000 -0.751576 -0.000450
1.139729 0.506806 0.689197 0.000000 -0.999691 0.000000
1.814746 0.518266 0.734049 0.000000 -0.883296 0.000004
1.859600 0.646928 0.777138 0.000001 0.421106 0.000015
2.308045 0.287609 1.049824 0.054465 0.006603 0.005753
2.308045 1.112448 0.110035 0.054464 -0.006867 -0.005980
2.308045 0.891346 0.361950 0.054466 -0.007659 -0.006657
2.308045 0.334988 0.379944 0.054466 0.008187 -0.007106
2.308045 0.192851 0.217998 0.054467 0.005018 -0.004386
2.308045 0.303402 0.343956 0.054466 0.007659 -0.006657
2.308045 1.001897 0.235992 0.054467 -0.011091 -0.009540
2.308045 0.907139 1.031830 0.054465 -0.007659 0.006657
2.308045 1.207206 0.002071 0.054467 -0.009507 -0.008220
2.308045 0.733416 0.541889 0.054467 -0.003962 -0.003468
2.308045 0.129679 0.146023 0.054467 0.003962 -0.003468
2.308045 0.970311 1.103805 0.054466 -0.006074 0.005299
2.308045 1.175620 1.337727 0.054471 -0.009506 0.008220
2.234497 0.221310 0.244342 0.054464 0.006075 -0.005299
2.532410 0.691397 0.735669 -0.000000 0.871851 0.000008
0.289708 0.556557 0.773494 0.000000 -0.489118 0.000025
2.047435 0.937983 0.322360 -0.054424 0.002264 0.001841
1.545621 0.674533 0.757915 0.000000 0.707107 0.000028
3.153727 0.371097 0.421085 -0.277563 -0.001598 0.001415
1.231643 0.566870 0.597191 -0.000001 -0.393562 -0.000016
2.094594 0.438437 0.522753 0.076858 -0.000994 0.000873
2.846388 0.627747 0.592000 0.000000 0.234645 -0.000114
1.980926 0.703741 0.686819 0.000000 0.999691 -0.000000
2.532410 0.563786 0.598566 -0.000000 -0.422575 -0.000030
2.215310 0.912111 0.330622 0.054467 -0.001915 -0.001680
1.814746 0.518625 0.641058 -0.000001 -0.876761 -0.000004
3.158075 0.627003 0.647076 1.000000 0.000000 0.000000
2.110583 0.386281 0.461460 0.076858 -0.003229 0.002831
3.070659 0.696033 0.649633 0.068360 0.000576 -0.000251
2.860157 0.803822 0.461671 0.157616 0.001993 0.002809
0.469124 0.691622 0.640518 0.000000 0.868272 -0.000002
3.032862 0.424832 0.873871 0.000001 0.751575 0.000360
3.026284 0.477209 0.814195 -0.000002 0.751566 0.000360
2.756680 0.524218 0.743850 -0.000001 -0.818513 0.000019
1.276497 0.514630 0.726434 -0.000000 -0.916502 0.000006
2.253684 0.128398 1.235718 0.054466 0.004490 0.003927
2.052818 0.982325 0.251681 -0.038556 -0.002762 -0.002550
2.072443 1.010288 1.155435 -0.038554 -0.010215 0.009139
2.487556 0.652377 0.774395 -0.000000 0.489265 0.000012
2.532410 0.591046 0.785353 0.000000 -0.136663 0.000050
2.756680 0.516155 0.645956 -0.000001 -0.905822 -0.000013
3.033145 0.350802 0.388159 0.157618 -0.001968 0.002774
2.801878 0.777304 0.883902 0.157617 0.001968 -0.002774
1.231643 0.690356 0.638281 -0.000000 0.859754 -0.000004
2.126508 0.184639 0.221161 -0.054428 -0.007025 0.005671
2.171741 0.773337 0.863453 0.076856 0.006013 -0.005261
2.072443 0.192977 0.226737 -0.054428 -0.003591 0.002916
2.653001 0.506858 0.684517 -0.000000 -0.999691 -0.000000
0.379416 0.557093 0.773794 0.000000 -0.489118 0.000025
3.108821 0.836104 0.970501 -0.277561 0.001598 -0.001415
3.090027 0.381185 0.452185 -0.000001 0.751569 -0.000225
3.041006 0.461731 0.504744 0.000000 -0.751576 0.000720
2.204349 1.153510 1.317692 -0.038554 -0.005212 0.004780
1.936026 0.293449 1.037378 -0.054428 -0.002420 -0.001967
0.558832 0.644093 0.778410 0.000000 0.400004 0.000016
0.152390 0.670592 0.754863 -0.179931 0.000146 0.000142
3.093274 0.300649 0.340820 0.157615 -0.001993 0.002809
2.627040 0.697752 0.582522 0.157617 0.001993 0.002809
2.782451 0.442075 0.501955 0.157616 -0.001993 0.002809
2.763025 0.450914 0.863760 0.157616 -0.001968 -0.002774
2.957289 0.848017 0.964469 0.157617 0.001968 -0.002774
2.860157 0.406719 0.461671 0.157616 -0.001993 0.002809
2.763025 0.759626 0.512026 0.157616 0.001968 0.002774
2.685319 0.486271 0.823476 0.157617 -0.001968 -0.002774
2.607614 0.521627 0.783192 0.157617 -0.001993 -0.002809
3.034995 0.327167 1.004753 0.157618 -0.001968 -0.002774
3.034995 0.883374 1.004753 0.157618 0.001968 -0.002774
2.937863 0.371362 0.421387 0.157616 -0.001993 0.002809
1.186789 0.514661 0.726504 -0.000001 -0.748213 0.000001
3.156988 0.693995 0.788983 -0.277563 0.001479 -0.001309
1.967925 0.855297 0.982018 -0.038554 -0.003596 0.003314
2.213942 0.034264 0.032947 -0.038556 0.005212 -0.004780
0.603686 0.516972 0.731522 0.000001 -0.891209 0.000007
2.228901 0.358040 0.960328 0.076858 -0.003088 -0.002708
2.704746 0.733109 0.833547 0.157615 0.001993 -0.002809
3.158075 0.559718 0.768379 0.069022 -0.000304 0.000521
2.111692 0.138317 0.162965 -0.054428 -0.005932 0.004800
0.958842 0.606805 0.786352 -0.000000 0.024856 0.000009
2.914461 0.503397 0.591428 0.000000 0.751576 -0.000405
2.190189 0.028997 1.340365 -0.054428 -0.006869 -0.005547
2.210514 1.038695 0.205464 0.076856 0.007674 0.006702
2.131316 1.094175 1.249427 -0.038557 -0.015424 0.013254
3.109603 0.801186 0.930717 -0.277560 0.001598 -0.001415
3.154452 0.807122 0.457911 -0.277561 0.001598 0.001415
2.186530 0.145451 1.197593 0.076858 -0.006925 -0.006053
2.212112 0.087271 1.266871 0.076857 -0.005428 -0.004752
0.962519 0.651868 0.601122 0.000001 0.451577 -0.000007
1.970709 1.015434 0.220569 -0.038556 -0.010423 -0.009312
2.627040 0.697752 0.793263 0.157616 0.001993 -0.002809
1.007373 0.678195 0.621694 -0.000000 0.741450 -0.000025
2.218432 0.694321 0.645817 -0.000000 0.906216 -0.000013
1.851649 0.310170 0.351667 -0.054427 -0.002576 0.002094
1.692902 0.746952 0.526466 -0.038557 -0.007036 -0.006406
1.679673 0.476373 0.541032 -0.054428 -0.007025 0.005671
2.036853 1.079358 0.147736 -0.038558 -0.008547 -0.007722
1.798733 0.849231 0.965852 -0.038557 -0.004013 0.003694
1.944251 0.989864 1.126084 -0.038556 -0.011257 0.010000
2.036853 1.079358 1.228049 -0.038556 -0.008547 0.007722
1.706131 0.759737 0.863886 -0.038554 -0.007036 0.006406
1.666444 0.489158 0.820187 -0.054427 -0.007025 -0.005671
1.745817 0.798092 0.907586 -0.038559 -0.011725 0.010382
2.063311 0.105613 1.257182 -0.054429 -0.010615 -0.008480
2.023624 0.143968 0.162303 -0.054428 -0.006557 0.005298
1.917793 0.246246 0.278835 -0.054429 -0.009054 0.007269
1.798733 0.361310 0.409934 -0.054427 -0.002888 0.002347
1.864877 0.913155 0.337101 -0.038556 -0.013757 -0.011992
1.970709 0.195107 0.220569 -0.054428 -0.007806 0.006289
2.102998 1.143282 0.074904 -0.038554 -0.012508 -0.011011
2.129455 1.168851 1.330015 -0.038556 -0.010840 0.009658
1.997166 1.041003 1.184350 -0.038556 -0.019173 0.015891
1.838420 0.887585 1.009552 -0.038556 -0.014591 0.012630
1.411059 0.692777 0.733100 0.000001 0.883428 0.000007
1.366205 0.672599 0.759779 -0.000000 0.687851 0.000007
1.366205 0.702751 0.673821 -0.000000 0.990528 -0.000001
2.159349 0.882851 0.389004 0.076857 0.001427 0.001252
2.264876 0.281160 0.323659 0.076857 -0.002480 0.002176
2.264876 0.929381 1.052127 0.076858 0.002480 -0.002175
3.025805 0.512701 0.654241 0.000000 -0.943878 -0.000039
2.001951 0.989169 1.120247 -0.054426 0.002108 -0.001714
2.168943 0.920462 1.030754 0.076855 0.002480 -0.002176
2.756680 0.680548 0.624376 0.000000 0.757939 -0.000003
2.308045 1.144034 0.074047 0.054467 -0.011619 -0.009974
2.095324 0.302973 0.330048 -0.038556 0.003179 -0.002932
2.035727 0.784743 0.909631 -0.038554 -0.008026 0.007272
2.756680 0.631095 0.592849 0.000001 0.258736 -0.000103
1.590475 0.695296 0.647945 0.000000 0.916565 -0.000012
2.954555 0.801186 0.930717 0.000000 0.751575 -0.000540
3.031296 0.855544 0.953439 0.157617 -0.003006 0.001591
2.762701 0.477209 0.561590 0.000000 0.751576 -0.000405
3.069667 0.853563 0.385392 0.000000 0.751578 0.000450
2.839442 0.768249 0.521806 0.157616 -0.003006 -0.001591
3.012111 0.383166 0.415230 0.000000 -0.751575 0.000450
0.693394 0.645007 0.597775 0.000000 0.400004 -0.000032
2.183333 0.757257 0.504413 0.054466 -0.002410 -0.002113
3.025805 0.654618 0.602651 -0.000001 0.503126 -0.000012
0.244854 0.624712 0.591334 -0.000001 0.173577 -0.000019
2.013053 0.399351 0.438865 -0.038557 0.007609 -0.006909
1.886746 0.353621 0.408086 -0.054429 -0.002888 0.002347
1.949308 0.698220 0.720458 -0.000000 0.943647 0.000005
2.487556 0.661039 0.606709 -0.000001 0.567604 -0.000010
2.039016 0.684310 0.629130 0.000001 0.803787 -0.000010
2.308045 0.192851 1.157787 0.054466 0.010035 0.008663
2.879583 0.812661 0.924185 0.157618 0.001968 -0.002774
3.158075 0.652880 0.608606 0.066674 0.000328 -0.000531
1.909052 0.439132 0.888026 -0.038555 0.016883 0.014314
2.936096 0.693791 0.731076 0.000000 0.894667 0.000003
1.769892 0.690120 0.737900 0.000000 0.859638 0.000008
3.091103 0.761904 0.489825 -0.000001 0.751576 0.000450
0.783103 0.645920 0.598177 0.000000 0.422503 -0.000030
2.188129 0.258307 1.093125 0.054465 0.006603 0.005753
1.321351 0.701964 0.706618 -0.000001 0.939199 0.000001
2.083870 0.679672 0.752427 0.000000 0.757625 0.000006
3.158075 0.525984 0.735502 0.069027 -0.000521 0.000304
3.158075 0.605270 0.687893 1.000000 0.000000 0.000000
2.891243 0.517142 0.731866 -0.000001 -0.894137 0.000007
2.980951 0.514538 0.726223 0.000000 -0.916514 0.000002
0.334562 0.683644 0.747547 0.000000 0.789436 0.000001
1.995727 0.747125 0.823381 -0.054428 0.009542 -0.007650
1.635329 0.562534 0.776636 -0.000000 -0.445076 0.000111
1.811830 0.513128 0.802544 -0.038555 0.005863 0.005365
1.007373 0.560199 0.775471 -0.000001 -0.460259 0.000013
0.738249 0.694662 0.729238 0.000001 0.861924 0.000001
0.738249 0.688990 0.636013 0.000001 0.836331 -0.000004
1.948004 0.486797 0.577012 -0.054428 -0.009542 0.007650
2.846388 0.696452 0.725122 0.000001 0.926156 0.000022
1.635329 0.695051 0.728403 0.000000 0.916557 0.000024
1.366205 0.640753 0.596014 0.000000 0.353765 -0.000036
0.648540 0.622374 0.784893 -0.000000 0.186023 0.000073
0.693394 0.586432 0.784565 -0.000001 -0.185406 0.000036
