-0.954096 -0.025612 -0.092715 0.000004 -0.237075 -0.970568
-1.338702 -0.096188 0.000000 -0.000441 -0.997769 -0.040990
1.811125 0.167234 -0.202882 -0.000000 -0.739503 -0.673154
0.489578 -0.082552 0.049369 -0.000003 -0.886580 0.460631
-0.119730 0.075225 0.059944 0.000099 0.804076 0.593073
1.572425 0.123118 0.154417 0.000000 -0.739503 0.673154
1.687717 -0.082047 -0.050203 -0.000862 -0.870249 -0.490596
-0.416678 0.077796 -0.056567 -0.000133 0.789888 -0.611833
-1.228863 -0.017186 -0.094640 0.000001 -0.149018 -0.987928
-0.172887 0.365630 -0.407834 -0.036399 -0.725458 -0.687303
-0.269787 0.233446 -0.245859 -0.054232 0.758065 0.649921
-0.120417 0.504517 0.549571 -0.054232 0.758065 -0.649921
-0.112861 -0.160834 -0.150294 0.080777 -0.737086 0.670954
-1.193833 0.069602 0.066390 -0.000002 0.701928 0.710988
0.267302 -0.037301 0.088661 -0.002007 -0.375133 0.926356
-0.195099 0.298461 0.315460 -0.054232 0.758065 -0.649921
-0.173059 0.229108 0.232728 -0.054232 0.758065 -0.649921
-0.014975 -0.092713 0.025620 -0.000010 -0.977195 0.208077
1.203833 -0.008625 0.095800 -0.000003 -0.029929 0.998654
0.579440 -0.033848 0.090036 0.000020 -0.323281 0.945355
0.869100 0.049408 -0.082529 -0.000025 0.460989 -0.886401
-0.165601 0.122012 -0.107190 -0.054232 0.758065 0.649921
1.779674 0.269570 0.296140 -0.178227 -0.431397 0.884382
-0.694266 0.088364 -0.037999 -0.000228 0.892630 -0.448844
1.738331 -0.094636 -0.017210 0.000020 -0.987877 -0.149316
-0.224687 -0.056650 0.077736 -0.000002 -0.539068 0.841197
-1.666042 -0.082152 -0.050031 0.000151 -0.838679 -0.543225
0.179339 -0.091361 -0.030088 -0.000160 -0.940404 -0.337245
-0.209713 -0.173204 0.170580 -0.054232 -0.758065 -0.649921
1.246240 -0.052783 -0.080411 0.000131 -0.573369 -0.818183
0.106364 0.694860 0.763348 0.000000 0.673154 0.739503
-0.440181 -0.087405 -0.040154 -0.000153 -0.920911 -0.387620
1.855638 -0.037278 -0.062882 1.000000 0.000000 0.000000
1.478566 0.096188 -0.000000 0.000001 0.998655 0.029909
1.368686 -0.049417 0.082523 0.000357 -0.487977 0.871795
-0.206639 -0.296617 0.314273 -0.054232 -0.758065 -0.649921
1.083530 -0.069473 -0.066525 0.000038 -0.679212 -0.732738
1.611156 0.174982 0.211393 0.000000 -0.739503 0.673154
0.699337 0.049506 0.082469 -0.000053 0.539231 0.841087
-1.180452 -0.090523 -0.032520 -0.000254 -0.919671 -0.390614
-0.044549 -0.480015 -0.535365 -0.036399 0.725458 -0.687303
-0.114006 -0.404556 0.432442 -0.054232 -0.758065 -0.649921
-0.088611 0.387344 0.435217 -0.036399 -0.725458 0.687303
-0.134463 0.188106 0.181683 -0.054232 0.758065 -0.649921
1.725617 -0.239435 0.243870 -0.120132 -0.872696 -0.462977
-0.442219 -0.158371 0.172680 -0.054232 -0.758065 -0.649921
-0.255450 -0.158216 -0.156915 -0.054232 -0.758065 0.649921
1.747795 0.181930 0.180697 -0.000000 0.739503 -0.673154
0.006261 -0.220606 0.230298 0.080777 -0.737086 -0.670954
0.459551 0.094638 -0.017198 -0.000004 0.991931 -0.119495
0.279716 0.094637 -0.017202 -0.000275 0.977145 -0.208322
0.258887 -0.084754 -0.045485 0.000609 -0.851181 -0.523197
0.002021 0.666222 0.727967 -0.054232 0.758065 -0.649921
0.106364 -0.111672 0.122679 0.080777 -0.737086 -0.670954
-0.379638 0.033849 0.090035 -0.000700 0.331640 0.942260
0.150638 0.039165 -0.087853 0.000816 0.387588 -0.920914
-0.889962 -0.017670 0.094551 0.000083 -0.152270 0.987380
-0.099653 0.182906 -0.217563 0.054256 -0.738413 -0.672162
-0.172645 0.193028 -0.225663 -0.036399 -0.725458 -0.687303
-0.223610 -0.231087 0.263136 -0.036399 0.725458 0.687303
-0.196011 -0.330807 -0.353265 -0.054232 -0.758065 0.649921
-1.299721 0.094715 0.016768 -0.000122 0.988435 0.146108
1.646871 0.101394 0.092222 0.000000 0.739503 -0.673154
-0.325897 0.038405 -0.088188 0.000510 0.442266 -0.896252
1.648424 -0.090035 0.033850 0.000005 -0.944841 0.324647
-0.131344 0.114271 0.144721 0.024044 -0.734621 0.677698
0.251966 0.042969 -0.086056 0.000250 0.472888 -0.880190
0.460183 0.065461 -0.070477 -0.000112 0.722282 -0.690337
-1.223771 -0.079217 0.054559 -0.000152 -0.837976 0.544138
-0.225529 0.299946 -0.319731 -0.054232 0.758065 0.649921
-0.469545 0.000000 -0.096188 0.000102 -0.036172 -0.998257
-0.016861 0.429954 0.457497 0.080777 0.737086 -0.670954
-1.723353 0.092710 0.025629 0.000007 0.970125 0.238681
1.573446 -0.008627 -0.095800 0.000000 -0.059792 -0.997313
0.062209 -0.434259 -0.480625 0.054256 0.738413 -0.672162
1.471388 0.109341 0.100953 -0.000000 0.739503 -0.673154
-0.079074 0.122083 -0.149084 0.054256 -0.738413 -0.672162
-1.458040 0.064240 -0.071592 0.000167 0.711201 -0.701766
-0.507808 -0.092240 0.027274 0.000544 -0.948935 0.312312
1.660442 0.192433 -0.230564 0.000000 -0.739503 -0.673154
-0.246681 -0.418082 0.459290 -0.036399 0.725458 0.687303
-0.412755 -0.149998 -0.167528 -0.036399 0.725458 -0.687303
1.789722 0.231569 0.235229 0.000000 0.739503 -0.673154
0.719301 0.094638 0.017196 0.000314 0.991837 0.120004
-0.166624 -0.263839 -0.272701 -0.054232 -0.758065 0.649921
-0.057157 -0.186257 -0.184929 0.080777 -0.737086 0.670954
1.797703 -0.275518 0.302675 -0.178227 -0.920923 -0.346607
1.797703 0.275518 -0.302675 -0.178227 0.920923 0.346607
1.572345 -0.201160 0.220987 -0.178227 -0.920923 -0.346607
1.464173 -0.165468 -0.181777 -0.178227 0.431397 -0.884382
1.716574 0.248749 -0.273267 -0.178227 0.920923 0.346607
1.644460 -0.224955 -0.247127 -0.178227 0.431397 -0.884382
1.815368 0.060989 -0.086165 -0.000000 -0.739503 -0.673154
0.062731 -0.495132 -0.547456 0.054256 0.738413 -0.672162
1.698996 0.173334 0.171254 0.000000 0.739503 -0.673154
-1.159828 0.049650 -0.082383 -0.000273 0.524577 -0.850729
-1.393659 0.095798 -0.008645 -0.000455 0.997005 -0.063104
-0.684365 0.008627 -0.095800 0.000002 0.059816 -0.997311
1.376225 -0.105071 0.134592 -0.120132 0.542735 0.825461
-0.033148 0.618143 0.681766 -0.036399 -0.725458 0.687303
-0.040838 -0.671304 0.737471 -0.036399 0.725458 0.687303
-0.198810 -0.476971 -0.523983 -0.054232 -0.758065 0.649921
-0.356783 0.282638 -0.310496 -0.036399 -0.725458 -0.687303
-0.146153 0.541749 0.595146 -0.054232 0.758065 -0.649921
1.741070 0.122815 -0.115755 -0.000000 0.739503 0.673154
-0.397791 -0.086970 -0.101793 -0.036399 0.725458 -0.687303
0.106364 0.265848 -0.292051 0.080777 0.737086 0.670954
0.106364 -0.554090 -0.608704 0.080777 -0.737086 0.670954
-0.124736 -0.158588 0.191849 -0.036399 0.725458 0.687303
0.032069 -0.543241 0.587841 0.080777 -0.737086 -0.670954
-1.057469 0.043908 -0.085581 0.000201 0.487484 -0.871805
1.708338 -0.033865 0.090029 0.001438 -0.383542 0.922359
-0.095931 0.453514 0.488038 -0.054232 0.758065 -0.649921
-0.062574 0.613752 -0.675572 -0.036399 -0.725458 -0.687303
-1.208828 -0.000000 0.096188 -0.000000 0.029897 0.998657
-0.994067 0.092712 -0.025622 0.000016 0.970546 -0.237163
-0.382824 -0.180989 -0.194106 -0.054232 -0.758065 0.649921
-0.376105 0.097736 0.114306 -0.036399 -0.725458 0.687303
-1.702189 -0.049618 0.082402 -0.000049 -0.564107 0.824676
-0.032904 -0.526766 0.568220 -0.054232 -0.758065 -0.649921
-1.353526 -0.080354 -0.052871 -0.000034 -0.817605 -0.574223
-1.827559 -0.089379 -0.018453 -0.217590 -0.958457 -0.176360
-1.632757 -0.066645 0.069358 0.000119 -0.712264 0.700734
-0.130266 -0.328825 0.371243 -0.036399 0.725458 0.687303
1.850899 0.131004 0.143916 0.404699 0.685507 -0.605226
-0.235308 0.052572 -0.080550 0.000154 0.595392 -0.802322
-0.167260 0.460452 -0.502083 -0.054232 0.758065 0.649921
0.039914 0.079647 -0.053930 0.000043 0.811769 -0.582446
-0.018468 0.427897 -0.480149 0.054256 -0.738413 -0.672162
-0.322257 -0.254372 0.274646 -0.054232 -0.758065 -0.649921
0.659360 0.090449 -0.032727 0.000249 0.955845 -0.291470
-0.005081 0.395146 -0.420676 0.080777 0.737086 0.670954
1.786808 -0.034156 -0.056688 0.000000 0.739503 -0.673154
0.054968 -0.692794 0.765228 -0.001134 0.730994 0.681876
-0.140891 0.273636 -0.281981 -0.054232 0.758065 0.649921
-1.203836 0.095798 0.008645 -0.000019 0.997308 0.059850
-0.659279 -0.049409 -0.082528 -0.000023 -0.486734 -0.872524
-1.799811 0.042087 -0.085407 -0.059544 0.420965 -0.903341
-0.051959 0.330141 0.375460 0.054256 -0.738413 0.672162
-0.036051 0.677193 -0.743940 -0.036399 -0.725458 -0.687303
1.652049 0.199362 0.199847 -0.000000 0.739503 -0.673154
1.816677 0.086228 0.075562 -0.000000 0.739503 -0.673154
-0.043966 -0.579640 -0.630814 -0.054232 -0.758065 0.649921
-0.609561 -0.049243 -0.082627 0.000055 -0.459337 -0.887257
1.626431 -0.219006 0.240592 -0.178227 -0.920923 -0.346607
-0.157433 -0.185820 -0.218860 -0.036399 0.725458 -0.687303
-0.059959 -0.082531 0.049404 -0.000018 -0.872292 0.487147
0.185548 0.067434 -0.068591 -0.000545 0.735224 -0.676095
0.052091 0.446136 -0.494489 0.054256 -0.738413 -0.672162
0.544938 0.093033 -0.024432 -0.000013 0.973372 -0.226216
0.919104 0.017212 0.094635 -0.000005 0.149205 0.987899
-0.083921 0.618304 0.679247 -0.054232 0.758065 -0.649921
0.057135 0.271351 0.302070 0.054256 -0.738413 0.672162
0.414689 -0.064041 0.071769 -0.000164 -0.720884 0.690867
-0.512519 -0.030643 -0.091176 0.000407 -0.352207 -0.935000
-0.131245 0.146537 -0.178784 -0.036399 -0.725458 -0.687303
1.286354 0.073238 -0.062356 0.000121 0.728145 -0.684579
-0.526943 -0.033280 0.090247 -0.000782 -0.375611 0.925910
1.798631 0.208758 -0.248498 0.000000 -0.739503 -0.673154
1.612204 0.161723 0.158498 0.000000 0.739503 -0.673154
0.080504 -0.094584 -0.017493 -0.001793 -0.977127 -0.208617
-0.037790 0.080635 0.071228 0.080777 0.737086 -0.670954
-0.123535 0.514987 -0.562044 -0.054232 0.758065 0.649921
-0.120613 0.108696 -0.092084 0.080777 0.737086 0.670954
-1.736774 -0.072718 -0.062962 0.000814 -0.713206 -0.699709
0.020034 -0.321061 0.342313 0.080777 -0.737086 -0.670954
1.539415 -0.091239 -0.081067 0.000000 -0.739503 0.673154
1.220786 -0.085161 0.093555 -0.178227 -0.920923 -0.346607
-0.139910 -0.087672 -0.116192 0.024044 0.734621 -0.677698
-0.425543 0.115015 0.129926 -0.036399 -0.725458 0.687303
1.579781 0.080739 -0.107862 0.000000 -0.739503 -0.673154
1.611764 -0.187406 -0.186713 0.000000 -0.739503 0.673154
-1.410468 -0.066658 -0.069345 0.000174 -0.730190 -0.681823
-0.265307 0.164127 0.190251 -0.036399 -0.725458 0.687303
0.599353 0.059895 0.075264 0.000003 0.645359 0.762708
-0.144503 -0.266207 0.273618 -0.054232 -0.758065 -0.649921
0.025793 -0.481936 0.519737 0.080777 -0.737086 -0.670954
-0.342429 -0.232494 -0.258328 -0.036399 0.725458 -0.687303
1.768687 0.028300 0.091930 -0.000606 0.350953 0.935190
-0.022631 -0.477468 0.533839 -0.036399 0.725458 0.687303
1.604429 -0.088035 -0.115877 -0.000000 0.739503 -0.673154
-0.524652 0.062375 0.073222 -0.000329 0.676739 0.735099
1.572345 0.201160 0.220987 -0.178227 -0.431397 0.884382
-0.116827 -0.508933 0.554423 -0.054232 -0.758065 -0.649921
-0.088513 -0.266774 -0.269607 0.035795 -0.745274 0.664998
-0.122598 -0.102731 0.085292 0.080777 -0.737086 -0.670954
-0.068703 -0.437199 0.466736 -0.054232 -0.758065 -0.649921
-0.476459 0.135416 -0.148763 -0.036399 -0.725458 -0.687303
-0.314246 -0.039361 0.087766 0.000177 -0.463666 0.885101
1.543540 -0.086631 0.041798 0.000657 -0.911767 0.408396
0.956581 0.080172 0.053146 -0.000183 0.815412 0.577454
1.229801 0.088136 0.096823 -0.178227 -0.431397 0.884382
-0.205454 0.103775 0.089244 -0.054232 0.758065 -0.649921
-0.016008 0.196186 -0.225401 0.054256 -0.738413 -0.672162
0.179828 -0.094634 0.017218 0.000879 -0.988587 0.145155
-0.267438 -0.341311 0.371477 -0.054232 -0.758065 -0.649921
-0.390292 0.241416 0.265211 -0.054232 0.758065 -0.649921
-0.030306 0.531102 -0.590043 -0.036399 -0.725458 -0.687303
1.815654 -0.033419 0.083847 0.156739 -0.333540 0.928574
0.057667 -0.096570 -0.100226 0.080777 -0.737086 0.670954
1.636342 -0.173316 0.171233 -0.000000 -0.739503 -0.673154
1.440886 -0.095703 -0.085971 0.000000 -0.739503 0.673154
-0.230120 -0.105157 0.092914 -0.054232 -0.758065 -0.649921
-1.029112 0.075221 0.059949 0.000038 0.742622 0.668378
0.065665 0.575292 0.635280 0.054256 -0.738413 0.672162
-0.049502 0.512076 0.568945 -0.036399 -0.725458 0.687303
-0.078671 -0.182855 0.215813 0.054256 0.738413 0.672162
1.173900 -0.086649 0.041761 0.000011 -0.912606 0.406645
0.106364 0.527277 0.579248 0.054256 -0.738413 0.672162
-0.504511 0.095800 -0.008625 -0.000239 0.998501 -0.031580
1.508343 0.101346 -0.130500 -0.000000 -0.739503 -0.673154
0.042297 0.538178 -0.596394 0.054256 -0.738413 -0.672162
-0.264174 -0.106942 -0.097838 -0.054232 -0.758065 0.649921
0.669395 -0.082546 -0.049379 0.000018 -0.841609 -0.538425
1.638837 -0.123399 -0.154727 0.000000 0.739503 -0.673154
0.015702 0.114965 -0.115382 0.080777 0.737086 0.670954
1.658322 -0.078241 0.105118 -0.000000 0.739503 0.673154
0.789318 -0.075341 -0.059798 -0.001162 -0.762674 -0.645274
-1.943687 0.000000 0.035405 -0.630624 0.047639 0.771524
-0.194023 -0.482860 0.530452 -0.036399 0.725458 0.687303
-1.876206 0.076508 -0.000000 -0.365612 0.929244 -0.029350
1.376267 0.094307 -0.084437 -0.000000 0.739503 0.673154
1.682964 0.052248 0.057398 -0.121430 -0.668172 -0.734030
1.381048 0.086360 0.114036 0.000000 -0.739503 0.673154
0.054968 0.692794 -0.765228 -0.000000 0.673154 -0.739503
1.723306 -0.025632 -0.092710 -0.000005 -0.237005 -0.970586
-0.610086 -0.095018 -0.014953 -0.000187 -0.994012 -0.102628
1.137494 -0.069891 0.066086 0.000211 -0.684859 0.727272
-0.224782 -0.095800 0.008625 -0.000273 -0.998655 0.030136
1.522462 -0.128844 -0.122379 0.000000 -0.739503 0.673154
1.790457 0.163474 -0.160422 0.000000 0.739503 0.673154
1.346421 -0.081013 0.108162 0.000000 0.739503 0.673154
-0.237737 -0.284772 -0.303052 -0.054232 -0.758065 0.649921
-1.492368 0.051409 0.081297 -0.000692 0.570827 0.819783
-0.041098 -0.313653 -0.326815 0.080777 -0.737086 0.670954
-0.004995 0.008625 -0.095800 -0.000001 0.029933 -0.998653
-0.381768 -0.117246 -0.134599 -0.036399 0.725458 -0.687303
1.713108 0.155648 -0.151824 0.000000 0.739503 0.673154
1.536561 0.142839 0.176082 0.000000 -0.739503 0.673154
-0.018499 -0.230781 -0.238496 0.080777 -0.737086 0.670954
1.849206 0.164209 0.180394 0.404699 0.685507 -0.605226
1.855638 0.041457 0.020495 1.000000 0.000000 -0.000000
-0.032638 -0.170729 0.170822 0.080777 -0.737086 -0.670954
-0.028301 0.507672 -0.545565 -0.054232 0.758065 0.649921
0.106364 -0.332881 -0.365691 0.080777 -0.737086 0.670954
-0.353625 0.222566 -0.240164 -0.054232 0.758065 0.649921
1.721727 -0.175565 0.173705 0.000000 -0.739503 -0.673154
1.422393 -0.124152 0.117224 -0.000000 -0.739503 -0.673154
-0.182478 -0.363757 0.405349 -0.036399 0.725458 0.687303
0.060099 -0.571179 -0.621907 0.080777 -0.737086 0.670954
1.568822 0.090303 0.033127 0.000893 0.949080 0.312754
1.826368 0.030898 -0.053109 0.137885 -0.725645 -0.666937
1.713108 -0.136567 -0.169193 -0.000000 0.739503 -0.673154
-0.246959 -0.275197 0.308458 -0.036399 0.725458 0.687303
-0.459455 -0.094100 -0.099154 -0.054232 -0.758065 0.649921
-0.207694 -0.181147 -0.211266 -0.036399 0.725458 -0.687303
-1.112894 -0.092940 0.024783 -0.000615 -0.973295 0.226382
-0.219777 0.262455 0.296449 -0.036399 -0.725458 0.687303
0.106364 -0.379804 -0.417239 0.080777 -0.737086 0.670954
-0.015469 0.352574 0.397160 0.054256 -0.738413 0.672162
1.638164 0.094335 -0.018787 -0.001349 0.986697 -0.155934
-0.115258 0.143805 0.175867 0.054256 -0.738413 0.672162
-0.175221 0.481115 0.529606 -0.036399 -0.725458 0.687303
-1.328640 0.063318 -0.072408 -0.000008 0.635058 -0.771304
0.179826 -0.017192 -0.094639 -0.000001 -0.149082 -0.987918
0.954104 -0.041746 0.086657 0.000115 -0.461683 0.885948
1.019012 0.094638 0.017199 0.000003 0.987908 0.149143
-0.460436 0.076637 -0.087570 -0.036399 -0.725458 -0.687303
-1.128928 0.094639 -0.017191 0.000011 0.991938 -0.119444
1.721985 0.083304 0.072350 0.000000 0.739503 -0.673154
0.824198 0.095798 -0.008645 -0.000010 0.997310 -0.059830
-0.554441 0.008636 0.095799 -0.000006 0.059854 0.997308
-0.804246 -0.008630 -0.095800 0.000484 -0.061409 -0.997164
1.273737 -0.008627 -0.095800 -0.000114 -0.059599 -0.997330
-1.758648 -0.094182 -0.019542 -0.000426 -0.985691 -0.161462
-0.349753 -0.276352 -0.302577 -0.054232 -0.758065 0.649921
-1.693333 0.025639 0.092708 0.000005 0.237038 0.970579
-0.293964 0.294542 -0.326388 -0.036399 -0.725458 -0.687303
-0.071152 -0.270921 0.311953 0.054256 0.738413 0.672162
-0.342422 0.300304 0.329904 -0.054232 0.758065 -0.649921
-0.329737 -0.134923 -0.135945 -0.054232 -0.758065 0.649921
1.434100 -0.078467 0.105366 -0.000000 0.739503 0.673154
-1.683342 -0.095800 0.008630 -0.000002 -0.997310 0.059824
1.318718 0.082517 0.049427 -0.000034 0.872164 0.487382
-0.104626 -0.528694 -0.576453 -0.054232 -0.758065 0.649921
0.854169 -0.008645 -0.095798 -0.000003 -0.059877 -0.997306
-0.463571 -0.099841 0.106194 -0.054232 -0.758065 -0.649921
0.309727 0.033834 -0.090041 0.000515 0.293841 -0.954950
0.119860 -0.049387 0.082541 0.000009 -0.487111 0.872314
0.234775 -0.008645 -0.095798 0.000011 -0.059856 -0.997308
-1.483552 -0.086641 0.041779 0.000002 -0.912535 0.406799
-0.859373 -0.050709 -0.081736 0.000033 -0.576132 -0.816261
0.544499 -0.092712 -0.025625 0.000044 -0.977087 -0.208465
1.408666 0.082410 0.049606 -0.000117 0.840314 0.540429
1.613455 0.086648 0.041764 -0.000022 0.912535 0.406803
1.058973 0.000000 -0.096188 0.000000 -0.029896 -0.998657
-0.778956 0.091925 -0.028319 0.001099 0.941804 -0.333396
0.384599 -0.008627 -0.095800 -0.000000 -0.059798 -0.997313
-0.404653 -0.223749 0.245803 -0.036399 0.725458 0.687303
0.392015 0.055813 -0.078339 -0.000065 0.564984 -0.824192
1.855638 -0.009571 0.046332 1.000000 0.000000 0.000000
-1.488557 0.096188 -0.000000 0.000001 0.998655 0.029909
-0.074694 -0.131186 0.158731 0.054256 0.738413 0.672162
-0.058934 -0.315931 0.360413 0.054256 0.738413 0.672162
0.684589 0.080477 0.052683 0.000661 0.819394 0.571606
0.054964 -0.077756 0.056622 -0.000788 -0.791214 0.610123
1.791651 0.090635 0.025179 0.157446 0.964401 0.208674
0.399628 -0.094641 -0.017182 0.000002 -0.991948 -0.119361
1.143872 -0.025622 0.092713 0.000001 -0.237138 0.970553
0.869153 0.094637 -0.017201 0.000653 0.991730 -0.120862
1.533495 -0.025622 0.092713 0.000001 -0.237138 0.970553
0.914147 0.041767 -0.086647 0.000004 0.379282 -0.924309
-0.156297 0.072944 -0.099779 -0.036399 -0.725458 -0.687303
0.066051 -0.259691 0.288541 0.054256 0.738413 0.672162
0.324685 -0.008625 -0.095800 -0.000011 -0.029901 -0.998656
-0.994030 -0.041816 0.086623 0.000006 -0.407082 0.912411
-1.263456 0.069548 0.066446 0.000181 0.762553 0.645555
-0.131467 -0.222154 0.258587 -0.036399 0.725458 0.687303
1.593447 -0.092714 -0.025616 -0.000002 -0.970561 -0.237103
0.489578 -0.082552 -0.049369 -0.000003 -0.886580 -0.460631
1.318563 0.107711 -0.124259 -0.178227 -0.431397 -0.884382
1.652076 0.114832 -0.106985 -0.000000 0.739503 0.673154
-0.422952 -0.061760 -0.073852 -0.000000 0.673154 0.739503
-0.659361 0.096188 -0.000000 -0.000122 0.998542 0.031141
1.739672 -0.066453 0.092168 -0.000000 0.739503 0.673154
-0.286760 -0.323986 -0.352881 -0.054232 -0.758065 0.649921
-0.380718 -0.253193 0.278149 -0.036399 0.725458 0.687303
-0.335420 0.098599 -0.094052 -0.054232 0.758065 0.649921
-1.868027 -0.042801 0.067278 -0.331211 -0.466621 0.818497
0.025221 0.098357 0.098283 0.080777 0.737086 -0.670954
1.790457 -0.163474 0.160422 0.000000 -0.739503 -0.673154
-1.483562 -0.092714 -0.025617 0.001104 -0.977021 -0.208927
1.305382 -0.092329 -0.082265 0.000000 -0.739503 0.673154
-0.096817 -0.088446 -0.037808 0.000112 -0.909968 -0.412214
-1.583356 -0.066532 -0.069466 0.000513 -0.667913 -0.743003
-0.063279 0.171638 0.168132 0.080777 0.737086 -0.670954
1.772424 0.113738 0.144113 -0.000000 -0.739503 0.673154
-1.666614 0.044747 -0.085145 0.000957 0.490296 -0.870159
1.812058 -0.008622 -0.090422 0.156846 -0.031027 -0.986158
0.629397 -0.090060 0.033784 0.000022 -0.924387 0.379101
0.031710 -0.187363 0.211856 0.054256 0.738413 0.672162
1.571004 0.191546 -0.196131 -0.178227 0.920923 0.346607
-0.354022 -0.092734 -0.025542 -0.000845 -0.943901 -0.326739
-0.043542 0.401916 0.423483 0.035795 0.745274 -0.664998
-0.598974 0.094474 -0.018075 -0.000023 0.986448 -0.157363
-0.184206 0.027636 0.092132 -0.000795 0.246547 0.967984
-0.042538 0.327426 -0.371718 0.054256 -0.738413 -0.672162
-0.359299 0.190034 -0.202693 -0.054232 0.758065 0.649921
1.704724 -0.070484 -0.096596 -0.000000 0.739503 -0.673154
1.574896 0.115106 -0.145617 0.000000 -0.739503 -0.673154
0.954113 -0.086649 0.041761 0.000011 -0.912606 0.406645
0.018800 0.535070 0.577266 0.080777 0.737086 -0.670954
-1.438568 -0.090045 -0.033821 -0.000595 -0.945482 -0.322938
0.041498 0.609142 0.661373 0.080777 0.737086 -0.670954
-0.372459 -0.052713 -0.080458 0.001107 -0.518340 -0.854312
0.258567 -0.089829 0.034393 -0.000345 -0.944633 0.325269
0.035694 -0.640022 0.694597 -0.009208 -0.752266 -0.657987
0.106364 -0.312771 0.343599 0.080777 -0.737086 -0.670954
-0.089293 0.242103 -0.242411 0.080777 0.737086 0.670954
1.698353 0.096188 -0.000000 -0.000001 0.998652 0.029951
-0.787282 -0.084845 -0.045315 -0.001696 -0.863792 -0.502230
0.914147 -0.041767 -0.086647 0.000023 -0.379262 -0.924321
0.060394 0.147645 0.165908 0.054256 -0.738413 0.672162
1.550019 0.094662 -0.017063 0.000348 0.988242 -0.147146
-0.089881 -0.295498 -0.303225 -0.054232 -0.758065 0.649921
-0.157089 -0.447205 0.494774 -0.036399 0.725458 0.687303
1.129897 0.051053 -0.081521 -0.000274 0.579240 -0.814083
0.084950 -0.041763 -0.086648 -0.000174 -0.407056 -0.912409
-1.060437 0.091871 0.028492 0.000048 0.931780 0.359837
-1.487325 0.085550 -0.043968 -0.000174 0.873420 -0.485300
0.774247 0.056556 0.077804 0.000842 0.539753 0.840709
-0.115502 0.083229 0.109341 0.054256 -0.738413 0.672162
1.742030 -0.188471 -0.226213 -0.000000 0.739503 -0.673154
-0.685421 -0.077422 0.057078 0.000095 -0.838478 0.543380
-0.096424 0.394436 -0.442289 -0.036399 -0.725458 -0.687303
1.277404 -0.067315 0.073950 0.000000 0.673154 -0.739503
1.527273 0.186289 0.204650 -0.178227 -0.431397 0.884382
0.003302 0.481903 0.516993 0.080777 0.737086 -0.670954
-0.088708 -0.612415 0.672777 -0.036399 0.725458 0.687303
-0.263750 -0.023632 -0.093240 0.000006 -0.221869 -0.974308
0.010212 0.163773 -0.168340 0.080777 0.737086 0.670954
-1.093248 -0.042642 0.086219 -0.000010 -0.410276 0.910985
-0.165228 0.150647 -0.140559 -0.054232 0.758065 0.649921
-0.174122 -0.009380 -0.095729 -0.000372 -0.033664 -0.998403
-0.229494 0.346388 -0.384526 -0.036399 -0.725458 -0.687303
-0.182845 -0.093193 -0.023815 -0.000225 -0.957123 -0.286769
-0.275709 -0.084760 -0.045473 -0.000824 -0.860413 -0.507995
1.098973 -0.082531 0.049403 0.000014 -0.872327 0.487090
1.809501 0.192558 0.192373 -0.000000 0.739503 -0.673154
-0.839170 0.049403 -0.082531 -0.000003 0.487061 -0.872341
-0.136264 0.250663 0.254799 -0.054232 0.758065 -0.649921
0.834237 -0.086654 -0.041751 -0.000001 -0.912585 -0.406690
-0.091487 0.290672 0.297730 -0.054232 0.758065 -0.649921
-0.179799 0.094432 -0.018295 0.000276 0.986453 -0.157379
-0.255918 0.193742 -0.222006 -0.036399 -0.725458 -0.687303
0.713685 -0.064797 -0.071088 -0.000102 -0.725323 -0.686526
0.179823 0.094634 -0.017216 -0.000017 0.987902 -0.149184
0.341901 -0.082364 -0.049681 0.001206 -0.867828 -0.495588
-1.613407 -0.008627 0.095800 -0.000000 -0.059793 0.997313
-1.128930 0.017202 -0.094637 -0.000006 0.149072 -0.987919
1.638837 0.123399 0.154727 0.000000 -0.739503 0.673154
-1.138839 -0.033828 0.090043 0.000075 -0.323313 0.945340
1.338671 0.017202 -0.094637 0.000002 0.149093 -0.987915
0.149440 0.075964 0.059005 0.000542 0.792497 0.608603
0.379637 0.094635 -0.017213 -0.000117 0.987931 -0.149026
-1.378663 -0.000000 0.096188 0.000001 0.029900 0.998656
1.448593 -0.033840 0.090039 0.000005 -0.323236 0.945371
-0.834137 -0.077729 0.056660 -0.000051 -0.824799 0.563840
0.489513 0.094637 0.017202 0.000144 0.977296 0.207608
0.354639 0.086652 0.041756 -0.000036 0.886514 0.460760
0.534485 -0.092703 0.025654 0.000021 -0.970526 0.237251
0.824229 -0.095800 0.008627 -0.000000 -0.997311 0.059814
0.869163 -0.049401 0.082532 -0.000216 -0.489253 0.871022
-1.523551 0.008627 -0.095800 0.000000 0.059792 -0.997313
0.634398 -0.025618 -0.092714 0.000004 -0.207996 -0.977213
0.304694 0.092713 0.025620 -0.000227 0.976659 0.209990
-1.568487 -0.090038 -0.033840 0.000014 -0.924229 -0.379483
0.749273 -0.096188 -0.000000 0.000015 -0.998653 -0.029935
-1.393674 0.008630 -0.095800 -0.000007 0.059801 -0.997312
-0.229777 -0.000000 0.096188 0.000264 0.030393 0.998611
0.994132 0.069600 -0.066392 -0.000027 0.701768 -0.711147
-1.543517 -0.086639 0.041782 0.000005 -0.912506 0.406866
-0.524330 -0.076527 -0.084070 -0.054232 -0.758065 0.649921
-0.264756 0.086565 0.041936 0.000083 0.885790 0.462177
0.499499 -0.033847 0.090036 0.000020 -0.323517 0.945271
-0.269738 -0.096188 -0.000000 0.000005 -0.998659 -0.029832
1.064101 0.080211 -0.053087 0.000139 0.816047 -0.576443
0.764253 0.092704 0.025653 -0.000017 0.970504 0.237334
-1.341403 0.087434 0.040093 -0.000176 0.919483 0.391347
1.704656 -0.198665 0.237411 -0.000000 0.739503 0.673154
0.064885 -0.132226 0.148606 0.054256 0.738413 0.672162
-1.891839 -0.052989 -0.044821 -0.442964 -0.641490 -0.624388
-1.413326 0.080649 -0.052420 -0.000031 0.820530 -0.570032
1.789260 -0.137052 -0.169725 -0.000000 0.739503 -0.673154
1.539560 0.073598 0.061687 -0.121430 -0.668172 -0.734030
0.066828 0.067119 0.068974 0.000000 -0.673154 -0.739503
0.589479 -0.082542 0.049385 -0.000420 -0.872015 0.487599
-0.608008 -0.069161 0.066849 0.000045 -0.741261 0.670001
0.889091 0.082550 0.049372 0.000002 0.872383 0.486985
-0.200102 -0.234001 -0.267456 -0.036399 0.725458 -0.687303
1.855638 -0.081481 0.020096 1.000000 0.000000 -0.000000
1.737261 0.200278 0.239183 -0.000000 -0.739503 0.673154
1.398633 0.033888 0.090021 -0.001402 0.335958 0.940583
0.603942 0.056590 -0.077780 0.000072 0.614224 -0.788032
-0.077674 0.564858 0.616387 -0.054232 0.758065 -0.649921
-0.351372 -0.147964 0.168633 -0.036399 0.725458 0.687303
0.032368 0.244640 0.274725 0.054256 -0.738413 0.672162
-0.061827 0.108950 0.133264 0.054256 -0.738413 0.672162
1.248789 -0.000000 0.096188 -0.000006 0.029920 0.998654
1.693413 -0.086646 0.041768 -0.000134 -0.912595 0.406673
-0.934065 0.056579 0.077787 -0.000030 0.538392 0.841634
1.368726 -0.082552 0.049369 -0.000223 -0.886384 0.460958
0.006408 -0.164970 -0.189299 0.054256 0.738413 -0.672162
-1.504214 -0.054292 -0.079401 -0.000613 -0.578544 -0.814659
1.772662 -0.065045 -0.090621 0.000000 0.739503 -0.673154
0.066677 -0.298233 0.322850 0.080777 -0.737086 -0.670954
-0.399560 0.082416 0.049595 0.000070 0.840759 0.539768
1.760458 0.070330 0.058097 0.000000 0.739503 -0.673154
1.304555 -0.100504 0.091245 -0.120132 -0.872696 -0.462977
0.008316 0.459096 -0.492542 0.080777 0.737086 0.670954
1.457109 -0.143427 -0.138399 0.000000 -0.739503 0.673154
-0.459165 0.090350 0.102111 -0.036399 -0.725458 0.687303
-0.002872 -0.575511 0.638370 -0.036399 0.725458 0.687303
-0.419874 0.094878 -0.015822 0.001141 0.988276 -0.146767
-0.402993 0.168052 -0.187101 -0.036399 -0.725458 -0.687303
-0.224749 -0.416724 -0.455876 -0.054232 -0.758065 0.649921
-0.455591 -0.079101 0.054728 -0.001138 -0.801875 0.595405
-0.063811 0.581935 -0.641924 -0.036399 -0.725458 -0.687303
-1.268754 -0.075194 -0.059982 0.000084 -0.799611 -0.599026
-0.792065 0.077664 0.056748 -0.000021 0.785677 0.617239
0.624378 0.095799 -0.008641 0.000422 0.997242 -0.060570
-0.914121 0.077774 -0.056597 0.000010 0.841532 -0.538545
-0.265829 0.394527 0.433413 -0.054232 0.758065 -0.649921
-0.970828 0.094384 0.018539 0.001278 0.987779 0.149780
0.066532 0.434910 0.480992 0.054256 -0.738413 0.672162
-1.123948 -0.025595 -0.092720 -0.000008 -0.294780 -0.954626
1.480688 -0.078174 0.105044 -0.000000 0.739503 0.673154
-0.038337 0.368670 -0.416687 0.054256 -0.738413 -0.672162
1.779688 -0.249424 -0.254844 0.000000 -0.739503 0.673154
1.841764 0.116436 -0.134301 0.404699 -0.666813 -0.625763
0.223792 0.095837 0.008204 0.000621 0.997403 0.058577
-0.136041 0.288125 0.298477 -0.054232 0.758065 -0.649921
1.510606 -0.149411 0.183302 -0.115783 0.550139 0.820201
-0.288207 0.308353 0.334768 -0.054232 0.758065 -0.649921
0.134872 0.095798 -0.008645 -0.000177 0.997352 -0.058794
1.813069 -0.106877 -0.098246 -0.000000 -0.739503 0.673154
1.812552 -0.263748 -0.299926 -0.178227 0.431397 -0.884382
1.356001 0.129776 0.142568 -0.178227 -0.431397 0.884382
-0.252107 -0.389212 0.428529 -0.036399 0.725458 0.687303
1.743312 -0.092703 0.025654 0.000029 -0.970520 0.237272
1.482847 -0.147034 0.142361 -0.000000 -0.739503 -0.673154
-1.658393 -0.017186 -0.094640 -0.000001 -0.149015 -0.987929
0.629475 -0.072407 -0.063319 -0.001066 -0.770167 -0.636340
1.613263 0.080470 0.107566 0.000000 -0.739503 0.673154
0.140504 -0.090473 0.032662 -0.000955 -0.946599 0.319736
1.734244 -0.243548 -0.274291 -0.178227 0.431397 -0.884382
0.031074 0.595842 -0.660648 0.054256 -0.738413 -0.672162
-0.220208 -0.118313 -0.107432 -0.054232 -0.758065 0.649921
1.807377 -0.205958 -0.207093 -0.000000 -0.739503 0.673154
1.813069 -0.106877 0.098246 0.000000 -0.739503 -0.673154
0.106364 0.111672 0.122679 0.054256 -0.738413 0.672162
0.031072 -0.595816 0.660620 0.054256 0.738413 0.672162
-1.540294 0.072738 -0.062939 -0.000226 0.733903 -0.678090
-0.400244 0.081039 -0.095404 -0.036399 -0.725458 -0.687303
1.705685 0.088648 -0.078221 -0.000000 0.739503 0.673154
-1.230189 -0.094938 0.015456 -0.000112 -0.990657 0.132003
-0.331057 0.252688 0.273416 -0.054232 0.758065 -0.649921
-0.098418 -0.364144 0.410210 -0.036399 0.725458 0.687303
1.009011 0.033888 0.090021 -0.000001 0.323629 0.945233
-0.144846 -0.025623 0.092712 -0.000303 -0.238391 0.970206
-0.193205 -0.074770 -0.060510 0.000267 -0.740665 -0.670733
1.491148 0.149037 0.144562 -0.000000 0.739503 -0.673154
-0.051387 0.159721 -0.156472 0.080777 0.737086 0.670954
1.695592 0.214876 -0.216891 0.000000 0.739503 0.673154
-0.117413 -0.130403 0.161319 0.054256 0.738413 0.672162
-0.084354 0.079245 -0.054518 -0.000122 0.808764 -0.586716
1.224872 0.078069 0.056190 0.000446 0.844708 0.533608
-0.286894 -0.189706 0.196269 -0.054232 -0.758065 -0.649921
-0.171669 0.103420 0.131132 -0.036399 -0.725458 0.687303
-0.115151 0.364646 0.409854 -0.036399 -0.725458 0.687303
1.750924 -0.205861 0.245317 0.000000 0.739503 0.673154
-1.886204 0.009392 0.071495 -0.436557 0.178933 0.879544
1.446300 0.078485 -0.105385 0.000000 -0.739503 -0.673154
1.197683 0.034832 -0.089660 0.000548 0.329776 -0.942947
-0.100884 0.276557 -0.317629 -0.036399 -0.725458 -0.687303
-0.335524 -0.199308 0.223666 -0.036399 0.725458 0.687303
1.679143 0.197816 0.236478 0.000000 -0.739503 0.673154
1.175059 -0.085195 -0.044652 0.000327 -0.899656 -0.434686
0.749313 -0.082565 -0.049346 0.000012 -0.841757 -0.538193
0.005713 -0.539851 -0.601186 0.024044 0.734621 -0.677698
1.855638 0.000000 -0.041961 1.000000 -0.000000 -0.000000
1.592809 -0.127969 -0.121418 -0.000000 -0.739503 0.673154
-0.307810 0.139787 -0.162308 -0.036399 -0.725458 -0.687303
0.059072 0.168284 -0.179177 0.080777 0.737086 0.670954
1.701892 0.105128 0.134655 0.000000 -0.739503 0.673154
-0.010494 -0.102666 0.122217 0.054256 0.738413 0.672162
-0.305839 -0.088224 -0.107987 -0.036399 0.725458 -0.687303
-0.312001 0.073665 0.063015 0.000000 -0.673154 -0.739503
0.970749 0.049281 0.082604 -0.000466 0.540422 0.840380
-1.737283 -0.094486 0.018015 0.000314 -0.986231 0.158519
1.779878 0.147656 0.181374 -0.000000 -0.739503 0.673154
1.519215 0.094203 -0.084323 -0.000000 0.739503 0.673154
-1.848653 -0.024823 -0.082496 -0.252777 -0.303987 -0.916623
1.268677 0.060090 0.075108 0.000118 0.646367 0.761854
-0.295694 0.124581 0.121042 -0.054232 0.758065 -0.649921
0.003440 -0.425805 0.476082 0.054256 0.738413 0.672162
1.417963 -0.034381 -0.089833 0.000753 -0.330358 -0.942718
-0.965860 -0.094003 0.020383 0.000526 -0.961973 0.269575
-0.062961 -0.603229 -0.659914 -0.054232 -0.758065 0.649921
0.066429 -0.289654 -0.321427 0.054256 0.738413 -0.672162
1.615589 -0.100794 0.129894 0.000000 0.739503 0.673154
-1.598450 -0.017184 -0.094640 0.000000 -0.148998 -0.987931
0.095947 0.312830 0.342409 0.080777 0.737086 -0.670954
-0.182320 0.091446 -0.072933 -0.054232 0.758065 0.649921
1.838210 -0.172305 0.196133 0.404699 0.666813 0.625763
1.638016 0.190872 -0.190520 0.000000 0.739503 0.673154
-0.211848 0.203271 0.234398 -0.036399 -0.725458 0.687303
-1.170353 -0.080150 0.053180 0.000028 -0.842123 0.537559
-0.367313 -0.079836 0.053650 0.000063 -0.807603 0.588210
-0.087360 0.341655 0.356852 -0.054232 0.758065 -0.649921
-1.572241 0.087475 -0.040002 -0.000234 0.899968 -0.433916
1.779072 0.080188 -0.068926 0.000000 0.739503 0.673154
-0.044610 -0.136835 -0.132146 0.080777 -0.737086 0.670954
0.067638 -0.381612 0.422351 0.054256 0.738413 0.672162
-0.080947 -0.101523 -0.088979 0.080777 -0.737086 0.670954
1.512850 0.107707 0.099158 -0.000000 0.739503 -0.673154
0.094880 0.008627 -0.095800 -0.000001 0.059796 -0.997313
-1.311314 -0.090301 0.033133 -0.000219 -0.922767 0.383078
-1.666042 -0.082152 0.050031 0.000151 -0.838679 0.543225
-1.039015 0.094639 -0.017191 0.000011 0.991938 -0.119444
1.213951 -0.080317 0.052926 -0.000210 -0.801305 0.596611
0.042753 -0.235674 -0.264038 0.054256 0.738413 -0.672162
1.762636 0.229131 -0.232550 0.000000 0.739503 0.673154
1.585628 -0.111469 0.103291 0.000000 -0.739503 -0.673154
1.841721 -0.123626 0.129422 0.404699 -0.685507 -0.605226
-0.142940 -0.145019 0.132134 -0.054232 -0.758065 -0.649921
1.503518 0.025637 0.092708 0.000321 0.238558 0.970164
-0.209626 -0.084256 0.046400 0.001049 -0.865771 0.498580
1.100321 0.094913 -0.015608 -0.002502 0.976597 -0.212442
-0.168936 0.427039 -0.472861 -0.036399 -0.725458 -0.687303
-0.013962 -0.400937 -0.425969 0.080777 -0.737086 0.670954
0.098222 0.088478 -0.097856 0.054256 -0.738413 -0.672162
-0.254312 0.110279 0.133995 -0.036399 -0.725458 0.687303
1.618679 -0.067082 0.054529 -0.121430 0.668172 -0.734030
-0.023285 0.044198 0.085432 -0.000897 0.485475 0.873097
-0.036505 0.483622 0.539599 -0.036399 -0.725458 0.687303
-0.729293 -0.096188 0.000000 -0.003593 -0.997119 -0.060193
0.063683 0.403563 -0.446785 0.054256 -0.738413 -0.672162
0.444548 -0.008636 -0.095799 0.000005 -0.059857 -0.997307
1.625775 -0.089994 -0.079699 -0.000000 -0.739503 0.673154
1.598440 0.033888 0.090021 -0.000840 0.333868 0.941377
0.143868 0.028082 0.091997 -0.000953 0.350710 0.935146
-0.340970 -0.178159 -0.187312 -0.054232 -0.758065 0.649921
-0.095592 0.217059 0.214140 0.080777 0.737086 -0.670954
1.430532 0.099460 0.128428 -0.000000 -0.739503 0.673154
0.036163 -0.346310 -0.371992 0.080777 -0.737086 0.670954
1.653390 -0.025620 0.092713 -0.000008 -0.237092 0.970563
-0.269321 -0.062089 0.073464 -0.001002 -0.615240 0.787667
-0.367207 0.163610 0.172533 -0.054232 0.758065 -0.649921
0.033620 0.359968 -0.386690 0.080777 0.737086 0.670954
-0.436164 -0.041421 0.086812 0.000150 -0.405649 0.913050
0.096984 -0.082694 -0.091601 0.054256 0.738413 -0.672162
-0.416271 -0.089361 0.035591 0.000081 -0.918724 0.392569
-0.156500 0.359793 0.402541 -0.036399 -0.725458 0.687303
-0.093340 -0.090470 0.115507 0.054256 0.738413 0.672162
0.070458 -0.181154 0.194687 0.080777 -0.737086 -0.670954
1.544506 0.153304 -0.187579 0.000000 -0.739503 -0.673154
-0.114249 0.150820 -0.139126 0.080777 0.737086 0.670954
1.441302 -0.149723 0.151704 -0.178227 -0.920923 -0.346607
0.106364 -0.265848 -0.292051 0.080777 -0.737086 0.670954
0.069856 0.316178 -0.342946 0.080777 0.737086 0.670954
-0.123046 -0.032103 -0.090672 0.000022 -0.360500 -0.931830
0.096984 -0.082694 0.091601 0.054256 0.738413 0.672162
-1.024177 -0.080302 0.052949 0.000064 -0.816854 0.575311
-0.193336 0.134218 0.162492 -0.036399 -0.725458 0.687303
-0.351400 0.127341 -0.146863 -0.036399 -0.725458 -0.687303
1.816896 -0.216731 0.257257 0.137885 0.725645 0.666937
-0.970467 -0.092352 -0.026891 -0.000173 -0.950487 -0.307700
-0.017167 -0.280304 -0.293060 0.080777 -0.737086 0.670954
0.069670 0.549804 0.599577 0.080777 0.737086 -0.670954
-0.619367 -0.034959 0.089610 -0.000622 -0.397131 0.916693
-1.196810 0.070678 -0.065244 0.001198 0.766153 -0.641717
-1.887354 0.030759 -0.064624 -0.409267 0.396202 -0.820226
1.495166 0.167496 -0.171228 -0.178227 0.920923 0.346607
-1.910175 -0.056772 0.017391 -0.500590 -0.810705 0.297563
-1.103457 -0.082567 -0.049344 0.000060 -0.884707 -0.464369
-0.165222 -0.102171 0.084015 -0.054232 -0.758065 -0.649921
-0.188264 0.311902 -0.330567 -0.054232 0.758065 0.649921
-0.065492 0.239566 0.277051 0.054256 -0.738413 0.672162
-0.214114 -0.164363 -0.160636 -0.054232 -0.758065 0.649921
1.413857 -0.057520 0.077094 -0.000645 -0.567365 0.822228
-0.433376 0.188416 -0.206987 -0.036399 -0.725458 -0.687303
1.716658 0.236479 0.240623 -0.060723 0.812223 -0.571826
1.751865 -0.126041 -0.119300 0.000000 -0.739503 0.673154
-0.039571 0.095250 -0.116418 0.054256 -0.738413 -0.672162
0.317931 0.087919 -0.039018 -0.000746 0.902001 -0.429974
-0.227992 -0.137618 0.164246 -0.036399 0.725458 0.687303
-0.202803 0.402202 0.437107 -0.054232 0.758065 -0.649921
-0.654400 -0.093754 -0.021502 -0.000101 -0.981822 -0.182162
-0.121066 -0.346486 -0.365299 -0.054232 -0.758065 0.649921
-0.282867 -0.154249 0.154576 -0.054232 -0.758065 -0.649921
0.061041 0.628218 0.693797 0.054256 -0.738413 0.672162
-0.225509 0.310833 0.347208 -0.036399 -0.725458 0.687303
1.357140 0.091769 -0.119979 0.000000 -0.739503 -0.673154
0.025601 0.637689 -0.692718 -0.054232 0.758065 0.649921
-0.303227 -0.183060 -0.208226 -0.036399 0.725458 -0.687303
-0.184862 -0.147010 -0.137954 -0.054232 -0.758065 0.649921
1.665119 0.071530 -0.097745 -0.000000 -0.739503 -0.673154
-0.130830 -0.505485 -0.551570 -0.054232 -0.758065 0.649921
1.824107 -0.074361 -0.048759 0.157033 -0.844947 -0.509348
1.836349 0.229031 0.245217 0.404699 0.685507 -0.605226
-1.463553 0.025604 0.092718 0.000051 0.237105 0.970558
-0.122352 -0.092154 -0.073701 0.080777 -0.737086 0.670954
-0.148091 -0.150719 -0.182306 -0.036399 0.725458 -0.687303
1.158094 0.087497 0.039955 -0.001065 0.916365 0.399044
0.000028 -0.142436 0.165059 0.054256 0.738413 0.672162
-0.123644 -0.211997 -0.208647 -0.054232 -0.758065 0.649921
1.495937 -0.063988 -0.089459 -0.000000 0.739503 -0.673154
1.229801 0.088136 -0.096823 -0.178227 0.920923 0.346607
1.635445 0.221980 -0.243860 -0.178227 0.920923 0.346607
-1.537519 0.094424 0.018334 0.001769 0.987298 0.152550
-0.089292 -0.242100 0.242407 0.080777 -0.737086 -0.670954
-0.046095 0.284586 0.324942 0.054256 -0.738413 0.672162
0.215878 0.081606 0.050917 0.000463 0.876635 0.479063
-0.079543 -0.113708 -0.139922 0.054256 0.738413 -0.672162
1.734603 -0.254698 0.279802 -0.178227 -0.920923 -0.346607
-0.402993 -0.168052 0.187101 -0.036399 0.725458 0.687303
0.067526 0.344458 0.381544 0.054256 -0.738413 0.672162
1.822309 -0.110541 -0.140601 0.137885 0.725645 -0.666937
1.749412 -0.156073 -0.190621 -0.000000 0.739503 -0.673154
1.459960 0.040613 -0.087193 -0.000896 0.472977 -0.880253
1.671645 -0.098025 -0.088522 0.000000 -0.739503 0.673154
0.010171 -0.669430 -0.731028 -0.054232 -0.758065 0.649921
0.459411 -0.063456 -0.072287 0.000031 -0.635936 -0.770580
-0.058288 -0.192321 -0.224567 0.054256 0.738413 -0.672162
-1.473555 0.025617 -0.092714 -0.000352 0.238105 -0.970282
1.464929 0.126995 -0.158677 0.000000 -0.739503 -0.673154
0.054944 -0.008645 0.095798 -0.000006 -0.059875 0.997306
-0.158768 -0.399346 0.430100 -0.054232 -0.758065 -0.649921
0.569447 0.017186 -0.094640 0.000001 0.149044 -0.987923
-0.344667 0.092716 0.025611 -0.000004 0.977223 0.207953
0.459554 -0.096188 -0.000000 -0.000003 -0.998655 -0.029915
-0.299709 -0.000000 0.096188 -0.000121 0.030559 0.998596
0.939089 0.000000 -0.096188 0.000003 -0.029904 -0.998656
-0.599419 -0.000000 0.096188 -0.000005 0.029925 0.998654
-0.044960 0.008645 0.095798 0.000262 0.060312 0.997266
0.239766 0.017197 0.094638 -0.000000 0.149101 0.987915
-0.119002 0.473777 0.513598 -0.054232 0.758065 -0.649921
-0.894123 -0.095798 -0.008645 -0.000275 -0.997377 -0.059075
-0.366624 -0.129418 0.132602 -0.054232 -0.758065 -0.649921
0.032396 0.193696 0.203883 0.080777 0.737086 -0.670954
1.813069 0.087796 -0.115615 -0.000000 -0.739503 -0.673154
-0.299338 0.353304 0.388128 -0.054232 0.758065 -0.649921
-0.131792 -0.559415 0.614554 -0.036399 0.725458 0.687303
-0.122218 0.571193 -0.627492 -0.036399 -0.725458 -0.687303
-0.103069 0.594749 0.653369 -0.054232 0.758065 -0.649921
-0.040838 0.671304 0.737471 -0.054232 0.758065 -0.649921
-0.174875 -0.506415 0.556330 -0.036399 0.725458 0.687303
-0.198810 0.476971 -0.523983 -0.036399 -0.725458 -0.687303
-0.280190 -0.376860 -0.414005 -0.054232 -0.758065 0.649921
-0.399866 0.229638 -0.252272 -0.036399 -0.725458 -0.687303
-0.079283 -0.475967 -0.512838 -0.054232 -0.758065 0.649921
1.778276 0.039140 -0.087864 0.131507 0.392390 -0.908524
0.063355 0.209085 0.224516 0.080777 0.737086 -0.670954
1.660442 -0.211513 -0.213196 0.000000 -0.739503 0.673154
-0.103228 -0.288225 0.295856 -0.054232 -0.758065 -0.649921
0.106364 -0.339585 0.373055 0.080777 -0.737086 -0.670954
0.106364 -0.607717 0.667616 0.080777 -0.737086 -0.670954
0.106364 0.621123 -0.682344 0.080777 0.737086 0.670954
0.106364 -0.668046 -0.733892 0.080777 -0.737086 0.670954
0.106364 0.326178 -0.358327 0.080777 0.737086 0.670954
0.106364 -0.440134 -0.483516 0.080777 -0.737086 0.670954
0.106364 -0.614420 -0.674980 0.080777 -0.737086 0.670954
0.106364 0.366398 0.402511 0.054256 -0.738413 0.672162
0.106364 -0.493761 -0.542428 0.080777 -0.737086 0.670954
-0.244152 0.093647 -0.080659 -0.054232 0.758065 0.649921
0.579438 0.096188 -0.000000 0.000004 0.998652 0.029949
0.514547 0.056602 -0.077771 0.000009 0.538756 -0.841377
-0.021076 -0.074309 -0.091920 0.054256 0.738413 -0.672162
-0.129874 -0.096188 -0.000000 0.000573 -0.999041 -0.022580
-0.130101 0.193767 -0.187922 -0.054232 0.758065 0.649921
-0.754276 0.041815 -0.086623 -0.000019 0.407027 -0.912436
0.559486 -0.049388 -0.082540 0.000284 -0.487314 -0.872184
0.274753 0.069562 0.066432 -0.000098 0.700561 0.712400
1.328706 -0.033849 0.090035 0.000006 -0.323374 0.945323
-1.308714 0.033842 0.090038 0.000174 0.323639 0.945223
0.074963 -0.041805 0.086628 0.000024 -0.406999 0.912447
-1.063975 0.077774 -0.056597 0.000006 0.841530 -0.538546
1.233829 -0.095800 0.008630 -0.000002 -0.997310 0.059824
1.014020 -0.008645 0.095798 0.000008 -0.059873 0.997306
-1.528520 -0.033835 0.090040 0.000145 -0.323823 0.945149
1.855638 -0.038952 0.074335 1.000000 0.000000 -0.000000
0.334703 -0.092713 0.025619 0.000003 -0.970532 0.237221
-1.188827 0.033821 0.090046 0.000005 0.323169 0.945393
1.458586 -0.096188 -0.000000 -0.000002 -0.998655 -0.029909
1.068960 -0.017184 0.094640 0.000001 -0.149025 0.987927
0.464573 -0.008633 0.095800 -0.000004 -0.059831 0.997310
-1.333707 -0.008625 -0.095800 0.000009 -0.029918 -0.998655
-1.258564 0.094379 -0.018564 -0.000696 0.987261 -0.152819
-1.005463 0.042445 -0.086316 0.000323 0.413200 -0.909475
0.219157 -0.084740 -0.045510 -0.000046 -0.850404 -0.524428
-0.203373 0.128347 -0.117731 -0.054232 0.758065 0.649921
-0.339650 0.045593 0.084696 -0.000494 0.523553 0.850799
0.189829 -0.049401 0.082532 0.000002 -0.487122 0.872306
1.855638 -0.041961 -0.000000 1.000000 0.000000 0.000000
-1.768285 0.000000 -0.096188 -0.000421 -0.030111 -0.998636
-1.418597 -0.033814 0.090048 0.000943 -0.296483 0.954069
-0.416840 -0.095748 -0.009187 0.000183 -0.986789 -0.156101
1.819890 0.041308 0.079498 0.156865 0.398078 0.902733
1.607874 -0.137841 0.170592 -0.000000 0.739503 0.673154
1.674412 -0.149358 0.144914 0.000000 -0.739503 -0.673154
1.689348 -0.159190 -0.194045 0.000000 0.739503 -0.673154
-0.473108 0.077777 0.056593 -0.000066 0.788791 0.613374
0.086027 0.142395 -0.153981 0.080777 0.737086 0.670954
0.045643 0.504028 -0.558608 0.054256 -0.738413 -0.672162
-0.058052 -0.508719 -0.564948 -0.036399 0.725458 -0.687303
1.772424 -0.132818 0.126744 0.000000 -0.739503 -0.673154
1.844129 0.263826 0.289829 0.404699 0.685507 -0.605226
1.848529 0.177491 -0.194986 0.404699 0.685507 0.605226
1.846498 -0.217338 -0.238760 0.404699 -0.685507 0.605226
1.853607 -0.077875 -0.085551 0.404699 -0.685507 0.605226
-0.010952 -0.284259 0.321746 0.054256 0.738413 0.672162
0.017279 -0.669519 0.738664 -0.036399 0.725458 0.687303
-0.213332 -0.321642 0.344019 -0.054232 -0.758065 -0.649921
-0.491996 -0.095500 -0.011482 0.002446 -0.982720 -0.179729
-0.165301 0.518193 -0.569268 -0.036399 -0.725458 -0.687303
-0.022866 0.171295 0.172620 0.080777 0.737086 -0.670954
1.564359 -0.167147 0.202787 -0.120132 0.542735 0.825461
-0.393166 -0.096919 0.096910 -0.054232 -0.758065 -0.649921
-0.054249 -0.353660 0.401482 -0.007039 0.730163 0.682875
-1.648387 -0.094638 -0.017194 -0.000256 -0.987852 -0.149435
-0.228814 -0.387143 -0.421712 -0.054232 -0.758065 0.649921
1.672022 -0.104925 -0.134432 -0.000000 0.739503 -0.673154
-0.533740 0.087103 -0.040807 -0.000166 0.891371 -0.451289
-0.004172 0.085412 -0.044237 -0.000073 0.875394 -0.481549
1.701331 0.050736 -0.055736 -0.121430 -0.668172 0.734030
1.682995 0.132135 0.164323 -0.000000 -0.739503 0.673154
-0.120738 -0.456342 0.506343 -0.036399 0.725458 0.687303
-1.288750 -0.096188 0.000000 0.000038 -0.998563 -0.030915
-0.210822 0.375302 -0.406400 -0.054232 0.758065 0.649921
-1.548499 0.017184 0.094640 0.000005 0.149020 0.987927
-1.108161 0.033578 0.090136 0.000127 0.378375 0.924714
1.501648 -0.165535 -0.162686 -0.060723 -0.812223 0.571826
-0.158723 -0.176990 0.170741 -0.054232 -0.758065 -0.649921
1.214583 -0.085990 -0.043102 0.000303 -0.906322 -0.420549
1.797616 -0.000000 0.093121 0.156020 -0.030517 0.986340
-1.817436 -0.048177 -0.079622 -0.177945 -0.536414 -0.823043
1.456930 0.090686 -0.032064 -0.000136 0.920074 -0.389480
0.007855 0.556363 -0.599341 0.035795 0.745274 0.664998
-0.104814 0.348353 -0.393203 -0.036399 -0.725458 -0.687303
1.455159 0.162494 0.178510 -0.178227 -0.431397 0.884382
-0.544518 0.046772 -0.084050 -0.000101 0.507870 -0.860467
-0.888761 -0.059884 0.075273 0.000059 -0.645936 0.762218
1.535358 -0.110313 0.140351 0.000000 0.739503 0.673154
-0.006361 0.206875 0.236365 0.054256 -0.738413 0.672162
0.334387 -0.064700 0.071176 0.000759 -0.706192 0.706532
-0.132781 0.472755 -0.523030 -0.036399 -0.725458 -0.687303
-0.192229 -0.369563 -0.398154 -0.054232 -0.758065 0.649921
1.155960 0.076185 -0.058719 0.000117 0.824215 -0.564782
-0.006491 -0.441324 -0.471236 0.080777 -0.737086 0.670954
0.190932 0.016944 0.094684 -0.001489 0.118838 0.992044
0.038683 -0.089054 -0.036352 0.000335 -0.913365 -0.405052
1.815577 -0.079805 0.068506 0.000000 -0.739503 -0.673154
-1.407176 0.057245 0.077299 0.000034 0.609183 0.791889
-0.285756 0.092908 -0.113995 -0.036399 -0.725458 -0.687303
0.076382 -0.358280 0.389984 0.080777 -0.737086 -0.670954
-1.170635 -0.062819 -0.072842 0.000124 -0.674496 -0.737183
-0.058288 0.192321 0.224567 0.054256 -0.738413 0.672162
1.609503 0.113763 -0.105811 0.000000 0.739503 0.673154
1.603718 0.085218 -0.044610 -0.000013 0.856271 -0.514832
-0.254845 0.229541 0.240058 -0.054232 0.758065 -0.649921
-0.254845 -0.229541 0.240058 -0.054232 -0.758065 -0.649921
0.013571 0.293312 -0.311051 0.080777 0.737086 0.670954
-1.342713 -0.051510 0.081233 -0.000816 -0.558849 0.827682
1.662544 0.147123 -0.180789 0.000000 -0.739503 -0.673154
1.722151 0.009784 0.095689 0.001654 0.067684 0.996614
-0.318132 -0.228770 0.244440 -0.054232 -0.758065 -0.649921
0.689308 0.075294 -0.059858 0.000091 0.762869 -0.645170
-0.500394 -0.105971 0.116416 -0.036399 0.725458 0.687303
1.342163 0.056137 -0.078107 0.000233 0.608742 -0.792279
0.016803 -0.611398 -0.662787 -0.054232 -0.758065 0.649921
-0.210258 0.427968 -0.467782 -0.054232 0.758065 0.649921
0.031391 0.509218 0.550382 0.080777 0.737086 -0.670954
0.051339 -0.511175 0.566000 0.054256 0.738413 0.672162
-0.156297 0.072944 0.099779 -0.036399 -0.725458 0.687303
-0.154406 -0.406398 -0.451844 -0.036399 0.725458 -0.687303
1.555127 -0.140209 0.173194 -0.000000 0.739503 0.673154
1.829583 -0.161616 -0.190322 0.404699 0.666813 -0.625763
-0.114681 0.314419 0.356863 -0.036399 -0.725458 0.687303
1.766904 -0.184320 0.183322 0.000000 -0.739503 -0.673154
-0.075746 0.456808 -0.509218 -0.036399 -0.725458 -0.687303
0.044329 -0.478358 -0.518039 0.080777 -0.737086 0.670954
-0.340476 -0.094744 0.016601 0.000651 -0.988913 0.143160
0.106364 -0.507167 0.557156 0.080777 -0.737086 -0.670954
-0.233013 0.144953 -0.139573 -0.054232 0.758065 0.649921
-0.235356 0.132811 0.158782 -0.036399 -0.725458 0.687303
0.046610 0.214210 -0.228130 0.080777 0.737086 0.670954
1.335795 0.070634 0.096760 0.000000 -0.739503 0.673154
-0.258213 -0.339186 -0.375403 -0.036399 0.725458 -0.687303
1.812081 0.120549 0.151596 -0.000000 -0.739503 0.673154
-0.000912 0.590556 -0.639955 -0.054232 0.758065 0.649921
