1.874388 0.470258 0.561438 0.111939 -0.009277 0.007903
3.492812 0.520933 0.591853 0.000000 -0.649753 -0.000353
2.401803 0.488440 0.642873 0.000000 -0.946525 -0.000003
1.300902 0.643190 0.604328 0.000000 0.686538 -0.000021
3.584327 0.648777 0.607100 0.106821 0.001806 -0.002112
3.845946 0.287735 1.006776 -0.134634 0.006261 0.004947
3.309580 0.509718 0.747078 0.000000 -0.649747 0.000348
1.733180 0.865328 0.994505 -0.062134 0.005331 -0.004216
0.431769 0.513982 0.604036 0.000000 -0.686565 -0.000010
2.523206 0.574010 0.579070 0.000000 -0.028380 -0.000347
3.990860 0.578431 0.674259 1.000000 0.000000 0.000000
1.868336 1.011199 0.159788 0.062175 -0.016993 -0.014013
1.485373 0.495007 0.762962 -0.062135 -0.005133 -0.004061
1.624640 0.504784 0.611820 -0.062135 -0.010266 0.008040
1.532670 0.514362 0.603697 0.000000 -0.665668 -0.000011
1.899912 1.118484 0.051755 -0.062134 0.016108 0.012378
1.899912 0.038379 1.296763 0.111939 -0.011068 -0.009415
3.297608 0.673649 0.670858 0.000000 0.999597 -0.000000
3.328878 0.556430 0.581523 0.000001 -0.239913 -0.000040
3.705035 0.640351 0.731560 0.106821 0.001806 0.002112
3.087912 0.576731 0.578992 0.000000 -0.028730 -0.000011
2.517687 0.544488 0.763318 -0.000001 -0.349404 0.000106
1.565473 0.740581 0.854128 -0.062134 0.009161 -0.007194
3.617576 0.720020 0.855044 0.000001 0.760147 -0.000586
1.953590 0.516500 0.601806 0.062175 0.012697 -0.010635
1.469815 0.479372 0.564300 -0.062135 -0.005133 0.004061
3.155051 0.648274 0.609407 -0.000001 0.725272 -0.000009
0.431769 0.665060 0.714008 0.000000 0.903752 0.000005
1.828078 0.759626 0.484039 0.111940 0.004639 0.003962
1.901490 0.196356 0.236299 0.111939 -0.010742 0.009141
2.807398 0.646665 0.607710 0.000000 0.707107 -0.000010
1.011191 0.526687 0.594216 0.000000 -0.552527 -0.000030
3.400805 0.650884 0.604636 0.000000 0.649750 -0.000353
2.865340 0.509727 0.608201 0.000000 -0.727043 -0.000037
3.676531 0.511281 0.741891 0.000000 -0.707107 0.000020
1.610119 0.337977 0.948315 -0.062135 -0.006278 -0.004958
0.257942 0.502569 0.616566 -0.000000 -0.800513 -0.000030
3.792524 0.828923 0.982450 -0.000001 0.760146 -0.000749
1.678759 0.759168 0.482316 -0.062130 0.003377 0.002676
1.377220 0.640363 0.746713 0.000001 -0.649678 -0.000108
3.924381 0.389597 0.453341 -0.134634 -0.005819 0.005365
3.459478 0.673640 0.678000 0.000000 0.999597 0.000000
0.605595 0.558921 0.580969 -0.000000 -0.212460 -0.000091
3.560647 0.509902 0.740502 0.000001 -0.725917 0.000009
2.343861 0.518662 0.600022 0.000000 -0.621923 -0.000050
1.876230 0.352034 0.422808 0.111939 -0.003988 0.003407
1.876230 0.785098 0.902628 0.111940 0.008626 -0.007352
1.706497 0.509610 0.740193 -0.000000 -0.727138 0.000009
1.938266 0.643438 0.743956 -0.000001 0.686559 0.000042
3.786897 0.583363 0.579085 0.000000 0.028380 -0.000044
2.968349 0.483189 0.671708 0.000000 -0.999592 -0.000000
1.753568 0.833126 0.365770 -0.034423 -0.009579 -0.008215
0.182038 0.489260 0.642443 -0.052888 -0.000859 -0.000335
0.721480 0.653436 0.615456 0.000000 0.783076 -0.000031
1.484809 0.396804 0.886746 -0.062134 -0.007700 -0.006065
0.063552 0.576828 0.618134 -0.522395 -0.000000 -0.000012
1.856513 0.092175 0.100314 -0.034424 0.018745 -0.014658
1.791040 0.236534 1.082647 -0.034423 0.015894 0.012848
1.822381 0.506850 0.611333 -0.000000 -0.746259 -0.000035
0.150869 0.668990 0.674259 -0.182550 0.000126 0.000004
0.721480 0.664933 0.714277 -0.000002 0.859657 0.000002
1.069133 0.515950 0.746237 0.000000 -0.665668 0.000011
2.626214 0.578601 0.578949 0.000000 0.028730 -0.000022
1.562785 0.635503 0.750866 0.000000 -0.649750 -0.000650
0.865875 0.581662 0.579036 0.000000 0.028039 -0.000011
0.257942 0.643067 0.744307 0.000001 0.685845 0.000021
3.701752 0.712680 0.816178 0.000000 -0.760147 0.000716
3.784287 0.430314 0.516115 -0.000000 0.760147 -0.001087
1.242959 0.511100 0.741710 -0.000000 -0.707063 0.000039
3.135737 0.483204 0.677320 -0.000008 -0.041367 0.000000
1.515549 0.794258 0.926756 -0.034423 -0.023224 0.017144
0.605595 0.664732 0.714700 -0.000000 0.903627 0.000019
1.706497 0.639288 0.600910 0.000000 0.643591 -0.000012
1.880323 0.625889 0.591607 0.000000 0.504154 -0.000017
0.718720 0.581492 0.769487 -0.000000 0.028730 0.000022
3.668292 0.772160 0.432476 0.000005 0.760087 0.000358
0.056013 0.599723 0.720881 -0.544400 0.000020 0.000040
3.544061 0.441465 0.849635 -0.000000 -0.760147 -0.000687
2.054150 0.647720 0.739698 0.000000 0.727130 0.000002
0.860357 0.673664 0.677150 0.000000 0.999587 0.000000
2.707149 0.673674 0.671708 0.000000 0.999587 -0.000000
3.386820 0.506178 0.736417 -0.000001 -0.764429 0.000017
3.842161 0.476078 0.539377 0.000001 -0.760147 0.001105
3.540371 0.707647 0.538229 0.000001 -0.760146 -0.000687
3.808948 0.400590 0.451062 -0.000000 -0.760147 0.000281
1.300902 0.647544 0.739884 -0.000001 0.719441 0.000005
3.957621 0.690094 0.543625 -0.134635 0.005819 0.005365
1.715357 1.016552 0.161700 -0.034422 -0.012635 -0.010560
1.242959 0.509552 0.608387 0.000000 -0.727002 -0.000037
3.916274 0.625605 0.634209 0.106821 0.004463 -0.005216
0.605595 0.586588 0.769225 -0.000000 0.099816 0.000098
2.923283 0.510589 0.741199 0.000001 -0.703944 0.000010
1.888860 0.882668 1.018965 0.111940 0.003337 -0.002851
3.735212 0.638245 0.619422 0.106819 0.003611 -0.004222
1.749589 0.763467 0.864526 -0.062134 0.006515 -0.005143
3.693139 0.358395 0.431977 0.000000 0.760147 -0.000749
0.779422 0.486453 0.649291 -0.000000 -0.960483 -0.000001
2.285919 0.670861 0.697499 0.000001 0.969128 0.000002
3.688305 0.677569 0.573417 0.000000 -0.760147 -0.000716
1.531294 0.410974 0.484280 -0.062134 -0.005133 0.004061
3.784287 0.726549 0.516115 0.000000 -0.760147 -0.001087
1.838316 1.153348 1.346857 -0.034419 -0.024448 0.017750
3.710117 0.462792 0.554111 -0.000001 0.760145 -0.000358
1.722653 0.188451 0.223083 -0.062134 -0.008766 0.006890
1.069133 0.647807 0.739606 -0.000001 0.725917 0.000009
3.386820 0.643283 0.744102 -0.000000 0.686528 0.000021
3.717985 0.794865 0.942605 0.000000 0.760149 -0.000749
3.833854 0.816959 0.410343 -0.000000 -0.760148 -0.000749
3.850338 0.763734 0.906185 -0.134635 0.005819 -0.005365
3.039167 0.653462 0.733029 0.000000 0.780787 0.000004
3.705035 0.531466 0.604175 0.106821 -0.001806 -0.002112
1.914121 0.118516 0.143045 0.111939 -0.008138 0.006938
0.605595 0.658240 0.622161 0.000000 0.833771 -0.000003
3.768114 0.508029 0.771762 0.000001 -0.760148 -0.001087
3.845946 0.295213 0.335351 -0.134634 -0.005867 0.005409
1.706497 0.501524 0.617962 0.000000 -0.800546 -0.000015
1.633831 0.440422 0.845467 -0.034423 0.031496 0.020700
1.474728 0.658099 0.726570 0.000001 0.833234 0.000013
3.435383 0.452237 0.814325 0.080420 0.010987 0.007325
0.832765 0.581747 0.769480 0.000000 0.028720 0.000044
3.572928 0.484327 0.579305 -0.000001 0.760146 -0.000456
0.257942 0.522372 0.751345 0.000000 -0.598877 0.000003
0.129027 0.578431 0.588952 -0.267498 0.000001 -0.000039
2.459745 0.672530 0.689378 -0.000000 0.986947 0.000002
2.107494 0.483247 0.678850 -0.000000 -0.999292 0.000000
2.285919 0.502645 0.732055 0.000000 -0.800491 0.000030
1.911752 0.737032 0.863818 0.062175 -0.007766 0.006587
1.474728 0.662963 0.630233 -0.000001 0.890334 -0.000010
3.845946 0.869127 1.006776 -0.134634 -0.006261 0.004947
0.373827 0.640134 0.746896 0.000001 0.643998 0.000094
3.713804 0.386809 0.913578 -0.000000 -0.760144 -0.000374
2.219699 0.576816 0.578990 -0.000000 -0.028039 -0.000176
1.665983 0.306996 0.981754 -0.062135 -0.002902 -0.002301
1.890440 0.580387 0.769519 0.000000 0.028720 0.000172
1.754665 0.650673 0.777847 0.062176 -0.012697 0.010635
3.855920 0.629818 0.719238 0.106822 0.001806 0.002112
0.895306 0.545763 0.763793 -0.000000 -0.349406 0.000053
3.908300 0.526900 0.594075 0.163055 -0.000190 -0.000287
1.143630 0.575796 0.579019 0.000000 -0.028720 -0.000011
1.822381 0.501124 0.730006 -0.000000 -0.817065 0.000007
1.565473 0.740581 0.494391 -0.062135 0.009161 0.007194
3.155051 0.660333 0.723002 -0.000000 0.863490 0.000006
2.575630 0.654651 0.731476 -0.000000 0.800543 0.000015
2.799121 0.574520 0.769463 0.000000 -0.028380 0.000347
1.953590 0.719283 0.509476 0.062175 -0.015529 -0.012880
0.953248 0.647982 0.739420 0.000001 0.719783 0.000005
1.801502 0.692351 0.822116 0.062176 -0.016700 0.013788
1.589731 0.833714 0.974922 -0.034423 -0.005197 0.004575
2.691514 0.651644 0.735278 0.000000 0.765028 0.000033
1.953590 0.640363 0.601806 0.062174 -0.012698 -0.010635
1.574361 0.337466 0.395979 -0.062134 -0.006279 0.004958
0.489711 0.509026 0.739575 -0.000000 -0.726921 0.000019
3.928705 0.487355 0.788379 -0.134635 -0.005819 -0.005365
2.633572 0.659290 0.623811 0.000000 0.848825 -0.000012
3.097109 0.505849 0.736027 0.000000 -0.765111 0.000017
2.459745 0.599521 0.581312 0.000000 0.212662 -0.000091
2.633572 0.509669 0.740255 -0.000000 -0.727046 0.000019
1.165703 0.673642 0.670603 0.000000 0.999569 -0.000000
1.029585 0.673664 0.671368 0.000000 0.999587 -0.000000
0.191013 0.652093 0.734492 -0.022386 0.001728 0.001328
1.500480 0.483254 0.679105 0.000000 -0.999597 0.000000
3.657511 0.745274 0.494208 -0.000002 -0.760145 -0.000603
2.981225 0.607235 0.583408 0.000001 0.295395 -0.000128
1.011191 0.491113 0.712453 -0.000000 -0.914552 0.000004
3.328878 0.652483 0.614256 0.000000 0.783068 -0.000016
0.315884 0.652219 0.613923 0.000000 0.765456 -0.000002
3.270936 0.484928 0.655790 0.000000 -0.982553 -0.000002
1.782374 0.173031 0.194984 -0.034422 0.012635 -0.010560
0.496149 0.582682 0.769453 0.000000 0.028730 0.000087
0.721480 0.570741 0.579260 -0.000000 -0.071438 -0.000069
0.605595 0.503506 0.733163 -0.000000 -0.783084 0.000016
2.807398 0.649928 0.737280 0.000000 0.746316 0.000035
1.759708 0.135062 1.188990 -0.062134 -0.013740 -0.010649
1.775078 0.121007 0.136921 -0.034423 0.011005 -0.009332
3.045605 0.576221 0.769511 0.000000 -0.028380 0.000011
1.818702 0.577666 0.578966 -0.000000 -0.028720 -0.000044
2.700711 0.577156 0.769538 0.000000 -0.028720 0.000044
0.373827 0.493320 0.631370 0.000000 -0.891010 -0.000040
1.798871 0.811453 0.920048 -0.062133 0.002902 -0.002301
2.285919 0.644860 0.605906 0.000000 0.686588 -0.000021
0.048650 0.532633 0.669004 -0.572997 -0.000071 -0.000005
0.137708 0.493073 0.694108 -0.225203 -0.000195 0.000040
3.474193 0.583788 0.579097 0.000000 0.028740 -0.000171
2.865340 0.618180 0.760888 0.000000 0.426625 0.000010
2.575630 0.534178 0.589843 -0.000001 -0.452982 -0.000019
1.714968 0.197001 1.115433 -0.062133 -0.008766 -0.006890
1.714968 0.959862 1.115433 -0.062135 0.017529 -0.013392
0.900824 0.483179 0.676470 0.000000 -0.999592 0.000000
2.250969 0.483240 0.678595 -0.000000 -0.994792 0.000000
2.170034 0.524214 0.595873 -0.000000 -0.576134 -0.000028
0.954168 0.575881 0.769502 0.000000 -0.028730 0.000011
1.281587 0.576731 0.578992 0.000000 -0.028730 -0.000011
3.572928 0.657581 0.781996 -0.000000 0.760148 -0.000912
1.011191 0.542983 0.762728 -0.000000 -0.376128 0.000049
2.629893 0.483160 0.672729 0.000000 -0.999587 -0.000000
1.875429 1.152376 0.000831 -0.034421 -0.024446 -0.017749
1.705577 0.673720 0.675194 -0.000000 0.937483 0.000000
1.767640 0.810918 0.426016 -0.062134 0.006042 0.004773
0.779422 0.540160 0.586975 -0.000000 -0.402330 -0.000090
1.817816 0.850965 0.342403 0.062175 -0.013186 -0.011026
0.837364 0.652219 0.734595 -0.000000 0.783068 0.000016
1.818605 0.443971 0.844506 0.062176 0.016700 0.013788
2.923283 0.585867 0.769276 0.000000 0.071340 0.001103
1.633831 0.716441 0.503051 -0.034423 -0.031496 -0.020700
2.981225 0.620486 0.759795 0.000000 0.453962 0.000077
0.146465 0.532131 0.751040 -0.191121 -0.000128 0.000199
3.212994 0.563354 0.768365 -0.000000 -0.156411 0.000125
1.627704 0.678041 0.579417 -0.062135 0.009161 0.007193
1.615210 0.437225 0.525757 -0.062134 -0.009161 0.007193
1.648555 0.613564 0.585662 -0.000000 0.376080 -0.000097
1.836761 0.926589 0.287202 -0.062134 0.008766 0.006890
2.227977 0.648711 0.738645 0.000000 0.746248 0.000004
2.026558 0.673598 0.669073 0.000000 0.998320 -0.000000
1.764483 0.355539 0.910730 -0.062134 -0.012082 -0.009414
3.502705 0.654294 0.731952 -0.000001 0.800301 0.000030
1.624640 0.504784 0.736698 -0.062135 -0.010266 -0.008040
1.127075 0.497168 0.724057 -0.000000 -0.848110 0.000003
3.613990 0.673620 0.669838 0.000000 0.999597 -0.000000
3.039167 0.489754 0.639323 -0.000000 -0.926558 -0.000008
3.328878 0.501575 0.617894 -0.000001 -0.799314 -0.000007
1.764439 0.535921 0.588955 -0.000000 -0.451903 -0.000010
2.691514 0.530276 0.592014 -0.000000 -0.503998 -0.000017
2.401803 0.672798 0.660863 0.000000 0.991746 -0.000001
0.663538 0.532159 0.590938 -0.000000 -0.479218 -0.000036
0.489711 0.648654 0.609809 0.000000 0.727139 -0.000009
1.185017 0.492604 0.632819 0.000000 -0.903556 -0.000019
2.570111 0.582852 0.769448 0.000000 0.028740 0.000171
3.937015 0.650215 0.765808 -0.134634 0.005819 -0.005365
3.676531 0.594852 0.768147 -0.000000 0.184626 0.000210
3.875064 0.435580 0.826242 -0.000001 0.760147 0.001105
3.899790 0.648922 0.576653 -0.134635 0.005819 0.005365
2.112092 0.528597 0.755500 -0.000000 -0.528566 0.000063
1.185017 0.533092 0.758090 -0.000000 -0.479285 0.000036
1.127075 0.625301 0.757255 -0.000000 0.504568 0.000008
2.170034 0.486840 0.647897 0.000000 -0.963421 -0.000005
3.734473 0.673591 0.679701 0.000000 0.999587 0.000000
1.412187 0.579622 0.578978 0.000000 0.028380 -0.000011
3.717985 0.809820 0.418695 -0.000000 -0.760146 -0.000749
3.792415 0.627432 0.756011 0.000000 0.503998 0.000017
1.764439 0.530827 0.756826 0.000000 -0.504154 0.000068
3.823650 0.687751 0.561504 -0.000001 -0.760146 -0.000553
2.401803 0.517510 0.747554 0.000000 -0.643797 0.000023
1.733253 0.356074 0.435334 -0.062134 -0.006042 0.004773
1.671404 0.305429 0.349461 -0.034420 0.004790 -0.004223
0.489711 0.651288 0.735701 -0.000001 0.764976 0.000066
1.887282 1.071287 1.257211 0.062175 -0.012307 0.010320
2.401803 0.638897 0.600581 0.000000 0.643898 -0.000012
2.633572 0.632718 0.752596 -0.000001 0.567977 0.000007
3.928940 0.589510 0.583019 0.186421 0.000004 -0.000301
1.617804 0.827436 0.390201 -0.062130 0.003140 0.002489
3.234147 0.575456 0.579029 0.000004 -0.008266 -0.000151
1.064534 0.576051 0.769506 0.000000 -0.028380 0.000022
0.479594 0.673737 0.673579 0.000000 0.999899 -0.000000
2.343861 0.602662 0.766443 -0.000000 0.268005 0.000071
3.502705 0.495151 0.720606 0.000000 -0.877573 0.000011
3.734473 0.494906 0.720158 0.000000 -0.877586 0.000011
2.285919 0.563690 0.768418 -0.000001 -0.156007 0.000062
1.069133 0.658592 0.622692 0.000001 0.786972 -0.000002
1.516112 0.696055 0.545547 -0.062135 0.007700 0.006065
3.792652 0.463877 0.823416 0.000000 -0.760147 -0.001087
1.784725 0.244072 0.299376 -0.062134 -0.009240 0.007254
2.865340 0.627724 0.592681 0.000000 0.528234 -0.000008
2.749456 0.661255 0.627096 0.000000 0.863584 -0.000012
0.837364 0.634456 0.597147 0.000000 0.576257 -0.000014
0.315884 0.504808 0.734790 0.000001 -0.763738 0.000008
3.444762 0.545444 0.763675 0.000001 -0.348879 0.000026
1.358844 0.658334 0.622302 0.000001 0.720651 -0.000002
3.155051 0.596566 0.767825 -0.000000 0.184888 0.000026
1.474728 0.497483 0.623955 0.000001 -0.848332 -0.000012
2.923283 0.495693 0.626949 0.000000 -0.863614 -0.000006
1.242959 0.483120 0.674004 0.000000 -0.999897 -0.000000
1.891492 0.704871 0.811415 0.111939 0.009277 -0.007903
1.936486 0.475575 0.791626 0.111938 -0.003527 -0.003013
1.876230 0.362322 0.934504 0.062175 0.007180 0.006097
3.328878 0.613407 0.762920 0.000000 0.375878 0.000024
1.888860 0.282803 1.026322 0.062174 0.006008 0.005111
1.300902 0.528922 0.755702 0.000001 -0.507682 0.000008
0.244146 0.483145 0.676300 -0.000000 -0.999832 0.000000
3.510969 0.417701 0.493789 0.080421 0.010987 -0.007325
1.764439 0.668174 0.642149 0.000001 0.919461 -0.000002
1.887282 0.076758 1.249674 0.111939 -0.006836 -0.005833
1.786241 0.406043 0.456537 0.062175 0.007766 -0.006587
3.426613 0.724549 0.503315 0.080420 0.009203 0.009843
3.705683 0.304803 0.994378 0.080421 -0.009013 -0.009643
3.375874 0.455497 0.530438 0.080420 -0.009203 0.009843
1.701950 0.864794 0.351560 -0.062133 0.021316 0.016007
3.807163 0.258436 1.048623 0.080421 -0.009203 -0.009843
3.731053 0.863651 0.340579 0.080420 0.009203 0.009843
3.426613 0.724549 0.845203 0.080420 0.009203 -0.009843
1.825744 1.058089 1.239197 -0.034421 -0.018747 0.014659
1.911752 0.404402 0.870604 0.111939 -0.008627 -0.007352
1.562785 0.507713 0.739202 -0.062134 -0.007700 -0.006065
1.888860 0.854330 0.345278 0.062176 -0.012014 -0.010083
1.899912 1.118484 1.296763 -0.062135 0.016108 -0.012378
1.899912 0.038379 0.051755 0.111939 -0.011068 0.009415
3.618589 0.499704 0.620530 -0.000000 -0.821129 -0.000002
2.057829 0.583193 0.579080 0.000000 0.028740 -0.000171
0.360031 0.583363 0.769433 0.000000 0.028730 0.000044
3.850358 0.510138 0.740748 0.000001 -0.678121 0.000003
1.692810 0.652293 0.776462 -0.034422 -0.010190 0.008699
1.934587 0.579197 0.578966 0.000000 0.028740 -0.000171
2.459745 0.483305 0.668351 0.000000 -0.997440 -0.000001
3.328878 0.660440 0.722818 -0.000001 0.863534 0.000023
2.459745 0.642659 0.744680 -0.000000 0.664067 0.000006
0.489711 0.498670 0.622090 -0.000000 -0.833440 -0.000026
3.941001 0.728680 0.498483 -0.134636 0.005819 0.005365
3.924381 0.389597 0.895178 -0.134634 -0.005819 -0.005365
3.941001 0.428183 0.498483 -0.134635 -0.005819 0.005365
3.874522 0.883024 0.317914 -0.134634 0.005867 0.005409
3.907762 0.805852 0.408199 -0.134635 0.005819 0.005365
3.155051 0.519261 0.599546 -0.000000 -0.621908 -0.000012
1.822381 0.660226 0.723186 0.000000 0.861252 0.000003
3.558807 0.574180 0.769453 0.000000 -0.028380 0.000022
1.011191 0.586503 0.579287 0.000000 0.071496 -0.000069
1.242959 0.626697 0.592079 -0.000000 0.504074 -0.000034
3.833854 0.354858 0.397560 -0.000000 -0.760147 0.000749
3.833854 0.339903 0.938175 -0.000000 0.760146 0.000749
3.792415 0.669082 0.644805 0.000000 0.955324 -0.000002
1.996208 0.660054 0.723480 -0.000000 0.863614 0.000006
1.862021 1.003347 1.155495 -0.062135 0.006871 -0.005420
3.970220 0.662912 0.684517 0.141110 0.000368 0.000006
3.618589 0.656744 0.728581 0.000000 0.817295 0.000028
2.112092 0.658616 0.622728 0.000000 0.833442 -0.000052
3.867832 0.483267 0.679531 0.000000 -0.999592 0.000000
1.914910 0.801516 0.419977 0.111940 0.003988 0.003407
0.895306 0.501320 0.618234 0.000000 -0.817269 -0.000007
3.406134 0.483218 0.677830 0.000000 -0.999592 0.000000
1.862021 0.165693 1.165903 0.062176 0.016993 0.014013
3.817370 0.855230 0.365570 -0.000001 -0.760146 -0.000749
0.431769 0.542431 0.762504 -0.000001 -0.375864 0.000049
1.185017 0.653912 0.616055 0.000000 0.783120 -0.000031
1.880323 0.514077 0.744567 0.000000 -0.665320 0.000003
1.535429 0.573500 0.579085 0.000000 -0.028720 -0.000172
3.617576 0.436842 0.855044 0.000001 -0.760147 -0.000586
1.590612 0.659875 0.624750 0.000000 0.848660 -0.000012
1.863600 0.715022 0.505833 0.062175 -0.008352 -0.007075
1.358844 0.492896 0.632204 0.000000 -0.903618 -0.000009
3.866822 0.740418 0.499889 0.000001 -0.760147 -0.001087
1.607768 0.260008 1.046785 -0.062134 -0.021316 -0.016007
1.807576 0.037714 0.041671 -0.062134 -0.016108 0.012378
1.807576 0.037714 1.306847 -0.062134 -0.016108 -0.012378
1.623138 0.242908 0.281729 -0.062134 -0.009714 0.007618
1.454070 0.431003 0.846737 -0.062134 -0.010266 -0.008040
2.112092 0.502849 0.616191 -0.000001 -0.797850 -0.000007
1.654859 0.876101 1.025910 -0.034422 -0.018338 0.014411
2.112092 0.633587 0.751983 -0.000001 0.575989 0.000028
1.824131 0.870995 1.028942 0.062175 -0.006007 0.005111
3.039167 0.541016 0.586599 0.000000 -0.402380 -0.000045
0.837364 0.517965 0.747937 -0.000001 -0.643535 0.000023
3.249024 0.513456 0.750274 0.000000 -0.649747 0.000174
0.315884 0.655441 0.730420 0.000000 0.797724 0.000004
3.833854 0.816959 0.938175 -0.000000 -0.760147 0.000749
3.784162 0.794254 0.436906 -0.000001 -0.760146 -0.000749
3.618589 0.548856 0.583650 0.000002 -0.306686 -0.000015
1.953590 0.240277 1.069867 0.062177 0.009670 0.008168
1.953590 1.034967 1.208362 0.062175 -0.012307 0.010320
1.953590 0.338928 0.954455 0.062175 0.013186 0.011026
1.953590 1.015236 0.163239 0.062176 -0.014650 -0.012190
1.953590 0.916585 0.278651 0.062176 -0.009670 -0.008168
1.953590 0.956046 1.116032 0.062176 -0.016993 0.014013
1.953590 1.094157 0.070909 0.062173 -0.009963 -0.008410
1.953590 0.121896 1.208362 0.062175 0.012307 0.010320
1.953590 0.877125 0.324816 0.062174 -0.010842 -0.009130
1.953590 0.877125 1.023702 0.062175 -0.010842 0.009130
1.658580 0.781088 0.429147 -0.034422 -0.005605 -0.004925
2.807398 0.523623 0.596290 0.000000 -0.576077 -0.000028
3.618589 0.498670 0.726429 0.000000 -0.833440 0.000026
0.605595 0.500486 0.619416 -0.000001 -0.817284 -0.000028
1.901490 0.940777 0.259382 0.111938 0.003011 0.002573
1.658580 0.792216 0.909860 -0.062134 0.003139 -0.002489
1.720810 0.427187 0.523685 -0.062133 -0.009161 0.007194
1.300902 0.522406 0.597147 0.000000 -0.599271 -0.000053
2.343861 0.665202 0.713699 0.000000 0.915408 0.000004
1.011191 0.485675 0.652340 0.000000 -0.970666 -0.000005
0.779422 0.491912 0.714239 0.000001 -0.903138 0.000009
1.653878 0.948154 1.106799 -0.034422 -0.015895 0.012848
1.653878 0.208709 1.106799 -0.062133 -0.017529 -0.013392
1.011191 0.658099 0.726570 0.000001 0.833234 0.000013
2.981225 0.500143 0.728615 -0.000000 -0.816078 0.000003
1.996208 0.497505 0.724599 0.000001 -0.847136 0.000006
3.792415 0.490602 0.637235 -0.000000 -0.926582 -0.000032
1.739432 0.740003 0.512539 -0.062133 0.003376 0.002676
0.257942 0.564951 0.579903 -0.000001 -0.115505 -0.000021
1.242959 0.635478 0.750606 0.000001 0.596197 0.000007
2.517687 0.646304 0.607349 0.000000 0.707055 -0.000039
1.810374 1.040990 0.129326 -0.034422 -0.011005 -0.009332
1.127075 0.483602 0.664748 -0.000000 -0.995010 -0.000004
2.575630 0.492513 0.633011 0.000000 -0.902812 -0.000002
3.212994 0.657582 0.621168 0.000000 0.833335 -0.000013
0.568807 0.483240 0.669923 0.000008 -0.041380 -0.000000
2.343861 0.623322 0.590183 -0.000000 0.479285 -0.000036
3.444762 0.614589 0.762440 -0.000001 0.375583 0.000024
1.300902 0.490042 0.709904 0.000001 -0.926202 0.000008
1.730053 0.671512 0.548537 -0.034423 -0.020374 -0.015612
1.590612 0.667490 0.708203 0.000001 0.909983 0.000001
0.373827 0.535694 0.589071 -0.000000 -0.454032 -0.000077
2.285919 0.493436 0.631143 0.000000 -0.891039 -0.000005
2.865340 0.501320 0.730284 0.000000 -0.817351 0.000028
1.840182 0.669804 0.587024 0.111939 0.003527 0.003013
2.170034 0.666228 0.637156 0.000000 0.915473 -0.000017
0.721480 0.518662 0.748496 0.000000 -0.621901 0.000025
1.880323 0.498929 0.621700 0.000001 -0.833358 -0.000026
1.069133 0.500584 0.619277 0.000001 -0.817082 -0.000014
2.227977 0.636091 0.598371 0.000000 0.599187 -0.000026
3.533055 0.483264 0.669073 0.000000 -0.999215 -0.000000
3.701752 0.697725 0.519558 0.000001 0.760146 0.000716
3.643446 0.396055 0.445757 0.000000 -0.760147 0.001207
3.990860 0.497702 0.686791 0.162588 -0.000316 0.000044
3.636248 0.367937 0.928088 0.080420 -0.009013 -0.009643
2.112092 0.613012 0.585438 0.000000 0.376095 -0.000012
1.644016 0.857536 0.344025 -0.034423 -0.009579 -0.008215
2.517687 0.494458 0.719337 0.000000 -0.877636 0.000022
0.895306 0.660569 0.722598 -0.000000 0.863576 0.000012
1.416786 0.502390 0.731714 0.000000 -0.800493 0.000030
0.547653 0.568751 0.579446 0.000000 -0.099835 -0.000393
3.593753 0.418760 0.472320 0.000000 -0.760148 0.000947
3.097109 0.654370 0.616668 -0.000000 0.800357 -0.000007
2.923283 0.673591 0.679701 -0.000000 0.999587 0.000000
0.373827 0.660398 0.625626 -0.000000 0.863620 -0.000046
0.953248 0.636091 0.598371 0.000000 0.599104 -0.000003
3.444762 0.499375 0.727492 -0.000000 -0.833157 0.000007
3.618589 0.607357 0.583446 -0.000001 0.295417 -0.000128
3.386820 0.497190 0.624425 -0.000000 -0.848862 -0.000012
3.974240 0.505355 0.588767 -0.134633 -0.005819 0.005365
2.981225 0.655135 0.617689 0.000001 0.800478 -0.000030
2.749456 0.614904 0.586206 0.000000 0.376339 -0.000012
0.315884 0.499093 0.621452 -0.000000 -0.833421 -0.000026
2.691514 0.517933 0.747910 -0.000000 -0.643770 0.000023
3.270936 0.657370 0.727669 0.000001 0.832428 0.000007
2.749456 0.485087 0.693520 0.000000 -0.977065 0.000004
2.807398 0.517998 0.747964 -0.000001 -0.641459 0.000012
2.691514 0.489209 0.640754 0.000000 -0.936893 -0.000007
3.536682 0.486876 0.796510 0.000000 -0.760147 -0.001374
2.227977 0.591996 0.768604 -0.000000 0.156268 0.000062
2.170034 0.539459 0.761235 0.000000 -0.402380 0.000090
2.575630 0.526900 0.754443 0.000000 -0.552433 0.000007
3.611401 0.785051 0.908415 0.080420 -0.010987 0.007325
3.528093 0.385946 0.899449 0.080420 -0.009203 -0.009843
2.401803 0.527694 0.593580 0.000000 -0.527940 -0.000016
1.623138 0.913955 1.066790 -0.034424 -0.017523 0.013904
3.535815 0.743037 0.874402 0.080421 0.009013 -0.009643
0.547653 0.496122 0.722304 0.000000 -0.863614 0.000012
0.779422 0.653489 0.615522 0.000000 0.783733 -0.000002
2.517687 0.519694 0.599202 0.000000 -0.621912 -0.000025
1.918067 0.811111 0.940314 0.111940 0.003988 -0.003407
1.764410 0.305172 0.344354 -0.034423 0.017523 -0.013904
3.039167 0.521794 0.750912 0.000000 -0.599269 0.000053
0.431769 0.625301 0.591264 0.000000 0.504154 -0.000068
3.494368 0.449216 0.810290 -0.000000 0.760147 0.000916
3.506013 0.471921 0.564791 0.000000 0.760147 -0.001374
1.648555 0.548977 0.583609 0.000000 -0.322579 -0.000116
3.850358 0.673400 0.682373 0.000000 0.997444 0.000000
1.764439 0.492039 0.714508 0.000000 -0.903598 0.000019
2.807398 0.488808 0.641830 0.000000 -0.936875 -0.000002
3.802412 0.637159 0.590414 -0.000000 0.760147 0.000737
3.703393 0.661561 0.786652 -0.000005 0.760102 -0.000358
1.474728 0.622609 0.589805 0.000000 0.453369 -0.000010
1.880323 0.661084 0.721717 -0.000000 0.863614 0.000012
1.646325 0.468495 0.780248 -0.062134 -0.018318 -0.013948
1.996208 0.540705 0.761782 0.000001 -0.402386 0.000090
1.901490 0.196356 1.112219 0.111939 -0.010742 -0.009141
3.729875 0.576135 0.578977 0.000000 -0.014014 -0.000011
3.419829 0.498228 0.783228 0.000001 -0.760147 -0.000916
3.646729 0.453429 0.805361 -0.000001 0.760147 0.000586
1.773610 0.446102 0.502191 0.062176 0.016700 -0.013788
1.745319 0.227259 0.257821 -0.034423 0.031767 -0.020796
2.401803 0.486635 0.699883 0.000000 -0.963233 0.000005
3.990860 0.580947 0.755916 0.152156 0.000016 0.000341
3.762050 0.310456 0.353184 0.080420 -0.009013 0.009643
3.891548 0.473851 0.567049 -0.000001 0.760147 -0.000737
3.616552 0.466277 0.527910 -0.000001 -0.760146 0.001171
1.739004 0.238681 1.060513 -0.062132 -0.009714 -0.007618
3.875064 0.721282 0.826242 -0.000000 -0.760147 0.001105
3.410536 0.693273 0.547475 0.080421 -0.010987 -0.007325
0.953248 0.527983 0.593400 0.000000 -0.528516 -0.000032
3.097109 0.553463 0.766238 0.000000 -0.267989 0.000035
3.726290 0.741877 0.880614 -0.000001 0.760146 -0.001087
3.775922 0.745157 0.854174 0.000001 -0.760146 0.001087
0.257942 0.663813 0.631901 -0.000000 0.890772 -0.000010
1.847023 0.334110 0.378209 0.062175 0.006594 -0.005605
0.373827 0.489818 0.709353 0.000000 -0.926201 0.000004
0.605595 0.614983 0.586238 0.000000 0.376339 -0.000024
1.855706 0.185722 0.205442 0.062175 0.019336 -0.015785
0.315884 0.605285 0.582805 0.000000 0.295393 -0.000255
3.212994 0.491456 0.635287 0.000000 -0.915473 -0.000009
0.895306 0.501026 0.729867 -0.000001 -0.796630 0.000004
3.879050 0.364592 0.431657 -0.134634 0.006210 -0.004907
1.779377 0.822017 0.971605 -0.034423 -0.019153 0.014902
0.413374 0.573840 0.579075 0.000000 -0.028380 -0.000022
3.516500 0.673721 0.672473 0.000000 0.999892 -0.000000
1.508146 0.736607 0.493657 -0.062136 0.007700 0.006065
0.200000 0.602662 0.582075 -0.018073 0.000363 -0.001304
3.734473 0.493147 0.631711 -0.000000 -0.890905 -0.000005
3.328878 0.558006 0.767350 0.000000 -0.212546 0.000181
1.358844 0.538375 0.760742 -0.000000 -0.428307 0.000042
1.416786 0.606179 0.765437 -0.000000 0.295166 0.000032
1.739004 0.909574 0.280647 -0.034423 -0.031767 -0.020796
3.054802 0.673666 0.677065 0.000000 0.999607 0.000000
3.097109 0.660054 0.723480 -0.000000 0.863550 0.000003
0.663538 0.492167 0.714777 -0.000001 -0.902083 0.000005
2.865340 0.664732 0.633818 0.000001 0.902083 -0.000005
0.391301 0.673716 0.676386 0.000000 0.999892 0.000000
1.907805 0.979696 0.212755 0.111940 0.010742 0.009140
1.907805 0.979696 1.135764 0.111940 0.010742 -0.009140
2.024719 0.483269 0.679616 -0.000000 -0.999215 0.000000
0.953248 0.485042 0.693313 0.000000 -0.977100 0.000001
1.773883 0.275128 1.038404 -0.034421 0.017525 0.013905
1.996208 0.494621 0.628883 0.000000 -0.877732 -0.000011
0.663538 0.493822 0.630385 0.000000 -0.891038 -0.000005
3.502705 0.544767 0.763422 -0.000001 -0.349156 0.000106
1.789534 0.310542 0.999433 -0.034421 0.017525 0.013905
3.792652 0.707940 0.810633 0.000000 -0.760147 0.001087
0.103544 0.621626 0.611088 -0.358399 0.000060 -0.000083
1.185017 0.529578 0.592422 0.000001 -0.503554 -0.000034
2.749456 0.661671 0.720681 -0.000000 0.877690 0.000011
3.928940 0.535718 0.755642 0.162472 -0.000702 0.001162
3.618589 0.614155 0.762616 -0.000000 0.376058 0.000194
1.822381 0.614904 0.762312 0.000000 0.376093 0.000097
2.054150 0.530386 0.591950 0.000000 -0.504102 -0.000135
2.343861 0.498247 0.725790 0.000000 -0.848883 0.000012
1.670229 0.263663 0.302604 -0.034423 0.017524 -0.013904
1.725811 0.974542 0.208349 -0.034422 -0.014265 -0.011733
1.953590 0.042975 1.300692 0.062177 0.007619 0.006464
1.686089 0.282590 1.025474 -0.034422 0.018339 0.014411
3.299764 0.666590 0.571122 0.080419 0.009203 0.009843
2.285919 0.530386 0.591950 0.000000 -0.503636 -0.000017
1.652265 0.383837 0.462203 -0.062133 -0.013503 0.010474
0.200000 0.665133 0.634664 -0.018069 0.001239 -0.000543
2.575630 0.667124 0.639363 0.000000 0.926389 -0.000008
0.431769 0.500437 0.729033 -0.000000 -0.817349 0.000014
3.644681 0.644564 0.612029 0.106820 0.001806 -0.002112
1.493058 0.663582 0.778797 -0.034425 -0.008831 0.007615
3.081474 0.483191 0.671623 0.000000 -0.999587 -0.000000
1.671548 0.574095 0.769451 0.000000 -0.028720 0.000172
1.638508 0.931054 0.261724 -0.034423 -0.033393 -0.021353
1.423330 0.465202 0.541791 -0.062134 -0.010266 0.008040
1.484809 0.396804 0.461772 -0.062133 -0.015398 0.011864
1.996208 0.661062 0.626765 0.000000 0.863587 -0.000023
3.792524 0.312985 0.969667 0.000000 0.760147 0.000749
3.444762 0.498067 0.623017 -0.000000 -0.835785 -0.000002
3.795566 0.537786 0.611569 0.106821 -0.003611 -0.004222
3.795566 0.537786 0.736950 0.106821 -0.003611 0.004222
1.726895 0.495365 0.788568 -0.034423 0.010190 0.008699
1.578155 0.504260 0.577647 -0.034420 0.004416 -0.003900
1.773610 0.422168 0.825869 0.111940 -0.009277 -0.007903
1.831235 0.377777 0.460725 0.111940 -0.004313 0.003684
1.469815 0.677491 0.564300 -0.062134 0.010266 0.008040
1.609083 0.651793 0.771564 -0.034422 -0.031497 0.020700
1.847429 1.099627 1.278260 -0.062133 0.019896 -0.015043
0.095271 0.642008 0.710162 -0.390708 0.000078 0.000041
3.163329 0.673635 0.670348 0.000000 0.999587 -0.000000
1.474728 0.616703 0.761543 -0.000001 0.400073 0.000011
0.099392 0.578431 0.749066 -0.382778 0.000000 0.000024
1.127075 0.662405 0.719337 0.000000 0.876640 0.000003
1.938266 0.493552 0.717603 -0.000000 -0.890905 0.000005
1.683568 0.709022 0.802540 -0.062135 0.009161 -0.007193
3.270936 0.489492 0.708521 0.000000 -0.936933 0.000004
1.706497 0.658616 0.725790 -0.000000 0.848922 0.000012
3.506013 0.669987 0.796510 0.000000 0.760147 -0.001374
1.847429 0.057236 1.278260 -0.062133 -0.019896 -0.015043
3.825555 0.423379 0.840516 0.000001 0.760148 0.001087
3.328878 0.609093 0.584020 0.000000 0.322494 -0.000116
1.469627 0.710225 0.825480 -0.062134 0.010266 -0.008040
1.515737 0.761524 0.885495 -0.062130 0.005134 -0.004061
1.423330 0.691661 0.541791 -0.034423 -0.017659 -0.013990
3.618600 0.749455 0.459039 0.000001 0.760147 0.000586
0.658019 0.582002 0.769472 0.000000 0.028730 0.000044
1.564860 0.577581 0.769550 0.000000 -0.028740 0.000011
1.953590 0.200817 0.232486 0.062175 0.016993 -0.014014
3.444762 0.625595 0.591435 0.000000 0.504568 -0.000008
1.945623 0.579877 0.769533 -0.000000 0.028720 0.000172
2.158998 0.576306 0.579005 -0.000000 -0.028729 -0.000171
2.691514 0.659358 0.623919 0.000000 0.848687 -0.000006
2.981225 0.659695 0.724057 0.000000 0.845478 0.000003
3.759315 0.388915 0.437405 -0.000000 -0.760147 0.000374
2.227977 0.496658 0.723223 0.000000 -0.863576 0.000006
1.812264 0.483218 0.677830 0.000000 -0.999592 0.000000
0.721480 0.631168 0.753644 0.000002 0.552067 0.000060
3.953567 0.545076 0.627668 0.106820 -0.004463 -0.005216
3.444762 0.662568 0.629480 0.000000 0.877678 -0.000011
3.155051 0.496808 0.723480 0.000000 -0.863614 0.000006
3.270936 0.661814 0.628099 -0.000000 0.877038 -0.000005
3.643421 0.483250 0.678935 0.000015 -0.010021 0.000000
1.562410 0.442244 0.821725 -0.062136 -0.005133 -0.004061
0.721480 0.673104 0.663225 0.000000 0.991652 -0.000001
1.805826 0.673730 0.673664 0.000000 0.999587 -0.000000
1.380917 0.483235 0.678425 0.000000 -0.999597 0.000000
0.284614 0.673598 0.679446 0.000016 0.020088 0.000001
3.444762 0.539147 0.587420 0.000000 -0.402380 -0.000045
1.750410 0.318740 0.958503 -0.062134 -0.011135 -0.008700
1.764439 0.586588 0.579293 0.000000 0.071471 -0.000138
1.416786 0.495522 0.627243 0.000001 -0.862511 -0.000006
1.474728 0.545604 0.763734 0.000001 -0.349046 0.000053
0.663538 0.665133 0.713854 -0.000000 0.915222 0.000002
0.663538 0.653489 0.615522 0.000000 0.783121 -0.000004
1.953590 1.133618 1.323774 0.062177 -0.007619 0.006464
3.693387 0.440529 0.497787 -0.000001 -0.760146 0.000358
3.743020 0.452203 0.837073 0.000000 -0.760147 -0.001087
1.174900 0.582002 0.769472 -0.000000 0.028725 0.000343
1.723634 0.892475 1.047866 -0.034425 -0.017523 0.013904
1.652452 0.430812 0.491291 -0.034424 0.015758 -0.012757
2.575630 0.586079 0.579257 0.000000 0.071471 -0.000138
1.779377 0.317683 0.391584 -0.062134 -0.011135 0.008700
3.039167 0.592038 0.579921 0.000000 0.156573 -0.000062
0.489711 0.537068 0.588395 0.000001 -0.428293 -0.000083
2.401803 0.617482 0.761201 -0.000000 0.402273 0.000045
3.560647 0.495314 0.627613 0.000000 -0.876640 -0.000003
3.560647 0.669810 0.647162 0.000001 0.846525 -0.000001
1.996208 0.540121 0.586993 -0.000000 -0.402491 -0.000022
0.155287 0.526853 0.598828 -0.156805 -0.000176 -0.000243
3.850358 0.536338 0.588743 0.000000 -0.453980 -0.000310
1.834393 0.772830 0.435404 0.062174 -0.015529 -0.012880
2.517687 0.661255 0.721423 -0.000001 0.863293 0.000012
1.916192 0.483235 0.670093 -0.000000 -0.999597 -0.000000
0.037953 0.616326 0.674259 -0.622180 0.000013 0.000000
2.923283 0.531860 0.591101 0.000000 -0.479144 -0.000036
1.754665 0.677126 0.593283 -0.062133 0.011846 0.009236
1.185017 0.613249 0.585534 -0.000000 0.375977 -0.000049
0.895306 0.541172 0.586530 -0.000001 -0.401963 -0.000045
1.909754 0.673734 0.674684 0.000016 0.020095 0.000001
3.886097 0.544105 0.729556 0.106820 -0.003611 0.004222
3.630616 0.496765 0.784940 -0.000001 -0.760147 -0.000586
3.557839 0.658634 0.565290 0.000001 0.760146 0.000456
1.791040 0.920328 0.265871 -0.034422 -0.015895 -0.012848
1.767004 0.190131 1.133529 -0.034424 0.014264 0.011732
0.770225 0.581492 0.769487 -0.000000 0.028730 0.000022
1.590612 0.622912 0.589959 0.000000 0.479285 -0.000072
2.486417 0.583448 0.769431 0.000000 0.028720 0.000172
0.095271 0.505536 0.670091 -0.398712 -0.000043 -0.000001
0.837364 0.487404 0.646024 -0.000001 -0.955035 -0.000006
1.831235 0.762815 0.901701 0.062177 -0.007765 0.006587
1.776395 0.580727 0.769509 0.000000 0.028720 0.000172
1.277909 0.576221 0.769511 0.000000 -0.028730 0.000022
1.767004 0.973660 1.127607 -0.062134 0.007819 -0.006157
1.478407 0.673611 0.679020 -0.000000 0.999586 0.000000
1.914121 1.038346 0.143045 0.111940 0.008138 0.006938
1.914121 1.018616 1.182391 0.111940 0.009440 -0.008041
1.914121 0.138247 1.182391 0.111940 -0.009440 -0.008041
1.953590 0.102166 0.117074 0.062174 0.012307 -0.010320
1.416786 0.662924 0.630158 -0.000001 0.888922 -0.000005
1.801502 0.444286 0.543690 0.111940 -0.009277 0.007903
3.916274 0.625605 0.714309 0.106821 0.004463 0.005216
1.512129 0.440532 0.519602 -0.062134 -0.007700 0.006065
1.788689 1.003861 1.176361 -0.034421 -0.025260 0.018136
3.676531 0.669534 0.702250 0.000000 0.955340 0.000006
3.212994 0.620025 0.588505 -0.000001 0.401079 -0.000006
1.717533 0.483131 0.674769 0.000000 -0.999592 0.000000
0.910022 0.673679 0.671879 0.000000 0.999597 -0.000000
1.618204 0.483150 0.673069 0.000000 -0.999592 -0.000000
1.880323 0.661191 0.626985 -0.000000 0.863579 -0.000023
0.779422 0.662963 0.718285 0.000000 0.887070 0.000003
3.759315 0.373961 0.898331 -0.000000 0.760147 0.000374
2.459745 0.537491 0.760323 -0.000001 -0.427048 0.000021
1.761467 1.067850 1.246833 -0.034424 -0.020374 0.015612
1.746097 0.106112 1.226828 -0.062135 -0.011845 -0.009236
1.696441 0.223695 0.264862 -0.062134 -0.009714 0.007618
3.676531 0.496808 0.625039 0.000000 -0.863614 -0.000023
1.745319 0.929603 1.090698 -0.034424 -0.031766 0.020796
2.749456 0.568751 0.769072 0.000000 -0.099658 0.000197
3.615528 0.676105 0.575129 0.000002 -0.760143 -0.000586
3.646729 0.703434 0.805361 0.000000 -0.760147 0.001171
3.284732 0.579537 0.578960 0.000000 0.014014 -0.000011
3.444762 0.660226 0.723186 0.000001 0.812665 0.000002
1.953590 0.778474 0.440228 0.062175 -0.014357 -0.011959
3.502705 0.493224 0.631560 0.000001 -0.890219 -0.000010
1.726895 0.471606 0.580259 -0.062134 -0.005923 0.004680
3.726290 0.400031 0.867832 0.000000 0.760146 0.001087
1.602716 0.752259 0.884092 -0.034422 -0.011616 0.009799
0.605595 0.632857 0.752498 0.000000 0.576211 0.000014
1.856496 0.284335 0.320886 0.062175 0.006008 -0.005111
3.360320 0.662851 0.780592 0.080421 0.009013 -0.009643
1.699599 0.942763 0.253090 -0.062134 0.008766 0.006890
1.819040 0.987459 0.208737 -0.062134 0.007345 0.005789
1.598995 0.309591 0.357887 -0.034424 0.009986 -0.008538
1.863600 0.441841 0.505833 0.062174 0.008352 -0.007075
1.358844 0.533951 0.589959 0.000000 -0.479294 -0.000036
2.285919 0.670022 0.647897 -0.000000 0.963414 -0.000011
1.416786 0.659178 0.724888 0.000000 0.849098 0.000002
2.675879 0.575456 0.579029 -0.000000 -0.028511 -0.000346
1.829394 0.466405 0.783787 0.111939 -0.009277 -0.007903
2.139684 0.673737 0.674599 0.000000 0.999587 0.000000
1.547134 0.475711 0.781089 -0.062134 -0.007700 -0.006065
1.722410 0.374218 0.891409 -0.062134 -0.006279 -0.004958
1.770725 0.871720 1.026991 -0.034422 -0.035019 0.021872
1.703601 0.805052 0.426994 -0.062132 0.006042 0.004773
1.863600 0.429874 0.832456 0.111939 -0.009277 -0.007903
0.837364 0.665202 0.634820 0.000000 0.915469 -0.000009
3.386820 0.532346 0.590836 0.000000 -0.478724 -0.000018
1.531294 0.415523 0.868126 -0.034423 0.015758 0.012757
1.705253 0.429503 0.861433 -0.034423 0.011616 0.009799
0.150869 0.578431 0.764818 -0.182604 0.000001 0.000063
1.591592 0.370654 0.426866 -0.034423 0.005605 -0.004925
1.798725 0.928878 1.092649 -0.034424 -0.014264 0.011732
0.816211 0.574435 0.579058 0.000000 -0.028176 -0.000350
3.719303 0.514437 0.764265 0.000001 -0.760147 -0.000716
1.778084 0.694851 0.780032 0.111940 0.003527 -0.003013
1.242959 0.660741 0.626214 0.000000 0.863677 -0.000003
0.247825 0.575880 0.769538 0.000000 -0.014014 0.000089
1.661883 0.484130 0.589527 -0.062132 -0.005923 0.004680
1.773610 0.734695 0.825869 -0.062133 0.003376 -0.002676
1.069133 0.623210 0.590122 0.000000 0.479294 -0.000036
0.721480 0.486176 0.650317 -0.000000 -0.970371 -0.000001
1.829394 0.482921 0.550614 0.062174 0.016700 -0.013788
0.547653 0.586757 0.769208 0.000000 0.099816 0.000098
2.633572 0.624480 0.590815 0.000000 0.478549 -0.000009
0.547653 0.663735 0.716769 0.000000 0.875471 0.000001
0.605595 0.673506 0.667630 -0.000001 0.997118 -0.000001
1.648555 0.619526 0.760250 -0.000000 0.428304 0.000042
3.850358 0.612415 0.763303 0.000001 0.349278 0.000106
1.532670 0.537875 0.760505 -0.000000 -0.427915 0.000021
1.678925 0.657705 0.566695 -0.034421 -0.005096 -0.004487
1.778084 0.671512 0.548537 0.062176 -0.006349 -0.005399
1.786241 0.750819 0.891981 0.062175 -0.007766 0.006587
3.928940 0.667671 0.652264 0.162471 0.001296 -0.000404
1.532670 0.660054 0.723480 -0.000000 0.863614 0.000012
3.560647 0.613722 0.585726 -0.000001 0.375804 -0.000049
3.750108 0.483143 0.676130 0.000000 -0.999897 0.000000
1.822381 0.663040 0.630385 0.000000 0.891181 -0.000005
3.850358 0.626440 0.591928 -0.000001 0.504061 -0.000135
3.833920 0.699920 0.516990 0.000000 0.760147 0.001087
2.337423 0.577156 0.578980 0.000001 -0.027819 -0.000177
3.808948 0.385635 0.884673 0.000000 0.760146 0.000281
1.358844 0.666092 0.711674 -0.000001 0.914960 0.000009
3.809259 0.670196 0.766476 0.000004 -0.760123 0.000368
1.847429 1.095218 0.066489 -0.034424 -0.030953 -0.020503
3.990860 0.610275 0.599025 0.157580 0.000133 -0.000301
0.547653 0.660054 0.625039 0.000000 0.863614 -0.000023
1.375399 0.581577 0.769485 -0.000000 0.028720 0.000172
1.590612 0.538836 0.760961 0.000000 -0.428056 0.000010
1.474728 0.493320 0.717148 -0.000000 -0.891000 0.000010
0.034484 0.560338 0.704263 -0.628978 -0.000014 0.000022
1.847429 0.057236 0.070258 -0.062133 -0.019896 0.015043
3.743020 0.704660 0.837073 -0.000000 0.760147 -0.001087
3.751384 0.470812 0.533215 0.000000 -0.760148 0.001087
3.767557 0.748812 0.459791 0.000001 0.760146 0.001087
3.825555 0.438334 0.495219 -0.000000 -0.760147 0.001087
1.836198 1.016080 1.192548 -0.034423 -0.011005 0.009332
1.918067 0.335887 0.396663 0.111940 -0.003662 0.003129
1.856496 0.885439 0.331923 0.111939 0.003337 0.002851
2.227977 0.670881 0.697417 0.000001 0.899834 0.000001
2.845107 0.483225 0.670433 0.000001 -0.993569 -0.000000
1.739432 0.719060 0.853880 -0.034422 -0.011617 0.009799
2.127727 0.575456 0.769489 0.000000 -0.028039 0.000176
3.809259 0.486667 0.582043 0.000001 0.760145 -0.000368
3.809259 0.486667 0.766476 -0.000000 0.760147 0.000737
1.532670 0.664441 0.633203 -0.000000 0.903620 -0.000009
2.054150 0.546401 0.764031 0.000000 -0.349664 0.000013
1.127075 0.667728 0.640953 0.000000 0.936875 -0.000002
0.120433 0.654587 0.642075 -0.292506 0.000133 -0.000052
2.865340 0.654472 0.731714 0.000000 0.800357 0.000007
1.836198 0.132070 1.185101 -0.062135 -0.006397 -0.005051
1.721444 0.824207 0.971064 -0.034423 -0.009579 0.008215
0.721480 0.616625 0.586941 0.000000 0.402373 -0.000179
1.902280 0.664486 0.766040 0.111940 0.003527 -0.003013
0.605595 0.540705 0.761782 0.000001 -0.402386 0.000090
1.358844 0.624256 0.590693 0.000000 0.479218 -0.000036
3.673217 0.478241 0.776334 -0.000001 0.760146 0.000716
0.182038 0.612781 0.762486 -0.052887 0.000357 0.000845
1.281587 0.673642 0.677915 0.000000 0.999586 0.000000
1.690495 0.383342 0.435995 -0.034422 0.011209 -0.009489
1.914910 0.380220 0.438663 0.062175 0.007180 -0.006097
3.734473 0.619372 0.760323 0.000001 0.428119 0.000042
2.923283 0.625226 0.591223 0.000000 0.479147 -0.000009
3.155051 0.491079 0.636143 -0.000000 -0.915316 -0.000009
1.773610 0.710761 0.502191 0.062176 -0.016700 -0.013788
1.788872 0.482665 0.590779 0.111938 -0.007053 0.006017
1.907805 0.157436 0.189672 0.111939 -0.009440 0.008041
1.761325 0.791729 0.898958 -0.062133 0.006042 -0.004773
1.591592 0.370654 0.921652 -0.034423 0.011209 0.009488
0.146465 0.656503 0.718348 -0.191121 0.000209 0.000110
2.382489 0.576561 0.769521 0.000000 -0.028740 0.000171
1.840708 0.802724 0.947483 0.062175 -0.007180 0.006097
1.924382 0.271256 0.312093 0.062175 0.010842 -0.009130
1.843076 0.211084 0.263657 0.111940 -0.006022 0.005140
1.532670 0.488778 0.641910 0.000000 -0.936798 -0.000007
1.919383 0.493841 0.581227 0.111940 -0.003527 0.003013
0.681932 0.483128 0.673409 -0.000000 -0.999897 -0.000000
1.874388 0.676072 0.552435 0.062175 -0.016700 -0.013788
0.200000 0.526900 0.754443 -0.018072 -0.000748 0.001127
1.829394 0.690458 0.783787 0.111938 0.009278 -0.007903
1.684617 0.174510 0.201709 -0.062134 -0.007818 0.006157
2.112092 0.496487 0.722929 -0.000000 -0.863631 0.000023
1.722410 0.765954 0.905676 -0.034422 -0.005605 0.004925
1.908595 0.433726 0.512769 0.111939 -0.004639 0.003962
2.112092 0.663407 0.717413 -0.000000 0.890905 0.000005
1.938266 0.665920 0.636455 0.000000 0.915472 -0.000009
3.560647 0.618872 0.760560 -0.000000 0.428268 0.000083
1.869915 0.402081 0.459924 0.062175 0.015529 -0.012880
1.869915 0.402081 0.888594 0.062175 0.007766 0.006587
0.315884 0.620486 0.759795 -0.000000 0.453926 0.000010
3.580306 0.702991 0.835122 0.000001 0.760145 -0.000456
1.633831 0.729965 0.833907 -0.062134 0.018318 -0.013948
1.648555 0.535997 0.759602 -0.000000 -0.453808 0.000039
1.726895 0.685257 0.768260 -0.062134 0.005923 -0.004680
3.908300 0.484512 0.658006 0.169009 -0.000327 -0.000061
0.895306 0.615377 0.586398 -0.000001 0.375051 -0.000024
1.648555 0.672842 0.687318 0.000000 0.991746 0.000001
3.617576 0.720020 0.493474 0.000001 0.760147 0.000586
1.532670 0.490170 0.710220 0.000000 -0.926537 0.000008
1.908595 0.723136 0.512769 0.111939 0.004639 0.003962
1.908595 0.433726 0.835749 0.111940 -0.004639 -0.003962
3.949580 0.628708 0.601420 0.162474 0.000675 -0.001117
3.953567 0.537599 0.714459 0.106819 -0.002231 0.002610
1.242959 0.664259 0.715699 0.000000 0.903602 0.000019
1.837551 0.358587 0.911338 0.111939 -0.004313 -0.003684
3.502705 0.617871 0.587489 -0.000001 0.400703 -0.000023
2.981225 0.494131 0.629779 -0.000000 -0.890999 -0.000020
2.205903 0.483155 0.675619 0.000000 -0.999587 0.000000
3.813069 0.746705 0.886263 -0.000000 0.760146 -0.000561
1.577967 0.698984 0.800468 -0.062136 0.005133 -0.004061
1.920436 1.057536 1.229018 0.111939 0.008138 -0.006938
1.920436 0.079597 0.096418 0.111940 -0.006836 0.005833
1.920436 0.099327 1.229018 0.111938 -0.008138 -0.006938
1.920436 1.077266 0.096418 0.111940 0.006836 0.005833
0.464879 0.483250 0.669583 -0.000015 -0.010018 -0.000000
0.354512 0.576220 0.578975 -0.000000 -0.014364 -0.000174
2.343861 0.491250 0.635754 0.000000 -0.915473 -0.000009
1.736368 0.465321 0.822808 -0.034421 0.010191 0.008699
0.315884 0.541328 0.762056 0.000000 -0.402401 0.000179
1.590612 0.489610 0.708840 0.000000 -0.936875 0.000002
3.506013 0.684941 0.564791 0.000000 -0.760147 -0.001374
3.990860 0.508972 0.631252 0.160873 -0.000272 -0.000174
2.786245 0.582427 0.579058 0.000000 0.028740 -0.000171
1.876230 0.785098 0.445890 0.111939 0.004313 0.003684
3.097109 0.619641 0.588323 -0.000000 0.428307 -0.000042
1.678925 0.499158 0.781823 -0.034423 0.005095 0.004487
1.953590 0.398119 0.463311 0.062174 0.007180 -0.006097
1.805040 0.959720 0.242284 -0.062134 0.016582 0.012718
1.730727 1.033651 1.206823 -0.034422 -0.023632 0.017349
0.352673 0.483257 0.669328 -0.000000 -0.999592 -0.000000
2.324547 0.673742 0.674429 -0.000000 0.999607 0.000000
1.416786 0.536376 0.588723 0.000000 -0.453963 -0.000077
1.953590 0.319198 0.370981 0.062174 0.006008 -0.005111
1.921225 0.860166 0.998251 0.111940 0.003337 -0.002851
1.921225 0.296697 0.998251 0.111941 -0.003337 -0.002851
1.546289 0.828457 0.966766 -0.034424 -0.021595 0.016290
3.039167 0.665698 0.635949 0.000000 0.915472 -0.000017
0.257942 0.493494 0.717489 0.000001 -0.890994 0.000040
3.676531 0.549302 0.765010 0.000001 -0.294948 0.000032
3.386820 0.613131 0.585486 -0.000000 0.375878 -0.000024
1.853338 0.304215 1.004678 0.062174 0.013186 0.011027
3.270936 0.624517 0.757683 0.000000 0.478549 0.000009
2.170034 0.637635 0.748946 0.000000 0.621958 0.000006
2.865340 0.547125 0.584240 -0.000000 -0.322579 -0.000116
3.450498 0.673589 0.578073 0.000000 -0.760147 -0.000916
2.227977 0.534368 0.589747 0.000000 -0.453953 -0.000077
1.843866 0.329533 0.946424 0.111940 -0.003988 -0.003407
1.805186 0.810907 0.388056 0.062175 -0.014357 -0.011959
1.379077 0.673713 0.673069 0.000000 0.999597 -0.000000
3.212994 0.537145 0.588359 0.000000 -0.428323 -0.000042
1.336770 0.483165 0.675960 0.000000 -0.999592 0.000000
1.069133 0.533876 0.590000 -0.000000 -0.476770 -0.000009
3.039167 0.618911 0.760542 -0.000001 0.428166 0.000042
3.560647 0.525198 0.595203 0.000000 -0.552456 -0.000015
1.849391 0.964968 1.108406 -0.062133 0.007819 -0.006157
0.953248 0.664040 0.632358 -0.000000 0.903528 -0.000009
3.886097 0.529151 0.631745 0.106822 -0.001806 -0.002112
1.786241 0.773074 0.475559 -0.062135 0.003139 0.002489
3.518340 0.577921 0.578951 -0.000000 -0.014014 -0.000089
1.805975 0.653103 0.775770 0.062174 -0.006350 0.005399
1.788872 0.482665 0.757739 0.111938 -0.007053 -0.006017
2.554476 0.483230 0.670263 0.000000 -0.999215 -0.000000
1.849391 0.205751 1.120250 0.062175 0.009670 0.008168
3.838041 0.690352 0.820335 0.000000 0.760147 -0.000553
1.880323 0.621510 0.759274 -0.000001 0.453441 0.000039
