2.982296 0.504775 0.721994 0.026697 -0.016819 -0.015093
2.435838 0.666262 0.685039 -0.000000 0.807492 0.000023
1.730342 0.263020 0.959103 -0.053211 -0.008877 -0.007643
2.968779 0.730522 0.471641 0.026699 0.020179 0.017076
1.639371 0.928457 0.264065 -0.053210 0.008877 0.007644
1.707793 0.847093 0.915703 -0.034530 -0.007327 0.006991
1.925631 0.709114 0.494569 0.053239 -0.005403 -0.005020
0.588841 0.489413 0.649493 -0.000000 -0.970238 0.000004
3.116310 0.679821 0.659308 0.000000 0.940163 0.000001
1.220708 0.516988 0.697805 -0.000001 -0.631815 0.000002
0.880472 0.505061 0.568770 0.000000 -0.822353 -0.000005
1.317919 0.527734 0.545897 -0.000001 -0.588839 -0.000021
1.269314 0.672709 0.577684 0.000000 0.876589 -0.000009
1.753274 0.283005 0.291663 -0.034532 0.006774 -0.006483
1.882827 0.353057 0.381969 0.081972 -0.005147 0.004797
1.882827 0.837476 0.362254 0.081972 0.004679 0.004362
1.026288 0.523670 0.703705 0.000000 -0.630476 0.000019
2.824679 0.662428 0.562752 0.000000 0.775479 -0.000003
3.067704 0.490329 0.599696 -0.000000 -0.963654 -0.000017
1.559852 0.472817 0.520145 -0.053212 -0.005059 0.004396
1.074893 0.491588 0.595524 0.000000 -0.948646 -0.000001
1.689497 0.419778 0.469887 -0.053211 -0.006139 0.005323
3.350559 0.388282 0.829930 -0.066209 0.013233 0.012591
1.074893 0.677224 0.586777 0.000002 0.851345 -0.000002
3.403380 0.704045 0.499998 -0.066209 0.004286 0.003844
0.297210 0.623355 0.718476 0.000001 0.344570 0.000011
0.540236 0.535280 0.540930 -0.000001 -0.499302 -0.000013
2.918733 0.500686 0.541480 0.026698 0.015157 -0.010826
1.847416 0.450946 0.491074 0.081972 -0.014597 0.013420
1.559351 0.685443 0.626195 0.000002 0.657187 -0.000000
1.785934 0.665627 0.722480 0.053244 -0.005043 0.004688
2.918733 0.671440 0.711231 0.026699 -0.015157 0.010826
1.715527 0.210008 0.231674 -0.053211 -0.008122 0.007008
3.183057 0.493065 0.711821 0.000002 0.730900 0.000280
3.186156 0.379247 0.847851 0.026698 -0.012033 -0.011634
1.733791 0.491350 0.742778 0.053242 0.005043 0.004688
1.611059 0.321502 0.350941 -0.053211 -0.005383 0.004675
1.220708 0.532456 0.542672 -0.000001 -0.546266 -0.000024
1.415129 0.669067 0.571711 0.000000 0.836835 -0.000010
0.170798 0.683398 0.626355 -0.118423 0.000177 0.000005
1.345950 0.669049 0.715233 -0.034534 -0.011848 0.010930
1.593083 0.731837 0.460866 -0.034533 -0.026052 -0.020292
3.195398 0.503624 0.523933 0.000000 -0.730914 0.000841
1.792933 1.154158 0.017935 -0.034531 -0.021006 -0.017507
0.174953 0.578512 0.723894 -0.094213 -0.000029 0.000670
1.911039 0.462134 0.757322 0.081972 -0.003509 -0.003274
1.512339 0.628120 0.536310 -0.000001 0.407625 -0.000009
2.921889 0.657011 0.556764 0.000001 0.690152 -0.000004
1.885940 0.855084 0.909689 0.081973 0.004773 -0.004449
1.632818 0.770390 0.833343 -0.034535 -0.008985 0.008481
3.059145 0.728836 0.782796 0.026699 0.012033 -0.011634
1.769202 0.714836 0.507293 0.081980 0.001638 0.001529
1.480107 0.747354 0.794071 -0.053214 0.002530 -0.002206
1.895279 0.218199 0.236038 0.081972 -0.003556 0.003317
2.858145 0.587182 0.526985 0.000000 0.013044 -0.000039
1.533012 0.389389 0.841063 -0.034531 0.008986 0.008481
0.655773 0.582545 0.527061 -0.000000 -0.025719 -0.000040
1.706998 0.394560 0.844371 -0.034533 0.008433 0.007990
2.502769 0.486707 0.627474 0.000000 -0.999669 0.000000
3.299673 0.484561 0.508043 -0.066210 -0.006418 0.005740
2.241417 0.607251 0.529263 -0.000000 0.216991 -0.000070
1.925631 0.745930 0.797571 0.053241 -0.009077 0.008355
1.925631 1.114094 0.060844 0.053242 -0.010950 -0.010015
3.374336 0.549381 0.725399 -0.100061 -0.000153 0.000397
0.065365 0.531695 0.650115 -0.521536 -0.000039 0.000016
1.658155 0.678300 0.589361 0.000000 0.931080 -0.000006
1.706760 0.497112 0.582029 -0.000000 -0.899653 -0.000004
2.727468 0.531786 0.543110 -0.000001 -0.546923 -0.000024
3.251221 0.743305 0.467962 0.026698 -0.026516 -0.015457
0.880472 0.617880 0.720501 0.000001 0.316209 0.000047
1.397403 0.504376 0.536264 -0.034533 0.023687 -0.019057
2.418308 0.586702 0.526987 0.000000 0.025719 -0.000040
2.873284 0.542960 0.715898 -0.000000 -0.435524 0.000129
1.515758 0.752397 0.455751 -0.053210 0.002530 0.002206
0.734657 0.617121 0.720754 0.000000 0.316357 0.000093
1.925631 0.690706 0.738426 0.053241 -0.010806 0.009889
1.847805 0.084033 0.098070 0.081972 -0.009732 0.009024
2.496395 0.588461 0.725678 0.000000 0.025346 0.000005
1.753649 0.939527 1.012752 -0.034532 -0.011335 0.010504
2.533048 0.520454 0.551704 -0.000000 -0.669774 -0.000034
1.825236 0.251548 0.992458 0.053241 0.006196 0.005746
1.925631 0.463011 0.494569 0.053239 0.005403 -0.005020
3.059145 0.443289 0.469914 0.026699 -0.012033 0.011634
0.783262 0.514007 0.694792 0.000000 -0.724974 0.000015
1.764996 0.048286 1.202304 -0.053215 -0.008688 -0.007485
1.597378 0.941923 1.007476 -0.034533 -0.025973 0.020253
1.792933 0.017967 0.017935 -0.053211 -0.014353 0.012097
1.709123 0.108925 0.115349 -0.053210 -0.011710 0.009983
1.457695 0.381799 0.407592 -0.053211 -0.010118 0.008677
2.751401 0.668166 0.714287 0.026699 0.013456 -0.012744
3.210309 0.372318 0.397439 0.026699 -0.019619 0.016770
3.137850 0.779021 0.419700 0.026699 0.012032 0.011634
3.355227 0.330748 0.352918 0.026700 -0.015697 0.014352
3.089544 0.406961 0.818170 0.026698 -0.012033 -0.011634
3.403533 0.855234 0.338077 0.026699 0.015697 0.014352
3.077052 0.458711 0.755680 0.026700 0.013553 0.009926
3.342533 0.552209 0.529606 -0.097386 -0.000718 -0.001734
0.480476 0.582225 0.725641 0.000000 -0.025719 0.000020
0.831867 0.633787 0.539189 0.000000 0.480887 -0.000014
1.652206 0.266796 0.961109 -0.053211 -0.002408 -0.002100
1.341026 0.584943 0.725711 -0.000009 -0.001258 0.000405
0.345815 0.514448 0.695256 0.000000 -0.725085 0.000059
0.394421 0.513346 0.558614 -0.000000 -0.724685 -0.000007
1.825236 0.930525 0.983169 0.081972 0.003931 -0.003666
0.686052 0.487817 0.641333 -0.000000 -0.989964 0.000004
1.609059 0.419502 0.463053 -0.053212 -0.008904 0.007666
1.981658 0.486692 0.625796 0.000000 -0.999660 -0.000000
2.921889 0.498492 0.673344 0.000000 -0.876563 0.000009
3.299135 0.406657 0.426560 0.026698 -0.009813 0.009768
1.609059 0.431901 0.801235 -0.034533 0.013033 0.011893
1.631633 0.877976 0.321271 -0.053210 0.005006 0.004350
1.455110 0.463174 0.761550 -0.034533 0.008887 0.008394
1.026288 0.630425 0.715288 0.000001 0.419290 0.000008
1.658155 0.548401 0.534386 -0.000000 -0.388589 -0.000018
3.283551 0.784005 0.409652 0.026700 0.019618 0.016770
3.307704 0.790933 0.850479 0.026700 0.031370 -0.021579
2.751401 0.668166 0.538424 0.026699 0.013456 0.012744
1.852086 0.415331 0.800343 0.081973 -0.005896 -0.005491
1.853253 1.042971 1.106974 0.081972 0.004866 -0.004536
1.658155 0.612067 0.722271 0.000000 0.267096 0.000112
3.229920 0.438944 0.773317 0.026699 0.013554 0.009926
2.338627 0.603565 0.724183 0.000000 0.166574 0.000092
1.437098 0.687217 0.728660 -0.053213 0.006071 -0.005265
1.741963 0.369746 0.416820 0.081972 -0.002527 0.002358
1.852475 0.264714 0.291013 0.081972 -0.003931 0.003666
2.144207 0.492522 0.592801 0.000000 -0.939666 -0.000003
1.998391 0.559635 0.722153 -0.000001 -0.266235 0.000056
1.925631 1.114094 1.191867 0.053240 -0.010950 0.010015
1.439830 0.486703 0.627315 0.000000 -0.999669 0.000000
1.778473 0.585583 0.526983 0.000000 -0.025719 -0.000302
3.410642 0.721243 0.771131 -0.066209 0.006858 -0.006130
3.262125 0.678840 0.661972 -0.000001 0.930983 0.000012
1.366524 0.626444 0.535551 -0.000000 0.412137 -0.000017
1.840801 0.181175 0.202952 0.081972 -0.006364 0.005924
1.609550 0.617463 0.532070 0.000000 0.315726 -0.000023
3.179199 0.661360 0.692864 0.000001 0.682469 0.000598
1.631633 0.871769 0.937236 -0.034532 -0.003664 0.003553
2.263727 0.685416 0.627554 -0.000000 0.999679 0.000000
1.803970 0.532623 0.710148 0.000000 -0.547505 0.000012
0.125902 0.651770 0.684104 -0.285046 0.000097 0.000081
2.533048 0.676867 0.585974 0.000000 0.911010 -0.000014
0.058371 0.606684 0.575650 -0.548942 0.000014 -0.000033
3.282768 0.351533 0.877532 0.026700 -0.031370 -0.021579
1.853642 0.401925 0.437823 0.081972 -0.002714 0.002533
2.470100 0.685387 0.624037 0.000019 0.013621 -0.000000
1.172103 0.564016 0.723256 0.000001 -0.216795 0.000070
1.123498 0.672863 0.674746 0.000000 0.876546 0.000009
1.574159 0.838059 0.352885 -0.034533 -0.008156 -0.007742
3.077052 0.713414 0.497031 0.026699 -0.013554 -0.009926
1.741947 0.166633 1.079813 -0.034533 0.010229 0.009566
1.735721 0.994083 1.056023 -0.053210 0.014731 -0.012394
2.700377 0.685394 0.624277 0.000000 0.999669 -0.000000
1.740017 0.455534 0.508931 0.081972 -0.003276 0.003056
3.269140 0.747661 0.808258 0.026700 0.011774 -0.011425
1.878936 0.000000 1.248391 0.000000 -0.682468 0.000317
3.213520 0.644552 0.546015 0.000000 0.589871 -0.000043
1.681187 1.032881 0.147821 -0.034533 -0.019348 -0.016465
1.689481 0.216241 1.026350 -0.034535 0.011887 0.010963
2.021498 0.685435 0.626835 -0.000000 0.999669 0.000000
3.368478 0.797011 0.407500 -0.066210 -0.009926 -0.009524
2.689222 0.589100 0.527049 0.000000 0.026091 -0.000078
2.873284 0.618070 0.720438 -0.000001 0.315346 0.000047
3.009538 0.590060 0.527074 0.000000 0.025709 -0.000079
1.623757 0.734926 0.768193 -0.053212 0.017805 -0.014741
0.831867 0.544223 0.536211 0.000000 -0.412146 -0.000017
0.426293 0.685336 0.630672 -0.000000 0.999660 0.000000
1.575340 0.372829 0.406850 -0.053210 -0.005950 0.005162
0.297210 0.648797 0.549283 -0.000000 0.630610 -0.000038
1.856755 0.792410 0.413662 0.081972 0.005521 0.005144
1.803970 0.491600 0.595486 -0.000000 -0.948541 -0.000010
3.174724 0.430694 0.467024 0.026699 0.027095 -0.015625
0.577686 0.589740 0.725645 0.000009 0.001547 0.000329
3.324910 0.693826 0.734702 -0.066208 -0.009926 0.009524
1.892166 0.942207 0.242316 0.053241 -0.006196 -0.005746
2.387232 0.528154 0.545590 -0.000000 -0.589855 -0.000021
1.415129 0.678063 0.663944 -0.000000 0.919620 0.000003
0.909157 0.486732 0.628434 0.000000 -0.999669 0.000000
0.248605 0.680006 0.658780 -0.000002 0.942115 0.000005
3.019099 0.562459 0.722889 0.000000 -0.242226 0.000062
2.776073 0.493402 0.662270 -0.000000 -0.931076 0.000006
1.288437 0.486715 0.624916 -0.000002 -0.399697 -0.000000
1.901505 0.118555 0.128571 0.081972 -0.004866 0.004536
1.778541 0.413671 0.793257 0.081972 -0.002948 -0.002751
3.070277 0.676812 0.734146 0.026699 0.024054 -0.018959
1.695155 1.048041 1.121126 -0.034534 -0.009123 0.008603
0.964934 0.685385 0.628754 0.000000 0.999660 0.000000
1.760641 0.335675 0.907406 0.053241 0.014406 0.012986
1.889831 0.090241 1.153057 0.081973 -0.009732 -0.009024
3.422235 0.335610 0.891052 -0.066211 0.006617 0.006388
3.422235 0.836515 0.891052 -0.066211 -0.006617 0.006388
1.798393 0.685443 0.626195 0.000000 0.999669 -0.000000
2.824679 0.675274 0.670142 -0.000001 0.899855 0.000015
0.313146 0.486797 0.621719 -0.000000 -0.999669 -0.000000
1.079674 0.587502 0.527008 -0.000000 0.025869 -0.000039
1.383435 0.516230 0.697125 -0.053212 -0.016187 -0.013519
1.609550 0.508865 0.563776 -0.000000 -0.776025 -0.000025
1.474093 0.583025 0.725662 0.000000 -0.025719 0.000302
1.753274 0.901960 0.949060 -0.053211 0.004628 -0.004024
1.914726 0.486688 0.626755 -0.000005 -0.108378 0.000000
0.133922 0.532125 0.698232 -0.253799 -0.000092 0.000116
1.663436 0.959600 1.022374 -0.053209 0.008122 -0.007009
1.834575 0.197982 1.031009 0.081973 -0.003182 -0.002969
2.241417 0.509955 0.690263 0.000000 -0.759585 0.000013
2.256556 0.486732 0.628434 0.000000 -0.999669 0.000000
2.970494 0.680575 0.595638 -0.000001 0.930321 -0.000001
2.046996 0.509955 0.690263 0.000000 -0.759585 0.000013
1.797219 0.836487 0.879080 0.081971 0.004679 -0.004362
1.632818 0.770390 0.419368 -0.034531 -0.004493 -0.004345
2.144207 0.509747 0.690020 0.000000 -0.759756 0.000007
3.374336 0.658641 0.651984 1.000000 0.000000 0.000000
3.116310 0.528872 0.545081 0.000001 -0.566570 -0.000011
1.726055 0.824914 0.358846 -0.034532 -0.007880 -0.007492
0.491631 0.493417 0.662307 -0.000001 -0.930608 0.000006
1.653153 0.472592 0.725263 -0.053211 -0.017805 -0.014741
1.901181 0.675292 0.582605 -0.000001 0.898891 -0.000008
3.374336 0.675695 0.570487 -0.097867 0.000372 -0.000225
0.051530 0.619971 0.662990 -0.575783 0.000021 0.000022
0.955372 0.588461 0.527033 0.000000 0.025719 -0.000020
1.806558 0.849898 0.334490 0.053241 -0.007348 -0.006797
1.661553 0.814909 0.880414 -0.034532 -0.003940 0.003818
2.142613 0.590859 0.725616 0.000000 0.025709 0.000302
1.512339 0.523235 0.549359 -0.000001 -0.628748 -0.000010
3.310730 0.611373 0.530248 -0.091433 0.000119 -0.000429
2.896319 0.462388 0.493902 0.026697 -0.013457 0.012744
2.896319 0.709737 0.758809 0.026699 0.013456 -0.012744
1.721339 0.645928 0.706430 0.053241 -0.010086 0.009253
2.630258 0.654210 0.698686 0.000000 0.688690 0.000016
1.172103 0.501868 0.573560 0.000000 -0.850595 -0.000019
1.901181 0.546118 0.717357 0.000001 -0.411278 0.000017
1.514278 0.491816 0.735109 -0.034533 0.011848 0.010931
0.540236 0.663185 0.563683 0.000000 0.776046 -0.000006
3.425164 0.416487 0.444743 -0.066209 -0.010287 0.009134
1.778541 0.758455 0.793257 0.081972 0.005896 -0.005491
1.692611 0.760750 0.792199 -0.053211 0.006139 -0.005323
1.706760 0.505462 0.684490 -0.000000 -0.807492 0.000023
1.567175 0.341646 0.891708 -0.034534 0.004078 0.003950
1.536125 0.796306 0.845613 -0.053210 0.002975 -0.002593
1.773085 0.181458 0.203629 -0.053211 -0.006989 0.006049
0.305178 0.685328 0.621719 0.000000 0.999669 -0.000000
1.776109 0.118890 1.130458 -0.034533 0.016033 0.014184
2.678863 0.552884 0.720032 -0.000000 -0.340635 0.000086
0.827883 0.685369 0.629393 -0.000000 0.999679 0.000000
1.998391 0.667496 0.569395 -0.000001 0.821341 -0.000011
0.686052 0.528937 0.545036 -0.000000 -0.568214 -0.000011
2.097992 0.587182 0.527000 0.000000 0.025346 -0.000010
3.365844 0.486740 0.735672 -0.066210 -0.005144 -0.004608
2.387232 0.532456 0.710038 -0.000001 -0.546398 0.000024
0.200000 0.505061 0.683941 -0.029481 -0.000597 0.000413
1.916320 0.583984 0.527024 0.000000 -0.025719 -0.000302
3.213520 0.495489 0.585463 0.000000 -0.911083 -0.000014
2.394403 0.486773 0.630033 0.000000 -0.999669 0.000000
3.310730 0.506571 0.566703 -0.097190 -0.000332 -0.000256
0.929077 0.653216 0.699614 -0.000000 0.669644 0.000009
0.142016 0.506006 0.581046 -0.222287 -0.000157 -0.000083
1.512339 0.673971 0.580002 -0.000000 0.888670 -0.000016
2.564920 0.583664 0.527033 0.000000 -0.025719 -0.000079
2.095601 0.662605 0.562970 -0.000000 0.774821 -0.000006
1.776109 1.058016 0.126717 -0.053211 0.005856 0.005081
2.533048 0.641008 0.709163 0.000000 0.545082 0.000006
1.622479 0.692313 0.499938 -0.034532 -0.013033 -0.011893
0.308366 0.583824 0.527000 -0.000009 -0.000564 -0.000902
1.545154 0.717004 0.498681 -0.053210 0.005060 0.004397
1.366524 0.563860 0.529489 -0.000000 -0.217154 -0.000140
1.755582 0.772414 0.447270 0.081972 0.005428 0.005057
3.116310 0.536282 0.712365 0.000000 -0.503613 0.000027
3.314850 0.647863 0.686367 0.228462 0.000749 0.000802
3.067704 0.640941 0.543504 -0.000000 0.547496 -0.000048
0.443026 0.640372 0.543132 -0.000000 0.547517 -0.000095
0.133922 0.565422 0.538893 -0.253799 -0.000038 -0.000143
2.192812 0.677031 0.666373 0.000001 0.902491 0.000004
1.560945 0.489645 0.650424 0.000000 -0.970230 0.000002
1.235848 0.685394 0.628434 0.000000 0.999660 0.000000
1.609550 0.573739 0.724968 0.000001 -0.115506 0.000267
1.653153 0.699534 0.725263 -0.053212 0.008904 -0.007666
2.970494 0.671428 0.677241 0.000000 0.863887 0.000018
1.782335 0.097303 0.107967 -0.053212 -0.005100 0.004431
0.191636 0.666863 0.568913 -0.033408 0.001061 -0.000713
1.949786 0.666403 0.684845 -0.000000 0.807464 0.000006
2.978320 0.685930 0.739369 0.026701 0.008410 -0.008507
1.864927 0.953418 1.024529 0.053239 -0.005620 0.005218
1.811957 1.066808 1.146150 -0.034530 -0.008019 0.007618
1.540372 0.840722 0.900885 -0.034532 -0.004078 0.003950
1.803970 0.639402 0.542497 0.000000 0.547541 -0.000012
1.860258 0.056898 1.198189 0.053241 0.012678 0.011517
3.368478 0.797011 0.845211 -0.066211 -0.009926 0.009524
0.637446 0.562731 0.722957 0.000001 -0.241979 0.000062
0.686052 0.654906 0.698025 -0.000000 0.684586 0.000004
2.857555 0.520837 0.550443 -0.000001 -0.682464 -0.000228
2.581653 0.495506 0.667284 -0.000001 -0.910907 0.000014
2.921889 0.489877 0.601355 0.000000 -0.970084 -0.000004
1.754610 0.715714 0.744599 0.081972 0.003276 -0.003056
1.885940 0.307837 0.333164 0.081972 -0.004773 0.004449
3.067704 0.683024 0.604582 -0.000000 0.975404 -0.000002
2.387232 0.639770 0.709973 0.000000 0.547505 0.000012
3.374336 0.609937 0.729240 -0.097869 0.000104 0.000422
0.540236 0.594330 0.527321 0.000001 0.089965 -0.000344
2.970494 0.532723 0.542497 0.000000 -0.547450 -0.000006
2.630258 0.502120 0.573152 0.000000 -0.850367 -0.000005
2.630258 0.609045 0.529667 0.000000 0.242185 -0.000031
3.310730 0.498338 0.673064 -0.089141 -0.000400 0.000220
0.191636 0.583510 0.527250 -0.037604 -0.000004 -0.000284
0.637446 0.503810 0.682132 0.000000 -0.822312 0.000005
1.867262 0.496318 0.715435 0.081973 -0.001755 -0.001638
1.172103 0.571402 0.528064 0.000000 -0.140899 -0.000027
2.051777 0.587022 0.725715 0.000000 0.026091 0.000020
0.745015 0.685369 0.629393 -0.000000 0.999679 0.000000
2.046996 0.502511 0.572548 0.000000 -0.836746 -0.000010
3.374336 0.586063 0.573546 1.000000 -0.000000 0.000000
1.269314 0.503605 0.570875 0.000000 -0.836835 -0.000010
1.502338 0.796694 0.403914 -0.053211 0.003069 0.002675
2.338627 0.635705 0.540265 -0.000000 0.503725 -0.000027
0.443026 0.540989 0.537787 -0.000000 -0.458565 -0.000030
1.026288 0.561140 0.530151 0.000000 -0.242226 -0.000062
1.998391 0.595365 0.527415 -0.000000 0.089385 -0.000043
0.442229 0.486727 0.628914 0.000068 -0.071038 0.000003
1.123498 0.658366 0.558179 -0.000000 0.724063 -0.000007
1.889053 0.900303 0.958493 0.081972 0.004399 -0.004101
0.637446 0.674172 0.580393 -0.000000 0.888667 -0.000016
3.396119 0.485277 0.518416 -0.066209 -0.008573 0.007639
0.491631 0.679140 0.661188 0.000001 0.936621 0.000003
2.952577 0.691470 0.518514 0.026699 -0.018945 -0.012691
3.374336 0.533253 0.626355 1.000000 0.000000 0.000000
1.879714 0.773849 0.821937 0.081973 0.005428 -0.005057
0.880472 0.682693 0.603140 0.000000 0.969099 -0.000002
1.463734 0.500698 0.575469 0.000000 -0.863853 -0.000009
1.872710 1.155318 1.229640 -0.053211 0.012843 -0.010898
0.734657 0.558440 0.721822 0.000000 -0.267529 0.000014
0.783262 0.517278 0.554630 -0.000000 -0.688302 -0.000016
1.717059 0.714485 0.472523 0.053243 -0.005043 -0.004688
3.116310 0.491436 0.656731 0.000000 -0.948313 0.000003
3.262125 0.671569 0.575711 -0.000002 0.861972 -0.000018
0.133922 0.664270 0.582093 -0.253795 0.000130 -0.000069
1.892166 0.235806 0.997441 0.081972 -0.008048 -0.007479
1.838077 0.518756 0.553228 -0.000000 0.682470 0.000247
0.831867 0.646158 0.705505 -0.000001 0.610201 0.000040
1.554340 0.313969 0.337714 -0.053209 -0.002786 0.002429
2.290022 0.546411 0.535225 -0.000000 -0.387879 -0.000018
0.248605 0.545171 0.535782 0.000000 -0.412195 -0.000137
1.026288 0.506571 0.566703 0.000000 -0.807500 -0.000045
1.123498 0.534594 0.711370 0.000000 -0.524946 0.000006
1.626584 0.302141 0.922693 -0.053212 -0.002597 -0.002264
2.338627 0.489684 0.602131 0.000000 -0.970227 -0.000008
1.460260 0.739273 0.466290 -0.053210 0.008095 0.006986
1.317919 0.652889 0.552803 -0.000001 0.669612 -0.000034
1.727565 0.508773 0.528106 0.053242 0.005043 -0.004688
3.213520 0.493563 0.662679 -0.000000 -0.931090 0.000012
1.617518 0.685357 0.629873 0.000000 0.999669 0.000000
1.901181 0.644229 0.706932 -0.000000 0.589860 0.000043
0.231872 0.591019 0.725612 0.000000 0.025709 0.000020
1.415129 0.557751 0.721616 0.000000 -0.291769 0.000102
2.192812 0.533472 0.710676 -0.000002 -0.336802 0.000005
0.637446 0.673614 0.673379 0.000000 0.876468 0.000004
1.443727 0.775167 0.828883 -0.034534 -0.014809 0.013275
0.297210 0.565969 0.723685 -0.000001 -0.190916 0.000040
2.630258 0.675936 0.583937 0.000000 0.900129 -0.000008
0.191636 0.489021 0.606076 -0.029482 -0.000713 -0.000139
2.630258 0.487343 0.637766 0.000000 -0.993239 0.000002
2.727468 0.583025 0.725662 0.000000 -0.025709 0.000020
1.512339 0.501511 0.678572 0.000001 -0.815060 0.000003
0.588841 0.563547 0.529558 -0.000001 -0.217119 -0.000070
1.754415 0.353098 0.363479 0.053241 0.007924 -0.007319
1.512339 0.675030 0.670646 -0.000002 0.880748 0.000004
1.759879 0.901622 0.278517 -0.034533 -0.012440 -0.011415
0.734657 0.496816 0.670070 0.000000 -0.900071 0.000015
1.164135 0.486723 0.628114 0.000000 -0.999669 0.000000
2.581653 0.547111 0.717780 0.000001 -0.387480 0.000037
1.512339 0.634734 0.713002 0.000001 0.480971 0.000028
2.338627 0.673094 0.674326 -0.000000 0.876469 0.000017
2.678863 0.672515 0.675376 0.000000 0.863806 0.000002
1.074893 0.654790 0.698136 -0.000000 0.687599 0.000008
2.192812 0.655080 0.554850 0.000000 0.688798 -0.000008
2.576075 0.685344 0.622358 0.000000 0.999659 -0.000000
3.159337 0.685361 0.622678 -0.000066 0.279758 -0.000003
1.491866 0.438928 0.475812 -0.053211 -0.008095 0.006986
3.368478 0.375114 0.407500 -0.066209 0.009926 -0.009524
1.220708 0.654819 0.554603 -0.000001 0.688193 -0.000033
2.241417 0.631421 0.714777 0.000000 0.458007 0.000015
1.674888 0.486723 0.628114 0.000000 -0.999669 0.000000
2.095601 0.622126 0.718957 0.000000 0.364674 0.000020
1.898392 0.163775 1.075335 0.081970 -0.006551 -0.006098
1.852576 0.684077 0.609957 -0.000001 0.974372 -0.000001
1.658155 0.643056 0.544945 0.000000 0.568803 -0.000022
2.046996 0.563469 0.529576 0.000001 -0.173957 -0.000011
0.929077 0.501868 0.679150 0.000001 -0.850437 0.000019
2.970494 0.629093 0.536778 -0.000000 0.435277 -0.000016
0.977683 0.651186 0.551288 -0.000001 0.650237 -0.000036
3.022650 0.718367 0.481126 0.026698 0.023539 0.018732
2.095601 0.671971 0.676309 -0.000000 0.863125 0.000005
3.019099 0.493040 0.661338 -0.000000 -0.939666 0.000003
1.721386 0.344972 0.865942 -0.053210 -0.010766 -0.009211
1.852669 0.669454 0.721366 0.053245 -0.005403 0.005019
3.186915 0.682661 0.743944 0.000000 0.730914 -0.000560
3.164915 0.562226 0.722831 0.000000 -0.242028 0.000062
2.241417 0.520038 0.552079 0.000000 -0.665488 -0.000004
1.711668 0.806557 0.409578 -0.053209 0.002786 0.002429
1.026288 0.575486 0.725172 0.000001 -0.115418 0.000134
1.463734 0.651003 0.551132 -0.000000 0.650583 -0.000009
1.419460 0.463673 0.498293 -0.053210 -0.006072 0.005266
1.591805 0.455008 0.750379 -0.053212 -0.008904 -0.007666
2.824679 0.506571 0.686007 0.000000 -0.792014 0.000006
1.816498 0.050177 0.056745 -0.053212 -0.008688 0.007485
0.536252 0.486765 0.629713 0.000000 -0.999669 0.000000
0.685255 0.591019 0.725612 -0.000000 0.025709 0.000302
3.443551 0.828457 0.367933 -0.066210 -0.013233 -0.012591
3.409767 0.323131 0.345938 0.026698 0.017683 -0.012109
2.985626 0.460435 0.763929 0.026700 -0.010092 -0.010012
0.297210 0.498646 0.673625 0.000000 -0.876546 0.000009
0.248605 0.500901 0.575125 -0.000000 -0.833293 -0.000001
1.487091 0.421323 0.806046 -0.034536 0.003703 0.003591
0.370516 0.685336 0.622039 0.000000 0.999669 -0.000000
2.633445 0.584304 0.725695 0.000000 -0.025719 0.000040
2.678863 0.500597 0.677069 -0.000000 -0.863917 0.000009
3.262125 0.565812 0.723654 0.000002 -0.127232 0.000015
1.727565 0.663352 0.528106 0.053242 -0.005043 -0.004688
2.144207 0.684354 0.641016 0.000001 0.986967 0.000001
1.773666 1.099331 0.079187 -0.053211 0.005100 0.004431
1.655710 0.752736 0.466704 -0.053210 0.006139 0.005323
3.131719 0.705012 0.509563 0.026696 -0.013555 -0.009927
1.896057 0.039549 0.038738 0.053241 0.010950 -0.010015
3.236280 0.696822 0.493601 0.000000 0.730914 0.000841
1.560945 0.495259 0.585974 -0.000000 -0.911064 -0.000014
0.038335 0.557683 0.598697 -0.627597 -0.000016 -0.000014
1.031865 0.486781 0.630352 0.000000 -0.999669 0.000000
3.249005 0.482444 0.529515 0.000001 0.730913 -0.000841
3.262125 0.623540 0.718402 -0.000000 0.388624 0.000295
1.463734 0.545171 0.535782 -0.000001 -0.411746 -0.000034
2.824679 0.684568 0.613199 -0.000001 0.872499 -0.000000
2.484442 0.638926 0.542203 0.000000 0.525839 -0.000013
3.342533 0.483561 0.626355 -0.097386 -0.003748 0.000210
2.095601 0.496119 0.668630 0.000000 -0.900162 0.000004
0.977683 0.669571 0.680230 0.000001 0.789967 0.000003
1.269314 0.537111 0.712848 0.000000 -0.503605 0.000027
0.345815 0.498453 0.579437 0.000001 -0.845029 -0.000001
1.803970 0.613992 0.721733 0.000000 0.291446 0.000026
2.873284 0.637633 0.541404 0.000000 0.525739 -0.000013
0.880472 0.653920 0.553749 0.000000 0.684586 -0.000004
3.116310 0.647866 0.704184 0.000000 0.630602 0.000038
0.426293 0.587822 0.725717 -0.000009 0.000558 0.000914
0.800792 0.589100 0.527049 0.000000 0.026091 -0.000020
0.102363 0.507702 0.618255 -0.439128 -0.000035 -0.000003
0.540236 0.684819 0.637448 -0.000001 0.993074 0.000004
0.588841 0.515341 0.556538 -0.000001 -0.706771 -0.000016
0.764139 0.486691 0.625316 -0.000000 -0.999915 -0.000000
3.386397 0.367821 0.865977 -0.066210 -0.010287 -0.009134
0.345815 0.628193 0.536343 0.000000 0.412624 -0.000009
2.776073 0.534152 0.711097 0.000000 -0.525740 0.000050
1.119514 0.685336 0.622039 0.000000 0.999669 -0.000000
2.338627 0.675588 0.583217 -0.000000 0.900190 -0.000008
1.512339 0.542384 0.715619 0.000000 -0.435249 0.000008
1.949786 0.496677 0.582929 -0.000000 -0.897905 -0.000002
3.067704 0.669330 0.680598 -0.000000 0.836725 0.000005
2.581653 0.669549 0.680263 -0.000001 0.800127 0.000003
1.698070 0.281086 0.311689 -0.053211 -0.004817 0.004187
3.213520 0.538373 0.713541 0.000000 -0.481385 0.000057
1.769972 0.973242 0.204580 -0.034534 -0.010229 -0.009566
2.824679 0.639198 0.710340 0.000000 0.515153 0.000003
1.925631 1.150910 0.021414 0.053238 -0.008645 -0.007968
1.925631 1.022053 0.159418 0.053245 -0.008932 -0.008226
1.925631 0.370970 0.856715 0.053241 0.015846 0.014183
1.925631 0.315746 0.915860 0.053241 0.014694 0.013227
1.925631 0.745930 0.455140 0.053241 -0.009077 -0.008355
1.871153 1.013056 0.175619 0.081973 0.005615 0.005231
0.588841 0.644165 0.706979 0.000000 0.589790 0.000011
2.144207 0.675239 0.582497 0.000001 0.788381 -0.000001
2.902680 0.488088 0.727247 0.026698 0.015157 0.010826
1.220708 0.654036 0.698852 0.000000 0.688705 0.000016
0.734657 0.634629 0.539651 -0.000000 0.481196 -0.000028
0.977683 0.494995 0.586556 0.000000 -0.921347 -0.000002
1.856755 0.386540 0.845421 0.053242 0.008501 0.007838
2.192812 0.502708 0.572246 -0.000001 -0.835373 -0.000010
1.661553 0.345842 0.869793 -0.053211 -0.005572 -0.004837
3.116310 0.620820 0.533251 0.000001 0.339307 -0.000022
1.074893 0.507840 0.687654 0.000000 -0.791955 0.000024
0.345815 0.536765 0.540064 -0.000000 -0.503266 -0.000013
1.755365 0.673171 0.674185 0.000000 0.876468 0.000001
1.835353 0.117647 1.117141 0.081971 -0.004867 -0.004536
1.564626 0.663525 0.720391 -0.034531 -0.011849 0.010931
1.463734 0.663034 0.689214 0.000000 0.776134 0.000013
2.484442 0.538688 0.538996 0.000001 -0.480869 -0.000028
0.443026 0.500255 0.576229 0.000001 -0.863810 -0.000036
1.841579 1.071285 0.116820 -0.053210 0.005100 0.004431
0.831867 0.537707 0.713175 0.000001 -0.478607 0.000014
1.925631 0.856379 0.336851 0.053240 -0.014695 -0.013228
1.850140 0.154241 0.157985 0.053240 0.008645 -0.007968
0.394421 0.663084 0.689152 -0.000000 0.775760 0.000013
1.658155 0.673479 0.673625 0.000000 0.876528 0.000017
1.810838 0.390784 0.408247 0.053241 0.004251 -0.003956
3.019099 0.498338 0.579647 0.000000 -0.888537 -0.000002
1.925631 0.334154 0.356566 0.053242 0.007348 -0.006797
2.241417 0.674337 0.580713 -0.000001 0.880079 -0.000002
3.164915 0.618221 0.720387 0.000000 0.316315 0.000023
2.678863 0.515369 0.556510 0.000000 -0.707107 -0.000008
3.070277 0.484738 0.528439 0.026700 0.013553 -0.009926
3.164915 0.506123 0.567317 -0.000000 -0.807499 -0.000045
0.394421 0.535315 0.711801 0.000000 -0.503427 0.000013
3.107716 0.425832 0.458284 0.026700 0.013553 -0.009926
2.778735 0.511894 0.544903 0.026699 -0.006729 0.006919
1.074893 0.520818 0.551392 -0.000001 -0.646226 -0.000009
2.484442 0.538373 0.713541 0.000001 -0.481030 0.000028
1.901181 0.683392 0.646449 0.000001 0.980683 0.000003
1.718551 0.142660 0.154762 -0.053211 -0.013221 0.011200
1.803970 0.497164 0.670790 0.000000 -0.900022 0.000002
1.706760 0.555876 0.721044 -0.000000 -0.287547 0.000006
3.063720 0.590379 0.725629 0.000010 0.001215 0.000421
1.675138 0.890319 0.294301 -0.034533 -0.013546 -0.012300
1.629274 0.908541 0.974825 -0.034534 -0.006774 0.006483
2.144207 0.561994 0.529938 0.000001 -0.242008 -0.000062
0.588841 0.516930 0.697750 -0.000000 -0.688359 0.000016
1.288437 0.685435 0.625876 0.000000 0.999669 -0.000000
1.812784 0.295599 0.306458 0.053240 0.006628 -0.006141
2.873284 0.673787 0.579647 0.000000 0.888653 -0.000016
1.925631 0.966828 1.034149 0.053240 -0.011238 0.010268
1.172103 0.670510 0.573968 0.000000 0.850594 -0.000019
0.929077 0.540527 0.714685 -0.000001 -0.458237 0.000060
1.661936 0.417466 0.818654 -0.034533 0.008985 0.008481
1.471663 0.366639 0.861354 -0.053211 -0.011899 -0.010137
1.401822 0.729688 0.472535 -0.034532 -0.017770 -0.015412
1.373886 0.699369 0.747704 -0.034532 -0.023688 0.019057
1.527536 0.866125 0.326414 -0.034531 -0.003940 -0.003818
1.778964 1.138999 1.218540 -0.034531 -0.023215 0.018796
1.401822 0.442437 0.780176 -0.053212 -0.012142 -0.010333
1.681187 0.139244 1.104890 -0.053209 -0.013221 -0.011201
1.737060 0.078605 1.169833 -0.053210 -0.010200 -0.008744
1.639282 0.184723 0.196528 -0.053211 -0.007367 0.006369
1.611346 0.957083 0.228999 -0.034534 -0.012440 -0.011415
1.583409 0.245362 0.261471 -0.053211 -0.004439 0.003861
1.583409 0.926763 0.261471 -0.034534 -0.006774 -0.006483
1.723091 1.078360 1.153597 -0.034533 -0.008018 0.007617
1.625314 0.199883 1.039947 -0.053212 -0.016241 -0.013561
3.417903 0.738440 0.463161 -0.066209 0.013715 0.012068
3.461470 0.330501 0.352653 -0.066209 -0.006858 0.006130
3.425164 0.755638 0.807967 -0.066209 0.010287 -0.009134
3.425164 0.416487 0.807967 -0.066209 -0.010287 -0.009134
1.998391 0.498858 0.674010 -0.000000 -0.876057 0.000004
3.326632 0.532358 0.711826 -0.094617 -0.000217 0.000372
1.818232 0.693884 0.502490 0.053241 -0.022468 -0.019333
3.186156 0.792878 0.847851 0.026699 0.012032 -0.011634
2.823860 0.688952 0.516163 0.026699 0.020179 0.017076
3.137850 0.393104 0.833011 0.026699 -0.012032 -0.011634
3.234462 0.365390 0.862692 0.026698 -0.009813 -0.009768
1.695332 0.249223 0.259891 -0.034533 0.006221 -0.005971
3.019099 0.672786 0.577824 -0.000001 0.875370 -0.000009
1.866483 1.132651 0.036348 0.053243 -0.010949 -0.010015
3.326632 0.657440 0.554978 -0.089743 0.000337 -0.000304
1.901181 0.499731 0.675583 0.000001 -0.863346 0.000009
1.026288 0.667814 0.569855 0.000000 0.821984 -0.000005
1.750524 0.525059 0.705368 0.053242 0.005043 0.004688
0.491631 0.519860 0.552240 -0.000000 -0.669630 -0.000017
0.540236 0.498915 0.578595 0.000000 -0.876514 -0.000017
0.345815 0.640272 0.709644 -0.000001 0.545789 0.000024
2.873284 0.665335 0.686292 0.000000 0.791964 0.000024
1.074893 0.644229 0.545779 0.000000 0.589151 -0.000011
1.825236 0.939729 0.259684 0.081974 0.003556 0.003317
0.491631 0.631776 0.714593 0.000000 0.458515 0.000060
3.262125 0.628733 0.536604 0.000001 0.435394 -0.000064
1.606503 0.683926 0.743382 -0.034533 -0.026053 0.020292
1.172103 0.505061 0.683941 0.000000 -0.807671 0.000006
0.297210 0.665457 0.686134 -0.000001 0.754700 0.000003
1.802530 1.106789 1.179730 -0.053205 0.008690 -0.007486
2.920472 0.716666 0.486482 0.026699 0.016818 0.015093
1.746243 0.456502 0.779126 0.053241 0.005043 0.004688
1.569441 0.260521 0.975004 -0.053211 -0.009633 -0.008274
1.681368 0.852414 0.332859 -0.034531 -0.003664 -0.003553
0.248605 0.639334 0.710256 -0.000003 0.304223 0.000005
1.688356 0.367459 0.381474 -0.034534 0.003940 -0.003818
1.269314 0.548253 0.534448 -0.000000 -0.388322 -0.000009
0.423106 0.590379 0.527082 0.000009 0.001542 -0.000330
1.123498 0.619316 0.720005 0.000000 0.340606 0.000043
0.880472 0.566283 0.723746 -0.000000 -0.191834 0.000040
0.929077 0.544770 0.535963 -0.000000 -0.412204 -0.000034
1.998391 0.632451 0.714245 0.000000 0.458467 0.000030
2.338627 0.514888 0.556991 0.000000 -0.724953 -0.000007
1.318715 0.584624 0.527008 -0.000000 -0.026081 -0.000039
0.636650 0.486688 0.625556 -0.000000 -0.999917 -0.000000
3.164915 0.657815 0.557599 0.000000 0.725084 -0.000030
2.484442 0.654471 0.698439 0.000001 0.688226 0.000033
0.929077 0.631598 0.538026 -0.000001 0.458237 -0.000060
2.290022 0.500113 0.676240 0.000000 -0.863635 0.000009
1.545154 0.706676 0.763673 -0.034534 -0.013032 0.011892
1.123498 0.614528 0.531141 0.000000 0.291658 -0.000051
0.831867 0.500617 0.677103 -0.000001 -0.863565 0.000018
1.874558 0.492614 0.522283 0.053242 0.005403 -0.005019
2.727468 0.622759 0.534001 -0.000000 0.364661 -0.000040
3.241479 0.403517 0.436741 0.026699 0.026515 -0.015457
2.581653 0.533846 0.541803 0.000001 -0.525484 -0.000050
2.737030 0.486760 0.629553 0.000000 -0.999664 0.000000
0.977683 0.511840 0.692439 -0.000001 -0.724912 0.000004
2.046996 0.675692 0.583433 0.000000 0.899598 -0.000004
3.116310 0.495984 0.584371 -0.000000 -0.911020 -0.000014
2.241417 0.669439 0.680431 0.000000 0.836835 0.000010
1.512339 0.577795 0.527321 -0.000000 -0.089761 -0.000086
0.102363 0.604157 0.549684 -0.376857 0.000022 -0.000084
1.998391 0.674649 0.671394 0.000000 0.888667 0.000016
2.835834 0.582705 0.725653 0.000000 -0.025719 0.000010
1.702329 0.407628 0.421970 -0.034534 0.004216 -0.004082
1.876601 0.737833 0.469721 0.081973 0.005896 0.005491
1.901181 0.596520 0.725185 -0.000000 0.115522 0.000134
2.314723 0.685402 0.628114 0.000000 0.999669 0.000000
1.766478 0.806427 0.843182 0.081972 0.002527 -0.002358
0.491631 0.652622 0.552561 0.000000 0.669503 -0.000017
1.807725 0.779710 0.433172 0.081972 0.005428 0.005057
3.032988 0.502066 0.726409 0.026697 -0.020180 -0.017076
2.387232 0.667996 0.570118 0.000001 0.816523 -0.000005
1.219115 0.590859 0.527094 0.000000 0.025719 -0.000302
0.443026 0.675675 0.583397 -0.000001 0.899500 -0.000008
1.609550 0.499570 0.675307 0.000000 -0.863887 0.000005
1.269314 0.497238 0.670932 0.000000 -0.888692 0.000004
0.831867 0.497366 0.581530 0.000001 -0.837124 -0.000002
2.533048 0.625862 0.535288 -0.000000 0.412135 -0.000069
2.192812 0.592855 0.527211 0.000001 0.055253 -0.000035
2.290022 0.621121 0.533360 0.000000 0.364828 -0.000079
1.366524 0.676075 0.584225 -0.000000 0.911066 -0.000014
2.192812 0.643648 0.707357 -0.000000 0.589876 0.000043
1.846249 0.326203 0.910862 0.053241 0.014694 0.013227
1.706760 0.682625 0.602868 -0.000000 0.970185 -0.000008
2.727468 0.497825 0.580642 0.000000 -0.888692 -0.000008
0.783262 0.630065 0.715463 0.000000 0.435249 0.000004
3.150041 0.727301 0.784686 0.026699 0.024054 -0.018959
3.131719 0.477688 0.753022 0.026699 -0.024054 -0.018959
2.727468 0.675379 0.582785 -0.000000 0.899890 -0.000008
1.694486 0.995315 0.185682 -0.034532 -0.021558 -0.017840
2.824679 0.497568 0.581139 -0.000000 -0.886363 -0.000002
1.609550 0.672334 0.577024 0.000000 0.863790 -0.000018
1.317919 0.495737 0.584917 0.000000 -0.910715 -0.000001
2.258946 0.585423 0.725723 0.000000 -0.025719 0.000010
2.338627 0.521669 0.702047 -0.000003 -0.384330 0.000004
2.419901 0.685394 0.628434 0.000000 0.999669 0.000000
3.198877 0.748360 0.459604 0.026699 -0.027094 -0.015625
1.729511 0.403360 0.798391 0.081972 -0.005428 -0.005057
1.606503 0.488199 0.509329 -0.034532 0.026053 -0.020292
1.755365 0.503605 0.570875 0.000000 -0.836787 -0.000041
3.282768 0.820592 0.375178 0.026699 0.031370 0.021579
3.306921 0.827520 0.884952 0.026700 0.023538 -0.018731
1.766867 0.869605 0.910891 -0.053214 0.002408 -0.002100
1.074893 0.683607 0.645350 -0.000000 0.980354 0.000002
1.728648 1.045449 0.137269 -0.053210 0.005856 0.005081
0.158390 0.626523 0.712800 -0.158598 0.000114 0.000229
0.637446 0.640105 0.542957 -0.000000 0.547514 -0.000048
1.925631 0.874787 0.935575 0.053241 -0.006772 0.006273
1.123498 0.496050 0.584225 0.000000 -0.911085 -0.000014
1.317919 0.675030 0.670646 -0.000002 0.880748 0.000004
3.211598 0.482383 0.751527 0.000000 -0.730914 -0.000841
0.831867 0.670278 0.573594 -0.000000 0.850390 -0.000010
2.387232 0.625161 0.534992 0.000000 0.388328 -0.000037
0.686052 0.492958 0.591598 0.000000 -0.940176 -0.000006
2.921889 0.532723 0.710214 0.000000 -0.547972 0.000006
1.663436 0.959600 0.230337 -0.053209 0.008122 0.007009
1.663436 0.212525 0.230337 -0.053210 -0.008122 0.007009
1.786295 1.015054 1.075949 -0.053210 0.006611 -0.005727
1.949786 0.547443 0.534790 -0.000000 -0.388089 -0.000018
3.342830 0.706995 0.502728 -0.066209 -0.009926 -0.009524
1.840023 0.810091 0.872974 0.053242 -0.007924 0.007319
0.588841 0.678358 0.663201 -0.000001 0.928549 0.000003
0.783262 0.644036 0.545637 0.000001 0.589628 -0.000043
2.484442 0.502204 0.573016 0.000000 -0.850543 -0.000005
0.734657 0.670741 0.574343 -0.000000 0.850390 -0.000010
1.743552 0.238634 0.266740 -0.053211 -0.008500 0.007326
0.345815 0.673842 0.579754 -0.000001 0.880079 -0.000002
2.727468 0.677317 0.665712 0.000000 0.921359 0.000013
1.843914 1.000460 1.076552 0.053242 -0.005043 0.004688
3.224675 0.590859 0.527094 0.000000 0.025719 -0.000020
0.394421 0.500214 0.676412 0.000000 -0.863887 0.000009
1.658155 0.502555 0.572481 0.000000 -0.836792 -0.000020
1.415129 0.495704 0.584990 0.000000 -0.909264 -0.000002
0.637446 0.537882 0.539439 0.000000 -0.481246 -0.000028
1.654944 0.314390 0.328711 -0.034536 0.003663 -0.003553
0.734657 0.661988 0.690476 -0.000001 0.754762 0.000007
3.262125 0.500839 0.575227 -0.000000 -0.863995 -0.000001
0.929077 0.499570 0.577404 0.000000 -0.876546 -0.000004
1.317919 0.627902 0.716500 0.000001 0.411240 0.000034
0.734657 0.537251 0.539785 0.000001 -0.476925 -0.000014
0.038335 0.571134 0.663063 -0.627599 -0.000008 0.000019
0.540236 0.621642 0.719147 0.000001 0.364477 0.000040
2.484442 0.498026 0.672460 -0.000001 -0.888620 0.000032
1.706760 0.557100 0.531293 0.000000 -0.291322 -0.000026
2.970494 0.552884 0.720032 -0.000000 -0.340658 0.000043
2.453367 0.486736 0.628594 0.000000 -0.999669 0.000000
0.491631 0.525207 0.704919 0.000000 -0.610219 0.000020
0.588841 0.490468 0.599195 0.000000 -0.962999 -0.000002
2.484442 0.673017 0.578245 0.000000 0.876546 -0.000009
3.067704 0.535833 0.540608 0.000000 -0.503427 -0.000013
0.686052 0.680360 0.594993 0.000000 0.948553 -0.000010
1.366524 0.491790 0.657794 -0.000000 -0.948254 0.000005
2.095601 0.495539 0.585354 -0.000000 -0.911060 -0.000007
1.901181 0.629777 0.537109 0.000000 0.435551 -0.000016
2.873284 0.502248 0.679762 -0.000001 -0.809313 0.000003
1.949786 0.566832 0.723853 -0.000001 -0.185164 0.000021
1.949786 0.671508 0.575607 0.000000 0.863898 -0.000018
2.144207 0.487969 0.642281 0.000000 -0.986010 0.000005
1.852576 0.489587 0.602519 -0.000000 -0.970164 -0.000002
1.609550 0.555345 0.531843 -0.000001 -0.316209 -0.000047
3.213520 0.681137 0.655279 -0.000001 0.955999 0.000009
2.824679 0.622461 0.533885 0.000000 0.364728 -0.000079
1.415129 0.632771 0.538631 0.000000 0.481175 -0.000014
1.560945 0.634313 0.539478 0.000000 0.481461 -0.000014
2.435838 0.544515 0.716632 0.000000 -0.412006 0.000009
2.970494 0.636672 0.711881 0.000000 0.503825 0.000007
1.317919 0.542780 0.715811 0.000000 -0.435249 0.000004
2.435838 0.533336 0.542119 -0.000001 -0.525484 -0.000050
1.658155 0.596917 0.527571 0.000000 0.115522 -0.000134
3.119792 0.746233 0.451283 0.026700 0.023537 0.018731
1.998391 0.499454 0.577614 -0.000000 -0.876640 -0.000002
0.248605 0.501532 0.678606 -0.000001 -0.850488 0.000038
3.262125 0.495803 0.667939 0.000000 -0.911020 0.000014
1.773093 0.886412 0.323070 -0.053210 0.009255 0.007960
1.560945 0.537812 0.713233 0.000000 -0.481461 0.000014
1.220708 0.559404 0.722089 0.000001 -0.265787 0.000056
1.803970 0.673479 0.579086 0.000001 0.876005 -0.000017
1.658155 0.501868 0.679150 0.000000 -0.850595 0.000010
0.200000 0.630497 0.537457 -0.029485 0.000333 -0.000645
1.172103 0.670678 0.678470 0.000000 0.850629 0.000010
3.192516 0.405031 0.428940 0.026698 -0.012033 0.011634
2.970494 0.496729 0.669890 0.000000 -0.899598 0.000004
0.977683 0.633893 0.713464 -0.000000 0.481379 0.000057
1.803970 0.671266 0.677518 0.000000 0.864130 0.000002
2.387232 0.674814 0.671074 -0.000000 0.888768 0.000004
2.776073 0.674044 0.580144 -0.000000 0.888620 -0.000008
0.394421 0.630639 0.537530 -0.000002 0.349773 -0.000005
1.366524 0.676207 0.668194 0.000000 0.911059 0.000014
2.824679 0.552132 0.532951 0.000000 -0.340650 -0.000086
1.699526 0.470383 0.486456 -0.034532 0.006715 -0.006428
0.248605 0.647647 0.548353 -0.000000 0.610053 -0.000010
0.038335 0.624384 0.616263 -0.627600 0.000021 -0.000005
2.387232 0.496659 0.582965 -0.000000 -0.900002 -0.000008
3.299673 0.474978 0.735720 -0.066210 0.006193 0.005982
3.319815 0.446459 0.485675 -0.066210 0.004963 -0.004802
1.925631 0.819563 0.376281 0.053240 -0.015846 -0.014183
1.925631 0.370970 0.395995 0.053241 0.007924 -0.007319
1.737877 0.732478 0.797831 0.053242 -0.002522 0.002352
1.737877 0.421044 0.472250 0.081972 -0.003276 0.003056
0.588841 0.666498 0.567995 0.000001 0.804634 -0.000006
1.507386 0.367439 0.395168 -0.053211 -0.002975 0.002593
1.366524 0.625272 0.717672 0.000000 0.388662 0.000074
0.394421 0.623798 0.718293 0.000001 0.387717 0.000018
2.810336 0.486693 0.627555 0.000000 -0.999920 0.000000
1.852475 0.290371 0.948751 0.053241 0.013542 0.012256
1.560945 0.673787 0.673064 -0.000000 0.888689 0.000004
1.852576 0.628409 0.536447 -0.000001 0.430355 -0.000016
3.028217 0.699405 0.740677 0.026701 -0.022729 0.014218
1.695332 0.241974 0.986051 -0.053210 -0.008877 -0.007644
1.609550 0.621605 0.719162 0.000001 0.362159 0.000020
2.144207 0.519266 0.552776 0.000000 -0.668889 -0.000009
3.375271 0.422268 0.806488 -0.066209 -0.013715 -0.012068
2.046996 0.676900 0.666664 0.000001 0.910235 0.000007
1.877379 1.043489 0.132690 0.053241 -0.008933 -0.008226
1.605208 0.295035 0.311326 -0.034531 0.003664 -0.003553
1.750584 0.685340 0.622198 0.000000 0.999669 -0.000000
1.415129 0.495588 0.667466 0.000000 -0.911118 0.000007
3.067704 0.543536 0.716177 -0.000000 -0.434983 0.000008
1.220708 0.612221 0.722228 0.000001 0.266414 0.000028
1.646355 0.239713 1.000148 -0.034534 0.025973 0.020253
0.639837 0.685441 0.626835 -0.000000 0.999915 0.000000
0.540236 0.499731 0.675583 0.000000 -0.863995 0.000001
2.970494 0.499711 0.577162 0.000000 -0.863665 -0.000005
1.685106 0.474413 0.761407 -0.034534 0.006714 0.006428
2.921889 0.678125 0.663796 -0.000001 0.930665 0.000006
1.816675 0.993263 0.181739 0.053241 -0.005043 -0.004688
3.374336 0.691139 0.615670 -0.098797 0.000429 -0.000038
0.929077 0.679671 0.659722 -0.000001 0.939306 0.000006
1.415129 0.684971 0.616694 0.000000 0.995840 -0.000001
1.621201 0.507961 0.723846 -0.034533 0.006715 0.006428
2.978320 0.480152 0.518984 0.026700 0.018944 -0.012691
2.387232 0.499650 0.675445 -0.000001 -0.861888 0.000005
1.779319 0.283404 0.961928 0.053241 0.006772 0.006273
2.533048 0.493067 0.591297 0.000000 -0.940182 -0.000011
3.374336 0.536869 0.679041 0.228463 -0.000374 0.000401
3.314720 0.414619 0.799369 -0.066209 0.008272 0.007963
2.435838 0.629849 0.715567 -0.000000 0.435277 0.000016
1.740443 0.299165 0.335835 -0.053212 -0.002408 0.002100
2.533048 0.493767 0.663201 0.000000 -0.930933 0.000002
3.393190 0.764201 0.432039 -0.066209 0.013715 0.012068
1.754415 0.819027 0.889232 0.053241 -0.007925 0.007319
3.164915 0.542780 0.536900 0.000000 -0.435473 -0.000032
3.325623 0.366849 0.388048 0.026699 -0.031370 0.021579
3.325623 0.366849 0.864663 0.026700 -0.031370 -0.021579
1.822724 0.033370 1.214715 -0.053212 -0.014353 -0.012097
3.410642 0.450882 0.481580 -0.066210 -0.006858 0.006130
2.776073 0.673152 0.674220 -0.000001 0.876448 0.000017
1.755365 0.625862 0.535288 0.000000 0.412286 -0.000009
1.889831 1.081884 1.153057 0.081974 0.009732 -0.009024
1.889831 1.081884 0.099654 0.081974 0.009732 0.009024
1.694578 0.284875 0.936963 -0.053212 -0.002408 -0.002100
3.019099 0.666451 0.684780 0.000000 0.807486 0.000011
1.620781 0.809993 0.379356 -0.034533 -0.004217 -0.004082
1.560191 0.349226 0.369121 -0.034531 0.008433 -0.007990
1.373886 0.472757 0.505007 -0.053211 -0.016187 0.013519
3.319815 0.716854 0.775264 -0.066212 0.005144 -0.004608
1.687502 0.181382 0.196608 -0.053210 -0.007367 0.006370
1.269314 0.634594 0.713079 0.000000 0.481461 0.000007
1.925631 0.002807 1.251012 0.000000 -0.682468 0.000317
1.925631 0.002807 0.001699 -0.000000 -0.682471 -0.000317
3.213520 0.636120 0.712204 0.000000 0.503686 0.000053
3.067704 0.635291 0.712687 0.000001 0.503413 0.000053
3.213520 0.546191 0.535321 -0.000001 -0.412222 -0.000137
3.017085 0.744379 0.795910 0.026699 0.023539 -0.018731
3.017085 0.427746 0.456801 0.026700 -0.023538 0.018731
1.852576 0.540989 0.714924 -0.000001 -0.458519 0.000060
1.798386 0.718882 0.778543 0.053240 -0.022468 0.019334
1.798386 0.440635 0.485940 0.081972 -0.014597 0.013420
1.755365 0.545098 0.535815 0.000001 -0.403321 -0.000009
2.241417 0.560907 0.530209 0.000000 -0.242272 -0.000031
1.797219 0.335638 0.879080 0.081972 -0.004679 -0.004362
1.745491 0.304784 0.938331 -0.034532 0.013546 0.012300
3.338382 0.500899 0.530069 -0.066210 -0.006418 0.005740
1.490761 0.711929 0.766367 -0.034533 -0.005925 0.005695
1.437098 0.682259 0.519422 -0.034532 -0.008887 -0.008394
1.901116 0.437275 0.465091 0.053241 0.004539 -0.004223
2.727468 0.628769 0.716089 -0.000001 0.435126 0.000032
1.507294 0.672730 0.525719 -0.034533 -0.011848 -0.010930
1.654432 0.463038 0.481158 -0.034533 0.013033 -0.011893
2.581653 0.673056 0.578315 0.000000 0.876535 -0.000009
1.446292 0.724113 0.770185 -0.053210 0.008095 -0.006986
1.397403 0.667749 0.716446 -0.034532 -0.023688 0.019057
1.486362 0.787790 0.839889 -0.053205 0.002530 -0.002206
1.515383 0.467243 0.510155 -0.053212 -0.008095 0.006986
1.846249 0.872196 0.329478 0.081971 0.008610 0.007995
0.701191 0.589340 0.527055 -0.000005 0.005212 -0.000196
1.803970 0.548327 0.534417 0.000001 -0.387493 -0.000037
0.880472 0.539638 0.538484 0.000000 -0.458505 -0.000030
2.776073 0.629705 0.715637 -0.000000 0.435322 0.000032
0.110114 0.512775 0.662987 -0.346602 -0.000087 0.000041
1.074893 0.488565 0.645586 -0.000000 -0.981399 0.000006
0.200000 0.539354 0.714080 -0.029485 -0.000349 0.000636
0.200000 0.679058 0.661413 -0.029486 0.000683 0.000247
1.463734 0.626809 0.716995 0.000001 0.412047 0.000034
1.584256 0.854350 0.917031 -0.034534 -0.007880 0.007492
0.880472 0.493767 0.663201 0.000000 -0.931075 0.000006
1.220708 0.492345 0.659421 -0.000000 -0.934875 0.000001
3.260963 0.718002 0.753527 -0.066209 -0.004121 0.003990
1.026288 0.684433 0.612249 0.000001 0.989913 -0.000009
1.704583 1.011607 1.084234 -0.034533 -0.010230 0.009566
1.798386 0.453243 0.778543 0.053240 0.022468 0.019334
3.057936 0.683847 0.532230 0.026699 -0.013554 -0.009926
2.301974 0.486748 0.629073 0.000000 -0.999669 0.000000
1.835353 0.117647 0.135570 0.081972 -0.004866 0.004536
3.019099 0.546337 0.535257 0.000000 -0.388789 -0.000009
1.384539 0.668074 0.536568 -0.034534 -0.011848 -0.010930
2.144207 0.546264 0.717423 0.000000 -0.412146 0.000017
1.269314 0.642004 0.544217 -0.000001 0.537578 -0.000006
2.533048 0.561994 0.722773 -0.000001 -0.242154 0.000125
1.925631 0.837971 0.896145 0.053241 -0.007348 0.006797
3.373105 0.705520 0.751348 -0.066210 -0.008272 0.007963
1.925631 1.022053 1.093293 0.053241 -0.008933 0.008226
1.698381 0.684732 0.704641 -0.053210 0.009174 -0.007892
1.785545 0.252100 0.285570 0.081972 -0.007861 0.007307
0.094719 0.642678 0.576597 -0.406712 0.000056 -0.000047
1.715527 0.962117 1.021037 -0.053213 0.008122 -0.007008
1.463734 0.611140 0.530190 -0.000001 0.207182 -0.000009
3.280452 0.685319 0.621399 0.000000 0.999669 -0.000000
1.785545 0.906145 0.980102 0.053241 -0.012102 0.011020
1.694578 0.877418 0.946143 -0.034533 -0.007050 0.006737
2.873284 0.495967 0.584407 -0.000001 -0.908594 -0.000004
1.527536 0.306000 0.926297 -0.053211 -0.010388 -0.008900
0.125902 0.672499 0.639817 -0.285049 0.000128 0.000023
1.317919 0.678431 0.589696 0.000001 0.878301 -0.000002
3.067704 0.488388 0.644683 0.000001 -0.981087 0.000006
1.560945 0.522155 0.550248 -0.000001 -0.632253 -0.000005
0.977683 0.548622 0.718418 0.000001 -0.388579 0.000074
1.461917 0.410865 0.441234 -0.053210 -0.005060 0.004397
1.892166 0.257530 0.271889 0.053240 0.006196 -0.005746
0.845413 0.588141 0.527024 0.000000 0.025709 -0.000010
1.852086 0.744905 0.802218 0.053242 -0.009077 0.008355
1.846249 0.326203 0.341848 0.053240 0.007348 -0.006797
2.824679 0.540918 0.714887 -0.000001 -0.458428 0.000060
3.310730 0.680740 0.656580 -0.092925 0.000419 0.000128
