0.329212 -0.087954 0.080349 0.060038 -0.709612 -0.702030
-1.452585 -0.111002 0.034391 -0.221089 -0.931898 0.273450
0.833097 -0.108982 -0.047735 0.000084 -0.890386 -0.450226
1.291385 0.111679 0.041030 -0.001326 0.916680 0.393734
-0.356215 -0.117833 -0.016462 0.000024 -0.981192 -0.181612
1.462026 0.178136 -0.165176 0.000000 0.710895 0.703299
0.647889 -0.092086 0.075338 0.000195 -0.799930 0.596139
0.349669 0.118978 -0.000000 -0.000262 0.994615 0.083783
-0.670598 -0.109595 0.046311 0.000327 -0.935719 0.346215
-0.859086 -0.050229 0.107855 -0.000124 -0.375977 0.924110
-0.669203 0.065149 -0.099556 -0.000045 0.504775 -0.860550
-1.019692 0.062400 -0.101301 -0.002504 0.581574 -0.810016
1.462026 -0.178136 -0.165176 -0.000000 -0.710895 0.703299
0.249675 -0.572195 0.578375 -0.062566 -0.739643 -0.670085
1.085035 0.158690 0.160404 -0.089707 0.854812 -0.511126
0.049953 -0.000000 0.118978 -0.000053 0.048323 0.996496
-0.224981 -0.037667 0.112858 0.001303 -0.365109 0.928385
0.329478 0.510194 -0.524607 0.062626 -0.709499 -0.701918
0.516360 0.101817 -0.061555 -0.001062 0.897299 -0.436312
0.024650 -0.018903 -0.117467 -0.000074 -0.206777 -0.975637
0.197425 0.341357 0.360851 -0.065256 -0.676484 0.733561
-0.273815 0.114738 0.031478 -0.000309 0.932497 0.354960
0.064302 -0.386093 -0.390263 -0.065256 0.676484 -0.733561
0.261260 0.583826 0.590132 -0.065256 -0.676484 0.733561
0.274614 -0.176814 -0.192521 0.062626 0.709499 -0.701918
0.068247 -0.181275 -0.163815 -0.062566 -0.739643 0.670085
1.124694 -0.118020 -0.015068 -0.000076 -0.973816 -0.218087
1.360151 -0.114846 -0.031081 0.000072 -0.949168 -0.307492
0.163942 0.218979 0.245015 -0.022631 -0.688558 0.724120
0.049953 0.118978 -0.000000 -0.000208 0.997266 0.042411
0.387236 0.159834 0.157967 0.060038 0.709612 -0.702030
0.260245 -0.387526 -0.377258 0.060038 -0.709612 0.702030
0.487094 -0.113528 0.035596 0.001605 -0.966440 0.246942
0.271465 -0.379067 0.397239 0.062626 0.709499 0.701918
0.992661 0.025134 0.116293 -0.001941 0.312272 0.947047
-0.510989 -0.091257 0.076340 -0.000312 -0.700835 0.710021
0.328754 -0.532958 -0.530119 0.060038 -0.709612 0.702030
0.052717 0.374461 -0.378506 -0.062566 0.739643 0.670085
-0.190585 -0.130202 -0.131609 -0.065256 0.676484 -0.733561
1.103540 0.163598 -0.165365 -0.089707 -0.520279 -0.849272
-0.038898 -0.141506 0.155527 -0.065256 0.676484 0.733561
-0.097898 0.223253 0.225665 -0.065256 -0.676484 0.733561
0.259435 0.016729 -0.117796 -0.000508 0.189484 -0.979536
0.999065 0.017251 -0.117720 0.000017 0.096526 -0.992980
1.418123 0.247049 0.249718 -0.089707 0.854812 -0.511126
1.177560 -0.183234 0.185213 -0.089707 0.520279 0.849272
0.274244 0.400504 -0.418660 0.062626 -0.709499 -0.701918
-0.421851 0.014987 -0.118030 -0.000131 0.175641 -0.982310
0.357776 0.307516 -0.317215 0.062626 -0.709499 -0.701918
0.034477 0.162717 0.181615 -0.065256 -0.676484 0.733561
1.446540 0.112267 -0.028488 0.174958 0.954770 -0.229806
1.162623 -0.141891 -0.158308 -0.030151 0.650768 -0.756259
1.383876 -0.014372 0.118106 0.000055 -0.166504 0.984085
1.168016 0.046736 0.109414 0.000062 0.437183 0.896777
-1.318355 0.067829 -0.097750 -0.001076 0.606151 -0.792478
-1.157992 0.015703 -0.117937 0.000460 0.087288 -0.994253
-1.006308 -0.065918 0.099048 0.000452 -0.624832 0.778067
0.969081 -0.118978 -0.000000 0.000086 -0.996911 -0.047363
0.909805 0.114794 0.031275 0.000857 0.982348 0.175141
0.199076 -0.018916 0.117464 0.000542 -0.203280 0.976756
-0.539792 0.050146 0.107894 -0.000171 0.332079 0.940764
0.392478 -0.519174 0.528063 0.062626 0.709499 0.701918
-1.506695 0.101170 -0.000000 -0.330562 0.935453 -0.069448
1.331258 0.125089 -0.111556 0.000000 0.710895 0.703299
0.238952 0.217754 -0.203831 0.060038 0.709612 0.702030
0.012115 -0.288362 -0.287259 -0.062566 -0.739643 0.670085
0.089232 0.248820 -0.236413 -0.062566 0.739643 0.670085
0.075888 0.397724 0.402020 -0.065256 -0.676484 0.733561
0.429254 -0.323038 0.326527 0.060038 -0.709612 -0.702030
0.305910 -0.278476 -0.292489 0.062626 0.709499 -0.701918
0.429254 -0.154077 0.155741 0.060038 -0.709612 -0.702030
0.060982 -0.114423 0.032606 -0.000152 -0.946181 0.316562
0.284432 0.607089 -0.613646 -0.062566 0.739643 0.670085
-1.337888 -0.049234 0.108313 0.000545 -0.459970 0.885381
-1.524233 -0.000000 0.093392 -0.404743 0.052028 0.909000
1.514073 -0.017491 0.052622 1.000000 0.000000 0.000000
-0.678916 -0.079447 -0.088566 -0.000228 -0.699999 -0.710822
-0.119523 -0.014758 -0.118059 0.000237 -0.179326 -0.981651
0.202251 0.114053 -0.033876 -0.000468 0.941682 -0.329744
-0.819515 0.078499 0.089407 0.000057 0.622667 0.779535
1.460437 -0.235777 0.223439 -0.030151 -0.763206 -0.642606
-1.131845 0.065514 0.099316 -0.000269 0.587255 0.806454
0.296018 -0.618720 -0.625403 -0.065256 0.676484 -0.733561
0.293196 0.490777 0.484442 0.019169 0.720650 -0.692354
0.309522 -0.108753 -0.048255 0.000028 -0.891395 -0.448152
0.429254 0.351199 0.354992 0.060038 0.709612 -0.702030
0.319545 0.050335 0.107806 0.000063 0.377175 0.923623
0.429254 -0.337118 -0.340760 0.062626 0.709499 -0.701918
1.378705 -0.017251 -0.117720 -0.000053 -0.098314 -0.992674
0.017959 -0.339567 0.343235 -0.062566 -0.739643 -0.670085
0.899986 -0.109601 0.110785 -0.089707 0.520279 0.849272
0.533809 -0.085413 -0.082828 -0.000880 -0.698526 -0.712472
-0.095038 -0.029714 0.115208 -0.000910 -0.341757 0.936972
-1.268635 0.065149 0.099556 -0.000045 0.504775 0.860550
-0.929119 -0.118978 0.000000 0.000064 -0.997057 -0.043114
-0.167413 -0.153465 0.155123 -0.062566 -0.739643 -0.670085
1.362216 -0.143103 0.129764 0.000000 -0.710895 -0.703299
0.275701 -0.488733 0.483819 -0.062566 -0.739643 -0.670085
-1.188873 -0.118978 0.000000 0.000152 -0.997503 -0.039319
-0.909138 0.000000 -0.118978 0.000521 -0.028088 -0.998476
0.699325 0.017251 0.117720 0.000265 0.093630 0.992956
-0.149858 0.118978 -0.000000 -0.000052 0.993718 0.088597
-0.051547 -0.132491 -0.121153 -0.062566 -0.739643 0.670085
1.377572 0.167293 0.154216 0.000000 0.710895 -0.703299
-0.229782 -0.118978 -0.000000 0.000454 -0.996998 -0.046463
0.709034 0.073762 -0.093354 -0.000968 0.628500 -0.775752
1.527238 0.205397 0.200174 0.174151 0.679503 -0.710446
0.402231 0.115787 -0.114726 0.060038 0.709612 0.702030
1.198330 0.100489 -0.063699 0.000202 0.869119 -0.489938
0.200479 -0.242554 0.225609 0.060038 -0.709612 -0.702030
1.118937 -0.017350 -0.117706 0.000066 -0.192367 -0.978929
0.058180 -0.246683 0.236953 -0.062566 -0.739643 -0.670085
-1.538697 -0.072200 -0.046252 -0.482032 -0.671204 -0.555582
0.302794 0.389489 0.404979 0.062626 -0.709499 0.701918
1.283876 -0.117791 -0.133948 0.000000 0.710895 -0.703299
0.778261 -0.101082 0.062754 0.000094 -0.894238 0.442383
1.485730 -0.101520 -0.039467 0.173566 -0.874553 -0.446606
-0.351429 0.100098 -0.064313 -0.000810 0.866616 -0.494771
-1.068987 0.118978 -0.000000 -0.000313 0.996946 0.037767
0.264001 -0.148040 0.164383 0.062626 0.709499 0.701918
1.114946 -0.070167 0.096085 -0.000710 -0.661879 0.746361
-0.109484 0.211622 -0.213908 -0.062566 0.739643 0.670085
0.879901 -0.018916 -0.117464 -0.000542 -0.203280 -0.976756
-0.778858 0.017790 -0.117640 0.000048 0.199064 -0.977565
0.269562 0.201007 0.189521 0.060038 0.709612 -0.702030
-1.413288 -0.085739 -0.082489 -0.019124 -0.769316 -0.635004
0.429254 -0.154077 -0.155741 0.062626 0.709499 -0.701918
0.429254 0.534240 0.540010 0.060038 0.709612 -0.702030
1.399619 0.242141 -0.244756 -0.089707 -0.520279 -0.849272
0.008208 0.174561 -0.190200 -0.065256 -0.676484 -0.733561
1.436628 -0.251958 -0.254680 -0.089707 -0.854812 0.511126
0.708966 -0.114385 -0.032739 0.000110 -0.981506 -0.179989
0.992511 0.134145 -0.135594 -0.089707 -0.520279 -0.849272
-0.732802 0.117896 -0.016007 0.000036 0.971755 -0.226706
-0.729422 -0.034181 0.113962 0.000144 -0.332403 0.940645
0.796740 0.102994 0.059565 -0.000899 0.883124 0.464543
0.564097 0.105950 0.054132 0.002083 0.884139 0.463844
-0.190585 0.130202 -0.131609 -0.062566 0.739643 0.670085
0.142837 -0.019910 -0.117300 -0.000097 -0.262428 -0.962315
-1.332233 -0.117896 0.016007 0.000036 -0.971755 0.226706
1.246459 -0.118041 -0.014899 0.000406 -0.984047 -0.165404
-0.399352 0.109231 0.047162 0.000798 0.948102 0.311203
0.272918 0.133669 -0.121743 0.060038 0.709612 0.702030
-0.550308 0.032202 -0.114537 0.001148 0.325460 -0.942891
0.256450 -0.313468 0.302076 0.060038 -0.709612 -0.702030
-0.340365 -0.078904 0.089049 -0.000097 -0.626037 0.776767
-0.613373 0.117983 -0.015353 -0.000029 0.982246 -0.176058
0.279591 -0.451531 -0.469761 -0.022631 0.688558 -0.724120
-0.800495 -0.114747 0.031446 0.000011 -0.973006 0.221446
0.097444 -0.395907 0.398001 -0.062566 -0.739643 -0.670085
1.195281 0.155522 0.142318 0.000000 0.710895 -0.703299
-1.380253 0.117426 -0.019153 -0.000086 0.977802 -0.198301
0.161961 0.382638 -0.395764 -0.065256 -0.676484 -0.733561
0.562972 0.019354 -0.117393 -0.001345 0.170076 -0.983861
-0.960293 0.117951 -0.015598 -0.000661 0.994199 -0.086577
0.225992 -0.108395 0.049053 -0.000083 -0.865705 0.495931
-0.609526 -0.033975 0.114024 0.000046 -0.191667 0.979089
0.458055 0.115114 0.030075 -0.000019 0.950901 0.302165
-1.018731 -0.050146 -0.107894 0.000220 -0.332429 -0.940643
1.275100 0.028151 0.115599 -0.000029 0.289625 0.955064
1.398841 0.077772 0.063727 0.000000 -0.703299 -0.710895
0.162958 -0.129135 -0.154290 0.062626 0.709499 -0.701918
1.526329 0.106680 -0.107832 0.251151 -0.715091 -0.652355
0.772739 -0.019205 -0.117418 -0.000706 -0.257226 -0.963807
-0.285506 -0.079566 -0.088459 0.000589 -0.631256 -0.772781
0.974006 0.129236 0.130632 -0.089707 0.854812 -0.511126
-0.202170 0.118571 0.119852 -0.065256 -0.676484 0.733561
0.072768 -0.108792 -0.083386 -0.062566 -0.739643 0.670085
-0.466062 -0.117896 -0.016007 -0.000036 -0.971755 -0.226706
0.589441 -0.000000 0.118978 0.000161 0.022974 0.998602
0.429254 -0.506080 -0.511546 0.062626 0.709499 -0.701918
-1.107264 -0.091157 0.076460 0.000224 -0.794552 0.603137
0.429254 0.491999 -0.497313 0.062626 -0.709499 -0.701918
0.041472 0.083799 -0.109459 -0.065256 -0.676484 -0.733561
0.429254 0.238558 0.241134 0.060038 0.709612 -0.702030
1.042819 -0.077772 -0.063727 0.000000 -0.710895 0.703299
0.395422 -0.018684 0.117501 -0.001265 -0.220176 0.973083
0.172522 -0.415341 -0.426862 -0.065256 0.676484 -0.733561
0.428406 -0.109066 -0.047542 0.000044 -0.894893 -0.441025
1.544714 -0.189591 0.191639 0.251151 -0.659999 -0.708042
-1.547734 0.039342 -0.070055 -0.495228 0.479414 -0.716942
-0.002588 0.083915 0.084345 -0.000000 -0.703299 -0.710895
0.099022 0.083832 0.084427 -0.000000 -0.703299 -0.710895
0.238089 -0.560563 -0.566618 -0.065256 0.676484 -0.733561
0.214917 0.537301 -0.543104 -0.062566 0.739643 0.670085
1.168935 0.113982 0.034113 0.000024 0.968569 0.239157
-1.133279 -0.082044 -0.086165 -0.000169 -0.756797 -0.650242
0.157139 -0.205299 -0.231795 -0.022631 0.688558 -0.724120
1.211779 0.143125 -0.159555 0.000000 -0.710895 -0.703299
0.615912 0.107653 -0.050661 0.000044 0.867632 -0.492484
-0.569460 -0.118978 0.000000 0.000156 -0.997109 -0.044760
-0.049953 0.118978 -0.000000 -0.000682 0.993934 0.089246
0.231333 0.293683 0.279928 0.060038 0.709612 -0.702030
-0.292257 0.052214 0.106908 0.000822 0.397106 0.915547
1.550842 -0.217228 -0.219574 0.251151 0.715091 -0.652355
1.550842 0.217228 -0.219574 0.251151 -0.715091 -0.652355
1.078771 0.088708 0.079288 0.000187 0.711896 0.698916
0.589441 -0.118978 -0.000000 -0.000225 -0.995867 -0.057676
0.918491 -0.114510 -0.115747 -0.089707 -0.854812 0.511126
1.428646 -0.111866 0.040519 0.144566 -0.923838 0.342793
1.385160 -0.122583 -0.138792 0.000000 0.710895 -0.703299
0.943924 0.077772 -0.063727 -0.000000 -0.703299 0.710895
0.132249 0.306843 0.296443 -0.062566 0.739643 -0.670085
1.271110 -0.171999 0.158972 -0.000000 -0.710895 -0.703299
-0.156010 -0.093896 0.073071 -0.000612 -0.840122 0.538395
-0.909239 0.032546 0.114440 0.000914 0.325743 0.942990
0.049261 -0.108800 0.133208 -0.065256 0.676484 0.733561
1.003261 -0.062888 0.078452 -0.000000 0.703299 -0.710895
0.129927 0.150581 0.178914 -0.022631 -0.688558 0.724120
0.095727 0.313488 -0.307188 -0.062566 0.739643 0.670085
0.429254 -0.252638 0.255367 0.060038 -0.709612 -0.702030
0.212166 0.411513 0.426859 -0.065256 -0.676484 0.733561
-0.402610 -0.077751 -0.090058 -0.000256 -0.722819 -0.687898
1.181796 -0.082817 -0.085422 0.000143 -0.720759 -0.690217
-1.428646 -0.020686 0.117166 -0.018674 -0.196534 0.977731
0.332687 -0.603018 0.614184 -0.065256 0.676484 0.733561
-0.249860 0.101106 -0.062715 0.000632 0.826090 -0.560031
0.137226 -0.083580 0.084676 0.000000 0.703299 -0.710895
-0.002953 -0.215236 -0.226717 -0.065256 0.676484 -0.733561
1.529393 -0.120499 -0.121800 0.251151 0.715091 -0.652355
0.429254 0.266718 -0.269599 0.062626 -0.709499 -0.701918
0.072913 0.242519 0.230982 -0.062566 0.739643 -0.670085
0.336215 -0.127707 -0.137387 0.062626 0.709499 -0.701918
0.145603 -0.346708 -0.361174 -0.065256 0.676484 -0.733561
0.268605 0.108958 0.047789 0.000268 0.931754 0.356828
1.078362 0.092766 -0.108652 0.000000 -0.710895 -0.703299
-0.029300 -0.090981 0.076669 0.000047 -0.731629 0.678276
1.286296 0.133324 0.149649 0.000000 -0.710895 0.703299
0.294827 0.268292 -0.259693 0.060038 0.709612 0.702030
-1.293491 0.117884 0.016096 0.000096 0.981142 0.181759
1.339504 -0.077772 0.063727 -0.000000 0.703299 -0.710895
0.779947 0.114646 -0.031813 0.000370 0.972370 -0.224503
-1.364555 -0.015064 -0.118020 -0.000051 -0.217888 -0.973855
-1.068987 -0.000000 0.118978 -0.000126 0.118582 0.989321
1.428646 0.059557 -0.102998 0.118169 0.395758 -0.906976
1.514073 0.076738 0.038312 1.000000 0.000000 -0.000000
-1.248816 0.000000 -0.118978 0.001293 -0.084069 -0.994237
0.905465 0.052861 0.106590 0.004040 0.504939 0.860045
0.348748 0.447420 -0.445368 0.060038 0.709612 0.702030
0.338351 0.537917 0.551838 0.062626 -0.709499 0.701918
0.245176 -0.104506 -0.122058 0.062626 0.709499 -0.701918
0.334207 -0.435679 0.432256 0.060038 -0.709612 -0.702030
0.469987 0.034547 -0.113852 -0.000024 0.337364 -0.938901
-0.100121 -0.198649 0.202777 -0.065256 0.676484 0.733561
0.402099 0.554212 -0.557876 0.060038 0.709612 0.702030
-0.168900 0.034440 0.113884 0.000065 0.378193 0.923275
0.357890 -0.364092 0.374392 0.062626 0.709499 0.701918
0.349558 0.033833 -0.114066 0.000059 0.237926 -0.968887
0.529185 -0.065252 0.099488 0.000043 -0.464412 0.882990
0.246115 0.464997 -0.479201 -0.065256 -0.676484 -0.733561
0.344228 -0.354122 -0.365533 0.062626 0.709499 -0.701918
0.339489 0.616697 0.627404 -0.015511 -0.690336 0.722297
0.341403 -0.229978 -0.224949 0.060038 -0.709612 0.702030
-0.478953 -0.018615 0.117513 0.000500 -0.204767 0.976300
-0.916420 -0.085221 -0.083025 -0.000519 -0.746723 -0.660611
0.273688 0.121068 0.136255 0.062626 -0.709499 0.701918
0.396538 0.092849 0.096771 0.062626 -0.709499 0.701918
-1.259392 -0.100659 0.063431 0.000050 -0.789475 0.610058
0.344394 -0.301765 0.312596 0.062626 0.709499 0.701918
0.190772 -0.406863 0.420668 -0.065256 0.676484 0.733561
-0.737846 -0.114892 -0.030911 0.000423 -0.934312 -0.350071
-0.041078 0.048168 -0.108791 -0.001065 0.331270 -0.940548
1.364131 0.178863 -0.195680 0.000000 -0.710895 -0.703299
1.181419 -0.129585 0.116100 -0.000000 -0.710895 -0.703299
-1.538697 -0.072200 0.046252 -0.482046 -0.671212 0.555561
-1.132059 0.096426 -0.069697 0.002599 0.786333 -0.614000
1.383587 -0.185534 -0.202423 -0.000000 0.710895 -0.703299
0.999124 0.107993 0.049933 -0.001013 0.940837 0.331598
0.088559 -0.251375 -0.268185 -0.065256 0.676484 -0.733561
-0.008968 -0.114682 -0.031680 0.000189 -0.972541 -0.224001
-1.231987 0.079868 -0.088187 0.000460 0.623493 -0.778937
0.221970 0.520793 0.524224 -0.062566 0.739643 -0.670085
-0.879220 0.114576 0.032064 -0.000260 0.930282 0.360619
-0.931788 0.079883 -0.088173 0.000451 0.737577 -0.671871
-0.414974 -0.105950 0.054132 0.002083 -0.884139 0.463844
-0.342648 -0.019910 -0.117300 0.000097 -0.262428 -0.962315
0.031197 -0.188301 0.175031 -0.062566 -0.739643 -0.670085
1.361319 0.117996 -0.015256 -0.000348 0.981951 -0.177745
-0.609318 -0.033975 -0.114024 -0.000046 -0.191667 -0.979089
0.172574 0.065918 -0.099048 0.000452 0.624832 -0.778067
-0.483285 0.099474 0.065273 0.000587 0.803297 0.590936
0.344601 0.344188 0.340666 0.060038 0.709612 -0.702030
0.177547 0.268328 -0.249700 -0.024625 0.731366 0.680933
0.244127 -0.252289 -0.239182 0.060038 -0.709612 0.702030
0.150336 0.191620 -0.218575 -0.022631 -0.688558 -0.724120
-0.177057 0.047887 -0.108915 -0.000051 0.357546 -0.931598
0.343340 0.368338 -0.379981 0.062626 -0.709499 -0.701918
0.227703 -0.318308 -0.339728 0.062626 0.709499 -0.701918
-0.048485 0.178638 0.171804 -0.062566 0.739643 -0.670085
0.877158 -0.115285 0.029413 0.000049 -0.975784 0.209580
-1.446487 0.095935 -0.067199 -0.185296 0.805696 -0.555486
1.280167 0.077772 -0.063727 -0.000000 -0.703299 0.710895
1.424514 -0.165532 0.182205 0.000000 0.710895 0.703299
-0.131952 0.161478 0.165667 -0.065256 -0.676484 0.733561
0.319796 -0.050229 -0.107855 -0.000124 -0.375977 -0.924110
-0.135041 -0.088222 -0.080084 -0.000000 0.703299 0.710895
1.049672 -0.114794 0.031275 0.000857 -0.982348 0.175141
1.084821 0.014738 0.118061 -0.000108 0.214936 0.974560
-1.488409 0.073942 0.078294 -0.349562 0.620247 0.696686
1.462360 0.013444 0.112236 0.172465 0.189255 0.964620
0.345218 -0.151510 0.145960 0.060038 -0.709612 -0.702030
-0.209111 -0.052340 -0.106847 -0.000164 -0.481242 -0.874132
-0.436599 0.087651 -0.080455 0.000057 0.766762 -0.638537
0.415359 -0.095903 0.095750 0.060038 -0.709612 -0.702030
0.360417 -0.578749 -0.591142 0.062626 0.709499 -0.701918
-0.009534 0.239304 0.248327 -0.065256 -0.676484 0.733561
-0.928649 -0.090403 0.077350 -0.000195 -0.726657 0.683587
-1.199694 0.100867 0.063100 -0.000072 0.871310 0.485965
0.196081 -0.138447 0.120001 0.060038 -0.709612 -0.702030
1.444739 -0.062265 -0.098042 0.172772 -0.444199 -0.875964
0.105474 0.101158 -0.062632 0.000021 0.794554 -0.603321
0.238531 0.054649 0.105684 0.000043 0.419755 0.905117
1.319725 -0.062888 -0.078452 0.000000 0.710895 -0.703299
0.429254 0.337118 -0.340760 0.062626 -0.709499 -0.701918
0.353973 0.214752 0.223789 0.062626 -0.709499 0.701918
0.191746 -0.514038 0.519590 -0.062566 -0.739643 -0.670085
0.110645 0.432618 -0.437291 -0.062566 0.739643 0.670085
-0.144242 -0.176728 -0.178637 -0.065256 0.676484 -0.733561
0.006373 0.327936 -0.331478 -0.062566 0.739643 0.670085
1.237076 -0.176525 -0.163547 -0.027995 -0.759707 0.647184
0.129443 0.118221 0.013394 -0.000002 0.975823 0.207731
0.079920 -0.320482 -0.316383 -0.062566 -0.739643 0.670085
0.380353 -0.117861 0.016262 -0.000109 -0.993909 0.090160
1.485651 0.253714 -0.249012 -0.060053 0.811178 0.578549
1.462026 0.163253 0.179901 0.000000 -0.710895 0.703299
0.429254 0.294878 0.298063 0.060038 0.709612 -0.702030
-0.600326 0.101676 0.061788 0.000303 0.875449 0.478367
0.258968 0.344643 -0.363559 0.062626 -0.709499 -0.701918
0.360178 -0.471635 -0.470822 0.060038 -0.709612 0.702030
0.636516 -0.101018 -0.062857 -0.000910 -0.892145 -0.446999
0.305161 0.176124 -0.189098 0.062626 -0.709499 -0.701918
0.029545 0.351199 0.354992 -0.065256 -0.676484 0.733561
1.514073 -0.095992 0.039833 0.177515 -0.915962 0.350440
1.514073 0.055257 -0.038238 1.000000 0.000000 0.000000
-1.567069 0.059626 0.030535 -0.569680 0.758977 0.300245
0.290719 -0.023091 0.116715 0.000292 -0.221045 0.972917
1.492143 0.266685 0.269565 -0.089707 0.854812 -0.511126
1.103540 -0.163598 0.165365 -0.089707 0.520279 0.849272
1.085035 -0.158690 -0.160404 -0.089707 -0.854812 0.511126
1.344104 0.227414 0.229870 -0.089707 0.854812 -0.511126
0.638707 0.078904 0.089049 -0.000097 0.626037 0.776767
0.328912 -0.415740 -0.411649 0.060038 -0.709612 0.702030
0.196472 -0.365003 0.354643 -0.062566 -0.739643 -0.670085
1.538586 0.161954 -0.163703 0.251151 -0.715091 -0.652355
0.963703 -0.062888 -0.078452 -0.000000 0.710895 -0.703299
1.158802 0.050229 -0.107855 0.000124 0.375977 -0.924110
0.060743 -0.290019 0.301347 -0.065256 0.676484 0.733561
0.289727 0.108770 -0.048215 -0.000093 0.891809 -0.447383
1.444737 -0.062334 0.097998 0.172696 -0.444551 0.875793
0.011973 0.242153 -0.236267 -0.062566 0.739643 0.670085
0.138975 -0.250411 0.271781 -0.065256 0.676484 0.733561
0.327211 -0.556203 0.553484 0.019169 -0.720650 -0.692354
-0.854326 0.052359 -0.106837 -0.000615 0.520026 -0.851717
0.933290 -0.040494 0.111875 0.001846 -0.382784 0.920296
0.845998 -0.064128 0.077225 -0.082370 0.537340 0.838791
1.343521 0.114948 0.101305 0.000000 0.710895 -0.703299
0.208182 0.150756 -0.172109 0.062626 -0.709499 -0.701918
-1.078977 0.017139 -0.117737 -0.000568 0.047557 -0.996599
1.514073 -0.029554 -0.022656 1.000000 0.000000 -0.000000
1.326196 0.037637 -0.112868 0.000351 0.352713 -0.933448
0.716992 -0.055624 0.105174 0.000033 -0.416865 0.906444
0.124279 0.360607 0.356531 -0.062566 0.739643 -0.670085
0.068665 0.151147 -0.130521 -0.062566 0.739643 0.670085
1.188931 -0.114027 0.033965 0.000037 -0.979074 0.191665
-1.014291 -0.114393 0.032710 0.000020 -0.971363 0.228453
-0.768587 0.090992 -0.076656 0.000689 0.789220 -0.610413
-0.637954 -0.114846 -0.031081 0.000072 -0.949168 -0.307492
-0.133006 0.096426 -0.069697 0.002599 0.786333 -0.614000
1.236001 0.105165 0.091416 -0.000000 0.710895 -0.703299
-0.050064 0.033833 0.114066 0.000059 0.237926 0.968887
1.197750 -0.031085 0.114845 -0.000072 -0.352597 0.933354
0.270485 0.340559 0.330660 0.060038 0.709612 -0.702030
0.257554 -0.506574 -0.518561 -0.065256 0.676484 -0.733561
0.205759 0.162940 0.184640 0.062626 -0.709499 0.701918
0.641300 0.047350 -0.109150 -0.000594 0.410701 -0.909041
0.394527 -0.201776 0.200985 0.060038 -0.709612 -0.702030
0.133370 -0.117896 0.016007 -0.000036 -0.971755 0.226706
0.276189 0.239577 0.255821 0.062626 -0.709499 0.701918
0.429254 -0.562400 -0.568474 0.062626 0.709499 -0.701918
0.762630 0.054281 0.105874 0.000215 0.507487 0.859295
1.404690 0.132450 -0.118996 -0.000000 0.710895 0.703299
1.000523 0.114993 -0.030533 0.000047 0.949933 -0.305151
0.394853 -0.289533 -0.295730 0.062626 0.709499 -0.701918
0.049261 0.108800 0.133208 -0.065256 -0.676484 0.733561
0.382817 0.393594 0.393874 0.060038 0.709612 -0.702030
0.149753 0.035772 0.113473 -0.000039 0.342421 0.937085
-0.096697 -0.103750 0.115567 -0.065256 0.676484 0.733561
0.366286 0.491410 0.502336 0.062626 -0.709499 0.701918
0.027300 -0.123411 -0.144729 -0.065256 0.676484 -0.733561
0.274977 -0.216105 0.205245 0.060038 -0.709612 -0.702030
-0.489396 -0.032252 -0.114523 -0.000057 -0.231243 -0.970475
0.418344 0.114762 -0.031391 -0.000033 0.932446 -0.354976
-0.131952 0.161478 -0.165667 -0.065256 -0.676484 -0.733561
0.098596 0.038031 -0.112736 -0.000355 0.355038 -0.932633
1.147955 0.131024 -0.117554 0.000000 0.710895 0.703299
-1.208268 -0.082173 -0.086042 -0.000975 -0.726308 -0.684675
-0.570132 0.090981 -0.076669 -0.000047 0.731629 -0.678276
1.108819 -0.103515 -0.119518 0.000000 0.710895 -0.703299
-1.259637 -0.117891 -0.016047 -0.000577 -0.993965 -0.089275
-0.010148 0.101684 -0.061774 0.000724 0.873813 -0.481662
-0.041078 -0.048168 -0.108791 -0.001065 -0.331270 -0.940548
-0.072040 -0.178459 -0.173806 -0.062566 -0.739643 0.670085
0.415026 -0.473132 0.477025 0.060038 -0.709612 -0.702030
-1.487376 -0.053659 -0.093742 -0.321983 -0.555607 -0.759922
0.746621 -0.079883 -0.088173 0.000451 -0.737577 -0.671871
1.289111 0.148743 -0.165234 0.000000 -0.710895 -0.703299
-0.748965 -0.065588 -0.099267 -0.000221 -0.589013 -0.805202
-0.301684 -0.114939 0.030737 -0.000061 -0.950339 0.303905
-0.987541 -0.109209 -0.047213 0.000011 -0.873506 -0.482017
-0.749603 0.065252 0.099488 0.000043 0.464412 0.882990
-0.709328 0.000000 -0.118978 0.000203 -0.048784 -0.996483
-0.809233 -0.000000 0.118978 0.000060 0.048119 0.996508
-1.387404 -0.090389 0.077366 0.000345 -0.788061 0.612138
-0.839722 -0.019604 -0.117351 -0.000250 -0.256702 -0.963902
0.320422 0.567461 -0.566544 -0.062566 0.739643 0.670085
-0.012715 -0.292871 0.297443 -0.065256 0.676484 0.733561
-1.399858 -0.117272 -0.020072 -0.000720 -0.991787 -0.099587
-0.600326 -0.101676 0.061788 0.000303 -0.875449 0.478367
0.492006 -0.033111 -0.114277 -0.000412 -0.228771 -0.971269
-1.064969 0.090908 0.076756 -0.000741 0.733972 0.675858
0.128323 0.430597 0.436999 -0.065256 -0.676484 0.733561
-0.779647 -0.078864 0.089085 -0.000019 -0.624383 0.778133
-0.989062 -0.000000 0.118978 -0.000471 0.103674 0.991888
-0.319699 -0.017350 0.117706 0.000135 -0.192530 0.978892
-0.160534 -0.117964 -0.015496 0.000609 -0.981867 -0.178954
-0.770401 0.109020 0.047648 -0.000050 0.894136 0.442570
-1.268829 -0.034001 0.114016 -0.000096 -0.238231 0.968819
0.429254 0.168157 -0.169974 0.062626 -0.709499 -0.701918
-1.348758 0.033712 0.114102 0.000284 0.373266 0.925224
-1.218832 0.017251 0.117720 -0.000041 0.096227 0.993019
-0.659377 0.017350 0.117706 0.000065 0.192392 0.978926
0.191388 0.435324 -0.432738 -0.062566 0.739643 0.670085
1.133947 0.121872 0.108304 -0.000000 0.710895 -0.703299
0.205146 -0.184222 -0.167046 0.060038 -0.709612 0.702030
-1.148911 -0.000000 0.118978 0.000133 0.097318 0.992859
0.878217 0.114691 -0.031649 0.000106 0.948011 -0.311024
-0.206114 0.107750 0.050453 0.000356 0.886444 0.457785
-0.008704 0.122144 -0.140357 -0.065256 -0.676484 -0.733561
0.017959 -0.339567 -0.343235 -0.065256 0.676484 -0.733561
0.778078 0.050033 -0.107946 -0.000445 0.466230 -0.881841
-0.251235 -0.091257 0.076340 -0.000661 -0.701364 0.709520
-0.419668 0.117418 -0.019204 -0.001125 0.975554 -0.207975
0.210785 -0.035287 -0.113624 0.000235 -0.248256 -0.966272
0.429254 -0.562400 0.568474 0.060038 -0.709612 -0.702030
-0.928649 0.090403 0.077350 -0.000195 0.726657 0.683587
0.190036 -0.177829 0.201093 0.062626 0.709499 0.701918
1.251162 -0.066482 -0.098670 0.000534 -0.635085 -0.769452
1.535522 0.148136 0.149736 0.251151 -0.715091 0.652355
-1.579972 -0.016827 0.053942 -0.619902 -0.251266 0.737619
0.089392 -0.349194 0.347191 -0.062566 -0.739643 -0.670085
-0.025896 -0.220525 0.215930 -0.062566 -0.739643 -0.670085
0.080103 0.173181 -0.195323 -0.065256 -0.676484 -0.733561
0.149623 0.345160 -0.337114 -0.062566 0.739643 0.670085
-0.680865 0.115114 0.030075 -0.000012 0.950904 0.302154
-1.393779 0.065059 -0.099614 0.000842 0.584722 -0.808797
1.228835 0.118978 -0.000000 0.000840 0.997430 0.040720
0.246313 -0.117860 -0.016272 0.000084 -0.981063 -0.182237
-0.009886 -0.033975 0.114024 -0.000046 -0.191667 0.979089
-0.011481 0.140835 0.126622 -0.062566 0.739643 -0.670085
0.469453 -0.033954 0.114030 -0.000088 -0.332473 0.940389
-1.140374 0.114892 0.030911 -0.000047 0.933863 0.351275
-0.121139 -0.127307 -0.135117 -0.065256 0.676484 -0.733561
-0.851011 -0.117992 -0.015281 -0.000358 -0.982937 -0.173128
0.239553 0.078673 -0.089254 0.000315 0.727444 -0.682822
-0.669679 -0.065252 0.099488 0.000043 -0.464412 0.882990
0.899047 0.050044 -0.107941 0.000023 0.330769 -0.941250
1.422783 0.127896 0.114393 0.000000 0.710895 -0.703299
-0.462373 0.047561 0.109058 0.001137 0.314990 0.946800
0.975247 -0.110875 0.119515 -0.060053 0.587229 0.804917
0.354422 0.602006 -0.615185 -0.015511 -0.690336 -0.722297
0.369051 -0.090660 -0.077049 -0.000048 -0.790935 -0.608082
-1.328288 0.090427 0.077322 -0.000267 0.789848 0.609615
1.535092 -0.240818 0.235977 0.133283 -0.733478 -0.658208
-0.482598 0.045428 -0.109964 -0.000417 0.468029 -0.881307
-0.540959 0.114993 0.030533 -0.000115 0.950447 0.303352
-1.348612 -0.099562 -0.065140 -0.000052 -0.883583 -0.463264
1.327342 -0.177394 -0.164425 0.000000 -0.710895 0.703299
-1.477997 -0.102977 -0.040698 -0.206891 -0.900964 -0.371373
1.317533 -0.030202 0.115080 0.000030 -0.303182 0.950564
-0.327596 0.052341 -0.106846 -0.000122 0.522949 -0.849771
-0.421683 -0.053809 0.106114 0.000414 -0.491929 0.868008
-0.352099 0.080878 0.087261 0.000819 0.706159 0.704868
0.104372 -0.211807 0.194144 -0.062566 -0.739643 -0.670085
0.257181 -0.090521 0.106851 0.062626 0.709499 0.701918
0.649280 -0.035772 0.113473 -0.000039 -0.342421 0.937085
0.268916 -0.264009 0.253148 0.060038 -0.709612 -0.702030
1.504210 -0.258637 -0.253989 0.019664 -0.798416 0.592569
-0.051555 -0.269779 -0.272693 -0.065256 0.676484 -0.733561
0.918491 0.114510 -0.115747 -0.089707 -0.520279 -0.849272
-1.467764 -0.068857 0.089923 -0.195712 -0.675543 0.704905
0.338682 0.101046 -0.094392 0.060038 0.709612 0.702030
-1.113399 -0.118077 0.014616 0.000187 -0.975035 0.212841
1.340983 0.043031 0.110923 0.000697 0.308586 0.948165
0.910145 -0.108491 -0.048842 -0.000145 -0.928998 -0.363949
0.265985 -0.438436 0.429209 0.019169 -0.720650 -0.692354
0.381261 -0.185383 -0.191667 0.062626 0.709499 -0.701918
1.139959 0.114423 -0.032606 -0.000152 0.946181 -0.316562
1.392855 -0.229098 0.224130 -0.063062 -0.815926 -0.572024
-0.929155 -0.033712 0.114102 0.000284 -0.373266 0.925224
0.716978 -0.113932 0.034282 0.000860 -0.967528 0.242962
0.382694 0.575582 0.585953 0.062626 -0.709499 0.701918
-1.063272 0.099272 -0.065580 -0.000685 0.864877 -0.497500
-0.470007 -0.090427 -0.077322 0.000267 -0.789848 -0.609615
0.136730 -0.189817 -0.166850 -0.018774 -0.729933 0.682458
-0.859179 -0.100693 0.063377 0.000067 -0.790075 0.609302
0.272795 0.314895 -0.304916 0.060038 0.709612 0.702030
-0.349669 0.118978 -0.000000 -0.000248 0.997191 0.039706
1.048904 -0.033954 -0.114030 0.000014 -0.330511 -0.941336
0.197539 0.114350 0.032861 0.001303 0.944667 0.321439
-0.139275 0.100695 0.063374 -0.000417 0.817559 0.571825
-1.579972 -0.016827 -0.053942 -0.619902 -0.251266 -0.737619
0.498017 -0.115114 -0.030075 -0.000221 -0.951060 -0.301990
0.296097 -0.350180 0.342575 0.060038 -0.709612 -0.702030
0.814499 -0.067274 -0.098132 -0.000648 -0.595710 -0.800559
0.109519 -0.137476 0.111617 0.016243 -0.721356 -0.691582
0.293683 -0.115140 0.029976 0.000038 -0.949411 0.306839
0.330656 0.432990 0.446463 0.062626 -0.709499 0.701918
-1.428646 0.111784 0.040742 -0.034836 0.903642 0.420354
0.359737 0.256864 -0.253694 0.060038 0.709612 0.702030
0.698605 0.114615 -0.031922 -0.000110 0.930393 -0.360203
1.408054 0.209185 0.196560 0.000000 0.710895 -0.703299
1.084187 -0.126417 0.112898 0.000000 -0.710895 -0.703299
-0.064219 -0.099272 -0.065580 -0.001087 -0.864269 -0.498422
0.042417 0.282839 -0.278334 -0.062566 0.739643 0.670085
-1.179717 -0.101082 0.062754 -0.000025 -0.821356 0.566321
0.860737 0.094332 0.072507 0.000050 0.815127 0.575779
-0.669598 0.108759 -0.048240 -0.000019 0.868696 -0.490721
0.338815 0.101287 0.062423 0.000000 0.822471 0.564694
0.094383 -0.222988 -0.207418 -0.062566 -0.739643 0.670085
0.709328 0.000000 -0.118978 -0.001172 -0.103218 -0.991795
1.301831 -0.117787 0.133944 -0.000000 0.710895 0.703299
1.013930 0.075260 -0.090958 -0.000000 -0.710895 -0.703299
0.789252 -0.118978 -0.000000 0.000132 -0.994453 -0.085727
0.366227 0.150166 -0.157411 0.062626 -0.709499 -0.701918
0.339834 -0.497692 0.495420 0.060038 -0.709612 -0.702030
0.094363 -0.122773 -0.150106 -0.065256 0.676484 -0.733561
0.238050 0.464606 0.460703 -0.062566 0.739643 -0.670085
1.379062 0.077772 -0.063727 -0.000000 -0.703299 0.710895
0.578550 -0.101488 0.062096 0.000062 -0.823987 0.562479
0.110036 -0.032252 0.114523 -0.000057 -0.231243 0.970475
0.529498 0.118978 -0.000000 -0.000108 0.997255 0.048764
-0.229095 -0.101156 -0.062635 0.000338 -0.894382 -0.442224
0.110645 -0.432618 -0.437291 -0.065256 0.676484 -0.733561
0.136588 -0.084372 -0.111395 0.062626 0.709499 -0.701918
1.324458 0.174294 0.191061 -0.000000 -0.710895 0.703299
-0.974402 0.018903 -0.117467 -0.000074 0.206777 -0.975637
1.288833 -0.114015 0.034004 -0.000065 -0.979018 0.191962
1.470248 0.212946 0.230130 -0.000000 -0.710895 0.703299
1.330006 -0.168960 0.185669 0.000000 0.710895 0.703299
1.217989 -0.118697 -0.134864 0.000000 0.710895 -0.703299
1.450002 -0.000000 -0.115215 0.169118 -0.099549 -0.977692
1.422783 -0.127896 0.114393 0.000000 -0.710895 -0.703299
-1.586012 -0.051096 0.000000 -0.697462 -0.706565 -0.068070
-1.274496 0.108248 -0.049376 -0.000790 0.927694 -0.368110
0.651742 -0.118041 0.014899 -0.000406 -0.984047 0.165404
0.403996 -0.383565 -0.389961 0.062626 0.709499 -0.701918
0.207441 -0.263176 0.285809 0.062626 0.709499 0.701918
0.557389 0.053809 0.106114 0.000414 0.491929 0.868008
0.578638 -0.048010 -0.108861 -0.000158 -0.313376 -0.947451
-1.014291 0.114393 0.032710 0.000020 0.971363 0.228453
1.476503 -0.204350 -0.221441 0.000000 0.710895 -0.703299
-0.060528 0.100659 0.063431 0.000050 0.789475 0.610058
-0.285904 -0.114929 -0.030775 0.000159 -0.974468 -0.215457
0.215963 -0.447374 -0.460267 -0.065256 0.676484 -0.733561
1.455804 -0.123535 -0.109985 0.000000 -0.710895 0.703299
1.023155 0.094640 0.110547 0.000000 -0.710895 0.703299
0.936607 -0.102994 0.059565 -0.000899 -0.883124 0.464543
-0.039970 0.281410 0.284450 -0.065256 -0.676484 0.733561
0.336215 0.135835 0.129346 0.060038 0.709612 -0.702030
0.331350 -0.186202 0.196948 0.062626 0.709499 0.701918
-0.058353 0.238734 -0.239059 -0.062566 0.739643 0.670085
-0.072039 0.172613 -0.181265 -0.065256 -0.676484 -0.733561
1.121935 -0.077772 -0.063727 0.000000 -0.710895 0.703299
0.209739 0.129149 -0.111770 0.060038 0.709612 0.702030
0.126944 0.214222 0.194703 -0.062566 0.739643 -0.670085
0.077219 0.314401 0.325298 -0.065256 -0.676484 0.733561
1.490837 0.199709 -0.216750 -0.000000 -0.710895 -0.703299
0.008751 -0.079700 -0.088338 -0.000172 -0.702804 -0.708395
1.379092 -0.078863 -0.089086 -0.000135 -0.585769 -0.807589
0.238773 0.386095 0.373975 0.019169 0.720650 -0.692354
0.778958 -0.050146 0.107894 -0.000412 -0.333240 0.940400
0.206395 -0.456173 0.467531 -0.065256 0.676484 0.733561
-0.162915 -0.041401 0.111542 -0.000279 -0.287152 0.954246
0.236745 0.248130 -0.267985 0.062626 -0.709499 -0.701918
-0.227047 0.065918 0.099048 0.000452 0.624832 0.778067
0.409696 0.451739 -0.454946 0.060038 0.709612 0.702030
0.508021 0.092086 0.075338 0.000195 0.799930 0.596139
1.428646 -0.117166 -0.020686 0.145164 -0.970402 -0.179382
1.458044 0.093633 0.064676 0.172908 0.818216 0.543731
-1.082327 -0.054281 -0.105874 -0.000275 -0.508066 -0.858973
0.284735 -0.328873 -0.320066 0.060038 -0.709612 0.702030
1.520980 -0.169736 -0.179011 0.168130 0.717644 -0.673093
0.085673 0.159000 0.137601 -0.062566 0.739643 -0.670085
1.481306 -0.186354 0.173482 0.000000 -0.710895 -0.703299
1.250943 0.115470 -0.101832 -0.000000 0.710895 0.703299
0.573271 0.074317 -0.092912 -0.000229 0.612107 -0.787828
0.000409 -0.174830 -0.163035 -0.062566 -0.739643 0.670085
0.963703 0.062888 0.078452 -0.000000 -0.710895 0.703299
-0.809233 0.118978 -0.000000 -0.000021 0.997059 0.037192
1.362609 -0.232323 -0.234832 -0.089707 -0.854812 0.511126
0.249675 0.572195 -0.578375 -0.062566 0.739643 0.670085
-0.202170 -0.118571 0.119852 -0.062566 -0.739643 -0.670085
-0.539501 -0.017251 0.117720 0.000047 -0.096495 0.992980
0.278851 0.530225 0.542266 -0.065256 -0.676484 0.733561
1.492143 -0.266685 0.269565 -0.089707 0.520279 0.849272
-1.446311 0.043408 0.108815 -0.182780 0.325335 0.922229
1.051344 -0.035208 0.113649 0.000431 -0.347975 0.934344
1.514073 -0.057603 -0.086505 1.000000 0.000000 0.000000
1.514073 0.039590 0.096093 1.000000 -0.000000 -0.000000
0.216220 0.241853 0.226247 0.060038 0.709612 -0.702030
0.429254 0.491999 0.497313 0.060038 0.709612 -0.702030
0.429254 -0.365279 0.369224 0.060038 -0.709612 -0.702030
0.429254 0.196318 0.198438 0.060038 0.709612 -0.702030
0.429254 -0.111837 -0.113045 0.062626 0.709499 -0.701918
0.429489 0.033975 0.114024 -0.000101 0.191982 0.979010
1.178610 -0.023396 -0.116655 0.001125 -0.284508 -0.956172
0.409508 0.033975 -0.114024 0.000046 0.191667 -0.979089
1.108992 0.113984 0.034108 0.000070 0.968594 0.239065
-0.958788 -0.050146 -0.107894 0.000412 -0.333240 -0.940400
-0.730508 -0.109185 0.047268 -0.000047 -0.895937 0.438902
0.698620 0.079528 0.088493 0.000290 0.700993 0.709843
0.737291 0.115285 0.029413 0.000049 0.975784 0.209580
0.334422 0.172794 0.183121 0.062626 -0.709499 0.701918
1.069091 0.033975 -0.114024 -0.000046 0.191667 -0.979089
-0.599546 0.050147 0.107894 -0.000128 0.376383 0.923929
0.225141 0.394998 -0.385075 -0.062566 0.739643 0.670085
0.883421 -0.067826 -0.083443 -0.037641 0.634354 -0.767956
1.470886 0.127800 -0.114296 -0.000000 0.710895 0.703299
1.556970 0.244865 0.247510 0.251151 -0.715091 0.652355
-0.100718 0.048010 -0.108861 -0.000158 0.313376 -0.947451
0.001243 -0.114757 0.031411 0.000104 -0.948160 0.310531
0.320136 0.217314 -0.229396 0.062626 -0.709499 -0.701918
0.153245 0.303659 -0.290967 -0.062566 0.739643 0.670085
0.231333 -0.293683 -0.279928 0.060038 -0.709612 0.702030
0.448887 0.091107 -0.076520 0.000041 0.698721 -0.712135
0.128444 0.266079 0.251802 -0.062566 0.739643 -0.670085
-0.608761 -0.090845 -0.076830 -0.000077 -0.730481 -0.679514
1.159055 0.178325 -0.180251 -0.089707 -0.520279 -0.849272
1.344104 0.227414 -0.229870 -0.089707 -0.520279 -0.849272
1.214569 0.193052 0.195137 -0.089707 0.854812 -0.511126
1.270084 -0.207778 0.210023 -0.089707 0.520279 0.849272
0.918491 0.114510 0.115747 -0.089707 0.854812 -0.511126
1.140550 0.173416 0.175289 -0.089707 0.854812 -0.511126
1.214569 0.193052 -0.195137 -0.089707 -0.520279 -0.849272
1.029520 0.143963 0.145518 -0.089707 0.854812 -0.511126
1.048025 0.148872 -0.150480 -0.089707 -0.520279 -0.849272
-0.639365 0.016999 -0.117757 0.000028 0.191108 -0.979201
0.307653 0.478983 -0.473757 0.060038 0.709612 0.702030
1.218002 0.049234 -0.108313 -0.000545 0.459970 -0.885381
0.206038 -0.369738 -0.358977 -0.062566 -0.739643 0.670085
0.938791 -0.016729 -0.117796 -0.000508 -0.189484 -0.979536
0.196822 -0.077751 0.090058 -0.000256 -0.722819 0.687898
-0.110036 0.032252 0.114523 0.000057 0.231243 0.970475
0.203332 -0.525669 -0.531347 -0.065256 0.676484 -0.733561
0.030570 -0.090660 0.077049 0.000048 -0.790935 0.608082
0.162958 0.390105 0.402739 -0.065256 -0.676484 0.733561
0.841975 0.118083 0.014568 -0.000281 0.984316 0.165449
0.262769 -0.520340 0.531720 -0.065256 0.676484 0.733561
0.617770 0.114642 0.031827 -0.000191 0.972815 0.222331
-0.989683 0.100698 -0.063368 -0.000506 0.871787 -0.485286
1.302669 0.117805 -0.016666 -0.000581 0.979961 -0.187841
0.280131 -0.148816 -0.137670 0.060038 -0.709612 0.702030
-0.076269 0.107515 -0.050953 -0.000405 0.923691 -0.377162
-0.191544 0.099297 -0.065543 -0.000229 0.778667 -0.623881
0.088599 -0.051440 -0.107283 -0.000711 -0.477454 -0.876200
1.436417 0.215401 -0.202843 -0.000000 0.710895 0.703299
-0.343819 -0.079459 -0.088555 0.000177 -0.630082 -0.773892
1.239768 -0.125912 0.142156 0.000000 0.710895 0.703299
-1.588356 0.039833 -0.028371 -0.672437 0.549277 -0.488530
0.278851 0.536408 -0.536149 -0.062566 0.739643 0.670085
-0.001243 0.114757 0.031411 -0.000104 0.948160 0.310531
0.184350 0.260017 0.284676 -0.022631 -0.688558 0.724120
-0.219464 0.117848 -0.016357 0.000048 0.981487 -0.180074
-0.110232 -0.161415 0.158559 -0.062566 -0.739643 -0.670085
-1.308759 0.000000 -0.118978 0.004796 -0.118617 -0.989892
0.259182 -0.410492 -0.430100 -0.022631 0.688558 -0.724120
-1.194269 -0.028966 -0.115398 -0.001684 -0.295052 -0.953183
1.114852 -0.107034 0.051957 0.002654 -0.927218 0.367935
0.282508 0.289351 0.305569 0.062626 -0.709499 0.701918
-1.511029 0.083231 -0.054326 -0.403946 0.712721 -0.568609
1.412352 0.117720 0.017255 0.000659 0.981112 0.182477
1.349117 0.110325 0.044544 -0.000279 0.909717 0.410205
0.125535 -0.396256 -0.395764 -0.062566 -0.739643 0.670085
1.280841 -0.101470 -0.062126 0.000333 -0.797469 -0.599454
0.372907 0.483999 -0.484407 0.060038 0.709612 0.702030
0.387244 -0.537135 -0.539344 0.060038 -0.709612 0.702030
0.398117 0.115227 0.029639 0.000026 0.975195 0.212142
0.049239 -0.114611 -0.031937 -0.000226 -0.982227 -0.176263
-0.513855 -0.118092 0.014489 -0.000152 -0.983692 0.168485
0.889157 -0.000000 0.118978 0.000189 0.044162 0.996372
1.388163 -0.074759 0.092557 -0.000131 -0.548048 0.833619
-0.901819 0.109600 -0.046300 0.000359 0.934616 -0.349331
-1.350482 0.100098 -0.064313 -0.000810 0.866616 -0.494771
0.316121 0.343277 -0.337310 0.060038 0.709612 0.702030
0.140267 -0.258321 -0.242134 -0.062566 -0.739643 0.670085
1.372557 -0.113592 0.035392 0.000245 -0.935953 0.345192
0.346667 -0.314700 -0.325468 0.062626 0.709499 -0.701918
0.429254 0.224478 -0.226902 0.062626 -0.709499 -0.701918
0.153565 0.184608 -0.163025 0.060038 0.709612 0.702030
-1.428646 -0.040519 -0.111866 -0.083978 -0.393208 -0.911665
1.288111 0.078113 0.093841 -0.000000 -0.710895 0.703299
-1.358341 0.114502 0.032325 -0.000200 0.945857 0.317696
0.109547 0.377626 -0.376693 -0.062566 0.739643 0.670085
1.502208 -0.085076 0.093437 0.168130 0.717644 0.673093
0.131503 0.137658 0.113681 0.060038 0.709612 -0.702030
-0.409612 -0.118978 0.000000 0.000713 -0.996465 -0.048678
-1.454005 0.114965 -0.015243 -0.190508 0.957938 -0.199254
0.001540 -0.252557 0.261534 -0.065256 0.676484 0.733561
0.189156 -0.124405 -0.105215 0.060038 -0.709612 0.702030
0.137530 -0.360452 0.373131 -0.065256 0.676484 0.733561
1.481150 0.077290 -0.093009 0.162460 -0.717248 -0.673945
0.400258 -0.290857 0.291519 0.060038 -0.709612 -0.702030
-1.063260 -0.065702 0.099191 -0.000103 -0.594880 0.801130
0.114743 -0.109352 -0.046882 -0.001035 -0.894563 -0.441776
0.429254 0.125917 0.127277 0.060038 0.709612 -0.702030
1.318762 -0.017251 -0.117720 -0.000522 -0.093956 -0.992970
0.194989 -0.236027 -0.259478 0.062626 0.709499 -0.701918
0.289345 -0.577175 -0.580169 -0.062566 -0.739643 0.670085
-0.511208 0.089620 -0.078256 0.001968 0.789307 -0.609542
0.009360 0.208703 0.199589 -0.062566 0.739643 -0.670085
0.110645 -0.432618 0.437291 -0.062566 -0.739643 -0.670085
0.114439 0.264894 -0.282954 -0.065256 -0.676484 -0.733561
0.200545 0.018916 -0.117464 -0.000542 0.203280 -0.976756
-0.797738 -0.115227 -0.029639 -0.000162 -0.975425 -0.211144
0.468795 -0.087432 0.080693 0.001614 -0.772574 0.630915
0.211562 -0.314736 0.337558 -0.022631 0.688558 0.724120
0.158306 0.083535 0.084720 -0.000000 -0.703299 -0.710895
0.222330 -0.197216 -0.217808 0.062626 0.709499 -0.701918
-1.126688 -0.050384 0.107783 -0.001481 -0.499937 0.863790
1.400722 0.037670 0.112857 0.004941 0.381741 0.920761
1.169197 -0.072146 0.087810 0.000000 0.710895 0.703299
0.087427 -0.171296 0.151010 -0.062566 -0.739643 -0.670085
1.177373 -0.115114 -0.030075 0.000133 -0.951076 -0.301687
0.037519 -0.255639 -0.248768 -0.062566 -0.739643 0.670085
0.049623 0.065510 0.099318 0.000089 0.507297 0.859060
-0.128220 0.115943 -0.124007 -0.065256 -0.676484 -0.733561
1.496726 -0.029920 0.102716 0.177851 -0.199108 0.961587
0.839330 0.017334 -0.117708 0.000021 0.239444 -0.968508
-0.370151 -0.036929 0.113101 0.001393 -0.274451 0.959130
-1.506022 0.000000 -0.101437 -0.330140 -0.051548 -0.939010
1.146321 -0.014115 0.118137 -0.003804 -0.195395 0.979071
0.196472 0.350392 -0.369098 -0.065256 -0.676484 -0.733561
1.535522 -0.148136 0.149736 0.251151 -0.659999 -0.708042
0.688107 -0.079700 -0.088338 -0.000172 -0.702804 -0.708395
0.285656 -0.214584 -0.229714 0.062626 0.709499 -0.701918
1.141714 0.077772 0.063727 0.000000 -0.703299 -0.710895
1.017995 -0.114423 -0.032606 0.000152 -0.946181 -0.316562
-0.093098 -0.061779 -0.101681 0.000391 -0.481158 -0.874228
0.583159 -0.106872 -0.052289 -0.000165 -0.918116 -0.390175
0.102716 0.095863 -0.126032 -0.022631 -0.688558 -0.724120
0.290760 0.065288 -0.099465 0.000036 0.585283 -0.807982
0.392216 -0.592848 0.596083 0.060038 -0.709612 -0.702030
1.380003 0.038031 -0.112736 0.000355 0.355038 -0.932633
-0.209801 0.000000 -0.118978 -0.000614 -0.059949 -0.995632
1.257644 -0.029903 0.115159 0.000033 -0.213528 0.974872
1.492716 0.107691 0.000000 0.177476 0.967801 -0.142930
0.407850 0.372584 -0.374778 0.060038 0.709612 0.702030
-1.047533 -0.091257 -0.076340 0.000661 -0.701364 -0.709520
1.191983 0.105895 0.121923 -0.000000 -0.710895 0.703299
-1.118677 0.117313 -0.019830 -0.000201 0.973755 -0.215341
1.023155 -0.094640 -0.110547 0.000000 0.710895 -0.703299
1.194163 0.104200 -0.120210 -0.000000 -0.710895 -0.703299
0.147206 -0.239018 0.220180 -0.062566 -0.739643 -0.670085
0.342312 -0.036628 0.113199 -0.000251 -0.349140 0.934496
-0.458509 0.117681 0.017517 0.000568 0.993461 0.093354
0.529498 -0.000000 0.118978 0.000925 0.110799 0.991059
-1.026480 0.037637 0.112868 -0.000348 0.350958 0.934018
-0.728246 0.064839 -0.099757 -0.000305 0.621852 -0.780176
0.052717 -0.374461 0.378506 -0.062566 -0.739643 -0.670085
0.826367 0.051871 0.107075 -0.002203 0.503399 0.861213
-1.163238 -0.109807 -0.045804 -0.000420 -0.939925 -0.335431
0.376248 0.407609 -0.416740 0.062626 -0.709499 -0.701918
-0.111237 -0.108664 0.048454 -0.000506 -0.931377 0.356141
1.027479 -0.107606 0.093884 0.000000 -0.710895 -0.703299
0.361225 -0.621629 -0.622525 -0.014875 -0.728931 0.683429
0.002097 -0.124117 0.106901 -0.062566 -0.739643 -0.670085
-0.410770 0.078804 0.089138 -0.002218 0.700203 0.710689
0.958948 0.050499 -0.107729 0.000063 0.465772 -0.882251
0.588844 -0.065302 0.099455 -0.000231 -0.465506 0.882388
1.102156 0.077772 -0.063727 -0.000000 -0.703299 0.710895
0.153487 -0.113748 0.139581 0.062626 0.709499 0.701918
0.369546 0.033975 0.114024 0.000046 0.191667 0.979089
0.076372 0.194905 0.178102 -0.062566 0.739643 -0.670085
1.331258 -0.125089 -0.111556 0.000000 -0.710895 0.703299
1.070545 -0.086001 0.072046 -0.000000 -0.710895 -0.703299
-0.269744 -0.000000 0.118978 -0.000117 0.111527 0.990905
0.458577 0.079109 0.088868 -0.000277 0.589342 0.804972
0.376248 -0.407609 0.416740 0.062626 0.709499 0.701918
0.749290 -0.000000 0.118978 0.001647 0.105318 0.991208
0.519601 0.051567 -0.107222 0.000137 0.474176 -0.877765
-0.709419 0.033971 0.114025 -0.000078 0.238777 0.968663
0.059329 0.332548 -0.340442 -0.065256 -0.676484 -0.733561
0.639381 0.017251 0.117720 -0.000512 0.097871 0.992665
-0.569790 -0.065510 0.099318 0.000089 -0.507297 0.859060
-0.789143 -0.034387 -0.113900 -0.000067 -0.333557 -0.940247
0.950116 0.118008 -0.015158 -0.000238 0.983839 -0.166878
1.049064 0.114027 0.033965 0.000037 0.979074 0.191665
0.009886 0.033975 0.114024 0.000046 0.191667 0.979089
-0.720181 0.101287 0.062423 0.000000 0.822471 0.564694
-0.669274 -0.033971 -0.114025 0.000078 -0.238777 -0.968663
1.238772 -0.107907 0.050118 0.000046 -0.941046 0.331336
0.089797 0.034187 0.113960 -0.000011 0.239512 0.968470
1.224201 0.014425 0.118100 -0.000244 0.167760 0.983813
0.189820 -0.118978 -0.000000 0.000403 -0.993201 -0.089907
-0.849227 0.034001 0.114016 -0.000096 0.238231 0.968819
0.145367 0.124064 -0.101125 0.060038 0.709612 0.702030
-1.239937 0.114597 0.031988 0.000116 0.930558 0.359915
-0.599533 0.050044 -0.107941 0.000023 0.330769 -0.941250
-1.318216 -0.100489 0.063699 -0.000202 -0.869119 0.489938
0.468850 -0.091362 -0.076215 0.000024 -0.733576 -0.676140
-0.472316 -0.109845 0.045715 -0.000363 -0.899476 0.431722
0.827675 -0.109372 0.046835 -0.000008 -0.896437 0.437878
-1.308759 -0.000000 0.118978 0.000244 0.045460 0.996884
-1.525035 -0.092998 0.000000 -0.467103 -0.878697 -0.052789
0.017732 0.037101 -0.113045 0.000312 0.396759 -0.915418
0.368563 0.108891 -0.047941 0.000033 0.892950 -0.444966
0.140752 -0.307274 -0.324378 -0.065256 0.676484 -0.733561
-1.308852 -0.114061 -0.033850 -0.000914 -0.969232 -0.236496
-1.207019 0.033981 -0.114022 0.000102 0.323381 -0.943992
0.309706 0.000000 -0.118978 0.000956 -0.047405 -0.996611
-0.688111 -0.109489 -0.046560 -0.000087 -0.897259 -0.436187
-0.878755 0.079170 0.088814 -0.000185 0.624999 0.777691
0.438898 -0.117964 0.015496 0.000609 -0.981867 0.178954
-0.280038 -0.050146 0.107894 -0.000220 -0.332429 0.940643
-1.029024 0.000000 -0.118978 0.000437 -0.052027 -0.996339
1.361519 0.160051 -0.146895 0.000000 0.710895 0.703299
-0.225542 0.065210 -0.099515 0.000232 0.579451 -0.812286
0.249763 0.118978 -0.000000 -0.000589 0.996914 0.045476
1.201051 0.077772 0.063727 0.000000 -0.703299 -0.710895
0.181062 0.443946 0.454001 -0.065256 -0.676484 0.733561
0.354848 -0.271000 -0.267563 0.060038 -0.709612 0.702030
-0.279808 0.072329 -0.094468 0.000656 0.628970 -0.775326
-0.560909 0.114846 -0.031081 -0.000072 0.949168 -0.307492
0.204759 0.301056 0.324337 -0.022631 -0.688558 0.724120
-0.549368 -0.033833 -0.114066 -0.000059 -0.237926 -0.968887
-0.719766 -0.079245 0.088747 0.000062 -0.626846 0.776145
0.237550 0.104885 0.089623 0.060038 0.709612 -0.702030
0.989022 -0.034120 -0.113980 -0.000106 -0.330952 -0.941140
-0.759293 0.017251 0.117720 0.000091 0.096396 0.992994
-0.550184 0.091362 0.076215 0.000086 0.733170 0.676605
0.280203 -0.078754 -0.089182 -0.000026 -0.696031 -0.714826
-0.509333 -0.108753 -0.048255 -0.000028 -0.891395 -0.448152
-0.342312 0.036628 0.113199 0.000216 0.349629 0.934340
-0.350732 -0.109003 0.047688 0.000008 -0.947768 0.311842
