0.369008 -0.049523 -0.090260 -0.000051 -0.435590 -0.896292
0.029968 0.017237 0.101500 0.000012 0.111483 0.990613
-0.491280 0.067384 -0.077839 -0.000370 0.604079 -0.792327
1.348410 -0.050615 0.089653 -0.000722 -0.445581 0.891011
-0.143766 -0.137085 -0.123703 -0.048694 0.611551 -0.789705
0.014738 0.305882 -0.230726 -0.064136 0.658495 0.749847
0.082071 0.161470 0.112366 0.084493 0.630832 -0.771306
-0.029353 0.297331 0.254853 -0.048694 -0.611551 0.789705
1.082633 -0.181676 0.141761 -0.104383 -0.739588 -0.664917
0.249285 0.017141 -0.101517 -0.000010 0.111079 -0.990681
0.111490 -0.478245 0.403638 -0.011063 0.618996 0.784840
-0.046266 -0.330742 -0.257775 -0.064136 -0.658495 0.749847
0.117603 -0.689511 0.567620 -0.048694 0.611551 0.789705
0.241833 -0.255891 -0.210952 0.064175 0.631791 -0.772478
0.207946 0.223446 0.187231 0.064175 -0.631791 0.772478
-1.494001 0.037062 -0.087561 -0.249486 0.262579 -0.927554
-1.372858 -0.085656 0.057117 0.000478 -0.805417 0.587982
0.927732 0.049638 -0.090197 0.000024 0.430131 -0.899319
0.099794 -0.097165 -0.034035 0.000165 -0.921666 -0.379940
-0.628544 -0.101527 -0.017080 0.000104 -0.995218 -0.042769
0.967638 -0.090247 0.049546 0.000189 -0.921559 0.380126
-0.817570 -0.086775 0.055404 0.000080 -0.809946 0.581232
-0.029931 0.017080 -0.101527 -0.000005 0.055397 -0.995364
-0.788175 -0.101527 -0.017080 0.000035 -0.995227 -0.043351
0.399076 -0.000000 0.102953 -0.000395 -0.056319 0.995208
-0.700153 0.081172 -0.063329 -0.002125 0.810781 -0.579599
0.029819 0.649801 0.531456 -0.048694 -0.611551 0.789705
-0.907808 -0.090116 0.049785 -0.000216 -0.840059 0.535576
-0.488865 0.101503 0.017221 0.000060 0.990663 0.111188
0.013045 0.351658 -0.299539 -0.048694 -0.611551 -0.789705
-0.343385 0.120416 -0.098485 -0.048694 -0.611551 -0.789705
-0.046292 -0.236393 -0.206618 -0.048694 0.611551 -0.789705
0.247428 -0.424028 0.345219 0.084493 -0.630832 -0.771306
1.383069 0.225258 -0.170579 0.000000 0.633096 0.774074
0.238710 0.501583 -0.407694 0.084493 0.630832 0.771306
-0.009325 -0.230664 0.204461 -0.048694 0.611551 0.789705
1.481707 -0.154062 0.126003 0.179311 -0.654274 -0.734692
1.481707 0.154062 0.126003 0.179311 -0.590296 0.787019
-0.389099 0.101527 0.017080 0.000803 0.995319 0.050548
1.198308 0.200430 0.150273 -0.000000 0.633096 -0.774074
0.997557 0.033909 -0.097209 -0.000036 0.274897 -0.958240
1.286897 0.101513 -0.017161 0.000014 0.990672 -0.111132
1.007585 -0.049665 -0.090182 -0.000046 -0.430500 -0.899157
-0.648594 -0.017193 -0.101508 0.000073 -0.111219 -0.990657
-0.190276 0.337599 0.276114 -0.048694 -0.611551 0.789705
-0.927851 -0.101527 -0.017080 -0.000020 -0.995337 -0.055559
0.086454 0.263865 0.230382 0.064175 -0.631791 0.772478
-0.257261 0.242581 0.198401 -0.048694 -0.611551 0.789705
0.129563 0.090254 0.049535 -0.000539 0.899215 0.430328
0.877967 0.097244 0.033808 0.000739 0.957962 0.275610
-0.877967 0.000000 -0.102953 0.000000 -0.055496 -0.995348
1.197228 -0.033804 0.097246 0.000001 -0.274392 0.958387
-0.848036 0.017080 0.101527 -0.000000 0.055432 0.995359
1.117259 -0.033978 -0.097185 0.000114 -0.274834 -0.958255
0.228937 -0.463259 -0.375280 0.084493 -0.630832 0.771306
-1.247052 -0.076479 0.068923 0.000577 -0.699238 0.710572
1.238084 0.132364 0.094604 0.000000 0.633096 -0.774074
-0.837521 0.086904 0.055200 -0.000078 0.777123 0.624458
0.176146 0.358479 -0.283800 0.084493 0.630832 0.771306
0.658604 -0.097263 -0.033753 0.000008 -0.958462 -0.274142
1.007803 -0.017141 0.101517 -0.000000 -0.110992 0.990696
1.424341 0.049616 -0.090209 -0.002088 0.532691 -0.842163
-0.308079 -0.065089 0.079767 0.003222 -0.543139 0.835193
-0.006995 -0.109116 0.059789 -0.014573 -0.650532 -0.758484
1.417933 -0.096761 0.035167 -0.000471 -0.919706 0.385066
0.229503 -0.091416 0.047355 -0.003959 -0.853354 0.515401
1.178721 0.178695 -0.159804 -0.000000 -0.633096 -0.774074
-1.107435 -0.017080 0.101527 0.000020 -0.055627 0.995326
0.319055 0.063926 -0.080702 0.001061 0.576605 -0.812992
-1.227296 0.049530 -0.090256 -0.000695 0.431460 -0.898590
-0.169678 -0.090235 0.049568 0.001560 -0.892890 0.441986
-0.283135 -0.143643 0.120188 -0.048694 0.611551 0.789705
0.112102 -0.304768 0.232855 0.084493 -0.630832 -0.771306
-1.491048 -0.079486 0.053501 -0.221901 -0.739727 0.628334
-0.191823 0.087033 0.056206 0.000000 -0.774074 -0.633096
-0.598611 -0.033955 0.097193 0.000146 -0.275007 0.958202
-0.134649 0.234392 0.180723 -0.064136 0.658495 -0.749847
0.191665 0.504025 0.418062 0.064175 -0.631791 0.772478
-0.012810 -0.489875 0.404980 -0.048694 0.611551 0.789705
-0.385990 0.038282 0.095572 -0.000849 0.476512 0.875058
1.383843 0.235459 0.206230 0.000000 -0.633096 0.774074
0.590574 -0.050053 -0.089967 -0.000965 -0.427473 -0.900732
0.075033 -0.374495 -0.285822 -0.014573 -0.650532 0.758484
0.088025 0.471812 0.397210 -0.048694 -0.611551 0.789705
-0.164387 -0.271001 -0.215415 -0.064136 -0.658495 0.749847
1.310770 -0.280131 -0.215459 -0.034944 -0.670559 0.739749
0.131473 -0.399933 0.312810 0.084493 -0.630832 -0.771306
-0.501256 -0.065507 -0.079424 -0.000553 -0.591345 -0.801388
1.508798 -0.061906 0.023014 1.000000 0.000000 -0.000000
1.110230 0.159822 0.144368 -0.034944 -0.592021 0.803983
1.333775 0.106050 -0.100389 0.000000 -0.633096 -0.774074
1.333775 -0.119432 -0.084027 0.000000 -0.633096 0.774074
0.018245 0.390834 0.330197 -0.048694 -0.611551 0.789705
0.122828 0.659711 -0.532203 -0.064136 0.658495 0.749847
0.309348 -0.090279 -0.049489 0.000057 -0.920658 -0.381647
-1.505686 -0.074541 -0.053611 -0.248605 -0.790133 -0.553287
0.224658 -0.252668 0.202574 0.084493 -0.630832 -0.771306
-0.223502 0.097899 -0.068457 -0.064136 0.658495 0.749847
-0.010489 -0.426714 0.356211 -0.048694 0.611551 0.789705
-0.080034 -0.409386 0.329726 -0.064136 -0.658495 -0.749847
1.508798 0.056336 0.032682 1.000000 0.000000 -0.000000
0.217455 -0.549459 -0.444523 0.084493 -0.630832 0.771306
0.216412 -0.163797 0.128985 0.084493 -0.630832 -0.771306
-1.027245 0.094872 0.039985 -0.001653 0.897141 0.434160
-1.451160 0.090394 -0.047679 -0.114227 0.887950 -0.436280
0.618958 0.063821 0.080786 -0.000502 0.661336 0.745888
0.190069 0.686480 -0.553589 0.084493 0.630832 0.771306
0.037365 0.554037 0.457761 -0.048694 -0.611551 0.789705
-0.305108 0.174711 -0.142892 -0.048694 -0.611551 -0.789705
-0.428886 0.049546 -0.090247 0.000281 0.379446 -0.921939
-0.109746 0.049594 0.090221 -0.000408 0.429693 0.899565
0.097819 -0.448211 0.348609 -0.014573 -0.650532 -0.758484
0.947808 0.049593 0.090222 0.000388 0.430621 0.899055
-0.138762 -0.311933 -0.259415 -0.048694 0.611551 -0.789705
1.327482 -0.275659 0.239108 -0.069738 0.549316 0.831557
0.214368 0.152112 0.128355 0.064175 -0.631791 0.772478
0.226959 0.208947 -0.167068 0.084493 0.630832 0.771306
1.102829 0.100091 0.095515 -0.000000 -0.633096 0.774074
1.257806 0.061910 0.082259 -0.001586 0.569916 0.818072
-0.032444 -0.368731 -0.309954 -0.048694 0.611551 -0.789705
-0.087877 0.153205 -0.105426 -0.064136 0.658495 0.749847
1.062183 -0.128016 0.091047 -0.000000 -0.633096 -0.774074
1.062288 0.128804 -0.091692 -0.000000 0.633096 0.774074
0.186032 0.112306 0.083544 0.084493 0.630832 -0.771306
-0.249419 0.101503 0.017221 0.000157 0.990653 0.108484
-0.728180 -0.049529 -0.090257 0.001653 -0.432156 -0.898201
1.436673 0.057062 0.085693 0.191532 0.627356 0.747714
-1.087454 0.090197 -0.049639 -0.000281 0.896760 -0.434819
0.498519 -0.068481 0.076875 0.003048 -0.594307 0.798926
0.306558 0.089496 0.050890 0.000230 0.888694 0.449650
0.066570 0.071742 -0.074901 0.064175 -0.631791 -0.772478
1.436673 -0.057279 0.085548 0.045807 -0.567995 0.814917
1.248035 -0.120037 -0.084522 0.000000 -0.633096 0.774074
1.291549 0.281476 -0.219972 -0.104383 0.739588 0.664917
0.199939 0.437552 -0.363009 0.064175 -0.631791 -0.772478
-0.121119 -0.227727 -0.195293 -0.048694 0.611551 -0.789705
-0.189046 -0.047446 0.091369 -0.001595 -0.428866 0.899885
1.494549 0.052586 -0.067700 0.290211 0.596312 -0.744019
0.051660 -0.067854 -0.077429 -0.001129 -0.701330 -0.707808
1.327482 0.275659 0.239108 -0.034944 -0.592021 0.803983
-0.116563 -0.100738 -0.021243 -0.000509 -0.957444 -0.276080
-0.960068 0.079719 0.065148 0.001724 0.812022 0.578058
-0.061627 0.080862 0.063751 0.000000 -0.774074 -0.633096
0.002803 0.187030 0.171418 -0.048694 -0.611551 0.789705
-0.099494 -0.167463 0.118940 -0.064136 -0.658495 -0.749847
-0.234948 0.173940 0.146621 -0.048694 -0.611551 0.789705
-0.848181 -0.052571 -0.088520 0.000204 -0.448542 -0.889265
1.428201 0.132496 -0.122019 0.060027 -0.620581 -0.780624
1.428201 -0.145878 -0.105657 0.060027 -0.641999 0.763107
0.106137 -0.120871 0.081797 0.084493 -0.630832 -0.771306
1.333775 -0.119432 0.084027 0.000000 -0.633096 -0.774074
0.269468 0.049706 0.090160 -0.000047 0.430829 0.898991
-1.479765 -0.025310 0.094959 -0.145276 -0.224341 0.960766
1.405208 -0.223103 -0.168817 0.055737 -0.641474 0.764027
1.217036 0.063790 -0.080810 0.001508 0.572226 -0.816402
0.163480 0.198826 0.151836 0.084493 0.630832 -0.771306
1.225284 -0.192488 -0.171084 -0.000000 0.633096 -0.774074
-0.598614 0.102953 -0.000000 0.001044 0.995444 -0.046849
1.446595 -0.070716 -0.071491 0.159539 0.595820 -0.786576
0.983392 0.084098 0.055129 0.000000 -0.774074 -0.633096
0.072021 -0.191713 -0.136000 0.084493 -0.630832 0.771306
-0.324653 -0.057773 -0.085215 0.002171 -0.515519 -0.854895
-0.116562 0.100738 -0.021243 -0.000509 0.957444 -0.276081
0.198075 -0.772564 -0.624872 -0.014573 -0.650532 0.758484
0.202632 0.781715 0.644267 -0.004783 -0.620083 0.783833
-0.049873 -0.049456 0.090297 -0.000413 -0.379808 0.921632
0.718409 -0.080608 -0.064045 0.000162 -0.814013 -0.575454
1.427525 -0.336040 0.274839 0.179311 -0.654274 -0.734692
1.427525 0.336040 0.274839 0.179311 -0.590296 0.787019
-0.368891 0.094109 -0.041747 -0.003796 0.925578 -0.367742
-0.312003 0.082140 0.062188 0.000000 -0.774074 -0.633096
0.987039 0.142299 0.112970 -0.104383 0.739588 -0.664917
-0.146711 -0.296016 0.246598 -0.048694 0.611551 0.789705
-1.297038 -0.033853 -0.097229 -0.000022 -0.274758 -0.958269
-0.508817 0.068907 0.076493 -0.001736 0.705907 0.703706
0.099787 -0.171047 0.153361 0.064175 0.631791 0.772478
-1.247112 -0.017080 0.101527 -0.000032 -0.055531 0.995342
0.119515 0.033876 -0.097220 0.000259 0.274470 -0.958372
0.106373 0.758393 -0.620270 -0.048694 -0.611551 -0.789705
-0.056305 0.527635 0.431540 -0.048694 -0.611551 0.789705
-0.094583 0.473339 -0.387132 -0.048694 -0.611551 -0.789705
-0.161568 0.378321 -0.309419 -0.048694 -0.611551 -0.789705
-0.113721 0.446191 0.364929 -0.048694 -0.611551 0.789705
-0.257261 -0.242581 -0.198401 -0.064136 -0.658495 0.749847
0.189558 -0.017221 0.101503 -0.000060 -0.111188 0.990663
1.067665 -0.017141 0.101517 0.000000 -0.110992 0.990696
0.508685 -0.017141 -0.101517 -0.000000 -0.110992 -0.990696
1.316950 0.000000 -0.102953 0.000622 -0.048750 -0.996405
0.000000 0.102953 -0.000000 0.000945 0.994316 -0.063697
0.249285 0.101517 0.017141 -0.000000 0.990696 0.110993
1.047574 -0.101527 0.017080 0.000000 -0.995330 0.055603
-1.408684 0.077697 0.067547 0.001258 0.715173 0.693342
0.718409 -0.080608 0.064045 0.000104 -0.814356 0.575023
-0.648355 0.076389 0.069023 0.000092 0.701201 0.708604
1.391412 0.256056 -0.223075 0.060027 -0.620581 -0.780624
-0.399087 -0.097243 -0.033811 -0.000209 -0.972233 -0.220556
-0.252160 0.050868 0.089509 0.000893 0.448148 0.889508
-1.527801 0.017041 0.082210 -0.344941 0.259846 0.896109
1.400609 -0.238548 0.181449 0.055737 -0.641474 -0.764027
-0.515635 -0.052849 0.088354 -0.000273 -0.612949 0.785228
0.212812 -0.167803 -0.141318 0.064175 0.631791 -0.772478
0.996784 -0.124308 0.091429 -0.104383 -0.739588 -0.664917
1.376814 -0.097193 -0.033955 0.000092 -0.958141 -0.275182
-1.591329 -0.024984 -0.039464 -0.621426 -0.498728 -0.598889
0.175387 -0.402561 -0.319771 0.084493 -0.630832 0.771306
1.365089 0.355467 -0.290727 -0.104383 -0.504982 -0.856795
0.349191 -0.101527 0.017080 -0.000020 -0.995337 0.055559
0.538752 0.102953 -0.000000 0.000013 0.995339 -0.055549
0.698382 0.033819 0.097241 -0.000001 0.274446 0.958373
0.261875 0.753194 0.616019 0.084493 0.630832 -0.771306
0.261875 -0.737887 -0.603500 0.064175 0.631791 -0.772478
0.289192 -0.049536 -0.090253 0.000926 -0.430729 -0.898998
0.261875 -0.523592 0.428233 0.084493 -0.630832 -0.771306
-0.878555 0.077536 -0.067732 0.000927 0.799171 -0.594167
1.087345 0.101517 -0.017141 -0.000250 0.990626 -0.111404
-0.648637 0.049419 -0.090317 -0.001265 0.374859 -0.923807
-1.157320 0.102953 -0.000000 0.000006 0.995345 -0.055512
0.069973 -0.049558 0.090241 -0.001392 -0.433782 0.897335
0.838059 -0.097239 0.033822 0.000091 -0.972135 0.220797
0.279314 -0.063865 0.080751 0.000759 -0.576849 0.812802
0.006376 0.185814 -0.170697 -0.048694 -0.611551 -0.789705
0.154927 0.118585 -0.105872 0.064175 -0.631791 -0.772478
-1.502325 0.077442 0.051164 -0.275637 0.857923 0.423558
0.129719 -0.551414 -0.436511 -0.014573 -0.650532 0.758484
1.015101 -0.106375 -0.073348 -0.000000 -0.633096 0.774074
1.133646 -0.101072 -0.069011 0.000000 -0.633096 0.774074
-1.408749 -0.017855 -0.101393 -0.000732 -0.113090 -0.990331
1.055451 0.190369 0.155698 -0.104383 0.739588 -0.664917
1.346999 0.049796 -0.090110 -0.000098 0.431317 -0.898748
0.056561 0.129711 -0.083596 0.084493 0.630832 0.771306
0.114799 0.637879 0.513718 -0.064136 0.658495 -0.749847
-0.210441 0.148601 -0.128509 -0.048694 -0.611551 -0.789705
0.171131 -0.331419 -0.261119 0.084493 -0.630832 0.771306
0.217021 0.589131 -0.476922 0.084493 0.630832 0.771306
0.143707 -0.098109 0.031208 0.000090 -0.961157 0.265958
0.204213 -0.205026 0.172476 0.064175 0.631791 0.772478
0.036068 -0.368437 0.283836 -0.064136 -0.658495 -0.749847
-0.518678 -0.097200 -0.033934 -0.000505 -0.920386 -0.382511
0.212235 0.641024 0.518839 0.084493 0.630832 -0.771306
-0.927848 0.017221 0.101503 0.000137 0.111103 0.990677
1.299902 -0.320709 -0.262300 -0.104383 -0.739588 0.664917
1.214714 -0.079580 0.065318 0.001123 -0.803752 0.588634
-0.075444 -0.500487 0.409336 -0.064136 -0.658495 -0.749847
0.957799 0.086789 -0.055382 0.000818 0.812856 -0.576507
-0.161263 0.103264 -0.067846 -0.064136 0.658495 0.749847
-1.165079 0.051117 0.089367 -0.002203 0.436748 0.895837
-0.246129 0.189425 -0.150769 -0.064136 0.658495 0.749847
-0.618545 -0.062377 -0.081906 -0.001863 -0.579958 -0.810201
1.169528 -0.251194 0.205446 -0.104383 0.504982 0.856795
1.169528 0.251194 0.205446 -0.104383 0.739588 -0.664917
0.175127 -0.090432 -0.081169 0.064175 0.631791 -0.772478
-1.027658 0.101500 -0.017237 -0.000767 0.990614 -0.110194
0.129769 0.049561 0.090239 0.001219 0.545895 0.832118
-0.728104 -0.090176 -0.049675 -0.002530 -0.840663 -0.534892
1.316953 -0.097193 -0.033955 0.000143 -0.958200 -0.275014
1.117259 0.033978 -0.097185 0.000114 0.274834 -0.958255
0.215969 0.588768 0.476510 0.084493 0.630832 -0.771306
0.406397 -0.101290 0.018430 0.000894 -0.989160 0.120574
-0.080157 -0.063869 -0.080747 -0.000059 -0.572828 -0.815893
-1.227214 0.091419 -0.047349 0.004566 0.850087 -0.520481
1.225117 -0.246055 -0.191002 -0.104383 -0.739588 0.664917
-1.597510 -0.030372 0.028447 -0.655254 -0.622336 0.418177
1.296018 0.185150 -0.165083 0.000000 -0.633096 -0.774074
-0.041861 -0.321878 0.273091 -0.048694 0.611551 0.789705
0.658475 0.000000 -0.102953 0.000882 -0.059185 -0.994702
-0.099151 -0.086531 0.087304 -0.048694 0.611551 0.789705
1.365089 -0.355467 -0.290727 -0.104383 -0.739588 0.664917
-0.284112 0.144013 0.120414 -0.048694 -0.611551 0.789705
-0.568801 0.068982 -0.076425 0.000462 0.705301 -0.704283
0.211222 -0.547169 0.451724 0.064175 0.631791 0.772478
1.386814 -0.271501 -0.235707 0.124082 0.605273 -0.785226
-0.029419 -0.188723 -0.131616 -0.064136 -0.658495 0.749847
0.217861 -0.326875 0.262521 0.084493 -0.630832 -0.771306
1.237259 -0.097169 -0.034023 -0.000961 -0.957185 -0.277871
0.134306 0.452966 -0.356495 0.084493 0.630832 0.771306
-0.023379 -0.118417 -0.069359 -0.064136 -0.658495 0.749847
-1.027115 -0.079772 0.065084 0.000519 -0.673135 0.733209
1.053981 0.099120 0.067414 -0.000000 0.633096 -0.774074
0.052248 -0.280990 -0.247230 -0.011063 0.618996 -0.784840
0.054659 -0.517176 -0.430282 -0.048694 0.611551 -0.789705
0.558709 -0.097193 0.033955 0.000114 -0.958189 0.275044
0.002119 -0.114082 0.114884 -0.011063 0.618996 0.784840
1.177273 0.097245 0.033804 0.000003 0.958342 0.274521
0.189423 0.090247 -0.049547 0.000806 0.897896 -0.432728
0.455908 0.064757 -0.080037 -0.000133 0.582695 -0.808270
0.229216 0.288348 -0.238546 0.064175 -0.631791 -0.772478
-0.448877 -0.049766 -0.090126 -0.002152 -0.529781 -0.844401
0.778198 0.000000 -0.102953 -0.000094 -0.057142 -0.995066
0.419175 0.064030 0.080620 0.000459 0.578116 0.811797
-0.147551 0.274450 0.217003 -0.064136 0.658495 -0.749847
0.127187 0.332265 -0.282941 0.064175 -0.631791 -0.772478
1.063949 0.070716 -0.071491 0.000000 -0.633096 -0.774074
-0.558832 -0.033754 -0.097263 0.000068 -0.220469 -0.972216
1.356783 -0.056599 -0.085999 -0.002850 -0.582166 -0.809302
-0.890252 0.101272 0.018533 0.000458 0.994209 0.064709
-0.056305 -0.527635 -0.431540 -0.064136 -0.658495 0.749847
1.208509 0.227163 -0.196031 -0.104383 -0.504982 -0.856795
0.120101 0.591526 0.472559 -0.064136 0.658495 -0.749847
-0.012119 -0.277493 -0.240553 -0.048694 0.611551 -0.789705
0.002119 0.114082 0.114884 -0.011063 -0.618996 0.784840
0.778322 -0.097169 0.034023 -0.000129 -0.958262 0.274815
-1.322837 0.101169 -0.019087 -0.000049 0.988577 -0.123002
-0.112118 0.170580 -0.151593 -0.048694 -0.611551 -0.789705
0.214436 -0.654697 0.539402 0.064175 0.631791 0.772478
0.207190 0.802050 -0.649987 0.043247 0.639700 0.766750
-0.271152 -0.159665 -0.133334 -0.048694 0.611551 -0.789705
0.048836 -0.231403 -0.165921 0.084493 -0.630832 0.771306
1.261701 -0.218595 0.165130 -0.000000 -0.633096 -0.774074
1.261701 0.218595 0.165130 -0.000000 0.633096 -0.774074
0.261875 0.232762 0.190370 0.084493 0.630832 -0.771306
0.212690 -0.387070 0.320661 0.064175 0.631791 0.772478
-1.436673 -0.085548 -0.057279 -0.055394 -0.770616 -0.629281
-0.788311 -0.017142 -0.101516 0.000001 -0.111001 -0.990694
0.042718 0.606290 -0.498557 -0.048694 -0.611551 -0.789705
0.196782 -0.119638 0.103256 0.064175 0.631791 0.772478
1.305329 0.089512 0.050862 0.001140 0.896460 0.435535
-0.123291 -0.432617 0.353827 -0.064136 -0.658495 -0.749847
0.139329 0.710819 0.585461 -0.048694 -0.611551 0.789705
0.678848 -0.039200 0.095199 -0.000824 -0.304031 0.948010
0.055921 0.564021 -0.453893 -0.064136 0.658495 0.749847
0.046318 0.460504 0.363809 -0.064136 0.658495 -0.749847
-0.026699 0.242510 0.212563 -0.048694 -0.611551 0.789705
0.059478 -0.585800 0.483722 -0.048694 0.611551 0.789705
1.277347 -0.248928 0.217245 -0.069738 0.549316 0.831557
1.277347 0.248928 0.217245 -0.034944 -0.592021 0.803983
0.927951 -0.066800 0.078340 0.001639 -0.706037 0.703571
-0.247692 -0.256155 0.209503 -0.064136 -0.658495 -0.749847
-0.927863 0.090219 -0.049597 0.000031 0.899333 -0.430115
-0.218056 -0.182580 -0.154353 -0.048694 0.611551 -0.789705
0.078117 -0.525743 0.418381 -0.064136 -0.658495 -0.749847
0.123990 -0.253992 0.219189 0.064175 0.631791 0.772478
-1.304147 -0.089643 0.050632 -0.000397 -0.899035 0.430550
1.317112 -0.181764 -0.162314 0.000000 0.633096 -0.774074
0.225418 -0.801072 0.651183 0.084493 -0.630832 -0.771306
0.114751 0.453001 0.354382 0.084493 0.630832 -0.771306
1.232002 0.115498 -0.080809 -0.000000 0.633096 0.774074
-0.170906 -0.117798 -0.081434 -0.064136 -0.658495 0.749847
0.819784 -0.079904 -0.064922 -0.001475 -0.843801 -0.530766
0.106960 0.196978 0.144133 0.084493 0.630832 -0.771306
1.428201 -0.145878 0.105657 0.060027 -0.641999 -0.763107
1.428201 0.145878 0.105657 0.119797 0.649058 -0.749980
0.076799 0.414499 -0.352134 -0.048694 -0.611551 -0.789705
-0.042416 0.109966 -0.063566 -0.064136 0.658495 0.749847
1.458704 0.095782 -0.068489 0.179311 0.654274 0.734692
1.115641 0.199276 -0.156156 -0.104383 0.739588 0.664917
0.047867 -0.139752 -0.132079 0.064175 0.631791 -0.772478
0.161094 -0.692176 -0.557441 -0.064136 -0.658495 0.749847
0.208669 0.379309 0.314648 0.064175 -0.631791 0.772478
0.817367 -0.035922 -0.096483 0.000480 -0.290390 -0.952932
0.200441 -0.479294 0.385272 0.084493 -0.630832 -0.771306
0.207409 0.135505 -0.104859 0.084493 0.630832 0.771306
0.141111 0.525610 -0.416654 0.084493 0.630832 0.771306
1.344257 0.089592 -0.050721 0.001817 0.895724 -0.436868
0.839770 0.065139 -0.079727 -0.002447 0.578950 -0.811227
1.297148 -0.131195 0.120955 -0.000000 0.633096 0.774074
0.261875 0.370523 0.303042 0.084493 0.630832 -0.771306
-0.372093 0.079694 0.065179 -0.048694 -0.611551 0.789705
1.229055 0.147143 -0.133998 -0.000000 -0.633096 -0.774074
1.087614 0.049527 0.090258 -0.001333 0.443496 0.891962
-0.063508 -0.100762 -0.021129 -0.000188 -0.959938 -0.265560
-0.728090 -0.076850 0.068509 -0.000217 -0.778348 0.622832
-0.110759 0.151197 0.105619 -0.064136 0.658495 -0.749847
-0.179584 0.000000 -0.102953 -0.000026 -0.056300 -0.995211
0.388962 0.017141 -0.101517 -0.000000 0.110994 -0.990695
-0.052556 0.427396 -0.343192 -0.064136 0.658495 0.749847
-0.568683 -0.101527 -0.017080 -0.001070 -0.995226 -0.043361
-1.346881 -0.017080 0.101527 -0.000037 -0.055540 0.995340
-1.316889 0.064060 0.080596 -0.000339 0.575724 0.813801
-0.937828 0.000000 -0.102953 0.000000 -0.055496 -0.995348
1.147206 0.101517 -0.017141 0.000000 0.990695 -0.110996
1.307110 -0.017141 0.101517 0.000005 -0.111027 0.990690
0.848173 -0.017141 0.101517 -0.000000 -0.110993 0.990695
-0.768092 0.049533 -0.090254 -0.002551 0.439859 -0.894063
0.049884 -0.101527 -0.017080 -0.000067 -0.995339 -0.055547
-0.598611 0.033955 0.097193 0.000146 0.275007 0.958202
0.239492 -0.097196 -0.033946 -0.000050 -0.958079 -0.275374
0.828043 0.090213 0.049608 -0.000002 0.899099 0.430566
-0.428979 -0.101535 0.017032 0.000077 -0.972206 0.220447
1.227166 -0.049453 -0.090298 -0.000061 -0.429670 -0.899548
-0.352955 -0.106842 -0.087383 -0.064136 -0.658495 0.749847
-0.728310 0.101503 -0.017221 -0.000447 0.990573 -0.103569
0.728317 0.101503 0.017221 0.000035 0.990660 0.111204
-1.077475 -0.097200 -0.033936 0.000093 -0.958225 -0.274937
0.608714 -0.090248 0.049545 -0.000644 -0.898888 0.430880
1.386785 0.101503 -0.017221 0.000743 0.990222 -0.113924
-1.057499 0.064109 0.080557 -0.000880 0.576166 0.813425
-0.528775 0.017080 -0.101527 0.000025 0.056455 -0.995185
-0.319229 -0.097237 0.033829 -0.000011 -0.972078 0.221035
0.588640 -0.017221 0.101503 0.000065 -0.111270 0.990649
0.528779 -0.101503 -0.017221 0.000036 -0.990661 -0.111198
0.897921 0.000000 -0.102953 0.000012 -0.055557 -0.995337
-0.827893 -0.090125 -0.049768 -0.000107 -0.898686 -0.431451
1.260635 0.240017 -0.209958 -0.069738 -0.549316 -0.831557
-0.094412 0.370711 0.296992 -0.064136 0.658495 -0.749847
0.498944 0.033870 0.097223 0.000097 0.274481 0.958365
-1.217130 0.033921 0.097205 0.001229 0.277982 0.957144
-1.266937 -0.101515 -0.017152 -0.000008 -0.990681 -0.111078
-0.219460 -0.097199 0.033937 0.000117 -0.958190 0.275040
0.448824 0.101516 0.017142 0.000001 0.990694 0.111001
-1.037597 -0.033803 -0.097246 0.000003 -0.274402 -0.958383
-0.977605 0.080712 -0.063914 -0.000249 0.843488 -0.530867
1.147340 -0.101503 -0.017221 0.000902 -0.990656 -0.111212
-1.177275 0.033805 -0.097245 -0.000001 0.274400 -0.958384
-1.267203 0.017141 -0.101517 -0.000005 0.111027 -0.990690
0.359168 0.097246 -0.033803 -0.000011 0.957676 -0.276427
0.359168 0.097246 0.033803 -0.001033 0.957770 0.276148
0.048976 -0.597242 -0.491935 -0.048694 0.611551 -0.789705
-1.107571 0.049523 -0.090260 0.000160 0.431756 -0.898429
0.758247 -0.097193 -0.033955 0.001898 -0.956612 -0.279490
-0.818036 0.080648 -0.063995 0.000437 0.815217 -0.573873
-0.079815 -0.000000 0.102953 -0.000000 -0.055496 0.995348
-0.234424 0.050626 -0.089646 0.001309 0.548180 -0.832613
-0.648204 -0.094770 0.040225 -0.000960 -0.896092 0.436389
0.152504 -0.625131 -0.499298 -0.014573 -0.650532 0.758484
0.192569 0.425333 0.340277 0.084493 0.630832 -0.771306
-0.817948 -0.034036 0.097165 -0.000107 -0.274885 0.958249
0.002119 0.138602 -0.084904 0.034970 0.641311 0.765637
-1.127399 0.090283 0.049480 0.000753 0.921700 0.380847
-1.067528 0.017080 0.101527 -0.000000 0.055432 0.995359
0.223762 0.641699 -0.527996 0.064175 -0.631791 -0.772478
0.261875 0.753194 -0.616019 0.084493 0.630832 0.771306
0.125632 0.107187 0.098985 0.064175 -0.631791 0.772478
0.061362 -0.311337 0.271293 -0.011063 0.618996 0.784840
-0.379122 0.000000 -0.102953 0.000812 -0.057010 -0.995264
-1.137358 -0.097184 0.033980 -0.000888 -0.957594 0.276793
0.024905 -0.189949 0.175042 -0.011063 0.618996 0.784840
-1.296996 -0.000000 0.102953 -0.000015 -0.055771 0.995301
-1.424364 -0.090355 0.049349 0.000832 -0.898117 0.433830
0.041053 -0.637795 0.519952 -0.064136 -0.658495 -0.749847
-1.357147 0.063979 -0.080660 -0.000259 0.662427 -0.744802
0.261875 -0.156228 -0.127775 0.064175 0.631791 -0.772478
0.419522 -0.062002 -0.082190 -0.001973 -0.571703 -0.816700
-0.767969 -0.094842 0.040056 0.000234 -0.896068 0.436543
0.222814 0.081791 0.062615 0.084493 0.630832 -0.771306
-0.309161 -0.017161 0.101513 -0.001046 -0.120303 0.989207
0.858016 -0.097193 -0.033955 0.000143 -0.958200 -0.275014
0.139677 0.102953 -0.000000 -0.000006 0.995339 -0.055548
1.207341 0.017141 0.101517 0.000001 0.110996 0.990695
-0.977736 0.033803 -0.097246 -0.000009 0.276274 -0.957729
0.708223 -0.017141 -0.101517 0.000768 -0.116951 -0.989656
-0.238123 0.269729 -0.220605 -0.048694 -0.611551 -0.789705
0.058527 -0.690523 -0.564761 -0.064136 -0.658495 0.749847
0.047691 0.265817 -0.235199 -0.011063 -0.618996 -0.784840
-1.127525 -0.049523 -0.090260 -0.000496 -0.430456 -0.899140
1.067365 -0.049526 -0.090259 -0.000029 -0.430099 -0.899318
-1.277201 0.086805 0.055356 -0.000586 0.812499 0.577119
0.648498 -0.101527 0.017080 -0.000000 -0.995359 0.055432
0.236811 -0.634343 -0.520896 0.064175 0.631791 -0.772478
-0.257112 -0.124897 -0.095041 -0.064136 -0.658495 0.749847
0.153643 -0.555471 0.442450 0.084493 -0.630832 -0.771306
-0.778198 -0.000000 0.102953 -0.000014 -0.055432 0.995359
-1.416719 -0.000000 0.102953 -0.019567 -0.063446 0.993457
0.018694 0.609827 0.499814 -0.048694 -0.611551 0.789705
-0.005044 -0.567383 0.465482 -0.048694 0.611551 0.789705
0.748256 0.090297 -0.049456 -0.000004 0.921967 -0.379199
1.418350 -0.035293 -0.096715 -0.001153 -0.398676 -0.912496
1.382215 0.300328 0.231978 0.124082 0.649546 -0.749017
-0.096544 -0.448180 -0.365206 -0.064136 -0.658495 0.749847
0.938344 -0.097880 -0.031920 0.001985 -0.955970 -0.280906
-1.177275 -0.033805 -0.097245 -0.000001 -0.274400 -0.958384
0.141210 -0.248300 -0.189860 0.084493 -0.630832 0.771306
-0.997690 -0.000000 0.102953 -0.000463 -0.054765 0.995470
-0.077647 0.310696 0.242855 -0.064136 0.658495 -0.749847
1.189744 0.115094 0.080479 0.000000 0.633096 -0.774074
-0.119871 0.033746 -0.097266 0.000021 0.274253 -0.958425
-1.227147 -0.090219 -0.049597 -0.000034 -0.898182 -0.432200
0.143390 0.595644 -0.474183 0.034970 0.641311 0.765637
-1.541970 0.038226 -0.067623 -0.437092 0.569299 -0.686528
-0.022815 0.480451 0.387239 -0.064136 0.658495 -0.749847
1.396160 0.169252 -0.152081 0.000000 -0.633096 -0.774074
-0.075156 -0.245025 0.184971 -0.064136 -0.658495 -0.749847
-1.514377 -0.088998 0.000000 -0.362270 -0.922886 -0.067559
0.225613 -0.598529 0.492535 0.064175 0.631791 0.772478
-0.026733 0.539012 -0.442174 -0.048694 -0.611551 -0.789705
0.211248 -0.760619 0.616545 0.084493 -0.630832 -0.771306
0.623670 -0.052293 0.088684 0.000315 -0.560032 0.823979
-1.324390 -0.089548 -0.050799 -0.001142 -0.899681 -0.429388
0.903305 0.081422 -0.058401 0.000000 -0.774074 0.633096
0.037383 0.128046 0.080133 0.084493 0.630832 -0.771306
0.013968 0.066490 0.078604 -0.000778 0.695989 0.712935
0.923209 0.082760 0.056765 -0.104383 0.739588 -0.664917
1.092111 -0.087152 0.084933 -0.000000 0.633096 0.774074
-0.235895 -0.100465 -0.022500 -0.002861 -0.958008 -0.276924
-0.196972 -0.142479 0.105338 -0.064136 -0.658495 -0.749847
1.247249 -0.049526 0.090259 -0.000996 -0.430404 0.899172
1.367057 0.076570 0.068822 -0.001839 0.710191 0.698819
-1.147278 -0.049489 0.090279 0.000088 -0.379632 0.921893
-0.546455 0.101254 0.018630 -0.002192 0.989834 0.116441
0.061275 0.494218 -0.412911 -0.048694 -0.611551 -0.789705
-0.149650 0.101503 0.017221 0.000105 0.990531 0.102533
0.016840 0.460477 -0.384042 -0.048694 -0.611551 -0.789705
-0.033769 -0.459938 -0.380505 -0.048694 0.611551 -0.789705
-1.567811 0.063413 -0.000000 -0.495252 0.859651 -0.070813
1.177572 -0.126645 -0.089926 0.000000 -0.633096 0.774074
0.011234 -0.168089 -0.110019 -0.014573 -0.650532 0.758484
-0.012119 -0.277493 0.240553 -0.048694 0.611551 0.789705
-0.096013 -0.288921 0.244230 -0.048694 0.611551 0.789705
0.209888 -0.285333 -0.237685 0.064175 0.631791 -0.772478
0.111842 0.289740 -0.249435 0.064175 -0.631791 -0.772478
0.022185 -0.560032 -0.453276 -0.064136 -0.658495 0.749847
1.313994 -0.194665 0.172865 -0.000000 0.633096 0.774074
0.037383 -0.128046 0.080133 0.084493 -0.630832 -0.771306
0.080050 0.316063 0.238582 0.084493 0.630832 -0.771306
-0.217682 -0.044076 -0.093042 0.000234 -0.413291 -0.907445
0.142673 -0.322581 0.273734 0.064175 0.631791 0.772478
-0.216827 0.227148 -0.188943 -0.048694 -0.611551 -0.789705
-0.418919 -0.032500 0.097689 -0.004437 -0.284698 0.954554
0.087525 0.555215 0.461766 -0.048694 -0.611551 0.789705
0.127006 0.187810 -0.138831 0.084493 0.630832 0.771306
-1.386923 0.101516 0.017144 0.000040 0.990678 0.111099
-0.016563 -0.230353 -0.167075 -0.064136 -0.658495 0.749847
0.070560 -0.448242 -0.377880 -0.048694 0.611551 -0.789705
-0.281817 0.037092 -0.096039 -0.000458 0.470911 -0.878155
0.519873 0.085792 0.056913 -0.003436 0.773592 0.631045
-0.137091 -0.188426 -0.163873 -0.048694 0.611551 -0.789705
-0.094474 -0.139666 -0.128740 -0.048694 0.611551 -0.789705
0.154730 -0.761667 0.625788 -0.048694 0.611551 0.789705
1.368359 0.150482 0.109422 -0.000000 0.633096 -0.774074
-0.070040 0.181888 0.129088 -0.064136 0.658495 -0.749847
0.220291 -0.700936 -0.568723 0.084493 -0.630832 0.771306
0.024446 -0.280299 0.207429 -0.064136 -0.658495 -0.749847
0.215969 -0.588768 -0.476510 0.084493 -0.630832 0.771306
-0.061277 0.236133 -0.175975 -0.064136 0.658495 0.749847
-0.286759 -0.095716 -0.037918 -0.001261 -0.948548 -0.305134
1.470007 0.086844 0.033357 0.287066 0.907152 0.295142
-0.040246 0.063788 -0.080812 0.000590 0.574130 -0.814858
1.369182 0.216151 0.163131 -0.000000 0.633096 -0.774074
0.147667 -0.750735 -0.610014 -0.064136 -0.658495 0.749847
-0.156452 -0.229656 0.178428 -0.064136 -0.658495 -0.749847
0.241843 -0.727551 0.596710 0.064175 0.631791 0.772478
0.211378 0.323108 -0.268457 0.064175 -0.631791 -0.772478
0.088352 -0.117643 -0.077209 0.084493 -0.630832 0.771306
0.029462 0.227062 0.160249 0.034970 0.641311 -0.765637
1.163575 0.099676 -0.095176 0.000000 -0.633096 -0.774074
0.618700 -0.080695 -0.063936 -0.002042 -0.742217 -0.665252
0.112217 0.230051 -0.171759 0.084493 0.630832 0.771306
0.009140 0.045086 -0.092556 -0.000679 0.494657 -0.866090
0.980176 0.105417 -0.096458 -0.104383 -0.504982 -0.856795
0.154730 0.764894 -0.621843 -0.064136 0.658495 0.749847
0.197548 0.523888 -0.421428 0.084493 0.630832 0.771306
-0.281817 -0.037092 -0.096040 -0.000458 -0.470909 -0.878157
-1.456853 -0.000000 -0.101676 -0.144791 -0.045507 -0.985561
-0.140421 -0.348623 0.287725 -0.048694 0.611551 0.789705
1.446779 0.224399 -0.180117 0.179311 0.654274 0.734692
0.214252 -0.118788 -0.101110 0.064175 0.631791 -0.772478
0.169470 -0.017141 -0.101517 -0.000283 -0.112401 -0.990456
-1.029388 -0.075748 -0.069726 0.000450 -0.664663 -0.743750
0.095522 0.243097 0.180600 0.084493 0.630832 -0.771306
-0.174275 0.176865 0.152627 -0.048694 -0.611551 0.789705
0.089655 -0.017141 -0.101517 -0.000073 -0.112942 -0.990363
0.040937 -0.082229 0.061950 -0.000710 -0.849402 0.523220
0.130174 0.497649 0.392588 0.084493 0.630832 -0.771306
1.212261 -0.213405 0.160885 -0.000000 -0.633096 -0.774074
0.176568 0.348968 0.292499 0.064175 -0.631791 0.772478
0.035235 0.352003 0.301174 -0.048694 -0.611551 0.789705
-0.562479 -0.062318 0.081950 0.001955 -0.527293 0.847027
0.054659 0.517176 0.430282 -0.048694 -0.611551 0.789705
1.376915 -0.080775 0.063834 -0.000537 -0.813380 0.576164
0.987854 0.100872 -0.020595 0.000003 0.987054 -0.132624
-0.552734 0.047165 0.091515 0.001444 0.382824 0.921588
-0.140331 0.318062 -0.254685 -0.064136 0.658495 0.749847
0.429006 0.090290 -0.049468 -0.000233 0.920593 -0.381845
1.306969 -0.090215 0.049606 -0.000679 -0.898639 0.431416
1.299902 0.320709 -0.262300 -0.104383 -0.504982 -0.856795
1.508798 0.044718 -0.017276 1.000000 0.000000 0.000000
1.218418 -0.277262 0.226766 -0.104383 0.504982 0.856795
1.218418 0.277262 0.226766 -0.104383 0.739588 -0.664917
-0.186135 -0.311106 -0.252494 -0.064136 -0.658495 0.749847
-0.176600 -0.174638 -0.131836 -0.064136 -0.658495 0.749847
1.494549 -0.052586 0.067700 0.290211 -0.596312 0.744019
-1.231567 0.074918 0.070617 -0.000397 0.695647 0.714680
0.103365 0.404821 0.313729 0.084493 0.630832 -0.771306
1.093518 -0.164294 -0.120718 -0.017472 -0.651827 0.756911
1.369182 -0.202768 0.179493 0.000000 0.633096 0.774074
1.508798 -0.000000 -0.061111 1.000000 -0.000000 -0.000000
0.212894 0.473488 0.381889 0.084493 0.630832 -0.771306
1.384585 0.145448 -0.105304 0.000000 0.633096 0.774074
1.384585 -0.132065 -0.121666 0.000000 0.633096 -0.774074
1.386009 -0.144451 0.131797 0.000000 0.633096 0.774074
1.039154 -0.181680 -0.148591 -0.104383 -0.739588 0.664917
-0.108602 0.115411 -0.074008 -0.064136 0.658495 0.749847
0.014606 -0.365448 -0.283046 -0.064136 -0.658495 0.749847
0.261875 -0.370523 -0.303042 0.064175 0.631791 -0.772478
0.049187 -0.176193 0.120805 0.084493 -0.630832 -0.771306
0.084147 -0.387204 -0.331450 -0.011063 0.618996 -0.784840
1.209635 -0.169677 0.125121 0.000000 -0.633096 -0.774074
1.171642 0.052806 -0.088380 -0.002793 0.446701 -0.890459
1.470007 -0.086844 0.033357 0.287072 -0.907184 0.295050
0.129719 -0.471175 -0.396341 0.064175 0.631791 -0.772478
1.126942 -0.168733 0.151656 -0.069738 0.549316 0.831557
0.204693 0.262049 -0.208059 0.084493 0.630832 0.771306
-0.295062 -0.112240 0.087173 -0.064136 -0.658495 -0.749847
1.249212 -0.168482 -0.124144 0.000000 -0.633096 0.774074
0.047482 0.153074 0.143007 0.064175 -0.631791 0.772478
-0.259347 -0.080722 0.063901 -0.000214 -0.844322 0.529671
-0.157935 0.215821 -0.183802 -0.048694 -0.611551 -0.789705
0.167829 -0.180737 0.155633 0.064175 0.631791 0.772478
0.154730 0.761667 0.625788 -0.048694 -0.611551 0.789705
0.084147 -0.403981 0.310937 -0.014573 -0.650532 -0.758484
0.038420 0.398637 -0.310155 -0.064136 0.658495 0.749847
0.047040 0.091227 0.051078 0.084493 0.630832 -0.771306
0.968337 -0.047292 0.091449 -0.001589 -0.424720 0.902085
-0.064500 0.284776 -0.242963 -0.048694 -0.611551 -0.789705
0.808129 0.090221 -0.049595 -0.000497 0.896832 -0.434625
-1.603803 0.030203 0.019744 -0.655220 0.622331 0.418213
1.436673 0.101019 -0.019862 0.190395 0.973665 -0.060790
1.384889 0.318220 -0.271187 -0.009524 -0.537722 -0.839993
0.223139 0.714147 0.587301 0.064175 -0.631791 0.772478
-0.638394 0.100149 0.023866 -0.000065 0.938993 0.335224
1.209553 0.156260 0.141455 0.000000 -0.633096 0.774074
1.162606 0.171013 0.153521 -0.000000 -0.633096 0.774074
0.892483 0.103475 0.084630 -0.104383 0.739588 -0.664917
-0.138548 -0.376864 -0.309710 -0.048694 0.611551 -0.789705
0.043921 -0.435606 -0.342150 -0.064136 -0.658495 0.749847
-0.112495 -0.217861 0.188184 -0.048694 0.611551 0.789705
0.109781 -0.076631 0.068754 0.000292 -0.703057 0.706755
-0.057929 0.332807 0.280564 -0.048694 -0.611551 0.789705
0.045759 0.324284 -0.280357 -0.048694 -0.611551 -0.789705
1.040475 -0.096964 -0.034603 -0.000561 -0.955977 -0.281667
-0.237269 0.136034 0.117123 -0.048694 -0.611551 0.789705
1.118840 0.123141 -0.087061 0.000000 0.633096 0.774074
1.419004 -0.163386 -0.147283 0.119797 0.606314 -0.784940
0.128624 -0.170499 -0.124850 0.084493 -0.630832 0.771306
1.164269 -0.155026 -0.140445 -0.000000 0.633096 -0.774074
0.168950 -0.179168 -0.154257 0.064175 0.631791 -0.772478
1.063215 0.149693 -0.132670 -0.104383 -0.504982 -0.856795
0.135905 0.370051 0.288856 0.084493 0.630832 -0.771306
-0.688368 -0.101500 -0.017237 0.000544 -0.990638 -0.109594
0.147947 -0.474858 0.375895 0.084493 -0.630832 -0.771306
0.095540 -0.244721 0.181930 0.084493 -0.630832 -0.771306
0.123644 0.376903 -0.293117 0.084493 0.630832 0.771306
1.145045 0.174318 -0.128917 -0.000000 0.633096 0.774074
1.437398 0.101606 0.096755 0.119797 -0.606314 0.784940
1.377617 -0.315773 0.244610 0.019378 -0.679236 -0.730308
0.106376 -0.273097 -0.236278 0.064175 0.631791 -0.772478
0.030656 -0.502643 0.417548 -0.048694 0.611551 0.789705
0.215246 0.677273 0.557798 0.064175 -0.631791 0.772478
1.335506 0.205797 -0.154663 0.000000 0.633096 0.774074
-0.014909 0.176886 -0.119980 -0.064136 0.658495 0.749847
0.065919 -0.326511 -0.283324 -0.011063 0.618996 -0.784840
1.277347 -0.248928 -0.217245 -0.069738 0.549316 -0.831557
-0.089903 -0.370477 0.307764 -0.048694 0.611551 0.789705
0.892483 -0.103475 -0.084630 -0.104383 -0.739588 0.664917
1.437398 -0.101606 0.096755 0.119797 0.606314 0.784940
0.113141 -0.574268 -0.478101 -0.048694 0.611551 -0.789705
-0.151763 0.072891 0.073497 -0.048694 -0.611551 0.789705
0.005933 -0.332143 0.283987 -0.048694 0.611551 0.789705
-0.068223 0.446075 0.360935 -0.064136 0.658495 -0.749847
0.087802 0.330657 0.284897 0.064175 -0.631791 0.772478
1.252842 -0.148946 0.108166 0.000000 -0.633096 -0.774074
-0.352063 -0.079075 0.065936 -0.000000 0.774074 -0.633096
-0.204582 -0.087009 -0.081174 -0.048694 0.611551 -0.789705
-0.078813 0.121129 0.076482 -0.064136 0.658495 -0.749847
-0.032032 -0.216801 0.156497 -0.064136 -0.658495 -0.749847
0.261875 -0.554205 -0.453271 0.064175 0.631791 -0.772478
0.002119 -0.114082 -0.114884 -0.011063 0.618996 -0.784840
0.050266 0.228708 0.204634 0.064175 -0.631791 0.772478
-0.024129 0.403556 0.319825 -0.064136 0.658495 -0.749847
-0.142292 0.264479 -0.207797 -0.064136 0.658495 0.749847
-0.016563 0.230353 -0.167075 -0.064136 0.658495 0.749847
0.092382 0.627280 -0.517873 -0.048694 -0.611551 -0.789705
-0.099377 0.383563 -0.308704 -0.064136 0.658495 0.749847
0.108579 0.567047 -0.452047 -0.064136 0.658495 0.749847
0.082369 0.176790 -0.124928 0.084493 0.630832 0.771306
-0.933263 -0.066372 0.078703 -0.001330 -0.588673 0.803710
1.015101 0.092993 0.089710 -0.000000 -0.633096 0.774074
-0.084709 0.221446 0.192674 -0.048694 -0.611551 0.789705
-0.274524 0.100957 -0.020179 -0.000195 0.965409 -0.247588
0.194461 0.409911 -0.327871 0.084493 0.630832 0.771306
1.277459 0.133266 0.122648 0.000000 -0.633096 0.774074
1.274305 0.111696 0.077700 -0.000000 0.633096 -0.774074
0.146066 -0.105769 0.096127 0.064175 0.631791 0.772478
0.518789 -0.033918 0.097206 -0.000093 -0.274917 0.958225
0.211422 -0.427800 -0.354079 0.064175 0.631791 -0.772478
-0.887885 -0.090229 -0.049580 -0.000064 -0.899035 -0.430714
-0.004768 0.263367 -0.195059 -0.064136 0.658495 0.749847
-0.121717 -0.080567 -0.064112 0.000000 0.774074 0.633096
-0.099688 0.097267 0.033742 0.002115 0.970832 0.223972
0.212223 -0.491395 -0.406025 0.064175 0.631791 -0.772478
0.161094 -0.692176 0.557441 -0.064136 -0.658495 -0.749847
0.259397 0.097245 -0.033806 -0.000001 0.958378 -0.274419
-0.008935 0.537170 0.441845 -0.048694 -0.611551 0.789705
0.668452 0.101527 0.017080 -0.000605 0.995420 0.055451
0.137272 0.274196 0.210608 0.084493 0.630832 -0.771306
0.120604 -0.508592 -0.427701 -0.011063 0.618996 -0.784840
0.014738 0.305882 0.230726 -0.064136 0.658495 -0.749847
-0.438994 0.097201 0.033933 0.000012 0.957335 0.277501
0.128010 -0.321106 -0.273746 0.064175 0.631791 -0.772478
0.131473 -0.399933 -0.312810 0.084493 -0.630832 0.771306
-0.293194 0.108753 0.092548 -0.048694 -0.611551 0.789705
-0.052903 -0.186386 0.131573 -0.064136 -0.658495 -0.749847
0.261875 0.324603 0.265485 0.084493 0.630832 -0.771306
0.154403 0.521794 0.435691 0.064175 -0.631791 0.772478
1.134644 -0.217656 -0.181428 -0.104383 0.504982 -0.856795
1.356505 -0.263393 0.201770 0.000000 -0.633096 -0.774074
1.455851 -0.190584 0.159287 0.179311 0.590296 0.787019
1.455851 0.190584 0.159287 0.179311 -0.590296 0.787019
0.217823 0.549117 -0.452769 0.064175 -0.631791 -0.772478
-0.213126 -0.238384 -0.197872 -0.048694 0.611551 -0.789705
0.168930 -0.250409 0.212525 0.064175 0.631791 0.772478
0.068096 0.704097 0.575863 -0.048694 -0.611551 0.789705
-0.088971 -0.129511 0.084712 -0.064136 -0.658495 -0.749847
-1.475960 0.098986 -0.000000 -0.205729 0.971865 -0.063180
-0.031689 0.145287 0.093666 -0.064136 0.658495 -0.749847
0.139687 -0.033933 0.097201 -0.000015 -0.275208 0.958141
0.887976 -0.090162 0.049701 -0.000736 -0.843047 0.531368
0.628702 0.090215 -0.049605 -0.000842 0.844869 -0.528886
0.103509 0.409312 -0.317418 0.084493 0.630832 0.771306
0.220101 0.296444 0.237878 0.084493 0.630832 -0.771306
0.129719 0.471175 -0.396341 0.064175 -0.631791 -0.772478
-0.160908 0.310791 0.257165 -0.048694 -0.611551 0.789705
-0.010489 -0.426714 -0.356211 -0.048694 0.611551 -0.789705
1.149375 0.098190 0.093961 -0.000000 -0.633096 0.774074
-0.967707 -0.065129 -0.079735 -0.001754 -0.697498 -0.711319
1.166047 -0.151348 0.110130 -0.000000 -0.633096 -0.774074
0.391490 -0.050897 0.089493 -0.000916 -0.437391 0.895532
-0.024373 -0.161046 0.106880 -0.064136 -0.658495 -0.749847
0.124057 -0.720349 -0.585349 -0.064136 -0.658495 0.749847
0.068686 -0.304706 0.228048 0.084493 -0.630832 -0.771306
-0.049424 -0.296157 -0.227674 -0.064136 -0.658495 0.749847
1.445586 -0.275381 0.225227 0.179311 -0.654274 -0.734692
1.332682 0.272227 -0.208994 -0.000000 0.633096 0.774074
-0.002438 0.098909 -0.102853 -0.011063 -0.618996 -0.784840
0.100661 0.504084 -0.397432 -0.064136 0.658495 0.749847
1.124367 0.070716 0.071491 0.000000 -0.774074 -0.633096
-0.043228 -0.084927 -0.089511 -0.048694 0.611551 -0.789705
0.125632 -0.107187 -0.098985 0.064175 0.631791 -0.772478
-1.567712 0.000000 0.063476 -0.530853 0.162406 0.824324
-0.002687 0.314109 -0.269490 -0.048694 -0.611551 -0.789705
1.249609 0.089354 -0.051140 0.001089 0.889970 -0.447313
-0.299660 -0.092616 -0.079653 -0.048694 0.611551 -0.789705
1.478087 0.049093 0.076175 0.287445 0.449595 0.841571
0.227683 0.256842 0.206319 0.084493 0.630832 -0.771306
0.120604 -0.521928 0.411396 -0.014573 -0.650532 -0.758484
-0.003873 -0.527038 0.426531 -0.064136 -0.658495 -0.749847
1.382215 0.300328 -0.231978 0.096620 0.667564 0.734344
0.138904 -0.730393 0.600594 -0.048694 0.611551 0.789705
0.094330 -0.156083 0.109303 0.084493 -0.630832 -0.771306
0.120875 -0.651227 0.538175 -0.048694 0.611551 0.789705
1.191901 -0.218307 -0.188788 -0.104383 0.504982 -0.856795
0.184932 0.204306 -0.158668 0.084493 0.630832 0.771306
1.417539 0.228660 0.176775 0.179311 0.654274 -0.734692
0.219744 0.191834 0.160396 0.064175 -0.631791 0.772478
1.013392 0.133164 -0.098671 -0.104383 0.739588 0.664917
-1.548496 -0.066428 0.033585 -0.439316 -0.734557 0.504901
-1.499547 -0.034507 -0.087014 -0.258944 -0.246202 -0.929681
1.296018 0.198532 0.148721 0.000000 0.633096 -0.774074
0.106137 0.120871 -0.081797 0.084493 0.630832 0.771306
-0.192334 0.106848 -0.097293 -0.048694 -0.611551 -0.789705
0.249732 0.653605 0.535576 0.064175 -0.631791 0.772478
1.262206 0.179426 -0.133095 -0.000000 0.633096 0.774074
1.080723 -0.123791 -0.114899 -0.000000 0.633096 -0.774074
0.192189 -0.617871 0.511130 0.064175 0.631791 0.772478
0.169214 -0.483549 -0.385332 0.084493 -0.630832 0.771306
1.102753 0.144961 0.104906 -0.000000 0.633096 -0.774074
0.147947 -0.599633 0.499890 -0.011063 0.618996 0.784840
0.117599 -0.438720 -0.370804 0.064175 0.631791 -0.772478
0.467072 -0.088195 0.053113 -0.000427 -0.914434 0.393476
-0.060943 0.150574 -0.139255 -0.048694 -0.611551 -0.789705
0.470195 -0.051912 -0.088907 -0.001175 -0.433053 -0.897536
0.825226 0.050767 0.089566 -0.001205 0.447129 0.890047
-0.023800 0.084392 0.090294 -0.048694 -0.611551 0.789705
-0.160991 -0.149247 0.132059 -0.048694 0.611551 0.789705
1.218894 0.083938 0.082304 -0.000000 -0.633096 0.774074
0.383996 -0.088577 0.052473 0.001006 -0.883760 0.460402
0.012641 -0.216871 -0.195133 -0.048694 0.611551 -0.789705
0.220291 -0.700936 0.568723 0.084493 -0.630832 -0.771306
1.274305 0.111696 -0.077700 -0.000000 0.633096 0.774074
1.168401 -0.098002 0.093807 0.000000 0.633096 0.774074
-0.012810 -0.489875 -0.404980 -0.048694 0.611551 -0.789705
1.326801 -0.222715 -0.168500 0.000000 -0.633096 0.774074
-0.184367 -0.197621 0.168078 -0.048694 0.611551 0.789705
1.290196 -0.124196 -0.087923 0.000000 -0.633096 0.774074
-1.451249 0.076969 0.067221 -0.111452 0.694988 0.704678
0.141601 0.267538 -0.228805 0.064175 -0.631791 -0.772478
-0.027117 0.502001 -0.406532 -0.064136 0.658495 0.749847
-0.155987 0.177908 -0.132945 -0.064136 0.658495 0.749847
0.101957 0.683050 -0.561653 -0.048694 -0.611551 -0.789705
1.508798 -0.078690 -0.021148 0.300358 -0.937994 -0.137739
-0.478842 0.036698 0.096191 -0.000281 0.292236 0.952251
-0.327326 0.090691 -0.048730 -0.002835 0.820098 -0.566430
1.030000 -0.131982 0.118185 -0.104383 0.504982 0.856795
0.119908 0.287356 0.246816 0.064175 -0.631791 0.772478
0.161618 0.645154 0.535984 -0.011063 -0.618996 0.784840
0.074855 0.219063 -0.194703 0.064175 -0.631791 -0.772478
0.071697 -0.091682 0.090784 0.064175 0.631791 0.772478
0.215544 -0.510916 0.421715 0.064175 0.631791 0.772478
-0.170906 -0.117798 0.081434 -0.064136 -0.658495 -0.749847
-0.000021 -0.080824 -0.063772 -0.000909 -0.847572 -0.524152
0.588643 0.066754 -0.078379 -0.000665 0.693559 -0.715073
0.628274 0.094798 0.040159 0.000949 0.874267 0.479928
-0.240116 0.208044 0.172712 -0.048694 -0.611551 0.789705
-0.041597 -0.080961 0.063630 -0.000000 0.774074 -0.633096
0.311242 -0.089384 0.051088 -0.001867 -0.917672 0.388692
1.104228 -0.070716 -0.071491 0.000000 0.774074 0.633096
0.983392 -0.084098 -0.055129 -0.017472 -0.651827 0.756911
-0.119660 -0.097855 0.031996 -0.003231 -0.925026 0.372430
-1.257087 -0.097242 0.033813 -0.000888 -0.957400 0.277214
1.275235 -0.179275 -0.160278 0.000000 0.633096 -0.774074
-0.096014 0.251400 -0.215173 -0.048694 -0.611551 -0.789705
1.408384 -0.259410 -0.201925 0.179311 -0.654274 0.734692
-0.084744 0.316739 -0.266467 -0.048694 -0.611551 -0.789705
-0.084744 -0.316739 -0.266467 -0.048694 0.611551 -0.789705
1.076807 -0.142001 0.129792 -0.069738 0.549316 0.831557
-0.164387 -0.271001 0.215415 -0.064136 -0.658495 -0.749847
1.508798 0.021253 0.055727 1.000000 -0.000000 0.000000
0.222814 -0.078103 -0.067124 0.064175 0.631791 -0.772478
0.167477 0.320282 0.251610 0.084493 0.630832 -0.771306
1.322592 0.165630 0.121811 -0.000000 0.633096 -0.774074
0.094243 -0.334902 0.255545 0.084493 -0.630832 -0.771306
-0.032993 -0.192541 -0.173478 -0.048694 0.611551 -0.789705
0.164222 0.075718 0.070040 -0.000000 -0.774074 -0.633096
0.001111 0.609079 -0.498150 -0.048694 -0.611551 -0.789705
1.394683 -0.052404 0.088619 0.000449 -0.610511 0.787057
0.223627 -0.360083 0.290313 0.084493 -0.630832 -0.771306
0.004986 -0.408823 0.321960 -0.064136 -0.658495 -0.749847
0.011234 0.144429 -0.138947 -0.011063 -0.618996 -0.784840
0.225418 -0.801072 -0.651183 0.000000 -0.774074 -0.633096
0.067023 -0.273264 -0.202151 0.084493 -0.630832 0.771306
0.108452 -0.213467 0.157783 0.084493 -0.630832 -0.771306
-0.296089 0.110030 -0.093359 -0.048694 -0.611551 -0.789705
0.718441 0.078868 0.066176 0.003345 0.837435 0.538513
1.328449 -0.151307 -0.110097 -0.000000 -0.633096 0.774074
-0.867451 -0.095042 0.039577 -0.000122 -0.898767 0.430738
-0.034563 0.284231 0.215929 -0.064136 0.658495 -0.749847
0.053648 0.407307 0.316467 -0.064136 0.658495 -0.749847
0.219481 -0.066369 0.078706 -0.000504 -0.582752 0.808186
-0.064284 -0.394518 -0.315322 -0.064136 -0.658495 0.749847
1.126942 -0.168733 -0.151656 -0.069738 0.549316 -0.831557
0.319243 0.063894 0.080728 -0.000157 0.530270 0.844074
0.058413 0.192042 0.134778 0.084493 0.630832 -0.771306
-0.987379 -0.072245 0.073349 -0.000371 -0.763223 0.642594
-0.029419 0.188723 0.131616 -0.064136 0.658495 -0.749847
0.201493 0.709997 -0.585705 0.064175 -0.631791 -0.772478
0.125512 -0.785541 0.642474 -0.064136 -0.658495 -0.749847
0.998390 -0.084082 0.082422 -0.000000 0.633096 0.774074
1.047331 -0.105109 -0.099620 -0.000000 0.633096 -0.774074
-0.054805 0.349318 -0.293542 -0.048694 -0.611551 -0.789705
0.039648 -0.033822 -0.097239 0.001671 -0.278446 -0.957038
1.417930 -0.096723 -0.035271 -0.000471 -0.919225 -0.386274
-0.229388 -0.054409 0.087402 -0.000086 -0.400164 0.911090
-0.029336 0.303103 -0.232055 -0.064136 0.658495 0.749847
