-0.443955 -0.206568 0.176387 -0.069839 -0.687756 -0.722574
-0.342076 -0.214164 -0.197405 -0.047950 0.638417 -0.768196
-0.024152 0.090752 -0.017792 -0.000678 0.962676 -0.255155
1.652900 -0.102365 -0.075433 0.000000 -0.659968 0.751293
1.738597 -0.181837 0.174222 0.271227 0.611971 0.736437
1.128853 0.083892 0.088183 -0.024582 -0.606892 0.788346
-0.181647 -0.420496 -0.375516 0.069895 0.658354 -0.749456
1.635730 -0.167149 0.161319 -0.000000 0.659968 0.751293
-0.239515 -0.243746 0.225648 0.069895 0.658354 0.749456
-0.353504 -0.255473 -0.231022 -0.047950 0.638417 -0.768196
-1.734739 -0.029753 -0.084415 -0.162724 -0.433483 -0.881384
1.719113 -0.230570 0.188054 -0.000000 -0.659968 -0.751293
1.693462 0.057523 0.072412 0.073067 0.521619 0.844055
1.734814 0.225569 -0.183661 0.271227 0.651421 0.701782
-1.600275 0.090458 -0.019233 -0.000100 0.960664 -0.262648
-0.128682 0.365882 0.319664 0.101697 0.656547 -0.747398
-0.154536 0.329877 -0.284517 0.101697 0.656547 0.747398
1.647717 -0.232795 0.218985 0.000000 0.659968 0.751293
1.634674 -0.243353 -0.228260 -0.097269 0.440460 -0.887099
1.513093 -0.000000 0.092480 -0.000827 0.037999 0.997820
-1.259215 -0.090487 0.019096 0.001062 -0.939650 0.327453
1.778714 0.069686 -0.061215 0.359438 0.640081 0.675933
1.586471 -0.090141 -0.064695 0.000000 -0.659968 0.751293
-0.158371 -0.090105 0.020824 0.002540 -0.949538 0.298349
-0.129588 -0.063121 0.067588 0.000094 -0.630643 0.771246
-0.298955 -0.213084 -0.168575 -0.069839 -0.687756 0.722574
-0.273535 -0.477011 0.417327 -0.069839 -0.687756 -0.722574
-0.273535 0.477011 -0.417327 -0.069839 0.687756 0.722574
-0.338780 0.356908 0.316240 -0.047950 -0.638417 0.768196
-0.296936 -0.306323 0.257125 -0.069839 -0.687756 -0.722574
1.621193 -0.090993 0.016516 -0.002097 -0.964296 0.249194
-0.206535 0.487034 0.432636 -0.047950 -0.638417 0.768196
1.727247 0.269930 0.251607 0.138654 -0.590258 0.778873
1.727247 0.269930 -0.251607 0.138654 -0.590258 -0.778873
-0.181717 0.135960 0.125574 0.069895 -0.658354 0.749456
-0.219320 0.426527 0.381554 -0.047950 -0.638417 0.768196
0.199449 0.087526 -0.029861 0.000023 0.959091 -0.271617
1.461152 0.082953 0.040881 -0.000097 0.856296 0.509053
1.203417 0.038460 -0.084103 -0.000970 0.527705 -0.844348
1.525202 0.211240 -0.171074 0.000000 0.659968 0.751293
-1.257807 0.083123 0.040534 0.000038 0.843398 0.529748
-0.278595 0.398605 0.343188 -0.069839 0.687756 -0.722574
-0.409792 -0.036566 0.084944 0.000611 -0.501750 0.860506
-0.167054 -0.065910 -0.064872 -0.000418 -0.731491 -0.676103
1.751630 0.078006 0.016355 0.221779 0.968209 0.066461
1.320899 -0.110662 0.082722 -0.000000 -0.659968 -0.751293
1.223768 0.125020 0.095335 0.000000 0.659968 -0.751293
-0.302546 -0.430193 -0.379406 -0.047950 0.638417 -0.768196
-0.281417 0.163967 -0.159475 0.030627 -0.652501 -0.756631
1.620340 0.112293 0.113132 0.000000 -0.659968 0.751293
1.500370 -0.039995 -0.083384 -0.000082 -0.431335 -0.897922
-0.201882 0.268892 0.224503 0.101697 0.656547 -0.747398
-0.138958 0.555787 0.485086 0.101697 0.656547 -0.747398
-0.490580 0.131945 0.109866 -0.069839 0.687756 -0.722574
1.717047 0.201756 0.191720 0.000000 -0.659968 0.751293
-0.316883 0.311497 -0.263978 -0.069839 0.687756 0.722574
-1.092233 -0.092480 0.000000 -0.003184 -0.996431 -0.031019
1.410896 0.177468 0.141407 0.000000 0.659968 -0.751293
1.577406 -0.165812 -0.160145 0.000000 0.659968 -0.751293
-0.271261 0.035153 -0.085538 -0.000231 0.435567 -0.895904
-0.931905 -0.000000 0.092480 0.006331 0.155541 0.981537
-0.477257 0.075178 -0.054547 -0.000000 -0.751293 0.659968
1.511084 -0.128446 -0.098344 0.000000 -0.659968 0.751293
-0.156995 0.161365 -0.136154 0.101697 0.656547 0.747398
-1.601204 0.036189 0.085105 -0.000790 0.389666 0.916979
-0.263399 -0.239943 -0.190702 0.044559 -0.668697 0.741034
-0.301975 -0.159606 0.154567 -0.047950 0.638417 0.768196
-0.200334 -0.430370 0.385933 0.030627 0.652501 0.756631
-0.200334 0.430370 -0.385933 0.030627 -0.652501 -0.756631
-0.316963 0.422663 -0.372247 -0.047950 -0.638417 -0.768196
-0.316963 -0.422663 0.372248 -0.047950 0.638417 0.768196
1.311219 -0.082120 -0.086626 -0.000000 0.659968 -0.751293
-1.693462 0.072222 0.057763 -0.005694 0.706049 0.702583
1.693462 0.083283 0.040204 0.071777 0.831741 0.540710
-0.182315 0.489571 -0.436257 0.030627 -0.652501 -0.756631
-0.182315 -0.489571 -0.436257 0.030627 0.652501 -0.756631
1.548177 0.100327 0.102620 -0.000000 -0.659968 0.751293
1.708471 -0.031954 0.083261 0.216787 -0.306278 0.922854
-0.477257 0.065574 0.065480 -0.047950 -0.638417 0.768196
1.298792 0.131730 0.130206 -0.000000 -0.659968 0.751293
-0.355663 -0.188577 0.175292 -0.047950 0.638417 0.768196
1.590023 -0.051118 0.077067 0.000442 -0.587319 0.804707
1.619825 -0.085886 0.089934 0.000000 0.659968 0.751293
-1.112274 -0.000000 0.092480 0.005921 0.109016 0.990627
1.359702 0.159892 -0.125967 0.000000 0.659968 0.751293
-0.404914 -0.078272 -0.080548 -0.047950 0.638417 -0.768196
-0.399520 0.075861 0.052893 0.000608 0.850667 0.518068
0.284164 0.022980 0.089579 -0.005262 0.289776 0.952236
0.284164 -0.022980 0.089579 -0.005262 -0.289776 0.952236
0.350717 -0.092480 -0.000000 0.003940 -0.981172 -0.160137
-0.772500 0.011810 -0.091722 0.000977 0.241038 -0.967185
1.696633 -0.068277 0.045489 -0.094588 0.747925 -0.657009
0.370758 -0.000000 0.092480 0.000934 0.061972 0.994187
1.670687 -0.163028 -0.128722 0.000000 -0.659968 0.751293
1.407963 0.093741 -0.067858 0.000000 0.659968 0.751293
-0.139017 0.505336 -0.446068 0.069895 -0.658354 -0.749456
-0.139017 -0.505336 -0.446068 0.069895 0.658354 -0.749456
-1.373681 -0.008902 -0.092050 0.003362 -0.212337 -0.974452
-0.461916 -0.107524 -0.101301 -0.047950 0.638417 -0.768196
1.232520 0.092480 -0.000000 0.000705 0.996798 0.028853
-0.257725 -0.485802 -0.424167 -0.069839 -0.687756 0.722574
-0.334851 -0.148295 0.110377 -0.069839 -0.687756 -0.722574
-1.394683 -0.039278 0.083724 0.000830 -0.426008 0.900482
1.281693 0.082313 0.057819 0.000000 -0.751293 -0.659968
-0.152005 -0.115629 0.096657 0.101697 -0.656547 -0.747398
-0.268311 0.293376 0.242036 -0.069839 0.687756 -0.722574
1.220791 -0.111067 -0.112054 -0.000000 0.659968 -0.751293
-0.156038 -0.310533 -0.276532 0.069895 0.658354 -0.749456
1.597415 -0.176723 0.169730 0.000000 0.659968 0.751293
0.560067 0.089933 0.021552 0.002617 0.947791 0.304178
1.431480 -0.165838 0.160167 0.000000 0.659968 0.751293
-0.244361 0.363138 0.306122 -0.069839 0.687756 -0.722574
0.735241 0.019016 -0.090504 0.001520 0.327156 -0.940411
-0.317362 0.243327 0.199140 -0.069839 0.687756 -0.722574
1.485236 -0.147764 -0.144291 -0.000000 0.659968 -0.751293
1.371285 0.083593 -0.087920 0.000000 -0.659968 -0.751293
0.679891 -0.090281 0.020044 -0.000621 -0.954722 0.281314
-0.333488 0.061017 0.070667 -0.034861 -0.640982 0.766528
-0.270553 0.092480 -0.000000 0.000258 0.992253 0.070746
-0.789128 0.039195 0.083763 -0.000143 0.474065 0.875804
-0.416929 0.249671 -0.222242 -0.047950 -0.638417 -0.768196
-0.365715 0.112090 -0.111100 -0.047950 -0.638417 -0.768196
-0.150307 -0.000000 0.092480 -0.000035 0.126772 0.987836
-0.361907 -0.383765 -0.337116 -0.069839 -0.687756 0.722574
-0.511020 -0.187337 0.164565 -0.069839 -0.687756 -0.722574
-0.550783 -0.134956 0.118551 -0.069839 -0.687756 -0.722574
-0.550783 0.134956 -0.118551 -0.047950 -0.638417 -0.768196
-0.481197 0.226622 -0.199075 -0.047950 -0.638417 -0.768196
-0.371848 -0.370670 0.325613 -0.069839 -0.687756 -0.722574
-0.441434 0.279003 -0.245089 -0.047950 -0.638417 -0.768196
-0.590546 0.082575 -0.072537 -0.047950 -0.638417 -0.768196
-0.401671 0.331384 -0.291102 -0.047950 -0.638417 -0.768196
1.272342 0.080849 -0.085509 0.000000 -0.659968 -0.751293
1.693462 -0.090151 -0.020621 0.077442 -0.988786 -0.070639
0.791618 -0.000000 0.092480 0.000661 0.145255 0.983981
-0.751536 0.092480 -0.000000 -0.000090 0.986298 0.135895
0.130266 0.092480 -0.000000 0.000916 0.993881 0.069849
0.270553 0.092480 -0.000000 0.003132 0.992570 0.078474
0.791618 0.092480 -0.000000 -0.001595 0.985654 0.142601
-0.751536 -0.000000 0.092480 0.000235 0.145306 0.983972
-0.831700 -0.000000 0.092480 -0.000144 0.148735 0.983196
-0.831700 0.092480 -0.000000 -0.000913 0.987248 0.131104
-0.010020 -0.000000 0.092480 -0.000519 0.058841 0.994764
0.789519 -0.066026 -0.064754 0.000046 -0.666698 -0.740134
-0.450236 0.100620 0.076152 -0.069839 0.687756 -0.722574
-0.273071 -0.122974 -0.122686 0.069895 0.658354 -0.749456
0.030590 0.039065 0.083824 0.000223 0.397583 0.914616
1.562312 -0.236073 0.214621 -0.093747 0.448656 0.882466
-0.115871 0.490068 0.430497 0.101697 0.656547 -0.747398
-0.115871 -0.445005 0.390912 0.069895 0.658354 0.749456
-0.115871 0.369900 -0.324936 0.069895 -0.658354 -0.749456
-0.115871 0.445005 -0.390912 0.069895 -0.658354 -0.749456
-0.115871 0.249732 0.219375 0.101697 0.656547 -0.747398
-0.115871 0.129563 -0.113814 0.069895 -0.658354 -0.749456
-0.115871 -0.505089 0.443692 0.069895 0.658354 0.749456
-0.115871 0.309816 -0.272156 0.069895 -0.658354 -0.749456
-0.115871 -0.339858 -0.298546 0.101697 -0.656547 0.747398
-0.115871 0.429984 0.377716 0.101697 0.656547 -0.747398
0.679676 -0.052153 -0.076371 0.000145 -0.612594 -0.785522
-1.732550 0.089831 -0.000000 -0.110431 0.987680 -0.054538
-0.219783 0.050117 0.077723 -0.000098 0.589851 0.802725
-1.181414 0.019090 -0.090488 -0.000045 0.262723 -0.960652
-0.608852 0.085017 0.036395 -0.000017 0.938628 0.332518
-1.331302 0.064998 -0.065785 -0.000074 0.654075 -0.751294
0.320136 -0.049636 -0.078030 -0.000206 -0.427348 -0.899787
-1.491007 0.066018 -0.064762 -0.000195 0.752937 -0.652205
-1.618374 -0.023103 0.089547 -0.000271 -0.365518 0.925089
-0.360069 -0.256506 0.215811 -0.069839 -0.687756 -0.722574
-1.231065 0.084212 -0.038221 0.000056 0.933927 -0.344153
0.200518 -0.016983 -0.090907 0.001230 -0.122824 -0.988863
1.476537 0.069541 -0.060963 0.000074 0.791051 -0.605437
0.530765 -0.033924 0.086033 0.000147 -0.305138 0.948262
-0.769095 -0.038503 0.084083 -0.000104 -0.347863 0.932488
-0.868916 -0.039241 0.083741 0.000115 -0.354911 0.929691
-0.699134 0.053497 0.075436 -0.000040 0.625582 0.775222
-1.410749 0.084697 -0.037134 -0.000046 0.886533 -0.454293
-0.235526 -0.193160 -0.153399 0.101697 -0.656547 0.747398
-1.281364 0.020214 -0.090243 0.000076 0.271178 -0.958137
-1.279046 -0.091172 -0.015495 0.002035 -0.967413 -0.237799
0.216672 -0.071459 0.058703 -0.000040 -0.690468 0.718112
0.079609 -0.075733 0.053075 -0.000758 -0.830771 0.549233
1.380548 -0.078515 -0.048866 -0.000057 -0.844968 -0.527249
-0.220954 0.120702 -0.115830 0.069895 -0.658354 -0.749456
0.989218 -0.039351 -0.083690 0.000026 -0.475868 -0.874859
0.889397 -0.038613 -0.084033 0.000028 -0.468639 -0.878790
0.589626 -0.083736 0.039253 -0.000013 -0.929911 0.354258
-0.299693 0.018984 0.090510 0.000095 0.262059 0.960811
1.505674 -0.140388 0.137812 -0.000000 0.659968 0.751293
-1.343387 -0.064572 0.066204 0.000043 -0.616070 0.782819
-0.152060 -0.335476 0.298071 0.069895 0.658354 0.749456
-0.217104 -0.149841 0.141068 0.069895 0.658354 0.749456
0.450922 -0.092480 -0.000000 -0.000757 -0.983871 -0.143512
0.019837 -0.037112 -0.084707 -0.000529 -0.426957 -0.900040
-0.712442 0.060274 -0.070139 -0.000197 0.671356 -0.736009
-0.033237 -0.086745 -0.032059 -0.003196 -0.944995 -0.313818
-1.483594 -0.078876 -0.048282 0.000396 -0.872207 -0.480983
-1.397603 -0.058084 -0.071963 -0.000262 -0.662322 -0.744080
-1.630760 0.066699 -0.064060 -0.000073 0.673522 -0.733911
-0.368862 0.307637 -0.265328 -0.069839 0.687756 0.722574
1.146158 -0.101803 -0.074940 0.000000 -0.659968 0.751293
-0.115871 0.189648 0.166595 0.101697 0.656547 -0.747398
-0.189183 -0.114355 -0.090479 0.101697 -0.656547 0.747398
0.797830 -0.053080 0.075730 0.000678 -0.515091 0.852527
1.380924 -0.067946 0.074175 0.000000 0.751293 -0.659968
1.460308 -0.067946 0.074175 0.000000 0.751293 -0.659968
-0.579427 -0.021497 0.089946 -0.000476 -0.283014 0.954609
0.640095 0.090049 0.021065 0.000013 0.931083 0.351613
-0.153667 -0.206091 0.184564 0.069895 0.658354 0.749456
-1.617934 -0.083622 0.039494 -0.000346 -0.851076 0.517523
-1.413921 -0.091134 0.015716 -0.001124 -0.959155 0.268734
-1.291033 0.084512 -0.037554 0.000044 0.882505 -0.462045
-0.137101 -0.118462 -0.106042 0.069895 0.658354 -0.749456
0.609403 -0.084434 -0.037727 0.000100 -0.852705 -0.515043
1.372806 -0.092480 -0.000000 -0.001327 -0.989579 -0.112129
1.033091 -0.058929 0.071273 -0.000355 -0.675982 0.731755
0.321682 0.074905 0.054238 0.000518 0.752485 0.652602
-0.709117 -0.066589 0.064174 0.000003 -0.796822 0.597848
0.585104 0.060331 -0.070090 0.000282 0.683101 -0.725105
0.699538 -0.076409 -0.052097 0.000001 -0.747821 -0.658112
0.432657 -0.061202 0.069331 -0.000038 -0.616206 0.782820
-0.382206 0.089641 -0.022738 0.000142 0.948295 -0.301206
-0.326575 -0.086932 -0.092635 -0.047950 0.638417 -0.768196
1.471689 0.223551 -0.196377 -0.144312 0.887356 0.437920
1.157807 0.133438 -0.117218 -0.144312 0.887356 0.437920
1.656326 -0.276559 0.242941 -0.144312 0.319903 0.936395
1.416298 -0.207649 0.182408 -0.144312 0.319903 0.936395
1.379371 0.197047 -0.173095 -0.144312 0.887356 0.437920
1.010097 -0.091032 -0.079966 -0.144312 0.319903 -0.936395
1.157807 0.133438 0.117218 -0.144312 0.887356 -0.437920
1.360907 -0.191747 -0.168438 -0.144312 0.319903 -0.936395
1.028561 0.096332 -0.084623 -0.144312 0.887356 0.437920
1.453226 0.218251 0.191721 -0.144312 0.887356 -0.437920
1.637862 0.271258 -0.238285 -0.144312 0.887356 0.437920
0.560657 0.049596 0.078056 0.000173 0.583736 0.807176
-0.223651 -0.499743 -0.442130 -0.047950 0.638417 -0.768196
-1.372424 -0.078394 -0.049059 0.000173 -0.869121 -0.486783
0.580092 0.074922 0.054214 0.000074 0.841091 0.533212
0.500821 0.048840 0.078531 0.000060 0.418314 0.904107
-0.619246 -0.021780 0.089878 0.000119 -0.285395 0.953829
-0.928703 -0.067702 0.063000 -0.000028 -0.769699 0.632393
-0.369978 -0.083029 -0.040728 0.000875 -0.834314 -0.543989
1.571636 0.083234 0.040306 0.001032 0.860035 0.502378
0.430005 -0.064098 -0.066663 0.000027 -0.644942 -0.759195
0.589880 -0.064888 -0.065894 0.000045 -0.653714 -0.751626
-0.449593 -0.064888 0.065894 -0.000045 -0.653714 0.751626
1.694293 -0.179796 0.143452 -0.000000 -0.659968 -0.751293
-1.481780 -0.075733 0.053076 -0.000120 -0.750033 0.655595
-0.015088 0.041247 -0.082772 0.000228 0.547855 -0.831989
-0.063563 0.090541 -0.018836 -0.000824 0.958698 -0.268737
1.611274 0.085839 0.034412 -0.000833 0.893562 0.439941
0.619963 0.075185 0.053848 -0.000100 0.772854 0.628533
0.130190 -0.064512 0.066263 -0.000677 -0.716092 0.692446
-0.808489 -0.085642 0.034899 -0.000036 -0.944028 0.317448
-1.510567 0.085018 -0.036393 -0.000046 0.890465 -0.446538
-0.479056 0.017264 -0.090854 -0.001331 0.244802 -0.965576
1.637181 0.085535 -0.035160 0.000100 0.867928 -0.488970
0.913840 -0.079417 0.047386 -0.000193 -0.785467 0.612743
-1.612076 -0.043321 -0.081706 0.001006 -0.568263 -0.817702
-1.533705 0.080280 0.045908 0.001891 0.868155 0.488013
0.649626 -0.064118 0.066643 -0.000132 -0.597818 0.796900
1.338789 0.088008 0.028410 -0.000035 0.923329 0.374275
-1.516727 -0.084964 0.036518 0.001621 -0.923880 0.367385
-1.693462 -0.072412 0.057523 -0.006397 -0.710827 0.696902
1.575136 0.085087 -0.089232 0.000000 -0.659968 -0.751293
-0.231866 -0.326769 0.297866 0.030627 0.652501 0.756631
1.292792 -0.044249 -0.081207 0.000774 -0.484072 -0.870578
0.115884 0.053937 0.075121 0.000000 0.505162 0.858644
0.808784 0.039299 0.083714 0.000761 0.348947 0.932175
-0.342647 -0.138898 -0.102187 -0.069839 -0.687756 0.722574
1.152356 0.092480 -0.000000 -0.000677 0.995894 0.048312
1.765033 -0.076270 0.074243 0.402404 0.574364 0.712866
-1.150639 0.026125 0.088713 0.000645 0.380829 0.920061
0.951946 0.000000 -0.092480 0.000951 -0.150245 -0.983359
-0.756297 -0.090932 -0.016850 0.000350 -0.951017 -0.297019
1.740489 0.167155 0.161325 0.137092 -0.640506 0.749246
1.052085 -0.080819 0.044953 -0.000049 -0.895662 0.436557
0.791618 -0.092480 -0.000000 -0.000232 -0.985403 -0.139443
-0.282381 0.488528 0.429144 -0.069839 0.687756 -0.722574
-1.550543 -0.075126 0.053931 -0.000160 -0.742255 0.664405
0.910529 0.081982 -0.042794 -0.002072 0.901661 -0.424193
-0.340785 -0.017229 -0.090861 0.000089 -0.123125 -0.988531
1.623180 0.211362 0.200158 -0.000000 -0.659968 0.751293
-0.308445 -0.075166 0.083989 0.024068 0.651348 0.757622
1.676890 -0.236447 0.193217 0.000000 -0.659968 -0.751293
-1.056359 -0.067625 -0.063082 0.001357 -0.676274 -0.731635
-1.732550 -0.089831 0.000000 -0.104399 -0.987285 -0.059290
-0.313226 -0.380846 0.337728 -0.047950 0.638417 0.768196
1.773076 -0.113444 -0.099654 0.402404 -0.632894 0.661450
-1.052568 -0.055603 0.073897 -0.002061 -0.561359 0.821565
-0.360574 0.202675 0.186702 -0.047950 -0.638417 0.768196
1.412895 -0.105911 0.078549 -0.000000 -0.659968 -0.751293
1.780594 -0.070826 -0.019035 1.000000 0.000000 0.000000
-0.200862 0.019855 -0.090323 0.000294 0.265329 -0.959931
-0.691413 0.000000 -0.092480 -0.001555 -0.030108 -0.997090
1.326100 -0.084228 -0.038185 0.000346 -0.902343 -0.421980
0.030590 -0.039065 0.083824 0.000223 -0.397583 0.914616
0.662215 0.025482 -0.088900 -0.001239 0.318726 -0.943735
-0.419932 -0.168105 0.154268 -0.047950 0.638417 0.768196
-0.285040 -0.353627 -0.316868 -0.047950 0.638417 -0.768196
0.739584 -0.021788 -0.089876 0.000151 -0.285343 -0.953847
0.719927 0.051603 0.076744 0.000046 0.504692 0.858855
-0.293458 0.290207 -0.241450 -0.069839 0.687756 0.722574
-0.154681 0.467352 -0.414161 0.069895 -0.658354 -0.749456
1.068064 -0.085845 -0.034397 0.000044 -0.901500 -0.423936
-0.332117 0.131905 -0.129664 -0.047950 -0.638417 -0.768196
-0.328036 0.128412 0.127016 -0.047950 -0.638417 0.768196
-0.219126 0.516011 -0.449189 -0.069839 0.687756 0.722574
-0.155099 0.250065 0.214331 0.101697 0.656547 -0.747398
-0.527043 0.090036 -0.021117 0.002839 0.929174 -0.355729
1.710417 -0.141943 0.139177 0.000000 0.659968 0.751293
1.361078 0.067946 0.074175 0.000000 -0.751293 -0.659968
1.674429 -0.052371 -0.076222 0.000975 -0.576480 -0.812292
-0.268705 0.084392 0.037821 0.000120 0.933713 0.344622
-0.303941 0.089966 0.096570 -0.008655 -0.645855 0.762877
0.911864 -0.092480 -0.000000 -0.000436 -0.986449 -0.136004
-1.132993 -0.075536 -0.053355 -0.000412 -0.768738 -0.633699
-0.348476 0.182227 -0.143991 -0.069839 0.687756 0.722574
-0.177388 -0.164969 -0.150653 0.069895 0.658354 -0.749456
-0.591209 0.092480 -0.000000 0.001133 0.985054 0.139843
-0.471132 0.184623 0.164799 -0.047950 -0.638417 0.768196
-0.282602 -0.047568 -0.079308 -0.001356 -0.460041 -0.883778
-0.269420 -0.064392 0.066379 -0.000078 -0.646133 0.758173
1.557599 -0.085791 0.089851 0.000000 0.659968 0.751293
-0.491138 0.213527 0.187571 -0.069839 0.687756 -0.722574
0.065255 0.082799 0.041192 -0.000108 0.904861 0.417039
-0.115871 -0.294795 0.258960 0.069895 0.658354 0.749456
1.541150 -0.174559 -0.138852 -0.000000 -0.659968 0.751293
1.123742 0.043990 -0.081347 0.000889 0.422811 -0.902655
0.751536 -0.092480 -0.000000 0.000028 -0.992641 -0.069055
-0.155501 0.106895 -0.097597 0.069895 -0.658354 -0.749456
-0.212795 0.580194 0.509668 -0.069839 0.687756 -0.722574
-0.429271 -0.084512 0.037554 0.000044 -0.882505 0.462045
-0.285922 0.149167 0.146894 -0.008655 -0.645855 0.762877
-1.654567 -0.047208 -0.079523 -0.000104 -0.449131 -0.889268
-0.631291 0.092480 -0.000000 0.000786 0.985463 0.142520
1.292643 0.000000 -0.092480 -0.004079 -0.156920 -0.982244
0.992028 -0.092480 -0.000000 0.000215 -0.993457 -0.071568
0.961368 0.038982 0.083862 0.002066 0.405831 0.911392
1.502395 0.169984 -0.134833 0.000000 0.659968 0.751293
-1.652228 -0.073067 0.056690 -0.000497 -0.848117 0.522530
-0.285040 -0.353627 0.316868 -0.047950 0.638417 0.768196
1.062419 -0.015127 0.091234 -0.000240 -0.217954 0.972812
-0.249988 -0.410059 0.365954 -0.047950 0.638417 0.768196
-0.239515 0.243746 0.225648 0.069895 -0.658354 0.749456
-0.234382 -0.272393 0.250334 0.069895 0.658354 0.749456
-0.218207 0.160668 0.127213 0.101697 0.656547 -0.747398
-0.511045 -0.000000 0.092480 -0.000097 0.144161 0.984226
0.244923 -0.036939 0.084782 0.002655 -0.411720 0.905951
-0.061262 0.074647 0.054592 -0.005811 0.773206 0.628138
1.097910 -0.092618 0.066871 0.000000 -0.659968 -0.751293
-1.862466 0.009690 -0.029691 -0.658037 0.141572 -0.732254
0.350717 0.092480 -0.000000 -0.003773 0.988866 0.105293
-0.651332 -0.092480 0.000000 0.001185 -0.985696 -0.136620
0.171879 0.030350 -0.087358 0.000401 0.433403 -0.897552
0.013568 -0.083549 0.039648 0.001157 -0.859008 0.504897
-0.208264 -0.231127 -0.190460 0.101697 -0.656547 0.747398
-0.238369 -0.392306 0.333305 -0.069839 -0.687756 -0.722574
-0.416264 0.090777 0.090232 -0.047950 -0.638417 0.768196
-1.812953 -0.042018 -0.048602 -0.484121 -0.614135 -0.615434
-1.223292 -0.074174 -0.055233 -0.000147 -0.754687 -0.650474
-0.154625 -0.370921 -0.320560 0.101697 -0.656547 0.747398
-0.326575 0.086932 -0.092635 -0.047950 -0.638417 -0.768196
-1.343650 -0.091117 0.015819 -0.000577 -0.965247 0.247342
1.165800 0.067914 -0.062771 0.001323 0.695746 -0.712382
-0.201336 0.274170 -0.248813 0.069895 -0.658354 -0.749456
1.527088 0.153181 0.120072 0.000000 0.659968 -0.751293
-0.177388 -0.164969 0.150653 0.069895 0.658354 0.749456
-0.333448 0.299638 0.254291 -0.069839 0.687756 -0.722574
1.190543 -0.054272 0.074880 0.000507 -0.520991 0.849563
-1.550169 -0.045834 0.080323 -0.000046 -0.584110 0.806937
-0.452602 -0.183954 -0.165400 -0.047950 0.638417 -0.768196
0.876400 0.026651 0.088556 -0.000886 0.397652 0.913902
-0.366922 -0.129170 0.125219 -0.047950 0.638417 0.768196
1.571678 -0.115410 -0.115869 -0.000000 0.659968 -0.751293
-1.036857 -0.022552 -0.089688 0.001419 -0.278471 -0.956634
1.354413 0.145166 0.142009 -0.000000 -0.659968 0.751293
1.196645 0.067625 0.063082 -0.001357 0.676274 0.731635
-0.115871 -0.399942 -0.351326 0.101697 -0.656547 0.747398
-0.651332 0.000000 -0.092480 -0.001401 -0.150644 -0.983936
-0.411611 -0.318289 0.279599 -0.069839 -0.687756 -0.722574
-0.832752 -0.055359 -0.074080 -0.002262 -0.546131 -0.831344
-0.189183 -0.114355 0.090479 0.101697 -0.656547 -0.747398
-1.548514 -0.090234 -0.020256 -0.001140 -0.949153 -0.299824
1.232520 0.000000 -0.092480 -0.001236 -0.117346 -0.987968
1.560388 0.171546 0.165182 -0.000000 -0.659968 0.751293
-1.202392 -0.091728 -0.011766 -0.004403 -0.972675 -0.221050
-0.253826 0.063100 0.068296 0.069895 -0.658354 0.749456
1.486558 -0.215198 0.174551 -0.049165 -0.747137 -0.655576
-0.211609 -0.437959 -0.391536 -0.047950 0.638417 -0.768196
-0.144352 0.084261 0.038112 -0.002881 0.910488 0.407411
0.703101 0.091991 -0.009490 0.004706 0.976480 -0.204205
1.419785 0.136038 -0.133990 -0.000000 -0.659968 -0.751293
1.727247 -0.284298 0.235251 0.010815 -0.759528 -0.625662
-0.260755 -0.293353 0.268292 -0.047950 0.638417 0.768196
1.715838 0.126650 -0.125743 0.000000 -0.659968 -0.751293
-0.115871 -0.445005 -0.390912 0.101697 -0.656547 0.747398
0.413475 0.060469 0.069972 0.001717 0.561679 0.823222
1.397835 0.202348 0.177751 -0.144312 0.887356 -0.437920
1.602382 0.037388 0.084585 0.001120 0.443910 0.891696
0.622596 0.019228 -0.090459 0.002333 0.251648 -0.963786
-0.571168 -0.092480 0.000000 0.000153 -0.984872 -0.140355
1.527204 0.138654 -0.136288 -0.000000 -0.659968 -0.751293
-0.202774 -0.373402 0.316188 0.101697 -0.656547 -0.747398
-1.673687 0.066737 -0.064021 0.000778 0.801577 -0.590644
1.360907 -0.191747 0.168438 -0.144312 0.319903 0.936395
1.557517 0.197096 -0.158649 0.000000 0.659968 0.751293
1.758041 0.230133 0.202158 0.402404 -0.574364 0.712866
-0.290427 -0.154215 -0.111718 0.044559 -0.668697 0.741034
0.191472 -0.084603 -0.037348 0.005583 -0.848119 -0.519941
1.112274 0.092480 -0.000000 -0.000308 0.995522 0.045335
0.154190 0.044530 0.081053 0.000512 0.578054 0.811041
1.319927 0.167359 0.132527 -0.097269 0.822933 -0.551119
1.301413 -0.162044 0.127858 -0.049165 -0.747137 -0.655576
0.051025 -0.011810 -0.091722 -0.000977 -0.241038 -0.967185
-0.198739 -0.267369 -0.223593 0.101697 -0.656547 0.747398
1.231661 -0.154641 -0.135843 -0.144312 0.319903 -0.936395
-0.559411 -0.071379 -0.058871 -0.069839 -0.687756 0.722574
1.110253 -0.058021 0.072014 0.000009 -0.584581 0.807184
1.703866 -0.128906 -0.098748 0.000000 -0.659968 0.751293
1.419333 0.091172 0.015495 -0.002035 0.967413 0.237799
-0.303291 0.397090 -0.344133 -0.069839 0.687756 0.722574
1.190325 -0.130152 0.099842 -0.049165 -0.747137 -0.655576
1.190325 0.115784 -0.116198 -0.049165 -0.553815 -0.825399
-1.600977 0.078723 0.048529 -0.000258 0.854535 0.512018
-0.393726 -0.262332 -0.234211 -0.047950 0.638417 -0.768196
-1.411750 -0.081581 -0.043554 0.000044 -0.899923 -0.427559
-0.206581 0.217344 -0.199384 0.069895 -0.658354 -0.749456
-0.252558 0.527813 0.463654 -0.069839 0.687756 -0.722574
-0.424398 0.074274 -0.076010 -0.047950 -0.638417 -0.768196
1.696633 0.053909 -0.061845 0.000000 -0.659968 -0.751293
-0.370423 -0.320547 -0.277767 -0.069839 -0.687756 0.722574
-0.397503 -0.169722 -0.157011 -0.047950 0.638417 -0.768196
1.769317 -0.142616 0.125280 0.402404 0.574364 0.712866
1.742381 -0.152473 -0.148427 0.137092 0.640506 -0.749246
-0.153978 -0.223488 -0.191137 0.101697 -0.656547 0.747398
1.097753 0.103575 -0.076496 -0.093747 0.817282 0.558649
0.043217 0.043259 -0.081738 0.000192 0.363978 -0.927963
1.252642 -0.085422 -0.035433 -0.000894 -0.872556 -0.479480
-0.294931 0.139927 -0.098554 0.044559 0.668697 0.741034
-0.391865 0.219831 0.199007 -0.047950 -0.638417 0.768196
-0.429192 -0.100156 0.097220 -0.047950 0.638417 0.768196
-0.299722 -0.089285 -0.024098 0.000465 -0.919964 -0.378450
-0.326575 -0.106770 0.070053 -0.069839 -0.687756 -0.722574
0.831700 0.000000 -0.092480 0.000762 -0.146126 -0.984295
-0.272408 0.193568 -0.184637 0.030627 -0.652501 -0.756631
1.172397 -0.000000 0.092480 -0.004155 0.147955 0.983234
-0.267012 0.080802 -0.085075 0.069895 -0.658354 -0.749456
-0.267012 -0.080802 -0.085075 0.069895 0.658354 -0.749456
-1.050659 0.083419 -0.039922 -0.000219 0.839417 -0.536509
0.298658 -0.090105 -0.020824 -0.002540 -0.949538 -0.298349
1.748056 0.108427 0.109735 0.137092 -0.640506 0.749246
0.831700 -0.092480 -0.000000 -0.000573 -0.985961 -0.137336
-1.550456 0.085279 -0.035777 -0.000146 0.891651 -0.444153
1.470090 0.122749 0.122317 -0.000000 -0.659968 0.751293
-1.187008 0.041345 0.082723 -0.001338 0.345027 0.932813
1.571571 -0.151235 0.147340 0.000000 0.659968 0.751293
1.674931 -0.211728 -0.171503 0.000000 -0.659968 0.751293
1.577754 -0.017104 0.090884 0.001816 -0.234006 0.968530
-0.506335 0.140999 -0.120007 -0.069839 0.687756 0.722574
-1.148747 0.086222 0.033440 0.000953 0.929978 0.352755
-0.115871 0.129563 0.113814 0.101697 0.656547 -0.747398
-0.354027 0.080876 0.048060 -0.069839 0.687756 -0.722574
0.450922 0.000000 -0.092480 -0.002607 -0.135516 -0.986388
0.381349 -0.065740 0.065044 -0.003172 -0.632856 0.768714
-0.138207 0.257748 -0.223378 0.101697 0.656547 0.747398
-0.282719 0.112709 0.076306 0.101697 0.656547 -0.747398
-0.115871 -0.249732 0.219375 0.069895 0.658354 0.749456
0.878800 -0.090458 -0.019233 0.000100 -0.960664 -0.262648
-0.290427 -0.154215 0.111718 -0.012619 -0.679101 -0.732760
1.078175 -0.021403 -0.089969 -0.004414 -0.367583 -0.925238
-0.977891 -0.044219 -0.081223 -0.000131 -0.533061 -0.842006
-1.324304 -0.019201 0.090464 -0.000028 -0.237690 0.967912
-0.154564 0.357441 -0.308727 0.101697 0.656547 0.747398
1.764265 -0.026502 -0.072217 0.216839 -0.344136 -0.906491
-0.188897 -0.083419 0.039922 -0.000219 -0.839417 0.536509
-0.418541 -0.220635 0.198010 -0.047950 0.638417 0.768196
1.279637 0.090151 -0.020624 0.000645 0.932742 -0.347298
1.545784 0.091001 -0.016472 0.000258 0.967414 -0.238109
-0.109410 -0.076624 -0.051780 -0.001216 -0.843035 -0.530000
-1.551069 0.038459 -0.084103 -0.000163 0.466916 -0.879680
-0.544281 -0.118956 -0.105660 -0.047950 0.638417 -0.768196
-1.126898 -0.090099 -0.020849 0.001320 -0.933004 -0.346743
1.446393 -0.014893 -0.091273 -0.000621 -0.249335 -0.965225
-0.554421 0.065910 -0.064872 0.000418 0.731491 -0.676103
-0.340601 0.100000 0.102620 -0.047950 -0.638417 0.768196
1.039713 0.091000 -0.016476 0.000739 0.989996 -0.115898
0.360165 0.068086 0.062584 0.000062 0.677625 0.729350
-0.389616 0.035359 0.085453 -0.000333 0.323244 0.941925
-1.777655 0.043722 -0.065908 -0.322191 0.428429 -0.839993
1.714312 -0.247540 -0.231939 0.000000 0.659968 -0.751293
-0.318584 0.170219 -0.162351 -0.047950 -0.638417 -0.768196
0.091431 -0.042280 -0.082249 -0.002132 -0.361027 -0.929466
-0.336848 0.273488 0.229730 -0.069839 0.687756 -0.722574
0.576525 0.091552 -0.013065 -0.001674 0.973657 -0.213252
1.320821 -0.012444 0.091639 -0.004591 -0.222248 0.972378
1.572235 -0.228906 -0.186593 -0.000000 -0.659968 0.751293
-1.482651 -0.090915 0.016937 -0.000175 -0.959668 0.266798
-0.267903 0.208368 0.197218 -0.008655 -0.645855 0.762877
-0.985381 0.087575 -0.029717 0.000559 0.929656 -0.359871
1.160723 0.062286 0.068359 -0.000655 0.645323 0.759201
1.462693 -0.100882 -0.074131 0.000000 -0.659968 0.751293
0.210430 -0.000000 0.092480 0.003086 0.049461 0.996289
0.460379 0.089833 0.021967 -0.000766 0.947540 0.303101
-0.187841 0.548049 -0.484510 -0.047950 -0.638417 -0.768196
1.045125 0.014807 -0.091287 -0.000525 0.213338 -0.973904
-0.370498 -0.114711 -0.112980 -0.047950 0.638417 -0.768196
-1.318855 -0.047591 -0.079294 0.000388 -0.552481 -0.828823
-1.653380 0.092480 -0.000000 -0.001044 0.987337 0.129620
0.089262 -0.011810 0.091722 0.000977 -0.241038 0.967185
1.731441 0.081633 0.086198 0.000000 -0.659968 0.751293
-0.285922 -0.149167 -0.146894 0.030627 0.652501 -0.756631
-1.673421 0.000000 -0.092480 -0.001287 -0.050885 -0.994686
-0.896790 0.083248 -0.040277 0.001041 0.890092 -0.448846
-1.817421 0.013394 0.060442 -0.478042 0.063077 0.870637
-1.671895 0.051173 0.077031 -0.000855 0.555857 0.826962
-0.253895 -0.199824 0.188406 0.069895 0.658354 0.749456
0.410023 -0.081485 0.043734 0.001238 -0.812053 0.576521
-0.200109 -0.503258 0.446521 -0.047950 0.638417 0.768196
1.700447 0.252173 0.236008 0.000000 -0.659968 0.751293
-0.436180 -0.064272 -0.066962 0.000000 0.751293 0.659968
1.259669 -0.049780 0.077939 0.000657 -0.471578 0.877760
1.206144 0.067358 -0.063367 -0.000055 0.803577 -0.588753
-0.717179 -0.090792 -0.017585 0.000158 -0.963935 -0.250757
-0.513832 -0.126680 0.113980 -0.047950 0.638417 0.768196
-0.551127 -0.000000 0.092480 0.000270 0.143753 0.984317
-0.234118 0.077457 -0.051952 0.000000 -0.751293 0.659968
-0.181603 0.552678 0.488747 -0.047950 -0.638417 0.768196
1.305355 0.090971 0.016635 -0.001425 0.952659 0.291962
-0.316814 -0.120767 -0.082432 -0.069839 -0.687756 0.722574
-0.617779 -0.090127 -0.020727 0.000493 -0.956123 -0.277007
-1.622000 0.020369 -0.090208 -0.000036 0.282779 -0.954257
-0.849942 0.032565 -0.086556 -0.002092 0.230976 -0.968748
-1.797898 -0.015603 -0.069610 -0.433513 -0.134880 -0.885310
-0.150307 0.000000 -0.092480 0.004911 -0.150878 -0.982786
-0.398599 0.137668 -0.130304 -0.047950 -0.638417 -0.768196
0.110225 -0.092480 -0.000000 0.001148 -0.988554 -0.122303
-1.112274 0.092480 -0.000000 -0.001350 0.985357 0.137263
1.693462 -0.020323 -0.090219 0.042567 -0.255297 -0.960263
-0.539995 0.095883 -0.080318 -0.069839 0.687756 0.722574
0.611250 -0.000000 0.092480 0.000181 0.134110 0.986371
0.042852 0.086584 -0.032491 -0.000711 0.882309 -0.462657
-0.276913 0.178767 0.172056 -0.011466 -0.645372 0.763315
-1.804924 -0.055860 0.039085 -0.465597 -0.740345 0.474606
1.349143 -0.079597 0.084410 0.000000 0.659968 0.751293
-0.350717 0.092480 -0.000000 -0.001276 0.984300 0.137822
-0.155368 0.223027 0.190543 0.101697 0.656547 -0.747398
-0.239515 0.257805 -0.209643 0.101697 0.656547 0.747398
0.111340 0.080334 -0.045814 0.000534 0.888904 -0.450206
0.973101 0.080334 0.045814 0.000534 0.888904 0.450206
1.298792 0.146098 -0.113850 0.000000 0.659968 0.751293
1.452019 0.156776 0.152207 -0.000000 -0.659968 0.751293
-0.061509 0.020480 -0.090183 0.000933 0.280531 -0.955297
-0.300694 0.310506 0.261470 -0.069839 0.687756 -0.722574
-0.418541 -0.220635 -0.198010 -0.047950 0.638417 -0.768196
-0.276913 -0.178767 -0.172056 0.027816 0.652018 -0.757068
1.012516 -0.080563 0.045411 0.000527 -0.892219 0.443719
1.534594 0.096589 0.070360 -0.000000 0.659968 -0.751293
-0.900111 0.020749 0.090122 -0.000219 0.291198 0.951341
-0.382430 0.214770 -0.178247 -0.069839 0.687756 0.722574
-0.705444 -0.067374 -0.063350 -0.000469 -0.768853 -0.633744
0.310635 -0.000000 0.092480 -0.005511 0.057025 0.995069
-0.551127 0.000000 -0.092480 -0.001740 -0.142003 -0.985119
-1.677061 -0.075076 -0.054001 0.000005 -0.835515 -0.543837
-0.348476 -0.182227 -0.143991 -0.069839 -0.687756 0.722574
-0.521888 0.083512 0.077601 -0.047950 -0.638417 0.768196
-1.351429 0.036986 -0.084762 -0.000183 0.455288 -0.886047
-0.489667 -0.036986 0.084762 -0.000183 -0.455288 0.886047
1.652900 -0.102365 0.075433 -0.000000 -0.659968 -0.751293
1.065752 0.043623 -0.081545 -0.000279 0.528918 -0.844543
0.191028 0.058653 -0.071501 0.000437 0.722818 -0.685476
-0.146317 -0.460590 0.407442 0.069895 0.658354 0.749456
-0.230471 -0.000000 0.092480 -0.000501 0.132997 0.986598
-0.233650 0.104282 0.075580 0.101697 0.656547 -0.747398
-0.509034 -0.084697 0.037134 -0.000007 -0.935853 0.339976
-1.220592 -0.034378 -0.085852 -0.000257 -0.478356 -0.873838
-0.637762 -0.051665 -0.076702 -0.000422 -0.611912 -0.786262
-0.084281 0.076487 -0.051983 0.000892 0.784204 -0.614359
0.549944 -0.064890 -0.065892 0.000021 -0.781057 -0.618295
1.668892 0.110591 -0.082659 -0.000000 0.659968 0.751293
-0.301695 0.089933 -0.021552 0.002617 0.947791 -0.304178
-1.652723 0.083450 0.039856 0.000352 0.899150 0.428940
-0.511045 -0.092480 -0.000000 0.000449 -0.983659 -0.146855
1.003062 -0.044100 0.081287 -0.000087 -0.530203 0.843625
1.010097 0.091032 0.079966 -0.144312 0.887356 -0.437920
-1.584523 0.090632 0.018395 -0.000993 0.973471 0.216729
-1.761843 -0.078717 0.028861 -0.289818 -0.871430 0.385027
0.749584 -0.066026 -0.064754 -0.000003 -0.791563 -0.604794
-0.908755 0.067708 0.062993 0.000170 0.807057 0.583989
1.488242 0.090268 0.020102 -0.001087 0.938700 0.332275
1.461152 -0.082953 0.040881 -0.000097 -0.856296 0.509053
-1.112274 0.000000 -0.092480 -0.001903 -0.124614 -0.987966
-1.333104 -0.074780 -0.054410 -0.000376 -0.833163 -0.546076
0.518916 0.036347 -0.085037 0.000098 0.437931 -0.894789
0.836144 0.078012 0.049665 0.000016 0.803423 0.589486
-0.430881 0.000000 -0.092480 -0.001245 -0.068669 -0.993623
-0.169717 0.350024 0.300149 0.101697 0.656547 -0.747398
0.871782 0.092480 -0.000000 -0.001701 0.994006 0.063726
-0.612186 0.018497 -0.090611 0.003840 0.278712 -0.955883
-0.304324 -0.281268 0.233992 -0.069839 -0.687756 -0.722574
-0.928486 0.057834 -0.072165 -0.004098 0.618844 -0.780735
-0.268705 -0.084392 0.037821 0.000120 -0.933713 0.344622
-0.599427 -0.052204 -0.076336 0.000012 -0.508120 -0.856876
-0.299436 0.104767 -0.109151 0.030627 -0.652501 -0.756631
-0.588876 -0.084963 0.036521 -0.000146 -0.887737 0.451925
0.631291 -0.092480 -0.000000 -0.000289 -0.984123 -0.144783
0.481071 0.017229 0.090861 -0.000089 0.123125 0.988531
-0.479606 0.020714 0.090130 -0.000458 0.276102 0.956729
-0.210483 -0.041830 -0.082478 -0.001756 -0.551002 -0.829720
0.340308 -0.017914 -0.090728 0.000132 -0.252088 -0.963627
-0.206056 0.081881 0.080339 0.069895 -0.658354 0.749456
-1.413008 -0.076323 0.052223 -0.000081 -0.823892 0.559990
-0.639209 -0.052817 0.075913 -0.000145 -0.619419 0.780150
0.859232 -0.077310 -0.050750 0.000045 -0.864636 -0.494645
-1.411993 0.047704 0.079226 0.000097 0.603557 0.792522
0.489875 -0.064240 -0.066526 0.000254 -0.735344 -0.671973
1.352444 0.112461 -0.084302 -0.000000 0.659968 0.751293
-0.991766 0.034141 -0.085947 -0.000044 0.422942 -0.901889
-0.921993 0.016983 -0.090907 -0.001230 0.122824 -0.988863
1.414600 -0.065734 -0.065050 -0.000006 -0.629944 -0.771684
0.029272 -0.068352 -0.062293 -0.001349 -0.671549 -0.735861
-0.169937 0.034377 0.085853 -0.000072 0.310848 0.946309
-0.200021 -0.017914 0.090728 -0.000132 -0.252088 0.963627
-0.481245 -0.199991 0.176939 -0.047950 0.638417 0.768196
-0.560724 0.121860 0.107047 -0.069839 0.687756 -0.722574
1.604036 -0.038021 -0.084302 0.000724 -0.411844 -0.907117
-0.142981 -0.080975 -0.044671 0.003676 -0.929622 -0.353317
0.539409 -0.089946 -0.021499 -0.000547 -0.955067 -0.280768
0.389723 -0.064154 -0.066609 0.000072 -0.733153 -0.674346
-1.498267 0.037620 0.084482 0.000171 0.498179 0.862445
1.606257 0.054610 -0.074634 -0.000066 0.539937 -0.837087
0.307340 -0.065910 0.064872 0.000418 -0.731491 0.676103
-0.374059 0.109907 -0.077629 -0.069839 0.687756 0.722574
1.509683 -0.185300 -0.148287 -0.000000 -0.659968 0.751293
0.866580 -0.040745 0.083020 0.000330 -0.496599 0.863574
0.292919 0.055877 0.073690 0.000068 0.669889 0.737212
-0.748624 0.085333 0.035647 -0.000046 0.894343 0.438718
0.380089 -0.019152 -0.090475 0.000077 -0.262657 -0.960656
1.078956 -0.054800 -0.074494 0.000145 -0.639784 -0.763541
-1.301330 0.051488 -0.076821 -0.000143 0.605754 -0.790807
-0.480145 -0.050433 -0.077518 -0.000129 -0.593855 -0.799785
-1.481197 -0.046726 0.079807 -0.000022 -0.593236 0.800239
-0.659185 0.052969 0.075807 -0.000254 0.517911 0.850909
1.450188 -0.086563 -0.032548 0.000877 -0.890188 -0.447037
-1.121439 0.050778 -0.077292 -0.000194 0.596840 -0.797538
1.355177 0.047740 -0.079205 0.000131 0.571119 -0.816185
0.303442 0.091352 -0.014400 -0.001231 0.974407 -0.211265
0.626481 0.090268 -0.020102 -0.001087 0.938700 -0.332275
1.234816 0.052780 -0.075939 -0.000278 0.624003 -0.776439
1.019098 -0.054256 -0.074892 0.000011 -0.633809 -0.768489
-0.848931 0.039351 0.083690 -0.000026 0.475868 0.874859
-0.469116 0.084434 0.037727 -0.000100 0.852705 0.515043
-1.511052 0.037876 -0.084368 -0.000132 0.464170 -0.881411
0.934692 -0.057622 0.072334 0.000199 -0.573001 0.815568
0.599778 -0.019886 -0.090316 0.000074 -0.270793 -0.958298
-0.042712 -0.066341 -0.064431 -0.000070 -0.648265 -0.756397
-0.319652 -0.019090 0.090488 -0.000045 -0.262723 0.960652
0.929271 -0.066792 -0.063963 0.000100 -0.760598 -0.643259
-0.888803 -0.067353 0.063373 -0.000100 -0.766231 0.636540
0.829451 -0.066229 -0.064547 0.000100 -0.754929 -0.649904
-0.828472 0.085781 0.034556 -0.000007 0.898060 0.431034
-1.223326 0.090664 0.018235 -0.000125 0.942489 0.319521
0.809562 -0.037764 -0.084418 0.000422 -0.345652 -0.933633
-0.100145 0.017246 0.090857 0.000615 0.125018 0.988171
1.534969 -0.039278 -0.083724 -0.000830 -0.426008 -0.900482
1.425906 0.058591 -0.071551 0.001702 0.528901 -0.843901
-0.291441 0.063264 -0.067455 0.000128 0.724801 -0.683356
-0.121342 0.021123 -0.090035 0.000327 0.276770 -0.956530
-0.619126 -0.076863 0.051425 -0.000045 -0.860277 0.502187
0.659594 -0.076412 -0.052093 0.000045 -0.855869 -0.509664
0.570726 -0.034163 0.085938 0.000106 -0.309452 0.946749
-0.679015 0.077046 0.051150 -0.000198 0.793130 0.602685
-0.579197 0.076596 0.051822 -0.000198 0.787837 0.609588
-1.071273 0.063604 -0.067134 -0.000188 0.637217 -0.765647
0.431810 0.032095 0.086732 -0.000062 0.407470 0.909081
0.680155 -0.051637 0.076721 0.000044 -0.602292 0.793477
-0.181606 0.051637 -0.076721 0.000044 0.602292 -0.793477
0.370555 -0.034376 0.085853 -0.000460 -0.306972 0.947532
-0.157727 -0.038543 -0.084065 0.002746 -0.330122 -0.939287
-0.997993 -0.090536 0.018860 -0.000116 -0.961898 0.258568
-1.464874 0.080898 0.044810 -0.001058 0.874677 0.476726
1.038415 -0.090780 -0.017647 -0.000142 -0.963822 -0.251447
-0.774337 0.045741 -0.080376 -0.003603 0.535100 -0.838109
-0.559365 -0.052306 0.076267 -0.000254 -0.510466 0.855396
0.858599 0.053926 -0.075129 -0.000319 0.641146 -0.762333
1.172397 0.000000 -0.092480 0.001651 -0.050277 -0.995063
1.671648 -0.061808 0.068791 0.000440 -0.697412 0.711212
0.121197 -0.014859 -0.091278 0.000395 -0.095043 -0.991632
-1.428826 -0.019862 0.090322 0.000718 -0.225516 0.970973
1.202320 0.087308 0.091183 0.000000 -0.659968 0.751293
-1.741045 0.047683 -0.074505 -0.216508 0.487276 -0.839816
1.780594 -0.000000 -0.055005 1.000000 0.000000 -0.000000
-1.326961 0.082371 0.042042 -0.001038 0.889603 0.448206
-1.221732 0.042875 0.081940 0.000854 0.551154 0.829480
-1.239283 -0.051069 0.077100 0.000382 -0.550308 0.830042
1.664246 -0.185368 0.177324 -0.000000 0.659968 0.751293
0.187588 0.051477 0.076828 -0.000786 0.477030 0.874415
0.244808 0.085627 0.034935 0.000721 0.871304 0.482771
0.244808 -0.085627 0.034935 0.000721 -0.871304 0.482771
-1.239820 0.066326 0.064446 -0.000004 0.634629 0.767842
-0.130005 -0.034141 0.085947 -0.000044 -0.422942 0.901889
-0.320799 0.017415 -0.090825 0.000150 0.246451 -0.965152
1.347372 0.109554 0.081748 -0.000000 0.659968 -0.751293
-1.291888 -0.072040 0.057989 -0.000016 -0.778081 0.622028
-1.273850 -0.050349 0.077572 -0.000039 -0.450925 0.888247
-0.801841 -0.086584 -0.032490 0.000566 -0.952682 -0.292429
-1.274313 0.065734 0.065050 0.000006 0.629944 0.771684
0.359353 -0.075116 -0.053946 0.000146 -0.769241 -0.632914
-1.181517 0.050746 -0.077313 -0.000105 0.493437 -0.865341
-1.222725 -0.073077 0.056676 -0.000002 -0.785489 0.612658
-0.115871 0.535131 0.470082 0.101697 0.656547 -0.747398
-0.259750 -0.019280 0.090448 -0.000083 -0.323907 0.941783
0.846389 -0.085819 0.034461 0.000034 -0.898965 0.429276
-0.520961 -0.174241 -0.153061 -0.069839 -0.687756 0.722574
0.259318 0.049172 0.078324 0.000335 0.549961 0.830152
0.000057 -0.083619 -0.039502 0.000056 -0.859371 -0.503533
0.470906 -0.062316 0.068331 -0.000027 -0.756451 0.648252
-0.861963 -0.069956 -0.060487 0.000280 -0.793439 -0.602132
-1.745184 -0.057052 -0.066581 -0.197699 -0.726380 -0.651024
1.607473 -0.126366 0.125493 0.000000 0.659968 0.751293
-0.032741 -0.039565 -0.083589 0.001457 -0.449507 -0.888826
-0.619246 0.021780 0.089878 0.000119 0.285395 0.953829
1.297871 -0.054548 0.074679 0.000853 -0.523267 0.847636
-1.343387 0.064572 0.066204 0.000043 0.616070 0.782819
-1.742003 -0.056066 0.068195 -0.221745 -0.645825 0.723900
1.553657 -0.085704 -0.034747 0.000064 -0.878341 -0.469955
-1.522954 -0.081950 -0.042857 -0.000911 -0.903126 -0.420654
1.530946 0.043044 0.081852 -0.000188 0.500529 0.861265
-0.100142 -0.053630 -0.075341 -0.000107 -0.670047 -0.737179
-0.549470 0.037138 0.084695 -0.000132 0.456464 0.885426
0.499758 -0.019317 -0.090440 0.000029 -0.324200 -0.941680
1.675630 0.161958 0.156760 0.000000 -0.659968 0.751293
1.519202 -0.085997 -0.034015 -0.000940 -0.883228 -0.460669
-1.769055 0.069842 0.042605 -0.323545 0.830746 0.441545
1.664246 0.199736 0.160968 0.000000 0.659968 -0.751293
0.821109 0.083394 -0.039974 0.000359 0.863487 -0.496207
0.240087 -0.049035 -0.078409 0.000113 -0.420583 -0.903093
-0.099801 -0.049035 0.078409 -0.000113 -0.420583 0.903093
0.610313 -0.063909 0.066844 0.000055 -0.730798 0.676942
1.636675 0.066956 -0.063792 0.000168 0.678782 -0.729069
-1.411174 0.065458 -0.065328 -0.000046 0.660216 -0.745921
0.914093 -0.029487 0.087653 0.000661 -0.260026 0.962616
-0.828884 -0.067143 0.063594 -0.000195 -0.764254 0.638905
-0.749051 -0.066591 0.064173 -0.000046 -0.673152 0.734268
-1.370796 0.084697 -0.037134 -0.000007 0.935853 -0.339976
0.280365 -0.017793 -0.090752 0.000032 -0.309769 -0.946697
-1.377952 0.064083 0.066678 -0.000062 0.610072 0.787493
0.540203 -0.074344 0.055004 -0.000017 -0.761610 0.642090
-0.529954 -0.035908 -0.085224 -0.000429 -0.443434 -0.892041
0.670241 0.035908 0.085224 0.000429 0.443434 0.892041
1.349952 -0.082801 0.041187 0.001243 -0.851644 0.516635
1.637784 0.097592 0.071240 -0.000000 0.659968 -0.751293
0.280415 -0.089826 0.021996 -0.003634 -0.965499 0.247852
1.750276 0.015524 0.078479 0.223859 0.063224 0.968411
0.062554 0.069654 -0.060834 -0.000037 0.664565 -0.742288
-1.670485 -0.017264 0.090854 0.000083 -0.272716 0.958669
-1.169760 -0.086794 0.031927 0.000293 -0.952082 0.294344
1.763809 0.061021 0.047006 0.219525 0.771939 0.586864
0.448257 0.041792 -0.082498 0.000560 0.485150 -0.869982
-1.290436 -0.022698 0.089651 0.000833 -0.249003 0.964755
-0.262413 0.170780 0.130081 0.101697 0.656547 -0.747398
1.295441 0.050156 -0.077697 -0.000130 0.587437 -0.804508
-0.223189 -0.458554 0.407928 -0.047950 0.638417 0.768196
-0.223189 0.458554 -0.407928 -0.047950 -0.638417 -0.768196
0.787194 0.058939 -0.071264 -0.000268 0.666448 -0.740367
-1.711538 0.050557 0.076860 -0.090037 0.467351 0.874480
0.831495 0.034469 -0.085816 0.000805 0.414892 -0.905619
-0.184166 0.378908 -0.323557 0.101697 0.656547 0.747398
-0.380171 -0.232859 0.195247 -0.069839 -0.687756 -0.722574
0.299470 -0.074973 -0.054143 0.001458 -0.765479 -0.637610
1.780594 -0.014693 -0.017000 1.000000 0.000000 -0.000000
1.242043 0.082234 0.042308 0.000900 0.820261 0.565221
0.380281 0.082234 -0.042308 0.000900 0.820261 -0.565221
0.719610 -0.090372 0.019632 0.000203 -0.956303 0.276229
0.235384 0.067986 0.062693 0.000006 0.752846 0.652360
-1.251378 0.035359 -0.085453 -0.000333 0.323244 -0.941925
0.631135 0.077000 -0.051220 0.000254 0.782550 -0.616376
1.165341 0.082590 0.041610 -0.000245 0.855809 0.511385
0.777481 -0.076487 0.051983 0.000892 -0.784204 0.614359
-0.320719 -0.048561 -0.078704 -0.000073 -0.575318 -0.813272
0.460491 0.073654 0.055925 -0.000475 0.831530 0.547951
-0.258448 0.131578 0.096184 0.101697 0.656547 -0.747398
-0.932428 -0.059315 -0.070952 0.000181 -0.680240 -0.727709
-0.331612 0.196718 0.156153 -0.069839 0.687756 -0.722574
-0.510144 0.159774 0.138246 -0.069839 0.687756 -0.722574
-0.252236 -0.331328 -0.276606 -0.069839 -0.687756 0.722574
0.698550 0.075983 0.052717 -0.000177 0.883144 0.460466
0.168441 -0.056095 0.073524 0.000190 -0.626088 0.774844
1.745777 -0.072838 0.035407 0.220307 -0.927309 0.279020
0.904613 0.086584 0.032491 -0.000711 0.882309 0.462657
0.663841 0.069472 -0.061042 -0.000095 0.694641 -0.714006
1.154651 -0.077939 -0.049779 -0.000200 -0.808974 -0.582631
1.716970 -0.085619 0.017130 0.214387 -0.970541 0.063079
0.640418 0.050442 0.077512 -0.000042 0.491901 0.866269
-0.947599 0.085999 0.034009 0.000326 0.873559 0.478821
-0.123620 -0.087575 0.029717 0.000559 -0.929656 0.359871
0.896138 0.056030 0.073574 -0.000241 0.651844 0.753620
-0.755852 -0.056030 -0.073574 0.000241 -0.651844 -0.753620
-1.567425 0.036854 0.084819 0.000629 0.391626 0.915318
1.404433 -0.135392 0.104446 -0.000000 -0.659968 -0.751293
1.110253 0.058021 0.072014 0.000009 0.584581 0.807184
-0.130266 0.092480 -0.000000 -0.001423 0.995969 0.039947
-0.262413 -0.154117 0.149049 0.069895 0.658354 0.749456
-0.964992 -0.067960 0.062721 0.001224 -0.644299 0.760022
0.943686 0.062574 -0.068096 -0.000209 0.716596 -0.692432
0.701128 0.032330 -0.086644 0.000487 0.417158 -0.904693
1.575136 0.085087 0.089232 0.000000 -0.659968 0.751293
-0.373392 0.262103 0.235291 -0.047950 -0.638417 0.768196
-1.262206 -0.077923 -0.049805 -0.000118 -0.797859 -0.596637
-1.617017 -0.059737 0.070598 -0.000567 -0.723367 0.685059
-1.378565 0.013015 0.091559 0.000892 0.225943 0.970928
-0.994421 0.077964 0.049740 0.001044 0.807548 0.583931
1.192438 -0.092480 -0.000000 0.000305 -0.993208 -0.065739
-1.157584 -0.054548 -0.074679 -0.000853 -0.523267 -0.847636
1.297871 0.054548 0.074679 0.000853 0.523267 0.847636
-0.579351 0.052267 0.076293 -0.000011 0.613384 0.784889
-1.441189 0.021497 -0.089946 -0.000476 0.283014 -0.954609
-0.209343 0.400770 0.360771 -0.008655 -0.645855 0.762877
-0.151892 -0.539939 0.477665 0.069895 0.658354 0.749456
0.690275 0.081581 -0.043554 -0.000044 0.899923 -0.427559
0.875841 -0.078472 0.048936 0.000136 -0.874959 0.476252
1.246920 -0.127584 -0.097587 0.000000 -0.659968 0.751293
-1.025054 -0.082590 -0.041610 0.000245 -0.855809 -0.511385
1.012516 0.080563 0.045411 0.000527 0.892219 0.443719
0.256407 0.087462 -0.030049 0.000671 0.919642 -0.382918
0.838625 0.024860 0.089076 0.003245 0.379549 0.920654
1.642396 -0.180690 -0.173214 -0.000000 0.659968 -0.751293
1.047741 0.070069 -0.060356 0.000164 0.798349 -0.596487
1.471886 0.151287 -0.147386 0.000000 -0.659968 -0.751293
-1.403152 -0.029034 -0.087804 -0.000529 -0.387575 -0.917910
1.607473 -0.140733 -0.109138 -0.000000 -0.659968 0.751293
1.404433 0.135392 0.104446 -0.000000 0.659968 -0.751293
0.719610 0.090372 0.019632 0.000203 0.956303 0.276229
0.411518 0.075536 -0.053355 0.000412 0.768738 -0.633699
-1.513449 -0.029360 -0.087695 0.000467 -0.388364 -0.917385
1.412500 0.179569 -0.172229 -0.049165 -0.553815 -0.825399
-0.351301 0.062599 -0.068073 -0.000092 0.628698 -0.772708
0.922559 0.031260 -0.087036 -0.000377 0.383249 -0.919350
1.431014 -0.184884 -0.176899 -0.097269 0.440460 -0.887099
0.451733 -0.032912 0.086425 0.000057 -0.465967 0.880529
-1.522337 0.091061 0.016139 0.003850 0.959123 0.267334
-0.153216 0.539814 -0.477678 0.069895 -0.658354 -0.749456
