-0.016150 0.126155 0.136666 -0.028665 -0.643689 0.763680
0.055858 0.224458 -0.216685 0.081740 -0.664510 -0.742795
1.583148 -0.153267 0.138415 0.016684 0.663513 0.747979
-0.091339 -0.098884 0.069804 -0.081664 -0.695891 -0.713489
0.151834 -0.605391 0.546909 0.063368 0.661489 0.746788
-1.653148 0.029818 0.078635 -0.246075 0.299621 0.917167
1.333770 -0.207714 -0.186888 -0.007605 0.655141 -0.755468
-1.759778 0.030168 -0.016100 -0.635026 0.702855 -0.306078
1.136781 0.033737 -0.082987 -0.000186 0.313901 -0.945139
1.084243 0.105126 0.095412 -0.007605 -0.655141 0.755468
0.164931 -0.179306 -0.164289 0.081740 0.664510 -0.742795
0.135900 -0.098428 -0.081167 0.079592 -0.664626 0.742925
-0.220116 -0.083656 0.032044 0.000577 -0.949052 0.303339
-0.061219 -0.054645 0.073277 -0.000000 0.745289 -0.666742
0.065063 -0.249971 0.209149 0.079592 -0.664626 -0.742925
0.152261 -0.473963 -0.418876 0.079592 -0.664626 0.742925
1.119322 -0.104266 0.095019 -0.007605 0.655141 0.755468
0.020953 0.489220 -0.437660 -0.083863 -0.630888 -0.771328
1.564176 -0.055726 0.070141 -0.000115 -0.622310 0.777426
-0.169305 -0.152354 0.141444 -0.083863 0.630888 0.771328
1.465529 0.073259 -0.051558 -0.000065 0.735372 -0.671651
1.621057 0.091914 -0.017429 -0.155907 0.981962 -0.061411
1.565714 0.048643 -0.075226 -0.000526 0.436364 -0.895526
-0.150138 0.051457 0.073330 -0.001074 0.669353 0.737180
0.038866 0.343618 -0.320516 -0.083863 -0.630888 -0.771328
0.057863 -0.274280 -0.261036 0.081740 0.664510 -0.742795
-0.218567 0.096618 0.090500 -0.083863 -0.630888 0.771328
-0.067822 -0.147161 0.148229 -0.083863 0.630888 0.771328
0.151834 0.605391 -0.546909 -0.019434 -0.645474 -0.761986
-0.087539 0.172085 0.166472 -0.083863 -0.630888 0.771328
-0.172754 0.147714 -0.126749 -0.081664 0.695891 0.713489
0.200193 -0.547894 0.490150 0.081740 0.664510 0.742795
-0.189557 0.075146 -0.048767 -0.000149 0.798133 -0.595676
1.510962 -0.225213 -0.203847 0.000491 0.657971 -0.753017
1.604564 0.173938 -0.154933 0.016684 0.669773 0.742378
-0.005970 0.155199 -0.161529 -0.028665 -0.643689 -0.763680
0.038736 0.343511 0.320415 -0.083863 -0.630888 0.771328
0.050025 -0.314945 -0.298277 -0.028665 0.643689 -0.763680
0.154281 -0.431008 -0.390635 0.081740 0.664510 -0.742795
0.163950 -0.403965 0.365378 0.081740 0.664510 0.742795
-0.096207 0.089716 -0.098158 -0.083863 -0.630888 -0.771328
-1.755156 -0.026472 -0.026925 -0.601581 -0.440754 -0.657308
-0.174581 0.211984 -0.189643 -0.083863 -0.630888 -0.771328
0.040093 -0.083087 -0.033490 -0.000119 -0.963481 -0.252141
-0.019816 -0.362777 0.319002 -0.081664 -0.695891 -0.713489
0.096835 -0.172007 0.165253 0.081740 0.664510 0.742795
1.146906 0.048801 0.075123 -0.000770 0.491917 0.865526
1.447556 -0.179397 0.163477 -0.007605 0.655141 0.755468
0.147775 0.245091 -0.213644 0.079592 0.664626 0.742925
0.048656 0.101836 -0.107779 0.081740 -0.664510 -0.742795
1.433868 0.099638 0.094172 0.000491 -0.657971 0.753017
1.568722 0.138032 -0.125223 0.016684 -0.663513 -0.747979
1.362584 0.247276 -0.221487 -0.007605 -0.655141 -0.755468
1.196607 -0.156260 -0.140886 -0.007605 0.655141 -0.755468
0.013537 -0.392502 0.357746 -0.083863 0.630888 0.771328
1.108409 0.088692 -0.081404 -0.007605 -0.655141 -0.755468
1.075197 -0.092502 -0.081088 -0.007605 -0.678144 0.734889
-0.087311 0.123817 -0.127017 -0.083863 -0.630888 -0.771328
1.667887 0.038404 -0.093214 -0.147537 0.462415 -0.870868
1.012850 0.098157 -0.088650 -0.007605 -0.655141 -0.755468
1.454513 0.290931 0.260269 -0.007605 0.678144 -0.734889
1.446233 -0.258204 -0.230155 -0.007605 -0.678144 0.734889
0.153531 -0.538187 -0.486602 0.081740 0.664510 -0.742795
-0.165270 0.225186 0.201453 -0.083863 -0.630888 0.771328
-1.615569 0.055282 -0.069949 -0.090053 0.544701 -0.828130
1.624276 0.107275 -0.095233 0.016684 0.669773 0.742378
-0.024701 0.230675 0.221227 -0.083863 -0.630888 0.771328
1.621057 -0.091914 0.017429 -0.155443 -0.982541 0.058692
-0.031422 -0.082588 -0.099371 -0.028665 0.643689 -0.763680
-0.101808 0.253348 -0.221657 -0.081664 0.695891 0.713489
1.136932 -0.062270 -0.064402 -0.000190 -0.595965 -0.797894
0.148473 0.127742 0.119970 0.081740 -0.664510 0.742795
1.409109 -0.090274 0.075576 -0.007605 -0.678144 -0.734889
-0.050868 0.078723 -0.094096 -0.083863 -0.630888 -0.771328
0.062433 0.292081 -0.276458 0.081740 -0.664510 -0.742795
0.058368 -0.103463 -0.077364 0.079592 -0.664626 0.742925
-1.595465 -0.038945 0.080675 -0.020533 -0.322862 0.941232
0.027683 -0.222098 0.180209 0.079592 -0.664626 -0.742925
1.344907 -0.135316 -0.124217 -0.007605 0.655141 -0.755468
1.344885 0.138381 0.120633 -0.007605 0.678144 -0.734889
1.539654 0.103849 0.090240 0.016684 0.669773 -0.742378
1.308070 0.099432 -0.085073 -0.007605 0.678144 0.734889
0.151555 -0.079987 0.076909 0.081740 0.664510 0.742795
-0.009772 0.073551 0.051141 -0.000295 0.778410 0.621204
0.076260 0.468843 0.411455 -0.081664 0.695891 -0.713489
0.013258 -0.392656 -0.344359 -0.081664 -0.695891 0.713489
0.155793 -0.367768 -0.333895 0.081740 0.664510 -0.742795
0.165788 0.329677 0.291246 0.079592 0.664626 -0.742925
-0.098276 -0.121849 0.124216 -0.083863 0.630888 0.771328
-0.031476 -0.337511 -0.307873 -0.083863 0.630888 -0.771328
1.420187 -0.191754 -0.173917 -0.007605 0.655141 -0.755468
0.069311 0.209404 -0.173313 0.079592 0.664626 0.742925
0.058750 -0.476674 -0.431508 -0.083863 0.630888 -0.771328
-0.289468 -0.053384 0.071939 0.001467 -0.646988 0.754954
0.160106 -0.264384 0.240931 0.081740 0.664510 0.742795
-0.088984 -0.207024 0.175008 -0.081664 -0.695891 -0.713489
-1.711977 -0.039906 -0.050120 -0.473355 -0.517198 -0.704346
0.137431 -0.214273 -0.198597 0.081740 0.664510 -0.742795
-0.031422 -0.107583 0.071431 -0.027915 -0.687056 -0.725000
0.156041 0.209522 -0.182710 0.079592 0.664626 0.742925
1.567416 -0.267254 -0.239881 0.016684 0.663513 -0.747979
-0.008627 0.299376 -0.279166 -0.083863 -0.630888 -0.771328
0.152882 0.487983 0.441760 0.081740 -0.664510 0.742795
1.595465 -0.019686 -0.087393 -0.050809 -0.067969 -0.990860
-0.038723 -0.327341 0.286605 -0.081664 -0.695891 -0.713489
1.173532 -0.086436 0.074472 -0.007605 -0.678144 -0.734889
1.490952 0.227506 -0.201364 -0.007605 0.678144 0.734889
1.492711 -0.115011 -0.106496 0.016684 0.663513 -0.747979
0.023803 -0.151793 -0.155206 0.081740 0.664510 -0.742795
1.296973 0.204498 -0.183729 -0.007605 -0.655141 -0.755468
-0.140865 -0.195031 -0.179442 -0.083863 0.630888 -0.771328
0.059533 -0.117117 0.120252 0.081740 0.664510 0.742795
0.012133 -0.182228 0.142875 0.079592 -0.664626 -0.742925
0.140039 -0.398243 -0.362891 0.081740 0.664510 -0.742795
1.296973 -0.205276 0.182859 -0.007605 -0.678144 -0.734889
0.090749 -0.442934 0.384527 -0.058642 -0.692204 -0.718524
1.667887 0.000000 0.060489 1.000000 -0.000000 0.000000
-1.556686 -0.081737 0.036662 0.000311 -0.883975 0.458008
0.026330 -0.201300 -0.199217 0.081740 0.664510 -0.742795
0.181678 -0.122452 -0.111584 0.081740 0.664510 -0.742795
-0.058959 0.127446 0.133068 -0.083863 -0.630888 0.771328
0.067509 -0.555228 -0.496712 -0.081664 -0.695891 0.713489
-0.185711 0.117682 -0.098940 -0.081664 0.695891 0.713489
-0.000879 0.169722 0.173961 -0.028665 -0.643689 0.763680
0.116440 -0.116868 0.095578 0.079592 -0.664626 -0.742925
1.389601 0.104265 -0.097739 -0.007605 -0.655141 -0.755468
1.086911 0.087918 0.017191 -0.000146 0.987688 0.124455
1.576160 0.081851 -0.036407 -0.000782 0.883271 -0.459769
-0.125545 -0.129831 -0.127779 -0.083863 0.630888 -0.771328
-0.064021 -0.197464 -0.189787 -0.083863 0.630888 -0.771328
0.181846 -0.313250 -0.282255 0.081740 0.664510 -0.742795
1.576362 0.231768 -0.206474 0.016684 0.669773 0.742378
0.146508 0.408702 -0.371536 0.081740 -0.664510 -0.742795
0.155652 -0.493289 0.436529 0.079592 -0.664626 -0.742925
0.153531 0.349620 -0.317908 0.081740 -0.664510 -0.742795
-0.388735 -0.087934 -0.017107 0.001743 -0.986603 -0.133239
-0.104531 -0.250593 -0.228838 -0.083863 0.630888 -0.771328
-0.468907 0.075230 -0.048637 0.000014 0.897958 -0.430742
1.306245 0.087913 -0.017214 -0.000592 0.987311 -0.128795
-0.021241 0.135529 -0.097523 0.025837 0.676635 0.734811
1.520407 -0.280969 0.250394 -0.007605 -0.678144 -0.734889
-1.196769 -0.062173 -0.064495 -0.000153 -0.648536 -0.755305
1.136475 -0.036273 0.081911 0.000038 -0.512990 0.853231
0.059890 -0.081836 0.036442 -0.000042 -0.881695 0.463136
1.594210 0.092999 0.081677 0.016684 0.669773 -0.742378
-0.060050 -0.090848 -0.058385 -0.081664 -0.695891 0.713489
0.101812 0.393806 0.363128 0.081740 -0.664510 0.742795
1.087027 -0.087924 0.017161 -0.000213 -0.987639 0.124780
-0.568461 0.051338 -0.073413 0.000183 0.669411 -0.737390
0.847492 -0.073250 -0.051570 -0.000036 -0.851753 -0.515398
0.158858 0.419780 0.380087 0.081740 -0.664510 0.742795
0.090876 0.300039 0.256706 0.079592 0.664626 -0.742925
0.069311 0.209404 0.173313 0.079592 0.664626 -0.742925
-0.120518 -0.220561 0.202536 -0.083863 0.630888 0.771328
0.089576 0.087937 -0.017094 -0.000089 0.987735 -0.124239
1.298136 0.146439 0.133391 -0.007605 -0.655141 0.755468
1.298136 -0.146439 -0.133391 -0.007605 0.655141 -0.755468
1.116217 0.082068 -0.035917 0.000040 0.883501 -0.459712
1.249140 0.145079 -0.127805 -0.007605 0.678144 0.734889
1.067184 -0.051367 0.073393 -0.000817 -0.668662 0.737846
1.570068 -0.244542 0.217857 0.016684 -0.669773 -0.742378
1.156687 -0.083016 -0.033668 -0.001796 -0.894626 -0.437137
0.149406 -0.017094 -0.087937 0.000841 -0.130754 -0.987050
0.189782 -0.051338 -0.073413 0.000047 -0.622494 -0.777396
1.297317 -0.062913 0.063773 -0.000095 -0.651401 0.753083
0.100409 -0.364187 0.336785 0.081740 0.664510 0.742795
0.003147 0.240601 -0.232373 -0.083863 -0.630888 -0.771328
0.099445 -0.072129 -0.053733 0.079592 -0.664626 0.742925
-0.049690 -0.087937 -0.017094 -0.000012 -0.987749 -0.127217
1.426725 0.153947 0.141197 -0.007605 -0.655141 0.755468
-0.947108 -0.051141 -0.073551 -0.000225 -0.621110 -0.778476
0.101974 0.530767 -0.468910 -0.081664 0.695891 0.713489
1.206790 0.164996 0.146622 -0.007605 0.678144 -0.734889
0.096066 0.518884 0.470090 -0.083863 -0.630888 0.771328
0.100780 -0.418708 -0.363929 0.079592 -0.664626 0.742925
0.096734 0.568517 0.506328 -0.081664 0.695891 -0.713489
0.104706 -0.236634 0.201465 0.079592 -0.664626 -0.742925
1.601229 -0.108417 -0.098227 0.016684 0.663513 -0.747979
0.153142 0.182878 0.168782 0.081740 -0.664510 0.742795
0.013473 0.105523 -0.074398 0.079592 0.664626 0.742925
-0.877506 0.089583 -0.000000 -0.000225 0.993880 -0.058301
0.075477 -0.387556 0.360435 0.026536 0.654897 0.754169
0.159433 0.525460 -0.474566 0.081740 -0.664510 -0.742795
-1.595465 0.055721 0.070144 -0.010892 0.542542 0.835175
0.141621 0.517061 0.469012 0.081740 -0.664510 0.742795
1.646901 -0.075294 -0.066889 0.004856 0.745280 0.666734
1.239499 0.072631 -0.068795 -0.007605 -0.655141 -0.755468
0.090325 0.362254 0.336166 0.081740 -0.664510 0.742795
-0.378877 0.064522 0.062145 -0.000532 0.798148 0.595561
0.897528 -0.082945 0.033841 0.000087 -0.896748 0.433140
0.026235 0.090435 0.062267 0.079592 0.664626 -0.742925
1.631676 0.000000 0.095199 -0.155956 -0.061913 0.981922
0.029708 0.126989 0.132366 0.081740 -0.664510 0.742795
0.163386 -0.461104 0.408564 0.079592 -0.664626 -0.742925
1.130178 0.088698 0.081628 -0.007605 -0.655141 0.755468
-0.828429 0.050686 -0.073865 0.000144 0.617012 -0.781751
0.000952 0.136503 0.100771 0.079592 0.664626 -0.742925
0.113709 0.263265 -0.245036 0.081740 -0.664510 -0.742795
1.337964 0.072132 0.069354 -0.000000 -0.745289 -0.666742
1.261523 -0.130053 0.118814 -0.007605 0.655141 0.755468
0.026968 0.405765 0.370054 -0.083863 -0.630888 0.771328
0.171101 0.019468 0.087442 0.000805 0.142399 0.984994
-0.041039 -0.147392 -0.111358 -0.081664 -0.695891 0.713489
0.073263 -0.172872 -0.168620 0.081740 0.664510 -0.742795
1.562359 0.308929 -0.276963 0.000491 -0.657971 -0.753017
1.246572 -0.075025 0.048952 0.000175 -0.867607 0.488951
1.279980 -0.103399 -0.095885 -0.007605 0.655141 -0.755468
0.628526 -0.048875 0.075075 -0.000825 -0.491852 0.865697
0.159894 0.068911 -0.057331 0.079592 0.664626 0.742925
0.550328 -0.074618 0.049571 0.001799 -0.783017 0.614681
1.667887 0.060907 -0.047585 1.000000 0.000000 -0.000000
1.289596 0.087295 0.082016 -0.007605 -0.655141 0.755468
1.511558 -0.199870 0.176239 0.016684 -0.669773 -0.742378
-0.239567 0.036505 0.081807 -0.000098 0.456364 0.884687
0.160106 0.264384 0.240931 0.081740 -0.664510 0.742795
0.137493 0.457555 0.416232 0.081740 -0.664510 0.742795
-0.017453 -0.284257 -0.265840 -0.083863 0.630888 -0.771328
-0.258382 0.093169 0.083349 -0.083863 -0.630888 0.771328
0.038736 -0.343511 0.320415 -0.083863 0.630888 0.771328
-1.236650 0.083092 -0.033479 -0.000078 0.963166 -0.252907
0.141653 0.582664 -0.514984 0.031231 0.675557 0.735762
1.405465 -0.240022 -0.213799 -0.007605 -0.678144 0.734889
1.515029 -0.082122 -0.035791 0.000194 -0.884066 -0.458563
-0.003309 -0.120537 -0.086031 0.079592 -0.664626 0.742925
-0.097573 -0.101564 -0.073132 -0.081664 -0.695891 0.713489
1.476172 -0.129445 0.119670 0.016684 0.663513 0.747979
-1.595465 -0.089583 0.000000 -0.010290 -0.992243 -0.070730
-1.675281 0.078407 -0.000000 -0.329766 0.936280 -0.058332
0.050655 -0.168481 0.167180 0.081740 0.664510 0.742795
0.200193 0.081800 0.073179 0.079592 0.664626 -0.742925
0.200193 -0.126906 0.113531 0.081740 0.664510 0.742795
0.200193 0.608035 -0.543953 0.079592 0.664626 0.742925
0.200193 -0.577964 0.517052 0.081740 0.664510 0.742795
0.200193 -0.577964 -0.517052 0.079592 -0.664626 0.742925
0.200193 -0.247188 -0.221137 0.079592 -0.664626 0.742925
0.200193 0.232153 0.207686 0.079592 0.664626 -0.742925
0.200193 0.382506 0.342193 0.079592 0.664626 -0.742925
-0.837486 0.062247 0.064423 -0.000155 0.645527 0.758341
1.164477 0.105417 -0.092082 -0.007605 0.678144 0.734889
-0.011535 0.381232 -0.345802 -0.083863 -0.630888 -0.771328
0.728288 -0.087261 0.020262 -0.000147 -0.955193 0.280480
0.927249 -0.073651 -0.050996 0.000144 -0.779808 -0.619467
0.956921 0.082182 -0.035654 0.000875 0.937524 -0.334878
-1.638164 -0.046022 0.073586 -0.143617 -0.622906 0.763221
1.604045 -0.264141 0.236302 0.016684 0.663513 0.747979
1.658065 -0.104214 0.093231 0.016684 0.663513 0.747979
1.633510 0.176908 0.158263 0.016684 0.669773 -0.742378
1.613867 0.235063 0.210289 0.016684 0.669773 -0.742378
1.643332 -0.147830 -0.132250 0.016684 0.663513 -0.747979
1.589312 -0.307757 0.275322 0.012636 0.662137 0.749250
0.005270 -0.323175 -0.300143 -0.083863 0.630888 -0.771328
-1.669968 -0.068901 -0.040583 -0.281293 -0.750301 -0.589746
0.006085 -0.091508 0.061068 0.079592 -0.664626 -0.742925
1.338337 0.167499 -0.152059 -0.007605 -0.655141 -0.755468
0.072578 0.492039 0.445579 -0.083863 -0.630888 0.771328
1.440605 0.234492 -0.211185 -0.007605 -0.655141 -0.755468
0.608220 -0.076174 0.047145 -0.000652 -0.904765 0.415708
1.637541 0.062818 0.072738 -0.152971 0.691351 0.700796
-0.006980 0.449615 0.402229 -0.083863 -0.630888 0.771328
0.020953 -0.489220 0.437660 -0.081664 -0.695891 -0.713489
-0.100092 -0.317598 0.284125 -0.081664 -0.695891 -0.713489
-0.202515 -0.172379 -0.154211 -0.081664 -0.695891 0.713489
0.076820 -0.568430 0.508522 -0.081664 -0.695891 -0.713489
0.039576 0.515623 0.461281 -0.083863 -0.630888 0.771328
0.086131 -0.581632 -0.520332 -0.081664 -0.695891 0.713489
-0.044225 0.396808 0.354987 -0.083863 -0.630888 0.771328
-0.211826 0.159177 0.142401 -0.083863 -0.630888 0.771328
-0.109403 0.304396 0.272315 -0.083863 -0.630888 0.771328
-0.034914 0.410009 -0.366798 -0.083863 -0.630888 -0.771328
-0.072158 0.357203 -0.319556 -0.083863 -0.630888 -0.771328
-0.109403 0.304396 -0.272315 -0.083863 -0.630888 -0.771328
-0.165270 -0.225186 -0.201453 -0.081664 -0.695891 0.713489
-0.118714 -0.291194 0.260505 -0.081664 -0.695891 -0.713489
0.058198 -0.542027 0.484901 -0.081664 -0.695891 -0.713489
-0.146648 0.251589 0.225074 -0.083863 -0.630888 0.771328
-0.146648 0.251589 -0.225074 -0.083863 -0.630888 -0.771328
-0.128025 -0.277992 -0.248694 -0.081664 -0.695891 0.713489
0.002331 0.462816 -0.414039 -0.083863 -0.630888 -0.771328
-1.567563 -0.050166 -0.074219 0.002778 -0.443367 -0.891449
-1.266676 0.074906 0.049134 0.000195 0.866951 0.490114
0.907477 0.048975 -0.075010 0.000143 0.489283 -0.867434
1.046966 0.074894 0.049152 -0.000254 0.796697 0.597535
1.296378 0.033667 0.083016 0.000157 0.313150 0.945423
1.454513 -0.290931 0.260269 -0.007605 -0.678144 -0.734889
-1.047109 -0.048881 -0.075072 -0.000793 -0.492860 -0.864988
0.269150 0.048875 -0.075076 0.000051 0.488697 -0.867722
-1.445971 -0.075063 0.048894 0.000012 -0.864827 0.493133
-0.648042 -0.017161 0.087924 -0.000036 -0.133929 0.986409
-1.416232 0.036358 0.081873 -0.000038 0.513918 0.852652
1.395858 0.033734 -0.082989 -0.000085 0.432100 -0.897269
1.486810 0.085518 0.080466 0.016684 -0.663513 0.747979
-0.757869 0.082899 -0.033954 -0.000097 0.897082 -0.432569
0.708426 0.073379 0.051386 -0.000131 0.777354 0.622538
0.118838 -0.573042 0.508211 -0.081664 -0.695891 -0.713489
1.186877 0.048801 0.075123 -0.000050 0.487873 0.868202
1.328475 -0.093973 0.079824 -0.007605 -0.678144 -0.734889
0.378986 0.081836 0.036441 -0.000042 0.881695 0.463136
0.099872 -0.033758 0.082979 0.000094 -0.432351 0.897142
0.987152 0.087913 0.017214 -0.000943 0.986674 0.129980
1.466107 -0.048951 0.075026 -0.001471 -0.598182 0.795906
-1.286670 -0.048953 -0.075025 -0.000885 -0.493353 -0.864716
0.718027 0.062254 -0.064417 -0.000080 0.595634 -0.798176
-1.366391 0.075026 0.048951 -0.000129 0.798272 0.595489
0.096625 -0.527840 -0.466667 -0.081664 -0.695891 0.713489
0.897615 -0.033829 0.082950 -0.000214 -0.318560 0.943233
0.428781 0.048835 0.075101 0.000378 0.596025 0.797832
-1.106536 -0.051136 -0.073554 -0.000014 -0.616023 -0.781970
0.339210 0.033643 0.083025 -0.000074 0.312987 0.945465
-1.027511 0.051279 -0.073454 0.000940 0.620635 -0.778725
0.917008 0.081925 -0.036241 0.000095 0.852332 -0.515172
1.196591 0.033565 -0.083057 -0.000017 0.313314 -0.945344
-1.475810 -0.033617 0.083036 0.000004 -0.313886 0.945138
-1.446045 -0.075109 -0.048824 0.000846 -0.867143 -0.489578
1.326075 0.072971 -0.051964 0.001368 0.776902 -0.622638
-0.747134 -0.051114 -0.073569 0.001064 -0.619219 -0.779869
-0.887646 -0.017094 -0.087937 0.000032 -0.132969 -0.986605
-1.256429 0.000000 -0.089583 -0.000006 -0.063707 -0.993856
-1.396032 -0.089583 0.000000 -0.000007 -0.993870 -0.063632
-1.047193 0.017094 -0.087937 -0.000968 0.131403 -0.986919
0.249123 0.087937 -0.017094 -0.000051 0.987750 -0.127208
1.196599 0.000000 0.089583 -0.000000 -0.063476 0.993900
-1.066799 -0.017094 0.087937 0.000004 -0.127144 0.987763
0.368952 -0.087918 -0.017191 0.000118 -0.987746 -0.124109
-1.495749 -0.089583 0.000000 0.000022 -0.993840 -0.063786
0.977222 0.000000 0.089583 0.000101 -0.063648 0.993867
-0.967419 -0.017094 -0.087937 0.000884 -0.130980 -0.987004
-0.777789 0.089583 -0.000000 -0.000043 0.993880 -0.063578
0.737903 0.000000 0.089583 -0.000099 -0.063552 0.993886
-1.336202 0.000000 -0.089583 0.000005 -0.063638 -0.993869
-1.316259 -0.089583 0.000000 -0.000001 -0.993875 -0.063608
-0.776563 -0.035345 0.082315 0.000199 -0.449797 0.888192
0.857843 -0.036548 0.081788 -0.000051 -0.456205 0.884774
-0.937284 0.062240 0.064431 -0.000138 0.645025 0.758791
1.404895 -0.121741 0.104657 -0.007605 -0.678144 -0.734889
0.668448 -0.048918 0.075047 -0.000445 -0.596252 0.797548
-0.747592 0.074925 0.049106 -0.000146 0.867979 0.488406
-0.468907 0.075230 0.048637 -0.000010 0.897982 0.430705
-0.016150 -0.149502 0.110568 -0.027915 -0.687056 -0.725000
-0.678587 0.036340 0.081881 -0.000004 0.456327 0.884736
-0.051944 0.335097 0.303673 -0.083863 -0.630888 0.771328
0.164692 -0.322178 0.292130 0.081740 0.664510 0.742795
1.222411 0.205682 0.184005 -0.007605 0.678144 -0.734889
0.936747 -0.100759 0.090140 -0.007605 -0.678144 -0.734889
1.454513 0.290931 -0.260269 -0.007605 -0.655141 -0.755468
1.347389 0.251585 0.225070 -0.007605 0.678144 -0.734889
1.365243 -0.258143 0.230937 -0.007605 -0.678144 -0.734889
1.061725 0.146663 -0.131206 -0.007605 -0.655141 -0.755468
1.543783 -0.323719 0.289602 -0.003557 -0.676769 -0.736160
1.543783 -0.323719 -0.289602 -0.003557 -0.676769 0.736160
1.204557 0.199124 -0.178138 -0.007605 -0.655141 -0.755468
-0.667526 -0.051664 0.073184 -0.000161 -0.623680 0.776528
0.119595 0.071056 0.054932 0.079592 0.664626 -0.742925
0.368994 0.048896 -0.075062 0.000076 0.488470 -0.867870
-0.867492 -0.017214 0.087913 0.000070 -0.127830 0.987630
0.787926 0.048643 0.075226 -0.000042 0.430472 0.898101
1.375931 0.062522 -0.064157 -0.000132 0.737657 -0.669068
1.066776 -0.087207 -0.020496 -0.000231 -0.954868 -0.281686
-1.415975 0.000000 -0.089583 0.000001 -0.063609 -0.993875
1.495901 0.033688 0.083007 0.000043 0.314137 0.945058
0.104706 -0.236634 -0.201465 0.079592 -0.664626 0.742925
0.528413 -0.017191 -0.087918 -0.000188 -0.132811 -0.986637
0.069453 0.087218 0.020448 0.000027 0.955000 0.281202
-0.987602 -0.087237 0.020367 -0.000237 -0.955415 0.279821
-0.568689 0.075053 0.048909 -0.000105 0.867603 0.488950
1.176675 -0.082992 0.033726 -0.000029 -0.944913 0.314538
-1.136769 0.083056 -0.033567 0.000191 0.963300 -0.252745
1.047124 -0.048790 -0.075131 -0.000087 -0.432034 -0.897351
0.279364 0.062400 0.064275 -0.000863 0.648200 0.755826
-1.136769 0.000000 -0.089583 -0.000007 -0.063657 -0.993865
-0.408922 0.017191 -0.087918 0.000076 0.127876 -0.987621
1.236523 -0.082996 -0.033717 0.000182 -0.945030 -0.314194
0.518663 0.064462 -0.062207 0.000305 0.797050 -0.596636
0.189568 -0.087925 -0.017153 0.000120 -0.987718 -0.127427
-0.548449 -0.075182 -0.048711 0.000049 -0.897834 -0.431048
0.479866 -0.082315 0.035345 -0.000201 -0.886304 0.454188
0.687925 -0.049091 -0.074934 -0.000134 -0.596922 -0.797144
0.107576 -0.342139 -0.316273 0.081740 0.664510 -0.742795
1.465697 -0.017137 -0.087929 0.000027 -0.127452 -0.987704
-0.249342 0.087916 0.017201 -0.000053 0.987687 0.127586
1.435695 -0.062118 -0.064548 -0.000029 -0.643562 -0.760049
0.408816 -0.049007 0.074990 0.000152 -0.488456 0.867904
-1.595465 0.019975 -0.087327 -0.024459 0.072448 -0.992325
-0.618243 0.089583 -0.000000 0.000004 0.993844 -0.063767
0.359137 -0.062124 0.064542 0.000090 -0.643787 0.759862
-0.568535 -0.017120 -0.087932 0.000021 -0.133557 -0.986485
1.311681 0.238470 0.213337 -0.007605 0.678144 -0.734889
0.072561 0.330050 -0.281592 0.079592 0.664626 0.742925
0.827481 0.087936 0.017097 -0.000164 0.986559 0.133096
-0.857563 -0.089583 0.000000 -0.000785 -0.993853 -0.060173
0.658321 0.033496 0.083085 0.000147 0.432050 0.897282
1.266242 -0.017108 -0.087934 -0.000838 -0.130654 -0.987070
-0.678073 -0.089583 0.000000 0.000009 -0.993872 -0.063620
-1.366391 0.075026 -0.048951 -0.000129 0.798272 -0.595489
-0.817676 -0.089583 0.000000 0.000085 -0.993827 -0.063822
-0.018082 -0.367671 -0.333998 -0.083863 0.630888 -0.771328
0.065297 0.373069 -0.319299 0.025837 0.676635 0.734811
-1.216542 0.089583 -0.000000 0.000061 0.993855 -0.063708
0.498585 0.083045 -0.033594 0.000001 0.945226 -0.313643
-0.349008 0.017005 -0.087954 0.000904 0.065114 -0.993577
0.628214 -0.017005 -0.087954 -0.000034 -0.063769 -0.993843
-0.388894 0.087918 0.017191 0.000005 0.987681 0.127565
1.106854 0.017005 0.087954 -0.000000 0.063476 0.993900
-1.176655 -0.083059 -0.033561 -0.000004 -0.945312 -0.313390
-0.478640 0.000000 0.089583 -0.000890 -0.065022 0.993595
-1.236486 -0.089583 0.000000 -0.000000 -0.993875 -0.063606
-0.368783 -0.017094 0.087937 -0.000000 -0.127212 0.987750
-0.089576 -0.017094 0.087937 0.000011 -0.127297 0.987734
0.229180 0.017094 -0.087937 -0.000000 0.127212 -0.987750
-1.196599 -0.089583 0.000000 0.000000 -0.993875 -0.063606
-1.027249 -0.017094 -0.087937 -0.000001 -0.127217 -0.987749
-1.206402 0.017094 0.087937 -0.000509 0.128115 0.987573
-1.485777 0.087954 0.017005 0.000099 0.993886 0.063552
0.698397 0.081923 -0.036244 -0.000097 0.852316 -0.515198
-1.406308 0.075053 -0.048909 -0.000105 0.867603 -0.488950
-0.578021 -0.036675 0.081732 0.000157 -0.458701 0.883539
-0.021241 -0.111632 0.124235 0.026536 0.654897 0.754169
0.289345 -0.017096 0.087936 -0.001038 -0.129020 0.987393
-0.069802 0.087954 -0.017005 0.000008 0.993903 -0.063463
-0.309115 0.075185 -0.048706 -0.000058 0.897802 -0.431082
-0.089746 0.087918 0.017191 -0.000203 0.987732 0.127305
0.588356 -0.016941 0.087966 0.000113 -0.251950 0.963503
-1.346202 0.087966 0.016941 -0.000113 0.963503 0.251950
1.007120 -0.087296 -0.020110 0.000220 -0.955329 -0.280104
0.688151 -0.017153 0.087925 0.000022 -0.127454 0.987703
0.618404 0.033600 0.083043 -0.000039 0.313712 0.945195
0.114661 0.209902 0.178616 0.079592 0.664626 -0.742925
1.155970 -0.139894 -0.126284 -0.007605 0.655141 -0.755468
0.078518 0.089259 0.093241 0.081740 -0.664510 0.742795
-0.508133 -0.051439 0.073343 0.000283 -0.623177 0.776906
0.408953 0.048853 -0.075090 0.000825 0.489765 -0.867019
-0.237770 0.068911 -0.057331 -0.000000 -0.745289 0.666742
0.169865 -0.075047 -0.048918 0.000031 -0.797595 -0.596238
-0.508734 0.051375 -0.073388 0.000003 0.622237 -0.777599
0.158362 -0.143411 0.132900 0.081740 0.664510 0.742795
0.917384 -0.064145 0.062534 -0.000215 -0.666176 0.739804
0.558538 0.062230 0.064440 0.000837 0.647554 0.756258
1.367629 0.087338 0.019930 0.000694 0.936438 0.338142
-1.356472 -0.033574 -0.083053 0.000929 -0.317335 -0.943705
0.917597 0.081750 0.036634 -0.000183 0.883693 0.458422
1.535635 -0.089583 0.000000 -0.001696 -0.992674 -0.071774
0.997330 0.033479 0.083092 0.000168 0.251906 0.963546
1.356145 0.000000 0.089583 0.000111 -0.063665 0.993864
-0.877351 -0.083094 -0.033473 -0.000003 -0.945565 -0.312668
-0.388822 -0.048930 -0.075040 0.000044 -0.489115 -0.867534
-0.289178 -0.075178 -0.048717 -0.000898 -0.896933 -0.432435
-1.486021 0.075101 -0.048835 -0.000127 0.868193 -0.487984
-1.535635 0.000000 -0.089583 0.000000 -0.063606 -0.993875
0.249292 -0.087918 -0.017191 0.000150 -0.987775 -0.127084
1.667887 -0.093117 -0.038639 1.000000 -0.000000 -0.000000
1.667887 0.098872 0.019699 1.000000 0.000000 0.000000
1.007228 -0.048801 -0.075123 -0.000250 -0.595857 -0.797996
0.329233 -0.017095 0.087937 0.000003 -0.127150 0.987762
-0.258382 0.093169 -0.083349 -0.083863 -0.630888 -0.771328
0.020108 -0.062270 -0.064401 0.000115 -0.597709 -0.796192
-0.428783 0.073476 -0.051249 -0.000026 0.781651 -0.616434
-0.917219 -0.083026 -0.033643 -0.000074 -0.945466 -0.312983
0.058198 0.542027 -0.484901 -0.083863 -0.630888 -0.771328
-0.198537 -0.071056 -0.054932 -0.081664 -0.695891 0.713489
1.545542 -0.135336 -0.118780 0.016684 -0.669773 0.742378
-0.239759 -0.119572 0.106970 -0.081664 -0.695891 -0.713489
1.415874 -0.081767 -0.036597 0.000092 -0.850025 -0.519014
0.917520 0.033619 0.083035 0.000091 0.313276 0.945366
1.613239 -0.120363 0.106793 0.016684 -0.669773 -0.742378
-1.465833 0.087918 -0.017191 0.000148 0.987724 -0.127346
-0.857420 -0.064504 -0.062164 -0.000131 -0.759434 -0.644280
-0.997127 0.081795 0.036532 -0.000070 0.850403 0.518403
-0.229169 -0.049114 -0.074919 -0.000238 -0.489226 -0.867440
0.937514 0.062293 0.064380 0.000186 0.644447 0.759360
-1.525664 0.087954 0.017005 0.000000 0.993900 0.063476
0.259369 -0.036604 -0.081764 -0.000082 -0.516190 -0.851262
0.957444 0.033479 0.083092 0.000109 0.251826 0.963555
1.543783 0.323719 0.289602 -0.003557 0.676769 -0.736160
1.553793 -0.294976 -0.264777 0.000491 0.657971 -0.753017
1.500231 0.275303 -0.247177 -0.007605 -0.655141 -0.755468
-0.086874 0.211201 0.178840 -0.081664 0.695891 -0.713489
-0.637913 -0.064317 -0.062358 -0.000079 -0.758243 -0.645669
1.589312 0.307757 0.275322 0.012636 0.671189 -0.741152
-0.538349 -0.083029 0.033634 0.000142 -0.945318 0.313405
-0.466642 -0.087630 0.018604 0.001060 -0.986507 0.134071
-0.061219 -0.054645 -0.073277 -0.065494 0.635326 -0.768991
-0.091428 0.186561 -0.155329 -0.081664 0.695891 0.713489
1.437960 0.223615 0.201726 -0.007605 -0.655141 0.755468
0.200193 0.111871 -0.100081 0.079592 0.664626 0.742925
0.579057 0.082040 -0.035979 0.000310 0.887953 -0.449782
0.073461 0.267607 0.225826 0.079592 0.664626 -0.742925
0.021426 -0.294802 0.278692 -0.083863 0.630888 0.771328
0.037184 -0.086915 0.095693 0.081740 0.664510 0.742795
1.383448 0.143189 -0.124671 -0.007605 0.678144 0.734889
0.319257 0.062385 0.064290 -0.000302 0.644675 0.759088
-0.132657 0.095714 0.071442 -0.081664 0.695891 -0.713489
-0.528772 0.075026 0.048951 -0.000129 0.798272 0.595489
1.520407 0.280969 0.250394 -0.007605 0.678144 -0.734889
-0.044427 0.110872 -0.121091 -0.083863 -0.630888 -0.771328
0.069290 -0.348921 -0.298123 0.079592 -0.664626 0.742925
1.434686 -0.126454 -0.117435 -0.007605 0.655141 -0.755468
1.222411 -0.205682 -0.184005 -0.007605 -0.678144 0.734889
0.051369 0.130836 -0.133424 0.081740 -0.664510 -0.742795
1.306283 0.048902 -0.075058 -0.000099 0.487993 -0.868200
1.551140 -0.091139 0.079031 0.016684 -0.669773 -0.742378
1.457360 0.083763 0.031762 -0.000543 0.947946 0.306062
-0.269287 -0.049756 -0.074494 -0.000363 -0.660268 -0.744930
-1.638161 -0.046021 -0.073587 -0.140257 -0.634314 -0.753711
0.078518 0.102390 -0.078563 0.079592 0.664626 0.742925
0.259349 0.033656 0.083020 -0.000848 0.316224 0.944177
1.373951 0.088920 0.084274 -0.007605 -0.655141 0.755468
-0.031422 0.107583 0.071431 0.025837 0.676635 -0.734811
-0.031422 0.107583 -0.071431 0.025837 0.676635 0.734811
1.411563 -0.100179 -0.094416 -0.007605 0.655141 -0.755468
1.367629 -0.087338 0.019930 0.000702 -0.936449 0.338114
1.321820 -0.160406 0.141196 -0.007605 -0.678144 -0.734889
1.594223 0.293218 -0.262315 0.016684 0.669773 0.742378
1.261024 0.199263 0.177682 -0.007605 0.678144 -0.734889
1.418805 0.277816 0.248536 -0.007605 0.678144 -0.734889
1.418805 -0.277816 -0.248536 -0.007605 -0.678144 0.734889
-0.140632 0.128798 0.104622 -0.081664 0.695891 -0.713489
-1.175519 0.065311 -0.061315 -0.000192 0.762770 -0.640201
-0.335787 -0.074651 0.049521 0.002556 -0.779754 0.620020
-0.010194 0.208685 -0.204817 -0.083863 -0.630888 -0.771328
-0.060885 0.149533 -0.115718 -0.081664 0.695891 0.713489
0.005026 0.407004 -0.368682 -0.083863 -0.630888 -0.771328
-0.093148 0.219239 -0.204430 -0.083863 -0.630888 -0.771328
0.059533 -0.117117 -0.120252 0.081740 0.664510 -0.742795
-0.066273 -0.240007 -0.204578 -0.081664 -0.695891 0.713489
1.228266 0.141934 0.125119 -0.007605 0.678144 -0.734889
-0.057979 0.080994 0.095180 -0.083863 -0.630888 0.771328
1.667887 -0.060489 -0.000000 1.000000 -0.000000 0.000000
0.049690 0.087937 -0.017094 0.000044 0.987734 -0.124073
0.126806 -0.320990 0.295236 0.081740 0.664510 0.742795
0.588412 -0.087918 -0.017191 -0.000041 -0.987615 -0.129416
1.465172 0.131532 -0.113542 0.016684 0.669773 0.742378
1.543856 0.242908 0.215794 0.016684 0.669773 -0.742378
0.118428 0.106015 -0.103840 0.081740 -0.664510 -0.742795
-0.092658 0.268839 0.235719 -0.081664 0.695891 -0.713489
1.525929 0.317162 -0.283735 -0.007605 -0.655141 -0.755468
1.305964 0.133037 -0.121848 -0.007605 -0.655141 -0.755468
-0.142602 -0.064849 0.061803 0.001974 -0.730433 0.677990
1.613867 0.235063 -0.210289 0.016684 0.669773 0.742378
0.004211 0.205394 0.162751 0.025837 0.676635 -0.734811
1.433868 0.099638 -0.094172 0.000491 -0.657971 -0.753017
1.486810 -0.089454 -0.076065 0.016684 -0.669773 0.742378
1.507338 -0.248871 0.224327 -0.007605 0.655141 0.755468
0.004211 -0.205394 -0.162751 -0.027915 -0.687056 0.725000
1.442434 -0.118300 0.101094 0.000491 -0.675394 -0.737430
1.172599 -0.143381 0.129476 -0.007605 0.655141 0.755468
1.290517 -0.187808 -0.169190 -0.007605 0.655141 -0.755468
-0.078554 0.096098 -0.065624 -0.081664 0.695891 0.713489
1.269636 0.089353 -0.083599 -0.007605 -0.655141 -0.755468
0.993505 0.092200 0.083289 -0.007605 -0.655141 0.755468
0.993505 -0.092200 -0.083289 -0.007605 0.655141 -0.755468
-1.565593 0.087913 -0.017214 -0.000454 0.987477 -0.128603
-1.116382 -0.082125 0.035785 0.000086 -0.937938 0.334111
-0.528614 -0.017161 -0.087924 -0.000119 -0.133555 -0.986485
-0.257728 -0.081779 0.036569 -0.002084 -0.877480 0.469956
1.146734 0.075228 0.048640 0.000867 0.794963 0.599274
-0.648325 0.017097 -0.087936 -0.000080 0.133046 -0.986589
1.667887 0.000000 -0.020163 1.000000 -0.000000 -0.000000
0.957444 -0.033479 0.083092 0.000010 -0.254974 0.962338
1.516007 0.083171 0.033282 0.000308 0.946373 0.310610
1.630647 -0.031797 -0.089563 -0.152849 -0.226666 -0.958970
1.495956 -0.081855 0.036399 -0.000757 -0.884541 0.456999
0.468885 -0.051367 -0.073393 0.000017 -0.669833 -0.737024
-0.056017 -0.096982 0.108471 -0.083863 0.630888 0.771328
-0.837486 -0.062247 0.064423 0.000737 -0.647142 0.756768
-1.516207 0.036340 0.081881 -0.000012 0.457267 0.884328
0.116035 0.151896 -0.145148 0.081740 -0.664510 -0.742795
0.151528 0.355979 0.313248 0.079592 0.664626 -0.742925
1.558241 0.179367 0.158790 0.016684 0.669773 -0.742378
-0.897658 -0.081893 0.036314 0.000094 -0.851874 0.515928
-0.608702 0.051279 -0.073454 0.000085 0.621765 -0.777942
-0.097973 -0.187927 -0.178295 -0.083863 0.630888 -0.771328
1.256429 0.000000 0.089583 -0.000154 -0.066016 0.993397
-1.256313 -0.062347 0.064327 -0.000900 -0.646479 0.757399
-1.276625 0.033651 -0.083022 -0.000274 0.318570 -0.943215
-0.137163 0.158114 0.132819 -0.081664 0.695891 -0.713489
0.688475 -0.073454 0.051279 -0.000116 -0.777910 0.621811
1.625747 -0.155014 0.139015 0.016684 0.663513 0.747979
0.777789 -0.089583 0.000000 -0.000962 -0.993291 -0.062339
0.200193 0.457682 -0.409446 0.079592 0.664626 0.742925
1.386799 -0.073353 0.051424 0.001293 -0.738342 0.668150
0.018846 0.076419 -0.048937 0.079592 0.664626 0.742925
1.417316 0.083261 0.033056 -0.000935 0.943613 0.317830
0.200193 -0.502788 0.449798 0.081740 0.664510 0.742795
-1.657406 -0.078107 0.028561 -0.231672 -0.855016 0.453556
1.012877 -0.087572 0.077183 -0.007605 -0.678144 -0.734889
-0.199433 0.000000 -0.089583 -0.000077 -0.063605 -0.993875
1.534996 0.082146 -0.035737 0.000881 0.937219 -0.335704
-0.598553 0.036047 0.082011 -0.000131 0.455330 0.885320
0.079295 -0.060154 0.067118 0.081740 0.664510 0.742795
-1.066365 -0.087229 0.020402 0.000184 -0.934143 0.344236
1.061725 -0.146663 -0.131206 -0.007605 -0.678144 0.734889
1.196643 0.107532 0.093700 -0.007605 0.678144 -0.734889
1.572288 -0.091337 -0.079685 0.016684 -0.669773 0.742378
0.016478 0.184771 -0.145615 0.079592 0.664626 0.742925
0.109370 0.204474 -0.192919 0.081740 -0.664510 -0.742795
1.595465 0.000000 0.089583 -0.098861 -0.078437 0.986029
-0.033078 0.252817 -0.238426 -0.083863 -0.630888 -0.771328
-0.102841 -0.127578 -0.099107 -0.081664 -0.695891 0.713489
-0.348842 -0.087936 -0.017098 0.000085 -0.987015 -0.132671
-0.326199 -0.088091 0.016279 -0.000064 -0.987448 0.128248
1.031100 -0.091417 -0.082988 -0.007605 0.655141 -0.755468
0.017032 -0.420503 0.381029 -0.083863 0.630888 0.771328
1.216820 0.081804 0.036514 -0.000167 0.883892 0.458027
0.883185 0.081087 -0.072541 -0.007605 -0.655141 -0.755468
-0.173335 -0.126878 0.106493 -0.081664 -0.695891 -0.713489
-0.045924 -0.111515 -0.121455 -0.083863 0.630888 -0.771328
0.071197 -0.434378 -0.378420 -0.081664 -0.695891 0.713489
-0.239320 0.033567 -0.083056 -0.000111 0.255257 -0.962271
1.136769 -0.089583 0.000000 -0.000862 -0.992483 -0.074294
0.637975 0.082941 0.033850 0.000214 0.945014 0.314262
0.658485 0.082187 -0.035643 -0.000872 0.937851 -0.334109
1.293827 -0.231912 0.207471 -0.007605 -0.678144 -0.734889
0.108582 0.323548 0.279634 0.079592 0.664626 -0.742925
1.432391 0.162072 -0.141589 -0.007605 0.678144 0.734889
1.591669 -0.166077 -0.149589 0.016684 0.663513 -0.747979
0.009302 0.198766 0.198824 -0.028665 -0.643689 0.763680
-0.001557 -0.269175 0.255233 -0.083863 0.630888 0.771328
0.200193 -0.382506 -0.342193 0.079592 -0.664626 0.742925
-0.149456 0.184501 -0.169895 -0.083863 -0.630888 -0.771328
1.286343 0.087918 0.017191 -0.000518 0.986551 0.133129
0.071197 0.434378 -0.378420 -0.081664 0.695891 0.713489
1.468132 -0.159276 0.138639 0.000491 -0.675394 -0.737430
0.200193 -0.187047 -0.167334 0.079592 -0.664626 0.742925
-0.003245 -0.241992 0.199300 -0.081664 -0.695891 -0.713489
0.618229 -0.064413 -0.062258 -0.000128 -0.754968 -0.648965
1.434686 0.130736 0.112649 -0.007605 0.678144 -0.734889
-0.005970 -0.177448 -0.136660 -0.027915 -0.687056 0.725000
-0.001097 -0.229830 -0.223101 -0.083863 0.630888 -0.771328
-1.718994 -0.058770 0.014588 -0.492230 -0.852835 0.140294
0.005008 0.130151 -0.137913 0.081740 -0.664510 -0.742795
1.532033 -0.081187 0.037865 -0.001590 -0.882358 0.462811
1.296399 -0.082973 0.033772 0.000624 -0.944154 0.316434
0.102520 -0.289921 -0.270114 0.081740 0.664510 -0.742795
1.037052 -0.033567 0.083056 -0.000002 -0.255041 0.962360
-1.466272 0.051386 -0.073379 0.000054 0.617664 -0.780738
1.155970 0.139894 -0.126284 -0.007605 -0.655141 -0.755468
-0.089746 0.017191 -0.087918 -0.000101 0.127066 -0.987778
-0.006980 -0.449615 -0.402229 -0.081664 -0.695891 0.713489
-0.024151 -0.174192 0.135565 -0.081664 -0.695891 -0.713489
-0.090677 -0.263378 0.240801 -0.083863 0.630888 0.771328
1.016815 0.062327 0.064346 0.000547 0.645313 0.758481
-1.356472 0.033574 -0.083053 0.000096 0.319259 -0.942912
1.406357 0.087223 -0.020427 0.000235 0.955261 -0.280314
0.448873 0.048825 -0.075108 -0.000013 0.492917 -0.864945
1.647547 -0.048030 0.085034 -0.147863 -0.475923 0.863233
-0.087539 -0.172085 0.166472 -0.083863 0.630888 0.771328
0.529563 -0.087708 0.018230 0.000114 -0.957496 0.272108
-0.628380 -0.017099 -0.087936 0.000046 -0.131819 -0.986838
0.085237 0.483878 -0.440280 -0.083863 -0.630888 -0.771328
1.176820 -0.033479 0.083092 -0.000818 -0.255546 0.962281
-0.123275 -0.145995 0.141247 -0.083863 0.630888 0.771328
0.797738 -0.064257 0.062419 -0.000420 -0.667488 0.739156
1.548028 -0.149692 0.131788 0.016684 -0.669773 -0.742378
-0.092323 0.160006 -0.129531 -0.081664 0.695891 0.713489
0.539208 0.082397 0.035155 -0.000523 0.959799 0.263905
1.609701 -0.071712 0.057298 -0.156069 -0.807064 0.563571
-0.029754 -0.073715 0.050904 -0.000357 -0.853371 0.513420
-1.096901 0.033584 -0.083049 -0.000167 0.320207 -0.942520
1.522734 0.107218 -0.092899 0.016684 0.669773 0.742378
-0.428641 -0.087930 -0.017131 0.000083 -0.986573 -0.131536
-0.269066 0.017094 0.087937 0.000100 0.132771 0.986645
0.847590 0.087918 -0.017191 0.000563 0.986576 -0.133096
0.126245 0.449989 -0.394641 0.079592 0.664626 0.742925
1.342907 -0.220686 0.196603 -0.007605 -0.678144 -0.734889
1.219806 -0.076327 -0.064665 -0.007605 -0.678144 0.734889
1.370178 0.203852 0.180787 -0.007605 0.678144 -0.734889
0.957475 0.081914 0.036265 0.000057 0.884273 0.457346
0.398866 0.089583 -0.000000 -0.000114 0.993845 -0.057485
1.528095 0.254884 -0.226244 0.008588 0.672604 0.739926
1.667887 0.038496 0.057470 1.000000 -0.000000 0.000000
-1.567530 -0.017815 0.087794 -0.001710 -0.065074 0.993439
0.448299 -0.087429 0.019525 -0.000257 -0.956519 0.276074
0.648158 -0.087954 0.017005 0.000756 -0.993902 0.062446
0.085658 0.416601 0.385298 -0.028665 -0.643689 0.763680
1.595465 -0.087327 -0.019975 -0.044295 -0.991033 -0.076026
-0.060050 0.090848 0.058385 -0.081664 0.695891 -0.713489
0.124410 0.153786 0.145918 0.081740 -0.664510 0.742795
1.043871 -0.140105 0.125339 -0.007605 -0.678144 -0.734889
-0.218154 -0.063460 0.063424 -0.000000 0.745289 -0.666742
-0.116236 -0.116082 0.089428 -0.081664 -0.695891 -0.713489
1.667887 -0.036604 0.052214 1.000000 0.000000 0.000000
0.558112 -0.035817 -0.082111 -0.000058 -0.453094 -0.886448
1.577747 0.204402 -0.183896 0.016684 -0.663513 -0.747979
-0.787560 -0.075129 -0.048793 0.000094 -0.867621 -0.488880
1.210456 -0.086472 0.074123 -0.007605 -0.678144 -0.734889
0.029664 -0.256855 -0.248551 -0.028665 0.643689 -0.763680
0.220310 -0.036297 0.081900 -0.000009 -0.457662 0.884092
0.034754 0.271378 -0.260982 -0.028665 -0.643689 -0.763680
1.286788 0.172839 0.156171 -0.007605 -0.655141 0.755468
0.014056 -0.114257 -0.122699 0.081740 0.664510 -0.742795
-0.190009 0.117157 0.098921 -0.081664 0.695891 -0.713489
0.051274 -0.258789 0.247903 0.081740 0.664510 0.742795
-1.516720 -0.063030 -0.063657 0.000327 -0.749929 -0.654627
1.509023 -0.093239 0.079979 0.016684 -0.669773 -0.742378
-0.145671 -0.199419 0.174078 -0.081664 -0.695891 -0.713489
-1.186750 0.075110 0.048822 0.000095 0.867810 0.488518
0.108558 -0.204335 0.172982 0.079592 -0.664626 -0.742925
-0.029476 -0.168623 0.169953 -0.083863 0.630888 0.771328
0.072276 -0.263613 -0.222127 0.079592 -0.664626 0.742925
0.177269 -0.183426 0.161639 0.079592 -0.664626 -0.742925
0.039889 -0.033521 -0.083075 -0.000068 -0.252268 -0.963438
1.416736 0.071732 0.069800 0.000000 -0.745289 -0.666742
-0.002171 0.354506 -0.324960 -0.083863 -0.630888 -0.771328
1.313207 0.198017 0.178272 -0.007605 -0.655141 0.755468
-0.053677 0.226365 0.189830 -0.081664 0.695891 -0.713489
0.983489 0.073930 -0.067344 -0.007605 -0.655141 -0.755468
-1.746849 -0.010236 0.042545 -0.589434 -0.127957 0.792160
0.014392 -0.233340 -0.188842 -0.027915 -0.687056 0.725000
-0.081251 -0.093814 -0.103136 -0.083863 0.630888 -0.771328
-0.797691 -0.083052 0.033578 -0.000016 -0.963271 0.252871
-1.176530 -0.083013 0.033673 -0.000103 -0.945044 0.314106
0.024573 -0.261286 0.214934 -0.027915 -0.687056 -0.725000
1.464956 0.189288 0.172230 -0.007605 -0.655141 0.755468
1.546216 -0.203805 -0.180568 0.016684 -0.669773 0.742378
-0.380810 -0.060149 0.066386 -0.000271 -0.630186 0.772145
1.368142 -0.188221 0.170330 -0.007605 0.655141 0.755468
-1.505887 -0.049355 0.074761 0.000292 -0.598691 0.795786
0.170300 -0.050686 0.073865 -0.000144 -0.617012 0.781751
0.053940 0.176473 -0.142206 0.079592 0.664626 0.742925
-0.011060 0.163475 -0.123614 0.025837 0.676635 0.734811
-0.348899 -0.048728 -0.075171 -0.000186 -0.431482 -0.897601
-0.687878 0.075150 -0.048761 -0.000009 0.897687 -0.431325
0.024309 0.101045 0.109751 0.081740 -0.664510 0.742795
1.366393 0.049134 0.074906 -0.000195 0.490114 0.866951
1.160079 -0.107014 -0.097812 -0.007605 0.655141 -0.755468
1.486768 -0.245738 -0.218232 -0.007605 -0.678144 0.734889
-0.119773 0.064258 -0.062418 0.000224 0.757850 -0.646034
-0.817571 -0.064118 -0.062561 0.000193 -0.668716 -0.737964
0.498761 0.033863 0.082936 -0.000390 0.434150 0.896221
-0.329096 0.087958 -0.016985 -0.000232 0.963389 -0.252348
0.289197 -0.087923 -0.017167 0.000770 -0.987703 -0.126358
-0.023219 -0.394936 0.355740 -0.083863 0.630888 0.771328
-0.023219 -0.394936 -0.355740 -0.083863 0.630888 -0.771328
-0.697890 -0.064440 0.062230 -0.000210 -0.759577 0.644140
-0.448623 -0.049083 -0.074940 -0.000142 -0.489326 -0.867395
1.355785 -0.177970 -0.161316 -0.007605 0.655141 -0.755468
1.485705 0.048890 -0.075065 0.000172 0.488255 -0.868031
0.389396 -0.051612 -0.073221 -0.001014 -0.622051 -0.777689
1.436074 0.033604 0.083041 0.000135 0.313138 0.945417
0.748310 -0.073436 0.051306 0.000202 -0.777393 0.622482
1.517478 -0.174675 -0.158871 0.016684 0.663513 -0.747979
1.056954 0.033567 -0.083056 0.000007 0.252757 -0.963303
1.216573 -0.083062 0.033553 0.000027 -0.963345 0.252608
-1.076470 0.081854 0.036402 -0.000192 0.851188 0.517078
-0.628538 0.075187 -0.048703 0.000077 0.868107 -0.488104
-0.239320 -0.083059 -0.033560 -0.000015 -0.945258 -0.313524
-1.256429 -0.000000 0.089583 0.000001 -0.063610 0.993874
-0.438753 0.000000 0.089583 -0.000000 -0.063606 0.993875
-0.009803 0.017094 0.087937 -0.000073 0.127262 0.987741
-0.558413 0.000000 0.089583 -0.000001 -0.066718 0.993255
0.897449 0.089583 -0.000000 -0.000145 0.992148 -0.077322
-1.415975 -0.000000 0.089583 -0.000012 -0.063651 0.993866
1.336367 -0.033479 0.083092 0.000258 -0.252701 0.963273
0.598135 -0.033479 -0.083092 0.000105 -0.252008 -0.963514
-1.526311 -0.073545 0.051149 0.000001 -0.778678 0.620886
-1.578146 0.063507 -0.063182 -0.004066 0.631600 -0.770533
-1.156664 -0.064384 -0.062288 0.000049 -0.754259 -0.649663
-1.336200 -0.083058 0.033563 -0.000013 -0.945248 0.313552
-1.485998 -0.048850 -0.075092 0.000521 -0.492355 -0.865316
-0.877491 0.033783 0.082969 -0.000083 0.314785 0.944830
0.638459 0.062252 0.064419 -0.000076 0.597482 0.796357
-0.448725 0.017005 -0.087954 -0.000036 0.063772 -0.993843
0.757934 -0.062194 -0.064475 -0.000087 -0.644792 -0.758985
0.269150 0.075076 -0.048875 -0.000048 0.864914 -0.492974
-1.136683 -0.033651 0.083022 -0.000860 -0.315359 0.944531
1.164927 0.117545 0.103269 -0.007605 0.678144 -0.734889
0.309322 -0.073552 0.051140 -0.000294 -0.778419 0.621193
1.098263 0.144112 -0.128473 -0.007605 0.678144 0.734889
0.093806 -0.484439 0.441671 -0.083863 0.630888 0.771328
-1.426033 0.087928 -0.017142 -0.000041 0.987729 -0.127320
-1.007223 0.087928 -0.017142 -0.000043 0.987714 -0.124170
1.525621 -0.017214 -0.087913 -0.000109 -0.127901 -0.987616
0.837619 0.000000 -0.089583 -0.000034 -0.063769 -0.993843
0.668059 -0.017214 -0.087913 -0.000003 -0.127785 -0.987639
0.548399 0.017214 -0.087913 -0.000062 0.127452 -0.987704
-0.717959 0.000000 0.089583 -0.000002 -0.066270 0.993346
1.336202 0.089583 -0.000000 0.001795 0.993514 -0.062241
-0.518526 0.089583 -0.000000 0.000047 0.993904 -0.063456
-0.747874 -0.087918 0.017191 0.000139 -0.987633 0.127812
0.009972 -0.087918 -0.017191 0.000228 -0.987656 -0.124701
1.275973 0.225355 -0.201604 -0.007605 -0.655141 -0.755468
-0.977066 -0.064277 -0.062398 -0.000816 -0.755899 -0.648124
1.520986 -0.072968 -0.068571 0.016684 0.663513 -0.747979
-0.319045 0.064202 0.062476 0.000121 0.666833 0.739177
-1.316564 -0.033600 -0.083043 -0.000893 -0.317867 -0.943493
1.505806 -0.017051 0.087945 0.000023 -0.252624 0.963312
-0.638186 -0.089583 0.000000 0.000175 -0.993863 -0.063666
0.119660 -0.089583 0.000000 -0.000169 -0.993840 -0.058154
1.577747 -0.205432 0.182745 0.016684 -0.669773 -0.742378
0.857728 0.033479 0.083092 -0.000020 0.312721 0.945555
0.738453 0.081798 0.036526 -0.000002 0.881658 0.463160
-1.376088 -0.083058 0.033564 0.000057 -0.945275 0.313488
-1.076939 0.089583 -0.000000 0.000197 0.993859 -0.057546
0.807705 -0.087918 0.017191 -0.000727 -0.987263 0.129576
-0.707988 0.087918 -0.017191 -0.000127 0.987709 -0.127426
-0.907421 0.087918 -0.017191 -0.000184 0.987761 -0.124323
-0.159547 0.000000 -0.089583 -0.000025 -0.063778 -0.993842
-0.329065 -0.017191 -0.087918 -0.000083 -0.127442 -0.987705
-1.346006 0.017095 0.087937 -0.000795 0.131739 0.986851
-1.296522 0.083087 0.033490 0.000119 0.963481 0.252141
0.538676 -0.033490 0.083087 -0.000119 -0.252141 0.963481
-0.767653 0.048801 0.075124 -0.000042 0.492568 0.865101
0.727932 0.017191 -0.087918 0.000081 0.127448 -0.987704
-0.847592 0.087918 -0.017191 -0.000208 0.987656 -0.127693
-0.757846 0.000000 0.089583 0.000212 -0.065628 0.993475
0.688045 0.087918 0.017191 0.000959 0.987245 0.127406
-0.957552 0.064317 -0.062358 0.000024 0.758241 -0.645671
-0.019780 -0.033630 0.083031 -0.000128 -0.313285 0.945347
0.498761 -0.033863 0.082936 -0.000390 -0.434150 0.896221
0.029929 0.201230 -0.198758 0.081740 -0.664510 -0.742795
-0.987026 -0.087937 -0.017094 -0.000014 -0.987701 -0.124234
0.787561 0.075130 -0.048791 -0.001008 0.867065 -0.489589
-0.997051 -0.033637 0.083028 0.000146 -0.313409 0.945316
-0.997051 0.033637 0.083028 0.000146 0.313409 0.945316
-0.947319 0.087923 -0.017164 0.000127 0.987757 -0.124490
1.286386 -0.087913 -0.017214 0.000314 -0.987447 -0.128761
-0.448767 0.087913 -0.017214 -0.000014 0.987654 -0.127706
0.358854 -0.033674 -0.083013 0.000060 -0.320284 -0.942503
-0.269662 0.051380 0.073384 0.000067 0.622122 0.777706
-1.525958 0.048895 -0.075062 -0.000040 0.494240 -0.864073
-0.169921 0.051383 -0.073382 0.000988 0.618711 -0.780069
0.708054 -0.073458 -0.051274 0.000002 -0.778245 -0.621428
-0.568470 0.087945 -0.017051 -0.000023 0.963312 -0.252624
-1.116699 0.033668 0.083016 -0.000046 0.313889 0.945129
-1.406045 -0.048901 0.075058 -0.000075 -0.488524 0.867840
0.024573 0.261286 -0.214934 0.025837 0.676635 0.734811
-0.149621 0.087915 -0.017204 -0.000057 0.987693 -0.127516
-0.041039 0.147392 0.111358 -0.081664 0.695891 -0.713489
1.336202 0.000000 -0.089583 -0.000333 -0.063472 -0.993901
-1.227261 0.050290 0.074135 0.000812 0.505997 0.857342
0.499797 0.082037 0.035987 -0.000096 0.853938 0.512503
-0.428782 0.087918 0.017191 -0.000135 0.987632 0.127819
0.488750 -0.075150 -0.048760 -0.000019 -0.897414 -0.431883
-0.488572 -0.073832 -0.050734 0.000201 -0.856474 -0.507738
0.867534 -0.087918 0.017191 0.000930 -0.987674 0.126102
-0.817638 0.033717 0.082996 0.000182 0.314194 0.945030
-0.359110 0.064137 -0.062542 -0.001714 0.665676 -0.740524
-1.515741 -0.083095 -0.033472 -0.001787 -0.895546 -0.435349
1.525750 0.017142 0.087928 0.000033 0.127306 0.987732
0.002565 0.255838 0.212139 -0.081664 0.695891 -0.713489
-0.687804 -0.075148 -0.048763 -0.000045 -0.868517 -0.487349
0.777789 0.089583 -0.000000 -0.000965 0.993890 -0.059275
