0.169585 0.556238 -0.496052 0.062250 0.667982 0.741569
0.171230 -0.564439 -0.513643 0.066877 0.667782 -0.741347
-0.242695 -0.239813 -0.216016 -0.071797 0.639628 -0.765324
1.450637 -0.078867 -0.050605 -0.000507 -0.768779 -0.633756
-0.076601 0.190049 0.152515 -0.066838 0.692955 -0.717876
-0.109518 -0.156990 0.123669 -0.066838 -0.692955 -0.717876
-0.250586 0.126556 -0.120620 -0.071797 -0.639628 -0.765324
1.673040 0.083653 0.042227 -0.001335 0.898190 0.431280
0.607328 -0.020330 -0.091474 -0.001072 -0.344750 -0.933564
-0.130205 0.097024 -0.067710 -0.066838 0.692955 0.717876
-0.821854 -0.093706 0.000000 -0.005388 -0.990113 -0.106835
0.229025 0.217615 -0.196020 0.066877 -0.667782 -0.741347
0.100226 0.093706 -0.000000 0.000554 0.982211 -0.160075
1.749837 0.116442 0.092640 0.142340 0.650002 -0.746483
1.626240 0.160824 -0.128535 -0.000000 0.669280 0.743010
-0.969876 -0.084380 0.040754 0.000278 -0.840300 0.534443
0.870088 -0.050273 -0.079079 0.000626 -0.635493 -0.766896
-0.130918 -0.306802 -0.270272 -0.066838 -0.692955 0.717876
1.693665 0.084799 -0.039874 -0.002050 0.930672 -0.355178
0.661493 0.000000 0.093706 0.005534 0.047285 0.996447
1.460552 0.077438 -0.052765 0.000347 0.789365 -0.607815
-1.888696 0.000000 0.050011 -0.527030 0.100086 0.831406
-0.192722 0.113660 0.115271 -0.071797 -0.639628 0.765324
0.172915 -0.490365 -0.446767 0.066877 0.667782 -0.741347
-0.037848 -0.086207 0.036732 -0.000865 -0.890776 0.445992
-0.110428 0.311626 0.273021 -0.066838 0.692955 -0.717876
1.563717 -0.082831 -0.043817 0.000221 -0.875045 -0.478400
1.709004 -0.177105 0.175861 0.000000 0.669280 0.743010
1.579691 0.210966 0.177783 -0.074681 0.753252 -0.653479
0.156565 0.115468 -0.110547 0.066877 -0.667782 -0.741347
0.080580 0.173887 -0.170023 0.066877 -0.667782 -0.741347
0.528309 -0.092553 0.014656 -0.000536 -0.977636 0.196222
0.032490 -0.182965 -0.182538 0.066877 0.667782 -0.741347
-1.880781 0.019067 -0.051709 -0.502653 0.438447 -0.731694
0.110900 0.644486 -0.587398 -0.071797 -0.639628 -0.765324
0.169310 -0.310429 0.285012 0.066877 0.667782 0.741347
0.020572 -0.151789 0.155532 0.066877 0.667782 0.741347
-1.007366 0.048123 0.080405 -0.000652 0.495687 0.864664
0.037943 -0.291472 -0.279786 0.066877 0.667782 -0.741347
-0.060136 0.000000 0.093706 -0.004061 0.070526 0.992021
0.079316 0.454409 -0.396751 0.062250 0.667982 0.741569
1.847117 -0.326381 0.293994 0.142340 0.674741 0.724198
-0.208152 -0.194281 0.181203 -0.071797 0.639628 0.765324
-0.220826 0.240893 -0.215022 -0.066838 0.692955 0.717876
-0.062385 -0.019191 -0.091720 -0.004586 -0.321878 -0.941161
-0.037469 -0.227061 0.224611 -0.071797 0.639628 0.765324
0.529656 0.078387 -0.051346 -0.000311 0.801360 -0.592023
1.000910 0.082673 0.044114 -0.000632 0.814636 0.573532
-0.107729 -0.208461 -0.173186 -0.066838 -0.692955 0.717876
1.758298 -0.046548 -0.083830 -0.152628 -0.465032 -0.868247
-1.173730 -0.092404 -0.015566 -0.001647 -0.989872 -0.118663
1.551020 0.083936 -0.041661 0.001187 0.924830 -0.366133
0.871633 0.085491 -0.038369 -0.002181 0.889625 -0.450111
1.031139 -0.075425 0.055605 -0.000005 -0.835519 0.542545
-0.250834 -0.132472 0.113159 -0.066838 -0.692955 -0.717876
0.066903 -0.563244 -0.515371 -0.071797 0.639628 -0.765324
0.037633 0.215416 0.177973 0.062250 0.667982 -0.741569
-1.763271 -0.053828 0.075921 -0.094247 -0.679508 0.719797
-0.052193 -0.514732 -0.463654 -0.071797 0.639628 -0.765324
-1.632978 -0.063207 0.069179 0.000030 -0.732962 0.674998
-1.788323 0.077612 0.045680 -0.135763 0.785466 0.593504
-0.048747 0.080579 -0.047832 0.000145 0.808897 -0.581568
1.635241 0.219960 -0.181802 -0.049852 0.726490 0.684529
-0.195240 0.178479 -0.169207 -0.071797 -0.639628 -0.765324
-1.313222 0.091874 -0.018441 -0.000613 0.962691 -0.255875
-1.417083 0.037618 -0.085824 0.000875 0.456454 -0.885154
0.010033 0.349240 0.331180 -0.071797 -0.639628 0.765324
-1.743935 0.040737 -0.084388 -0.062219 0.460977 -0.879880
0.137607 0.611033 0.542725 0.062250 0.667982 -0.741569
1.193642 0.021267 -0.091261 -0.000591 0.338215 -0.936591
-1.380655 -0.085610 -0.038103 -0.000608 -0.938257 -0.332891
0.107105 -0.464922 0.429786 0.066877 0.667782 0.741347
-0.370115 -0.077080 0.053288 -0.001598 -0.764552 0.639023
0.478760 0.041713 -0.083910 -0.001467 0.497627 -0.862868
0.061508 0.548687 -0.502699 -0.071797 -0.639628 -0.765324
1.847117 0.326381 0.293994 0.142340 0.650002 -0.746483
-0.111201 0.100718 0.069507 -0.066838 0.692955 -0.717876
-0.381082 -0.033590 -0.087479 0.000106 -0.241632 -0.966529
1.449428 0.098932 0.072784 -0.000000 0.669280 -0.743010
-0.299602 0.088703 0.030209 0.000432 0.973264 0.216026
1.790978 -0.088987 0.047448 -0.147046 -0.819910 0.547552
-0.037058 0.442649 -0.392665 -0.066838 0.692955 0.717876
-1.049773 -0.082491 0.044454 0.001655 -0.849607 0.519826
-1.381233 -0.072967 0.058794 -0.000047 -0.821930 0.562985
0.638769 0.085195 -0.039022 0.000132 0.933921 -0.344479
-0.177440 -0.087968 0.095231 -0.071797 0.639628 0.765324
0.193014 -0.511795 0.464257 0.066877 0.667782 0.741347
-1.490095 -0.074141 0.057306 0.001827 -0.857058 0.507731
0.210375 -0.092156 -0.016974 -0.001753 -0.965224 -0.246986
0.882052 -0.061961 0.070297 0.000493 -0.706189 0.702592
-0.460192 0.063423 -0.068981 -0.000123 0.717526 -0.691134
-1.653023 0.019983 0.091551 0.000056 0.267050 0.959427
-0.056717 0.266617 0.255864 -0.071797 -0.639628 0.765324
1.626966 0.031869 -0.088121 -0.000453 0.393391 -0.915446
0.208663 -0.070475 0.061772 0.000000 0.743010 -0.669280
0.441232 -0.047874 0.080554 0.000210 -0.532397 0.841838
-1.282704 -0.086887 -0.035094 0.000184 -0.871402 -0.482962
-0.581809 0.085912 0.037416 -0.000067 0.878550 0.469267
0.035040 0.093668 -0.068090 0.062250 0.667982 0.741569
-0.056531 -0.328482 0.307586 -0.071797 0.639628 0.765324
0.130043 -0.749464 0.676930 -0.071797 0.639628 0.765324
-0.111284 0.138165 -0.143390 -0.071797 -0.639628 -0.765324
0.161667 0.059599 0.072311 0.000746 0.652941 0.752433
0.102302 -0.196790 -0.188694 0.066877 0.667782 -0.741347
0.167829 0.617223 -0.561495 0.066877 -0.667782 -0.741347
1.676656 -0.125171 -0.129080 0.000000 0.669280 -0.743010
0.021237 0.068993 0.063410 -0.000170 0.775619 0.625183
0.704717 -0.059769 0.072171 0.000023 -0.699969 0.708922
-0.502682 -0.079391 -0.049779 -0.000481 -0.826187 -0.557407
1.327591 -0.093521 -0.071218 -0.074681 -0.753252 0.653479
-1.261126 0.034431 0.087151 -0.000937 0.465299 0.881306
0.469341 0.084264 0.040994 -0.002941 0.916803 0.387738
0.153300 -0.564125 0.501789 0.062250 -0.667982 -0.741569
0.043613 0.438544 0.408967 -0.071797 -0.639628 0.765324
-0.004486 -0.346967 -0.297271 -0.066838 -0.692955 0.717876
1.548281 -0.071560 0.060498 -0.001501 -0.828446 0.554253
-0.456277 -0.073176 0.058534 0.000245 -0.791346 0.605026
1.561045 0.143182 -0.112644 0.000000 0.669280 0.743010
0.384679 0.033178 0.087636 -0.000835 0.391355 0.916218
1.807833 0.041362 -0.000000 1.000000 -0.000000 -0.000000
0.162930 0.281761 -0.259764 0.066877 -0.667782 -0.741347
0.806463 -0.086173 0.036812 -0.001382 -0.862135 0.499548
1.826320 0.194266 0.174989 0.142340 0.650002 -0.746483
0.229025 -0.410001 0.369316 0.066877 0.667782 0.741347
-0.197338 -0.305270 -0.274977 -0.071797 0.639628 -0.765324
-0.886883 -0.039499 0.084975 0.001160 -0.356399 0.929170
0.073763 0.363939 -0.341831 0.066877 -0.667782 -0.741347
1.618646 -0.036353 -0.086367 0.001379 -0.476676 -0.874909
0.111036 -0.659725 -0.588416 -0.066838 -0.692955 0.717876
0.162531 0.535060 0.487964 0.066877 -0.667782 0.741347
1.773675 0.054614 -0.081637 -0.149516 0.547068 -0.819665
0.148990 0.748551 0.677944 0.000000 0.743010 0.669280
-1.712651 -0.083048 0.043403 0.000274 -0.865449 0.493621
-0.004175 0.135354 -0.142960 0.066877 -0.667782 -0.741347
-1.711724 -0.080938 -0.047223 -0.001153 -0.868511 -0.487907
-0.845261 0.035888 0.086562 -0.001340 0.429309 0.899370
-0.939277 -0.061568 -0.070642 0.000718 -0.584093 -0.806612
0.661493 -0.093706 0.000000 0.001427 -0.984562 -0.145531
1.633931 0.037702 0.085787 0.000064 0.429513 0.898890
-0.116368 -0.084937 0.039581 -0.000388 -0.846107 0.525940
-0.067240 -0.164099 -0.126595 -0.066838 -0.692955 0.717876
1.440006 -0.092331 0.015997 -0.001503 -0.954319 0.286654
1.073286 0.041607 -0.083963 -0.000354 0.454972 -0.887335
-0.105260 -0.098365 -0.110692 -0.071797 0.639628 -0.765324
1.251763 -0.087419 0.033746 -0.001135 -0.943453 0.319414
0.159992 -0.163865 0.141809 0.062250 -0.667982 -0.741569
-0.064308 0.362476 0.335268 -0.071797 -0.639628 0.765324
-0.131883 -0.187171 0.182415 -0.071797 0.639628 0.765324
-0.192753 -0.097934 -0.102124 -0.071797 0.639628 -0.765324
-1.015219 0.017661 -0.092027 0.000751 0.297491 -0.951231
-0.597750 -0.092319 -0.016062 0.002739 -0.964859 -0.247455
-0.079238 -0.349321 -0.322873 -0.071797 0.639628 -0.765324
0.022552 -0.068116 0.064351 0.000422 -0.636547 0.766551
1.052783 -0.053922 -0.076637 0.001024 -0.472612 -0.877030
-1.180271 0.056946 0.074418 0.000961 0.680013 0.728305
-0.003115 -0.163973 -0.128216 0.062250 -0.667982 0.741569
1.790876 -0.100648 -0.094731 0.142340 0.674741 -0.724198
-0.052193 0.514732 0.463654 -0.071797 -0.639628 0.765324
1.601555 -0.204678 0.168037 -0.048069 -0.724473 -0.686653
1.737105 -0.155334 -0.156250 0.095016 0.674082 -0.731736
-1.623664 0.000000 -0.093706 -0.000917 -0.080193 -0.992542
0.065154 -0.074477 -0.056869 0.000234 -0.740386 -0.666578
0.745106 -0.077367 -0.052870 -0.002216 -0.782746 -0.616876
-0.299722 0.072357 -0.059683 -0.000000 -0.743010 0.669280
-0.324339 -0.121990 0.109885 -0.071797 0.639628 0.765324
1.608891 -0.140768 -0.143130 0.000000 0.669280 -0.743010
-0.055615 0.139443 0.101712 0.019217 0.677322 -0.734761
1.613519 -0.214131 -0.205130 -0.074681 0.571491 -0.817203
0.108037 0.309616 0.268736 0.062250 0.667982 -0.741569
0.143522 -0.046844 -0.081158 0.000060 -0.597840 -0.796960
1.312490 0.085793 0.037689 0.001240 0.923950 0.371452
0.488738 -0.024548 -0.090434 0.000521 -0.382175 -0.918543
1.757108 -0.162632 0.134246 0.142340 -0.650002 -0.746483
0.080181 0.000000 0.093706 -0.001053 0.081743 0.993063
0.882770 0.063295 0.069099 -0.000181 0.624515 0.776208
0.962171 -0.093706 0.000000 -0.003079 -0.985434 -0.136336
-1.074282 0.080464 0.048025 -0.000851 0.847486 0.523589
0.001573 0.296381 0.247877 0.019217 0.677322 -0.734761
0.085351 0.404396 0.377228 0.066877 -0.667782 0.741347
0.792193 0.019193 0.091720 -0.000270 0.258872 0.961912
0.042656 0.551175 0.490001 -0.066838 0.692955 -0.717876
-1.606409 -0.090603 -0.023917 -0.000063 -0.927947 -0.360416
0.229025 0.646785 -0.582603 0.066877 -0.667782 -0.741347
0.229025 0.158419 0.142698 0.066877 -0.667782 0.741347
1.768587 0.223374 -0.213456 0.142340 -0.674741 -0.724198
1.719342 0.322939 0.290894 -0.074681 0.753252 -0.653479
1.507923 0.035181 -0.086851 0.000172 0.435716 -0.895895
1.607270 0.154084 0.155124 0.000000 -0.669280 0.743010
0.128718 -0.105270 0.086404 0.062250 -0.667982 -0.741569
0.214890 -0.603371 0.542311 0.062250 -0.667982 -0.741569
-0.883656 0.019847 -0.091580 -0.003123 0.261843 -0.960829
1.588150 -0.107837 0.113466 -0.000000 0.669280 0.743010
1.676656 0.125171 -0.129080 0.000000 -0.669280 -0.743010
0.709685 -0.019648 -0.091623 0.000582 -0.269872 -0.958608
-1.808215 -0.075811 -0.040308 -0.281268 -0.797278 -0.523841
0.165801 0.357180 -0.327440 0.066877 -0.667782 -0.741347
-1.360640 0.091366 0.020812 0.000798 0.943668 0.320369
1.743935 0.058286 0.073373 -0.055484 0.706369 0.698113
0.176386 -0.628122 -0.561373 0.062250 -0.667982 0.741569
-0.105442 -0.301485 0.280435 -0.071797 0.639628 0.765324
0.229025 0.306408 0.276003 0.066877 -0.667782 0.741347
0.177144 0.723753 -0.656613 0.066877 -0.667782 -0.741347
-1.400729 0.086220 -0.036701 -0.000904 0.890758 -0.446046
0.057540 -0.384447 0.331902 0.062250 -0.667982 -0.741569
1.515383 -0.038585 -0.085394 0.003372 -0.312726 -0.944996
0.348949 -0.028361 -0.089311 -0.006123 -0.357031 -0.928461
-0.240543 -0.093706 0.000000 -0.005458 -0.980388 -0.169198
0.103695 -0.388869 -0.339760 0.062250 -0.667982 0.741569
1.719342 -0.322939 0.290894 -0.074681 -0.753252 -0.653479
0.410257 -0.081455 -0.046324 0.001745 -0.891149 -0.445661
-0.182659 0.055462 -0.075530 -0.000066 0.657203 -0.748678
-0.080161 0.415200 0.370182 -0.066838 0.692955 -0.717876
0.151228 -0.251384 -0.219908 0.062250 -0.667982 0.741569
0.079045 -0.606543 0.540059 -0.066838 -0.692955 -0.717876
1.487740 0.133999 0.104371 -0.000000 0.669280 -0.743010
-1.613587 0.081994 -0.045364 -0.000138 0.898331 -0.431966
0.141248 0.357961 0.315072 0.062250 0.667982 -0.741569
1.495121 -0.172599 0.143224 -0.074681 -0.753252 -0.653479
0.208663 0.068711 -0.063730 0.000000 -0.743010 0.669280
1.258886 0.073720 -0.057847 -0.000028 0.703774 -0.705194
0.159990 -0.662207 0.602723 0.066877 0.667782 0.741347
1.804978 -0.361789 0.325888 -0.038416 -0.738009 -0.670941
1.804978 0.361789 0.325888 -0.038416 0.738009 -0.670941
1.239780 -0.105381 -0.094924 -0.074681 -0.753252 0.653479
1.393925 -0.175310 0.157914 -0.074681 -0.753252 -0.653479
1.719342 -0.322939 -0.290894 -0.074681 -0.753252 0.653479
1.719342 0.322939 -0.290894 -0.074681 0.753252 0.653479
0.111402 0.690629 -0.626009 -0.071797 -0.639628 -0.765324
1.423211 0.093706 -0.000000 -0.000112 0.992657 -0.066210
0.164984 0.242432 -0.212999 0.062250 0.667982 0.741569
-0.946749 -0.036281 0.086398 0.000910 -0.330566 0.939372
1.687225 0.098375 0.104944 -0.000000 -0.669280 0.743010
0.098925 -0.193687 0.163546 0.062250 -0.667982 -0.741569
-0.151980 -0.370727 0.333939 -0.071797 0.639628 0.765324
-0.266014 0.115189 0.097890 -0.066838 0.692955 -0.717876
-1.442831 0.062763 0.069582 0.001028 0.576452 0.812629
-0.810671 0.092294 -0.016209 0.002564 0.965230 -0.246264
-0.795395 -0.056725 -0.074586 0.000083 -0.627401 -0.773879
-1.743935 -0.000000 0.093706 -0.010288 0.134069 0.986006
1.517340 -0.150231 -0.151654 -0.024958 0.637755 -0.769088
0.309819 -0.065902 0.066616 -0.000897 -0.624394 0.775184
0.166476 0.448443 0.409586 0.066877 -0.667782 0.741347
0.229025 -0.705981 -0.635925 0.062250 -0.667982 0.741569
0.229025 0.173218 -0.156029 0.066877 -0.667782 -0.741347
0.229025 -0.646785 -0.582603 0.062250 -0.667982 0.741569
0.009308 0.102036 0.111732 0.066877 -0.667782 0.741347
1.708261 0.233220 0.193747 -0.000000 0.669280 -0.743010
-1.173249 0.090698 -0.023553 0.001758 0.967216 -0.242556
0.174547 -0.434025 -0.395870 0.066877 0.667782 -0.741347
1.837874 -0.267664 -0.241103 0.142340 0.674741 -0.724198
1.837874 0.267664 -0.241103 0.142340 0.650002 0.746483
-0.321174 -0.034182 -0.087249 0.000102 -0.305525 -0.948133
-1.363076 0.000000 -0.093706 -0.001549 -0.081111 -0.992250
-0.914327 -0.092453 -0.015274 -0.000212 -0.968681 -0.234151
1.388190 0.041573 -0.083979 -0.000636 0.494804 -0.864106
0.229025 -0.705981 0.635925 0.066877 0.667782 0.741347
1.705708 -0.234286 0.194707 0.000000 -0.669280 -0.743010
0.065737 0.684921 0.616955 -0.071797 -0.639628 0.765324
0.011308 0.606372 -0.546201 -0.066838 0.692955 0.717876
-0.269910 0.200539 0.180639 -0.071797 -0.639628 0.765324
-0.297125 0.161265 -0.145262 -0.066838 0.692955 0.717876
-0.115694 -0.423093 0.381108 -0.071797 0.639628 0.765324
-0.006835 -0.580189 0.522616 -0.071797 0.639628 0.765324
-0.061264 -0.501641 0.451862 -0.071797 0.639628 0.765324
-0.315268 -0.135082 -0.121677 -0.071797 0.639628 -0.765324
-0.043121 0.527824 -0.475447 -0.066838 0.692955 0.717876
-0.215481 0.279087 0.251393 -0.071797 -0.639628 0.765324
-0.682048 0.021702 0.091159 0.000249 0.283903 0.954405
-1.065913 -0.031548 0.088236 -0.000001 -0.448107 0.889880
0.087653 -0.336444 0.291191 0.062250 -0.667982 -0.741569
0.149433 -0.263335 0.230522 0.062250 -0.667982 -0.741569
0.991991 -0.017456 0.092066 0.000149 -0.244803 0.965658
1.775632 0.276342 0.236791 0.142340 0.650002 -0.746483
1.734814 0.140781 -0.143141 0.047570 -0.672261 -0.738007
-1.040804 0.088140 -0.031816 0.000276 0.953871 -0.288035
0.320724 0.000000 0.093706 0.001905 0.077620 0.990657
0.932103 -0.017032 0.092146 0.000007 -0.060780 0.994412
1.517340 0.150231 -0.151654 -0.049852 -0.605159 -0.793819
0.301721 0.065261 -0.067245 0.000087 0.628313 -0.773124
1.451843 0.121344 -0.092972 0.000000 0.669280 0.743010
-1.281813 0.069514 -0.062839 0.000295 0.813929 -0.574533
0.744232 0.084963 0.039524 0.001382 0.873652 0.479112
0.079045 0.606543 0.540059 -0.066838 0.692955 -0.717876
-1.325862 0.034272 0.087214 -0.000736 0.458693 0.884995
0.180894 -0.375571 0.342644 0.066877 0.667782 0.741347
-0.381630 -0.083529 -0.042472 0.000102 -0.828563 -0.552276
-0.577053 0.065578 -0.066936 0.000431 0.735709 -0.672087
-1.439353 -0.084937 -0.039581 -0.000388 -0.846107 -0.525940
0.122624 -0.341567 -0.298741 0.062250 -0.667982 0.741569
-0.092970 0.229787 0.192397 -0.066838 0.692955 -0.717876
0.229025 0.705981 -0.635925 0.066877 -0.667782 -0.741347
-0.675366 -0.011896 -0.092948 0.000876 -0.201967 -0.976503
-0.557837 0.032279 0.087971 -0.000265 0.451654 0.888062
1.349625 -0.023342 0.090752 0.002927 -0.300464 0.949456
0.229025 0.114022 0.102707 0.066877 -0.667782 0.741347
1.634036 -0.023804 0.090633 0.002442 -0.306766 0.947484
0.134632 0.485941 0.446235 0.066877 -0.667782 0.741347
1.773174 -0.264693 0.226179 0.142340 -0.650002 -0.746483
-0.007282 -0.211191 0.170398 0.062250 -0.667982 -0.741569
1.731569 -0.087414 -0.033760 -0.000577 -0.921381 -0.379816
-0.006503 -0.429587 -0.377211 -0.066838 -0.692955 0.717876
0.128732 0.105274 0.086408 0.062250 0.667982 -0.741569
-0.706399 0.082377 0.044664 0.001147 0.891736 0.444627
1.695565 0.045265 -0.082049 -0.001681 0.488322 -0.868437
-1.482431 0.093252 -0.009213 0.000115 0.978592 -0.196342
-0.032628 0.448952 0.410513 -0.071797 -0.639628 0.765324
-0.761719 0.000000 0.093706 0.005427 0.110136 0.990209
0.233455 -0.017661 -0.092027 -0.000751 -0.297491 -0.951231
1.719456 -0.241923 -0.234247 -0.024958 0.637755 -0.769088
-0.551684 -0.064246 0.068216 -0.003692 -0.600561 0.794528
0.045853 -0.098673 -0.105406 0.066877 0.667782 -0.741347
0.549241 -0.055410 -0.075569 -0.000719 -0.543369 -0.835161
-0.240631 0.041665 -0.083934 -0.001734 0.542888 -0.835178
0.092310 0.232692 0.198125 0.062250 0.667982 -0.741569
1.029143 0.048203 0.080357 -0.000430 0.405447 0.910452
0.585246 -0.043117 0.083197 0.000513 -0.557283 0.825582
-0.137531 -0.036545 0.086286 0.000571 -0.455903 0.885940
-0.034933 -0.377101 0.329194 -0.066838 -0.692955 -0.717876
0.177144 -0.723753 -0.656613 0.066877 0.667782 -0.741347
1.449968 -0.119667 -0.124123 -0.024958 0.637755 -0.769088
1.629635 0.092357 -0.015846 0.000385 0.990795 -0.107146
-0.260838 -0.213630 0.192431 -0.071797 0.639628 0.765324
1.511477 -0.019744 0.091603 0.001995 -0.338662 0.935871
1.812455 0.106190 -0.095652 0.142340 0.650002 0.746483
1.076543 -0.092651 -0.014026 -0.000655 -0.959716 -0.268890
1.642753 0.247660 -0.231249 -0.074681 -0.571491 -0.817203
0.975497 -0.039777 -0.084845 0.000021 -0.456736 -0.885374
-0.829790 -0.070907 0.061262 -0.001067 -0.700984 0.707644
-0.079408 -0.475458 -0.428278 -0.071797 0.639628 -0.765324
1.345514 0.112814 0.109785 -0.074681 -0.571491 0.817203
1.345514 0.120935 -0.100769 -0.074681 0.753252 0.653479
0.107105 -0.464922 -0.429786 0.066877 0.667782 -0.741347
0.399370 0.070446 -0.061792 -0.000450 0.783419 -0.614512
1.287979 -0.053178 -0.077156 -0.000149 -0.595504 -0.798857
1.561045 -0.143182 -0.112644 -0.000000 -0.669280 0.743010
-0.178166 -0.274130 0.250750 -0.071797 0.639628 0.765324
0.016308 0.531223 -0.473195 -0.066838 0.692955 0.717876
-0.036550 0.341846 -0.295313 -0.066838 0.692955 0.717876
0.843319 0.093155 0.010154 0.000178 0.982220 0.173329
-1.638908 -0.067707 -0.064782 0.000471 -0.639502 -0.764393
0.522670 0.009529 0.093221 -0.002615 0.197332 0.978337
1.310544 -0.091336 0.020943 0.000044 -0.957869 0.271007
-0.012441 -0.091336 -0.020943 0.000044 -0.957869 -0.271007
-0.461040 0.000000 0.093706 0.001963 0.039732 0.996807
-0.010115 -0.321493 0.273205 -0.066838 -0.692955 -0.717876
-0.387785 0.091445 0.020462 -0.002473 0.957362 0.272563
-0.093102 -0.391937 -0.357189 -0.071797 0.639628 -0.765324
0.078643 0.279948 -0.265734 0.066877 -0.667782 -0.741347
0.092033 -0.235944 0.224889 0.066877 0.667782 0.741347
0.126289 0.163562 -0.138708 0.062250 0.667982 0.741569
-0.192211 0.166634 0.140678 -0.066838 0.692955 -0.717876
-0.238819 -0.075089 0.056650 -0.000000 0.743010 -0.669280
1.415672 -0.104401 0.077710 0.000000 -0.669280 -0.743010
0.024905 0.184057 -0.148659 0.062250 0.667982 0.741569
-0.400134 0.083529 -0.042472 -0.000102 0.828563 -0.552276
-1.049371 -0.091940 -0.018110 0.001174 -0.961227 -0.261404
-0.037901 0.086044 0.037111 -0.000291 0.891283 0.445146
0.125060 0.142593 0.137822 0.066877 -0.667782 0.741347
-0.087343 -0.063724 -0.068703 -0.000270 -0.625948 -0.774600
-0.200332 0.038774 0.085308 0.001458 0.526804 0.844977
0.220498 0.000000 0.093706 -0.002536 0.127078 0.986978
-1.840327 0.055050 0.051630 -0.362516 0.767740 0.517270
-0.233644 0.092903 0.012243 0.001736 0.993511 0.084555
0.167432 -0.479404 0.426661 0.062250 -0.667982 -0.741569
1.102488 0.093706 -0.000000 0.001663 0.994761 -0.054305
0.298344 -0.087366 -0.033884 0.000996 -0.951436 -0.294841
0.154291 0.504591 -0.448246 0.062250 0.667982 0.741569
-1.837466 0.056669 -0.051525 -0.358778 0.776431 -0.507135
0.300907 0.088099 0.031928 -0.000766 0.953703 0.288712
-1.896881 -0.041898 0.014355 -0.606294 -0.732925 0.291928
-0.008825 0.247248 -0.244170 0.023959 -0.660184 -0.750052
-0.204457 -0.145067 -0.140418 -0.071797 0.639628 -0.765324
-1.123004 0.045821 -0.081739 0.003747 0.406454 -0.908261
-1.413505 0.016797 0.092189 -0.001733 0.109765 0.989071
-0.055615 -0.114792 0.129079 0.020648 0.659524 0.750637
1.596133 0.110158 0.082896 -0.000000 0.669280 -0.743010
-0.066013 0.085358 -0.103503 0.020648 -0.659524 -0.750637
-0.026037 -0.167450 0.129423 0.062250 -0.667982 -0.741569
0.789007 0.028322 -0.089324 -0.001079 0.263978 -0.961311
-1.211676 -0.020147 -0.091515 -0.000893 -0.264119 -0.958917
1.642753 0.247660 0.231249 -0.074681 -0.571491 0.817203
1.271769 0.069226 0.072563 -0.000000 -0.743010 -0.669280
0.586922 0.053336 -0.077046 -0.000213 0.620352 -0.779478
1.012658 0.064374 -0.068095 -0.000660 0.698975 -0.709629
1.807833 0.101412 0.020205 -0.143602 0.943459 0.288474
1.192799 0.052877 0.077362 -0.000104 0.654958 0.750746
-0.521371 -0.034331 -0.087191 -0.000396 -0.302913 -0.948960
1.574812 0.224959 -0.194471 -0.074681 0.753252 0.653479
-0.005366 0.092759 -0.104698 0.066877 -0.667782 -0.741347
-1.523318 0.038774 -0.085308 0.001458 0.526804 -0.844977
0.123855 0.214500 -0.184387 0.062250 0.667982 0.741569
-0.952339 0.059403 0.072472 0.001014 0.573668 0.814908
-0.012481 0.176008 0.180329 0.066877 -0.667782 0.741347
-0.167887 0.088938 -0.029512 -0.001461 0.954475 -0.286025
0.521176 0.093706 -0.000000 0.001670 0.986102 -0.137362
0.026457 0.593355 0.532225 -0.066838 0.692955 -0.717876
0.050197 -0.519648 0.458866 -0.066838 -0.692955 -0.717876
1.779402 0.160121 0.152397 0.142340 -0.674741 0.724198
-0.768965 0.018402 -0.091882 -0.002042 0.237897 -0.967552
0.229025 -0.306408 0.276003 0.066877 0.667782 0.741347
-0.666402 -0.066456 0.066064 -0.002686 -0.744669 0.661723
1.455644 -0.013368 0.092748 -0.005822 -0.243074 0.967238
-0.148718 -0.092684 -0.013805 0.002699 -0.992401 -0.088540
1.825395 -0.346731 -0.317223 0.070189 0.643817 -0.759519
1.825395 0.346731 -0.317223 -0.038416 -0.590446 -0.803861
1.211770 0.091989 -0.017857 0.000303 0.959947 -0.263719
-1.142578 0.000000 0.093706 0.000294 0.040026 0.997176
-0.489162 0.090457 -0.024461 -0.005156 0.974178 -0.214418
1.506872 0.194137 0.166707 -0.074681 0.753252 -0.653479
0.040293 0.015103 -0.092481 0.000062 0.196196 -0.977550
1.747158 -0.099422 0.077308 0.142340 -0.650002 -0.746483
0.229025 0.469197 -0.422638 0.066877 -0.667782 -0.741347
1.663973 0.153161 0.154293 -0.000000 -0.669280 0.743010
0.207471 -0.225678 0.201474 0.062250 -0.667982 -0.741569
0.130299 -0.703773 -0.638768 -0.071797 0.639628 -0.765324
-0.019491 -0.449422 0.412138 -0.071797 0.639628 0.765324
0.037965 0.396251 0.340892 0.019217 0.677322 -0.734761
0.962171 0.093706 -0.000000 -0.001650 0.986786 -0.128712
-0.147316 0.347531 0.311115 -0.066838 0.692955 -0.717876
-0.029998 -0.071733 0.087981 0.066877 0.667782 0.741347
0.133167 0.694981 0.631689 -0.071797 -0.639628 0.765324
-0.024978 -0.554007 -0.499031 -0.071797 0.639628 -0.765324
0.162674 -0.084515 -0.040473 0.000965 -0.861506 -0.500029
0.091015 -0.300918 -0.283508 0.066877 0.667782 -0.741347
0.041323 0.155509 0.157010 0.066877 -0.667782 0.741347
0.199941 0.090924 0.022664 0.002593 0.960105 0.266304
0.178068 0.579694 0.526766 0.066877 -0.667782 0.741347
1.391453 -0.076097 -0.054682 0.000423 -0.761050 -0.642881
1.344029 -0.132407 -0.123351 -0.074681 0.571491 -0.817203
-0.351554 0.082716 -0.074508 -0.066838 0.692955 0.717876
-1.682431 0.084983 0.039482 -0.000139 0.846754 0.524452
0.129783 0.019296 -0.091698 0.004289 0.254468 -0.962806
0.111765 -0.417720 0.366426 0.062250 -0.667982 -0.741569
-1.603619 -0.000000 0.093706 0.000503 0.135975 0.985802
-1.670305 0.092116 -0.017189 -0.002264 0.989740 -0.111706
-1.533453 0.018579 0.091846 0.000113 0.312411 0.945853
-1.232843 -0.092141 -0.017054 -0.000779 -0.988994 -0.119001
-1.280688 -0.083035 0.043428 0.001108 -0.859811 0.502827
-0.291352 -0.084461 -0.070588 -0.066838 -0.692955 0.717876
1.468792 -0.109161 0.114659 -0.000000 0.669280 0.743010
0.100352 -0.567455 0.500345 0.019217 -0.677322 -0.734761
1.807833 0.016227 0.048098 1.000000 0.000000 -0.000000
0.969883 0.035861 -0.086573 -0.000621 0.408261 -0.908646
0.190719 0.322019 -0.293520 0.066877 -0.667782 -0.741347
1.581159 0.041090 0.084217 -0.000943 0.341955 0.934216
0.090142 -0.092141 0.017054 -0.000754 -0.988997 0.120191
-1.329130 -0.066956 0.065558 0.000059 -0.623681 0.776917
0.142523 0.213148 0.199801 0.066877 -0.667782 0.741347
1.071510 -0.050498 0.078936 -0.000041 -0.485818 0.869806
0.208645 0.343487 0.307691 0.062250 0.667982 -0.741569
-0.944438 0.084515 -0.040473 -0.000965 0.861506 -0.500029
-0.203011 -0.084963 -0.039524 -0.001382 -0.873652 -0.479112
0.118332 0.544314 -0.500286 0.066877 -0.667782 -0.741347
1.807833 -0.053576 -0.067000 1.000000 0.000000 0.000000
0.054178 -0.109233 0.114167 0.066877 0.667782 0.741347
0.734449 -0.019757 0.091600 -0.002604 -0.240974 0.966701
0.202070 -0.056387 -0.074842 -0.000057 -0.628622 -0.772857
-1.088559 -0.077606 -0.052519 -0.000380 -0.772487 -0.629139
1.807833 -0.057313 0.086069 -0.144619 -0.462138 0.871202
-0.896208 -0.035318 -0.086796 -0.002106 -0.292765 -0.952190
0.085351 0.404396 -0.377228 0.066877 -0.667782 -0.741347
1.318984 -0.105624 0.086152 -0.074681 -0.753252 -0.653479
-0.787257 0.087346 0.033934 -0.000499 0.882697 0.462515
-1.171343 -0.083450 0.042625 0.000433 -0.865309 0.493621
-0.561266 0.000000 -0.093706 0.001826 -0.043132 -0.996792
0.921407 -0.083596 0.042339 -0.000007 -0.862856 0.496908
1.703055 -0.067849 -0.077447 -0.000000 0.669280 -0.743010
1.131005 0.078046 0.051862 -0.001596 0.849919 0.518668
1.693360 -0.102729 0.076204 0.000000 -0.669280 -0.743010
0.398183 -0.071337 0.060761 -0.000190 -0.698327 0.710482
-0.613435 -0.043814 -0.082832 0.000252 -0.561897 -0.822196
-1.552242 0.075464 0.055553 -0.000100 0.724757 0.683588
0.052416 -0.602593 -0.546898 -0.071797 0.639628 -0.765324
0.060220 0.087563 0.033369 0.000033 0.967015 0.239582
-0.709132 -0.065510 -0.067002 0.000068 -0.629947 -0.771844
0.484745 -0.077700 0.052379 -0.000104 -0.772879 0.628616
1.781703 -0.182858 -0.156547 0.142340 -0.650002 0.746483
1.620037 -0.193037 -0.157551 0.000000 -0.669280 0.743010
0.006902 0.257433 0.213242 0.062250 0.667982 -0.741569
-0.090214 0.338114 -0.312477 -0.071797 -0.639628 -0.765324
0.585371 -0.088654 0.030354 0.000198 -0.898549 0.430292
-0.882204 0.066675 0.065843 -0.000338 0.656244 0.749788
-0.987168 -0.044155 -0.082651 0.000284 -0.567414 -0.818673
0.229025 0.543192 -0.489290 0.066877 -0.667782 -0.741347
-0.045218 0.144227 0.154655 0.020648 -0.659524 0.750637
-0.840594 0.061566 -0.070644 -0.000212 0.684793 -0.723618
0.048273 -0.312414 0.266240 0.062250 -0.667982 -0.741569
1.551021 0.092745 0.013386 0.001664 0.972871 0.214105
0.201179 0.387345 -0.351420 0.066877 -0.667782 -0.741347
-0.450770 0.017456 -0.092066 -0.000149 0.244803 -0.965658
-0.472501 0.083008 0.043481 -0.000262 0.821348 0.563554
-1.469174 0.019978 -0.091552 0.000934 0.332609 -0.938528
0.586323 0.072413 0.059474 0.000142 0.839571 0.536426
-1.204548 -0.057196 0.074226 -0.001151 -0.672965 0.734742
-0.603025 0.056385 0.074844 -0.000434 0.528668 0.843998
1.569998 0.081991 -0.090185 -0.000000 -0.669280 -0.743010
-0.024422 0.203096 -0.205806 0.020648 -0.659524 -0.750637
1.407187 -0.037439 -0.085902 0.000394 -0.440655 -0.893677
0.157513 0.061568 -0.070642 -0.000718 0.584093 -0.806612
0.111038 -0.087276 -0.034114 -0.001176 -0.897350 -0.432599
-0.371507 0.011561 0.092990 0.003232 0.215324 0.973943
-0.723671 0.080971 -0.047165 0.000526 0.914085 -0.396478
0.180723 0.657605 0.596707 0.066877 -0.667782 0.741347
-1.128103 0.062330 0.069971 0.000019 0.579381 0.810434
-1.270995 -0.055891 -0.075214 -0.000141 -0.645846 -0.758545
-1.642873 0.064985 0.067512 -0.000027 0.646284 0.758183
0.628918 -0.077316 -0.052945 0.000432 -0.791067 -0.605633
-1.906953 0.035116 0.010199 -0.606294 0.732925 0.291928
-0.351704 0.016763 -0.092195 -0.000187 0.295997 -0.951351
-0.180284 0.239547 0.221648 -0.071797 -0.639628 0.765324
-1.388608 -0.052063 -0.077912 0.000144 -0.508137 -0.856541
-0.089045 -0.252210 0.240791 -0.071797 0.639628 0.765324
0.745324 0.089531 -0.027659 0.000709 0.968378 -0.238436
0.903216 0.049633 -0.079483 0.000338 0.555319 -0.827591
1.228067 -0.080403 -0.048128 0.000105 -0.808963 -0.581466
0.117125 -0.571279 -0.505197 0.062250 -0.667982 0.741569
0.411469 0.092270 -0.016343 0.001297 0.989856 -0.119334
-0.251082 0.014867 0.092519 0.001173 0.279564 0.956457
1.552878 -0.231214 -0.204188 -0.074681 -0.753252 0.653479
-1.428516 -0.055816 0.075269 -0.000004 -0.652390 0.752936
1.416140 0.136076 -0.132506 -0.074681 -0.571491 -0.817203
-1.546515 0.076167 -0.054584 0.000010 0.846548 -0.525732
1.071638 0.082021 -0.045315 0.003631 0.805526 -0.585572
0.195565 0.144706 -0.127538 0.062250 0.667982 0.741569
0.307339 -0.055543 -0.075471 0.002058 -0.623644 -0.777641
-0.250972 -0.019193 -0.091720 0.000270 -0.258872 -0.961912
0.010549 -0.381122 0.357874 -0.071797 0.639628 0.765324
-0.944797 0.050318 -0.079050 0.000210 0.565502 -0.820220
0.752443 -0.074953 0.056239 0.000324 -0.743623 0.662645
-0.001390 -0.224649 -0.183015 0.062250 -0.667982 0.741569
-1.309695 0.025335 -0.090216 0.001784 0.386268 -0.918647
0.213090 -0.358199 -0.321317 0.062250 -0.667982 0.741569
-0.003843 0.301351 -0.289854 -0.071797 -0.639628 -0.765324
0.067800 0.219877 -0.212602 0.066877 -0.667782 -0.741347
-0.520171 0.064196 -0.068262 -0.000155 0.635689 -0.767070
-0.094097 0.037618 0.085824 0.000875 0.456454 0.885154
0.833066 -0.015082 -0.092485 0.000548 -0.267844 -0.960285
-0.097491 0.186818 -0.151341 -0.066838 0.692955 0.717876
-1.729684 0.080001 -0.048792 0.000785 0.843375 -0.531151
-0.003043 0.389444 -0.338139 -0.066838 0.692955 0.717876
1.603212 0.115737 -0.120583 -0.000000 -0.669280 -0.743010
1.480330 0.153708 0.150703 -0.074681 -0.571491 0.817203
1.794429 -0.318108 -0.276743 -0.002151 -0.722767 0.688403
1.794429 0.318108 -0.276743 -0.009101 0.725806 0.685169
-0.342297 -0.045541 0.081895 0.000581 -0.516056 0.852524
1.155601 -0.083814 0.041907 0.000497 -0.934432 0.347372
-1.563528 0.000000 -0.093706 0.001986 -0.046851 -0.995845
1.656372 -0.085225 0.038955 0.000802 -0.854932 0.509721
-0.515951 0.091828 0.018666 0.002182 0.968981 0.232609
1.713095 0.216711 -0.178876 -0.000000 0.669280 0.743010
0.189492 0.272376 0.242029 0.062250 0.667982 -0.741569
-0.066013 -0.110909 -0.075137 -0.023812 -0.685646 0.726863
1.601527 -0.067015 0.076695 -0.000000 0.669280 0.743010
0.070556 0.614124 -0.558238 -0.071797 -0.639628 -0.765324
-1.050021 0.051716 -0.078143 0.000852 0.593707 -0.798950
0.004596 -0.258689 0.214179 0.062250 -0.667982 -0.741569
0.279492 0.035832 0.086585 -0.001401 0.423028 0.902039
-1.509202 -0.092611 0.014285 0.001553 -0.978162 0.194148
-1.695801 0.013601 -0.092714 0.002087 0.227428 -0.970999
-0.575534 -0.025463 0.090180 0.001123 -0.321676 0.942406
0.952790 0.074302 0.057097 0.000394 0.752204 0.653172
-0.062906 0.038217 -0.085559 0.001425 0.431046 -0.898088
-1.082443 0.093706 -0.000000 0.000132 0.994842 -0.056435
1.374050 0.082422 -0.057913 -0.000000 -0.743010 0.669280
-0.096008 0.401201 -0.358144 -0.066838 0.692955 0.717876
1.310842 0.092427 -0.015434 0.001121 0.973210 -0.216048
0.171533 -0.532330 -0.474680 0.062250 -0.667982 0.741569
1.657520 -0.121395 0.125680 -0.000000 0.669280 0.743010
0.685655 0.075977 -0.054849 -0.000763 0.877291 -0.471835
1.743935 0.084522 -0.040458 -0.024786 0.901257 -0.424678
0.149737 0.090698 0.023553 0.001758 0.967216 0.242556
1.615493 -0.080464 -0.048025 0.000855 -0.847461 -0.523629
-0.212737 0.090951 -0.094413 -0.071797 -0.639628 -0.765324
-0.315173 0.061727 0.070503 0.000613 0.744516 0.661961
1.681297 -0.039472 0.084987 -0.000122 -0.490105 0.868048
1.500000 -0.082422 -0.057913 0.001229 0.743009 0.669278
-0.796628 0.046309 0.081464 0.002003 0.432514 0.898224
0.835064 -0.048203 0.080357 0.000430 -0.405447 0.910452
-0.143889 -0.231488 -0.198781 -0.066838 -0.692955 0.717876
-0.232603 -0.166696 0.144498 -0.066838 -0.692955 -0.717876
-0.881990 0.093706 -0.000000 0.002472 0.988442 -0.120923
0.238890 0.036332 -0.086376 0.001065 0.413666 -0.905988
1.743935 0.000000 -0.093706 -0.039725 -0.067320 -0.990909
1.437430 0.035318 0.086796 0.002106 0.292765 0.952190
1.557827 -0.209133 0.196545 -0.074681 0.571491 0.817203
1.500000 0.082422 0.057913 0.007373 -0.742987 -0.669259
1.770883 -0.237959 -0.226593 0.142340 0.674741 -0.724198
-0.717665 -0.073720 0.057847 0.000028 -0.703774 0.705194
-0.652499 0.062820 -0.069531 -0.001356 0.712077 -0.697314
0.420950 0.000000 0.093706 0.006989 0.143824 0.984663
-1.379583 -0.092737 0.013443 0.005890 -0.967478 0.242828
0.061579 -0.510423 -0.470726 -0.071797 0.639628 -0.765324
1.466200 -0.043113 -0.083199 -0.000636 -0.492667 -0.865643
-0.468280 -0.092618 -0.014238 0.002622 -0.977579 -0.196346
0.171112 -0.332756 -0.294874 0.062250 -0.667982 0.741569
-1.245479 0.072300 0.059612 -0.000669 0.766791 0.636566
-0.040019 -0.158944 -0.167442 -0.025576 0.650139 -0.758630
-0.681538 0.093706 -0.000000 -0.003398 0.993574 -0.071382
0.229025 -0.143620 0.129368 0.066877 0.667782 0.741347
-1.909073 -0.019196 -0.029072 -0.632945 -0.508224 -0.579265
-0.653892 -0.091829 -0.018662 0.003034 -0.967984 -0.236206
1.553004 -0.092314 0.016093 0.000153 -0.989410 0.114095
1.651650 -0.192154 0.156756 0.000000 -0.669280 -0.743010
0.229025 -0.217615 -0.196020 0.062250 -0.667982 0.741569
1.667078 -0.110439 -0.083149 -0.000000 -0.669280 0.743010
-0.146499 -0.126100 0.097294 -0.066838 -0.692955 -0.717876
-0.104388 -0.153754 -0.157066 -0.071797 0.639628 -0.765324
1.822827 -0.286438 0.261553 0.142340 0.674741 0.724198
1.822827 0.289957 0.257646 0.142340 0.650002 -0.746483
0.699386 0.074606 0.056699 -0.000047 0.832222 0.548311
0.166302 0.426797 -0.379180 0.062250 0.667982 0.741569
0.096275 -0.264890 -0.250580 0.066877 0.667782 -0.741347
-1.849191 -0.013479 -0.070479 -0.376614 -0.268525 -0.881667
1.074957 -0.011929 -0.092944 -0.000859 -0.199405 -0.976962
-0.752780 -0.046544 0.081330 0.000021 -0.551395 0.830040
1.776847 0.136597 -0.115340 0.142340 0.650002 0.746483
-1.542697 -0.069932 0.062373 -0.002568 -0.802326 0.592867
-0.077351 -0.214563 0.176248 -0.066838 -0.692955 -0.717876
0.849901 -0.082602 -0.044246 -0.000333 -0.900755 -0.426825
0.002890 -0.108124 -0.078413 0.062250 -0.667982 0.741569
-0.967762 0.017532 0.092052 -0.002937 0.114917 0.989550
-1.046198 0.016284 0.092281 -0.001118 0.269872 0.959518
0.063960 -0.467586 0.407330 0.019217 -0.677322 -0.734761
-1.545582 -0.088918 -0.029570 -0.000245 -0.963902 -0.255293
0.136486 0.018304 0.091901 -0.002212 0.306044 0.947908
0.376333 -0.092760 -0.013287 -0.002823 -0.973008 -0.217193
-1.790481 -0.078256 0.043803 -0.145708 -0.804169 0.566621
-0.563944 -0.090655 0.023717 0.000058 -0.930432 0.355474
1.156696 0.054052 -0.076546 0.001720 0.615509 -0.784313
1.365462 0.032802 0.087778 0.000610 0.273670 0.958446
-1.102799 -0.081111 0.046925 0.000927 -0.835034 0.544455
-0.106480 -0.341472 0.313757 -0.071797 0.639628 0.765324
0.199141 -0.294094 -0.262402 0.062250 -0.667982 0.741569
1.500000 -0.082422 0.057913 0.003687 0.743002 -0.669272
0.229025 0.661584 0.595933 0.066877 -0.667782 0.741347
-0.360814 -0.093706 0.000000 -0.000316 -0.981399 -0.153124
-0.104626 0.232042 -0.222474 -0.071797 -0.639628 -0.765324
-1.092710 -0.037702 -0.085787 -0.000064 -0.429513 -0.898890
1.310721 0.015716 -0.092379 -0.000586 0.216531 -0.973054
-0.012799 -0.018402 -0.091882 0.002042 -0.237897 -0.967552
-0.501225 -0.059516 0.072379 0.001232 -0.549407 0.831854
-0.167523 0.075427 0.085680 -0.071797 -0.639628 0.765324
1.383829 -0.135106 0.112725 -0.074681 -0.753252 -0.653479
-0.079897 0.278844 -0.238534 -0.066838 0.692955 0.717876
1.642753 -0.255781 0.222234 -0.074681 -0.753252 -0.653479
-0.172551 0.256249 -0.236333 -0.071797 -0.639628 -0.765324
-0.271064 0.092037 -0.017608 0.003372 0.945765 -0.311359
0.147575 -0.065971 0.066772 0.066877 0.667782 0.741347
0.011125 -0.380135 -0.327835 -0.066838 -0.692955 0.717876
-0.594846 0.092932 -0.012018 0.000177 0.994048 -0.081778
-0.083402 0.097764 0.112240 -0.071797 -0.639628 0.765324
0.005389 -0.497491 -0.441650 -0.066838 -0.692955 0.717876
-0.992139 0.092156 -0.016974 0.001753 0.965224 -0.246986
1.765235 -0.096939 -0.000000 -0.125151 -0.988786 -0.043974
0.057979 0.322672 -0.306083 0.066877 -0.667782 -0.741347
0.050234 -0.265728 0.224351 0.062250 -0.667982 -0.741569
-0.151933 -0.021657 -0.091169 -0.001608 -0.274822 -0.957341
0.003866 0.526598 0.478830 -0.071797 -0.639628 0.765324
1.082355 0.041665 0.083934 -0.001734 0.542888 0.835178
1.721523 -0.283226 -0.263320 -0.074681 0.571491 -0.817203
1.721523 0.283226 -0.263320 -0.074681 -0.571491 -0.817203
-0.146499 0.126100 0.097294 -0.066838 0.692955 -0.717876
1.469207 -0.109522 -0.082323 -0.000000 -0.669280 0.743010
1.122533 -0.093706 0.000000 -0.000326 -0.985921 -0.142318
-0.151392 0.164311 -0.134634 -0.066838 0.692955 0.717876
0.121266 -0.687578 0.624385 -0.071797 0.639628 0.765324
-0.867348 -0.092696 -0.013725 -0.003771 -0.967245 -0.243085
1.679727 0.087484 -0.095133 -0.000000 -0.669280 -0.743010
0.176491 -0.404192 -0.359673 0.062250 -0.667982 0.741569
0.065737 0.684921 -0.616955 -0.066838 0.692955 0.717876
1.240955 0.084528 0.040447 0.000119 0.857253 0.507660
-0.069757 -0.431586 0.385030 -0.066838 -0.692955 -0.717876
-1.804037 0.086879 -0.000000 -0.271625 0.950234 -0.095511
-0.057114 -0.413193 -0.378330 -0.071797 0.639628 -0.765324
1.569998 -0.081991 -0.090185 -0.000000 0.669280 -0.743010
1.428180 -0.190850 -0.171912 -0.074681 -0.753252 0.653479
1.428180 0.190850 -0.171912 -0.074681 0.753252 0.653479
1.394866 -0.084264 0.040994 0.002941 -0.916803 0.387738
-0.101358 0.130717 -0.097548 -0.066838 0.692955 0.717876
1.282895 0.000000 0.093706 -0.005511 0.127525 0.987738
-0.188246 -0.230876 0.202319 -0.066838 -0.692955 -0.717876
1.720353 0.199728 0.163578 -0.000000 0.669280 -0.743010
0.053562 -0.439052 -0.380755 -0.023812 -0.685646 0.726863
0.481086 -0.093706 0.000000 0.001768 -0.994579 -0.060472
-1.849192 -0.013470 0.070481 -0.377032 -0.267757 0.881752
0.197496 -0.633320 0.573318 0.066877 0.667782 0.741347
1.663973 -0.169403 -0.136262 -0.000000 -0.669280 0.743010
-0.233241 0.158734 -0.149140 -0.071797 -0.639628 -0.765324
0.132309 -0.130345 0.126135 0.066877 0.667782 0.741347
0.056666 -0.671829 0.605162 -0.071797 0.639628 0.765324
1.620037 0.176796 -0.175582 -0.000000 -0.669280 -0.743010
0.031558 0.115305 -0.121677 0.066877 -0.667782 -0.741347
-0.016388 0.041352 0.084089 0.000779 0.388750 0.917902
-0.053012 -0.235036 -0.229818 -0.071797 0.639628 -0.765324
-1.763598 -0.000000 -0.093043 -0.113996 -0.044160 -0.988693
1.773675 -0.081732 -0.054471 -0.150362 -0.818674 -0.548501
0.011812 -0.538560 0.489573 -0.071797 0.639628 0.765324
0.044620 0.109653 0.083293 0.062250 0.667982 -0.741569
-1.489920 -0.056654 -0.074640 0.001595 -0.622643 -0.778394
-0.140101 0.178268 0.147055 -0.066838 0.692955 -0.717876
0.034368 0.447226 -0.390432 -0.066838 0.692955 0.717876
1.414154 -0.052824 0.077398 0.000100 -0.491457 0.866431
0.229025 0.202816 0.182690 0.066877 -0.667782 0.741347
1.189411 -0.030974 0.088439 -0.000523 -0.322169 0.942950
-1.758335 0.047882 0.080156 -0.083933 0.456679 0.880282
-0.028521 0.111110 0.078465 0.062250 0.667982 -0.741569
0.059329 -0.178786 0.146800 0.062250 -0.667982 -0.741569
-1.757120 -0.081626 -0.045453 -0.086916 -0.868064 -0.478004
-0.102172 0.352167 0.311386 -0.066838 0.692955 -0.717876
0.253604 -0.074447 0.056908 -0.000681 -0.733351 0.674550
0.119944 0.384093 0.355819 0.066877 -0.667782 0.741347
-0.311114 -0.086188 0.036777 0.000738 -0.859881 0.503405
0.035885 0.242301 -0.235681 0.066877 -0.667782 -0.741347
1.768973 0.101921 -0.083644 0.142340 0.650002 0.746483
-0.741674 -0.093706 0.000000 -0.002807 -0.996758 -0.047283
-0.142583 -0.179648 -0.175124 -0.071797 0.639628 -0.765324
-0.297125 0.161265 0.145262 -0.071797 -0.639628 0.765324
-1.743935 0.084388 0.040737 -0.001906 0.881655 0.465319
0.017169 0.339182 0.287741 0.016137 0.677907 -0.734184
-0.122880 0.196006 0.190644 -0.071797 -0.639628 0.765324
1.329448 -0.066901 0.065614 0.000075 -0.623909 0.776774
0.069158 0.481853 0.420618 0.019217 0.677322 -0.734761
1.713314 0.137896 0.107882 -0.000000 0.669280 -0.743010
-0.138584 -0.114101 -0.084975 -0.066838 -0.692955 0.717876
0.079835 -0.630414 -0.572722 -0.071797 0.639628 -0.765324
1.646944 0.083669 0.091697 -0.000000 -0.669280 0.743010
-0.020723 0.290523 -0.244299 -0.066838 0.692955 0.717876
1.635518 0.188906 0.153830 -0.000000 0.669280 -0.743010
-0.192024 -0.054123 -0.076496 -0.001022 -0.664520 -0.742351
0.184937 -0.191679 0.176636 0.066877 0.667782 0.741347
0.092051 0.095115 -0.098033 0.066877 -0.667782 -0.741347
0.055783 0.495498 -0.457709 -0.071797 -0.639628 -0.765324
0.119790 0.286327 -0.248745 0.062250 0.667982 0.741569
0.229025 -0.099223 0.089377 0.066877 0.667782 0.741347
1.582719 0.120011 0.124433 -0.000000 -0.669280 0.743010
-0.179195 0.331453 -0.298562 -0.066838 0.692955 0.717876
1.561045 -0.143182 0.112644 0.000000 -0.669280 -0.743010
1.506872 -0.194137 -0.166707 -0.074681 -0.753252 0.653479
1.506872 0.194137 -0.166707 -0.074681 0.753252 0.653479
-0.164122 0.292634 0.259687 -0.066838 0.692955 -0.717876
0.352108 0.091730 0.019141 -0.000239 0.959582 0.265197
0.017117 -0.433398 0.378691 -0.066838 -0.692955 -0.717876
1.175886 -0.083419 -0.042686 0.000193 -0.870395 -0.484229
0.415863 0.037083 -0.086056 0.001526 0.367193 -0.924767
1.383829 0.135106 0.112725 -0.074681 0.753252 -0.653479
-0.843408 -0.037998 -0.085656 -0.000733 -0.431409 -0.898128
0.105008 0.329741 0.308208 0.066877 -0.667782 0.741347
0.125319 -0.312392 0.290748 0.066877 0.667782 0.741347
-1.513722 -0.030984 0.088436 0.000786 -0.396327 0.914202
-0.286572 -0.035670 0.086652 -0.000712 -0.406387 0.910013
-0.129928 -0.263418 -0.246323 -0.071797 0.639628 -0.765324
1.690755 -0.224874 -0.186229 0.000000 -0.669280 0.743010
-0.092083 -0.285599 -0.268411 -0.071797 0.639628 -0.765324
-0.256640 0.101992 -0.084278 -0.066838 0.692955 0.717876
0.033823 0.580009 -0.518656 -0.066838 0.692955 0.717876
0.447881 -0.057907 -0.073672 0.000246 -0.705040 -0.704093
-1.253077 0.092195 -0.016762 0.000365 0.989314 -0.109659
-0.076230 -0.326970 -0.284648 -0.066838 -0.692955 0.717876
-1.613979 -0.091629 0.019622 -0.003086 -0.941074 0.325343
1.417768 0.083448 0.042631 -0.000058 0.843195 0.530571
1.807833 -0.019949 -0.101462 -0.151278 -0.060213 -0.983085
0.179444 -0.347347 0.308717 0.062250 -0.667982 -0.741569
0.635768 0.035223 0.086834 -0.001859 0.312459 0.946295
-1.228962 0.027978 -0.089432 0.001973 0.337689 -0.935864
-0.218208 0.214553 0.189353 -0.066838 0.692955 -0.717876
1.409208 -0.149831 -0.126797 -0.074681 -0.753252 0.653479
-0.045102 -0.072413 -0.059474 -0.000142 -0.839571 -0.536426
1.327693 0.080549 0.085592 -0.074681 -0.571491 0.817203
1.137954 -0.040270 -0.084612 0.002844 -0.337160 -0.936446
1.808623 -0.213797 0.196664 0.142340 0.674741 0.724198
1.587037 -0.146666 0.148443 -0.000000 0.669280 0.743010
0.038132 -0.280922 -0.237021 0.062250 -0.667982 0.741569
1.804011 0.184502 -0.170276 0.142340 -0.674741 -0.724198
-0.018627 0.181443 -0.142650 0.062250 0.667982 0.741569
0.084907 -0.105364 0.082811 0.062250 -0.667982 -0.741569
0.110885 0.537628 0.474361 0.062250 0.667982 -0.741569
1.640299 -0.266814 -0.244420 -0.074681 0.571491 -0.817203
1.684422 0.258478 0.220581 -0.074681 0.753252 -0.653479
0.172351 0.238314 0.219778 0.066877 -0.667782 0.741347
-0.038785 0.257323 0.213933 -0.066838 0.692955 -0.717876
0.758542 -0.092883 -0.012397 -0.005448 -0.973151 -0.221139
-0.090220 0.261362 0.222620 -0.066838 0.692955 -0.717876
0.057540 -0.384447 -0.331902 0.062250 -0.667982 0.741569
-0.213004 0.100499 0.078774 -0.066838 0.692955 -0.717876
-1.533149 -0.061956 -0.070302 -0.001443 -0.710239 -0.698437
1.776847 -0.136597 -0.115340 0.142340 -0.650002 0.746483
1.793328 0.257840 -0.224055 0.142340 0.650002 0.746483
-0.066013 -0.110909 0.075137 0.019217 -0.677322 -0.734761
-0.023033 -0.257952 0.251783 -0.071797 0.639628 0.765324
1.705438 -0.191656 -0.156307 0.000000 -0.669280 0.743010
1.267833 -0.092307 0.076648 -0.074681 -0.753252 -0.653479
0.148990 0.752078 -0.674029 0.000000 0.743010 -0.669280
0.096080 -0.178519 -0.149644 0.062250 -0.667982 0.741569
1.761700 -0.179620 0.174044 0.142340 0.674741 0.724198
-1.823561 -0.081476 0.000000 -0.346236 -0.927633 -0.078280
1.698969 -0.163329 0.130791 0.000000 -0.669280 -0.743010
0.112318 0.356971 -0.311751 0.062250 0.667982 0.741569
0.061055 -0.215549 -0.180059 0.062250 -0.667982 0.741569
-1.815833 -0.045528 -0.070369 -0.243038 -0.422264 -0.862665
1.698686 0.162428 -0.129980 0.000000 0.669280 0.743010
0.032017 -0.228493 -0.223592 0.066877 0.667782 -0.741347
0.108287 -0.142549 -0.118269 0.062250 -0.667982 0.741569
0.140084 0.185899 0.159986 0.062250 0.667982 -0.741569
-0.080914 0.203274 -0.200655 -0.071797 -0.639628 -0.765324
-0.534265 -0.090898 -0.022770 -0.004111 -0.955903 -0.279158
-0.136211 -0.283693 0.248459 -0.066838 -0.692955 -0.717876
1.765235 -0.000000 0.096939 -0.154053 0.139987 0.972652
-0.499170 0.022514 0.090961 -0.001397 0.258302 0.962587
0.107500 -0.228772 -0.217034 0.066877 0.667782 -0.741347
1.241230 -0.047088 0.081016 -0.000411 -0.568372 0.816545
0.191089 -0.090240 0.025250 0.001955 -0.965024 0.250936
0.122646 0.426897 0.375605 0.062250 0.667982 -0.741569
0.090627 0.271964 0.257461 0.066877 -0.667782 0.741347
-0.144182 -0.136926 0.139269 -0.071797 0.639628 0.765324
0.032490 -0.182965 0.182538 0.066877 0.667782 0.741347
-0.066103 -0.203120 -0.164155 -0.066838 -0.692955 0.717876
-0.094633 -0.037901 0.085700 0.000747 -0.506329 0.857887
-0.088760 0.312967 -0.272298 -0.066838 0.692955 0.717876
-0.229548 -0.198189 -0.174613 -0.066838 -0.692955 0.717876
0.666877 -0.020224 -0.091498 -0.000147 -0.271574 -0.957813
-0.021622 0.493537 -0.440348 -0.066838 0.692955 0.717876
1.752128 -0.130995 0.105749 0.142340 -0.650002 -0.746483
1.527684 0.122613 0.094116 0.000000 0.669280 -0.743010
0.017821 -0.127060 -0.133505 0.066877 0.667782 -0.741347
-0.116915 -0.332635 -0.305393 -0.071797 0.639628 -0.765324
0.193151 0.734768 0.658844 0.062250 0.667982 -0.741569
0.481086 0.000000 0.093706 0.004785 0.128440 0.985409
-0.039085 0.407098 -0.358536 -0.066838 0.692955 0.717876
1.256481 0.099072 -0.092038 -0.074681 -0.571491 -0.817203
-0.178164 0.209656 -0.196866 -0.071797 -0.639628 -0.765324
1.807833 -0.051917 -0.024404 1.000000 0.000000 0.000000
1.410825 -0.091529 -0.020083 -0.002027 -0.957994 -0.271126
0.848322 -0.088854 0.029763 0.001197 -0.927587 0.364225
0.005796 0.444479 0.390441 -0.066838 0.692955 -0.717876
1.748499 -0.286175 0.267848 -0.074681 0.571491 0.817203
0.061136 0.086791 -0.035331 -0.000415 0.886670 -0.453839
-0.164122 0.292634 -0.259687 -0.066838 0.692955 0.717876
0.655398 0.091988 0.017863 -0.004405 0.989283 0.128318
0.656893 -0.041055 0.084234 0.000771 -0.459839 0.883584
-0.097491 -0.186818 0.151341 -0.066838 -0.692955 -0.717876
-0.256640 -0.101992 0.084278 -0.066838 -0.692955 -0.717876
0.155867 0.586508 -0.534907 0.066877 -0.667782 -0.741347
