0.845036 -0.054302 -0.093364 -0.001486 -0.414264 -0.907001
1.475177 -0.033357 -0.102149 0.016315 -0.262377 -0.961823
0.080704 -0.097446 0.046581 -0.000231 -0.856117 0.511277
-0.730829 0.063002 -0.087729 -0.001193 0.658119 -0.748539
0.997328 -0.046026 -0.097710 0.000345 -0.426071 -0.901533
0.391594 -0.205477 -0.269254 0.056515 0.778898 -0.624598
1.388937 0.105806 0.021698 -0.000798 0.945949 0.311506
-1.592506 0.011250 0.049503 -0.647785 0.239265 0.717046
-0.358221 0.060690 0.089344 -0.000005 0.559910 0.825138
0.224133 -0.166971 -0.219761 -0.028391 0.768849 -0.638800
0.108407 0.142005 -0.161162 -0.056482 0.800047 0.597273
0.312394 -0.355406 -0.427722 -0.056482 -0.800047 0.597273
0.327787 -0.455827 0.572030 -0.028391 0.768849 0.638800
1.009555 -0.043913 0.098678 -0.000889 -0.401047 0.912986
1.269978 0.142415 0.171981 -0.022767 0.809215 -0.587071
0.422886 -0.041782 0.099598 0.000802 -0.383855 0.920363
0.028132 -0.163973 0.207442 -0.028391 0.768849 0.638800
-0.850354 -0.049428 0.096034 -0.000546 -0.360872 0.929662
0.233836 0.102478 -0.142570 -0.028391 -0.768849 -0.638800
0.475251 -0.442831 -0.557674 0.056515 0.778898 -0.624598
0.331425 0.290163 -0.338531 -0.056482 0.800047 0.597273
1.531693 0.070606 0.019533 1.000000 -0.000000 0.000000
1.268368 0.050097 -0.095686 -0.000168 0.464303 -0.882250
-0.316146 0.086070 -0.065249 0.000410 0.795098 -0.602102
1.457023 -0.094970 -0.124114 0.053141 0.776116 -0.628347
1.101576 -0.079467 0.105617 -0.022767 0.748854 0.662344
0.333965 0.087871 0.062803 -0.000393 0.810499 0.581041
0.125710 -0.162240 0.186631 -0.056482 -0.800047 -0.597273
0.535450 -0.490044 0.611104 0.056515 0.778898 0.624598
0.104285 0.088254 -0.119693 -0.028391 -0.768849 -0.638800
-1.440247 0.054066 -0.093501 -0.069933 0.427733 -0.897386
0.438531 -0.511400 -0.643839 -0.028391 0.768849 -0.638800
-0.611004 0.034724 -0.102273 -0.002213 0.269399 -0.960190
1.336330 -0.065249 0.097611 0.023627 0.765973 0.641959
0.362670 -0.451915 -0.568873 -0.028391 0.768849 -0.638800
1.448707 -0.173064 -0.210293 0.053141 -0.781953 0.621069
0.548392 0.100598 -0.039315 -0.000890 0.925915 -0.370032
1.034470 0.115642 0.144211 -0.022767 -0.748854 0.662344
-0.827858 -0.013060 -0.107215 0.000008 -0.196759 -0.978426
0.118637 0.244476 0.297455 -0.056482 0.800047 -0.597273
-0.878260 0.023937 0.105322 -0.000563 0.307980 0.948253
0.332621 0.048846 -0.096331 0.001120 0.440549 -0.894334
1.267306 0.147255 -0.178756 -0.022767 0.809215 0.587071
-1.489262 -0.098969 -0.021896 -0.187913 -0.931476 -0.293892
0.217266 -0.097275 0.046938 -0.000062 -0.898296 0.432728
1.447026 0.081571 -0.108410 0.053141 -0.776116 -0.628347
0.508815 -0.093191 0.054599 -0.000042 -0.860379 0.503877
1.487540 -0.082450 0.106069 0.053141 0.776116 0.628347
-0.804591 0.053356 -0.093908 -0.001378 0.442061 -0.893888
-0.125150 -0.099154 0.042826 -0.000375 -0.921044 0.382119
0.239669 -0.283161 -0.360296 -0.028391 0.768849 -0.638800
-1.462433 -0.046927 0.095255 -0.158686 -0.356514 0.916835
0.118472 -0.227497 0.274727 -0.056482 -0.800047 -0.597273
0.415642 -0.126630 0.136311 0.112085 -0.775229 -0.621656
1.457572 0.045390 0.097706 0.010724 0.420464 0.904429
1.286623 0.041329 0.099787 -0.001104 0.385683 0.919591
1.531693 0.000000 0.063941 1.000000 0.000000 -0.000000
1.531693 0.000000 -0.063941 1.000000 0.000000 0.000000
0.309587 -0.292496 0.343720 -0.056482 -0.800047 -0.597273
0.359610 0.344150 0.439032 -0.028391 -0.768849 0.638800
1.422288 -0.026152 0.104794 0.003159 -0.246839 0.965956
-0.926103 0.077390 -0.075342 -0.002320 0.781519 -0.617902
0.620107 -0.108007 0.000000 0.002948 -0.991782 -0.100291
-0.002993 -0.101078 -0.038063 0.000384 -0.923887 -0.374993
0.379138 -0.325833 -0.417855 -0.028391 0.768849 -0.638800
0.319613 -0.065516 -0.085868 -0.000702 -0.674551 -0.734737
0.271178 -0.105496 -0.023156 -0.000994 -0.940050 -0.326919
-1.180203 0.000000 -0.108007 0.000349 -0.123702 -0.988775
0.466309 0.016614 -0.106722 0.001710 0.232264 -0.969354
0.454959 -0.201057 0.236214 0.112085 -0.775229 -0.621656
0.535450 0.390638 0.487141 0.056515 -0.778898 0.624598
-1.405607 0.053879 0.093609 0.000234 0.495737 0.865412
0.465213 -0.217080 -0.277062 0.056515 0.778898 -0.624598
1.136900 -0.110494 -0.133142 -0.022767 -0.809215 0.587071
0.312553 -0.375615 0.454779 -0.056482 -0.800047 -0.597273
0.104285 -0.088254 0.119693 -0.028391 0.768849 0.638800
-0.309153 -0.105469 -0.023277 -0.001430 -0.941421 -0.324489
0.078582 -0.092621 -0.123807 -0.028391 0.768849 -0.638800
0.220858 0.275422 -0.329240 -0.056482 0.800047 0.597273
0.414001 -0.250267 0.323082 0.056515 0.778898 0.624598
1.517698 0.141449 0.176392 0.053141 0.781953 -0.621069
0.481367 0.422458 0.517070 0.112085 0.775229 -0.621656
0.327787 0.455827 -0.572030 -0.028391 -0.768849 -0.638800
0.160886 0.075319 0.077412 0.000036 0.695323 0.714767
-1.023466 -0.094423 0.052440 0.000021 -0.831968 0.549709
0.212162 0.230403 0.295575 -0.028391 -0.768849 0.638800
0.324522 -0.509416 -0.636384 -0.028391 0.768849 -0.638800
-0.685188 -0.090146 -0.059493 0.000382 -0.807377 -0.584985
-1.269026 0.106422 0.018439 0.001176 0.980595 0.185416
1.267642 0.101358 0.037311 -0.000241 0.900532 0.428187
1.474476 -0.093560 -0.052877 0.015541 -0.818818 -0.568947
0.980529 -0.099718 0.124352 -0.022767 -0.809215 -0.587071
-0.064187 0.052109 0.094606 0.000057 0.479426 0.874188
0.383635 -0.573328 0.715935 -0.028391 0.768849 0.638800
0.352625 -0.015046 -0.106954 0.000644 -0.217028 -0.973755
1.365558 -0.111554 -0.125736 0.000013 -0.801536 0.597647
-1.024888 0.032656 -0.102952 0.001113 0.388083 -0.918555
0.132753 -0.264323 -0.332872 -0.028391 0.768849 -0.638800
-0.580068 -0.102629 -0.033658 0.000092 -0.975048 -0.208990
-0.160027 0.000000 -0.108007 -0.002435 -0.091214 -0.993615
-1.046915 -0.107267 -0.012627 -0.002496 -0.981121 -0.183035
0.481374 0.533758 0.655867 0.112085 0.775229 -0.621656
0.220177 0.148290 -0.197101 -0.028391 -0.768849 -0.638800
-1.597690 -0.041128 -0.021599 -0.629918 -0.639154 -0.426995
0.900155 0.108007 -0.000000 -0.000319 0.993447 0.090236
0.498676 0.120101 -0.153098 0.056515 -0.778898 -0.624598
0.320109 -0.110818 0.099368 0.003804 -0.793117 -0.607481
-0.442153 0.069019 0.083078 -0.000144 0.682877 0.726628
0.468782 -0.413895 -0.504123 0.112085 -0.775229 0.621656
0.469385 -0.443313 0.540917 0.112085 -0.775229 -0.621656
1.484857 -0.216130 -0.271414 0.053141 0.776116 -0.628347
1.140196 0.108007 -0.000000 -0.001776 0.997218 0.045226
0.535450 -0.104846 -0.130748 0.112085 -0.775229 0.621656
0.197065 -0.087821 0.123294 -0.028391 0.768849 0.638800
0.592898 0.052626 -0.094319 -0.000346 0.475180 -0.876508
0.486997 -0.147562 0.175279 0.112085 -0.775229 -0.621656
0.758214 -0.088742 -0.061567 -0.000301 -0.816889 -0.571715
0.369134 0.301418 0.388024 -0.028391 -0.768849 0.638800
-1.339086 -0.014275 -0.107060 -0.000551 -0.226695 -0.970998
0.571830 -0.046243 -0.097607 -0.000398 -0.422746 -0.903051
0.181752 -0.211989 -0.247971 -0.056482 -0.800047 0.597273
1.343218 -0.167648 0.203922 -0.022767 -0.809215 -0.587071
0.906132 -0.043040 0.099061 -0.000896 -0.398341 0.914164
0.233836 0.102478 0.142570 -0.028391 -0.768849 0.638800
0.535450 -0.378213 0.471646 0.056515 0.778898 0.624598
0.055917 -0.260534 0.324896 -0.056482 -0.800047 -0.597273
0.139770 0.346296 0.431844 -0.028391 -0.768849 0.638800
-0.069862 -0.131891 0.164473 -0.056482 -0.800047 -0.597273
0.370365 -0.582141 -0.725952 -0.056482 -0.800047 0.597273
0.296994 -0.507099 0.632372 -0.056482 -0.800047 -0.597273
0.076880 0.281974 0.351633 -0.028391 -0.768849 0.638800
0.108325 0.314135 -0.391738 -0.056482 0.800047 0.597273
0.317957 0.528540 0.659109 -0.028391 -0.768849 0.638800
0.202659 0.410617 0.512055 -0.028391 -0.768849 0.638800
-0.006973 -0.196212 0.244684 -0.056482 -0.800047 -0.597273
0.223623 0.432057 -0.538792 -0.056482 0.800047 0.597273
0.192178 -0.399897 -0.498687 -0.056482 -0.800047 0.597273
0.097843 -0.303415 0.378370 -0.056482 -0.800047 -0.597273
1.466233 -0.150837 0.183809 0.053141 -0.781953 -0.621069
0.365454 -0.159492 0.214275 0.056515 0.778898 0.624598
0.395683 0.083531 -0.116812 0.056515 -0.778898 -0.624598
0.944719 -0.094379 -0.052519 0.000020 -0.875083 -0.478213
-0.775690 -0.055926 -0.092400 0.000031 -0.521431 -0.848815
1.473435 0.092711 -0.054384 0.015630 0.862879 -0.500230
-0.625618 -0.011838 0.107357 -0.001143 -0.175891 0.982472
0.519088 -0.211150 0.264792 0.056515 0.778898 0.624598
1.517698 0.141449 -0.176392 0.053141 0.781953 0.621069
1.507202 -0.216254 0.269678 0.053141 -0.781953 -0.621069
0.120021 0.000000 -0.108007 0.002300 -0.042155 -0.997090
0.240041 0.108007 -0.000000 0.004682 0.994515 0.080848
-1.060182 0.108007 -0.000000 0.000476 0.991714 0.104906
-1.380237 -0.108007 0.000000 -0.000474 -0.993352 -0.066246
0.698913 -0.060087 0.089750 -0.000105 -0.554021 0.829113
0.423154 -0.461638 -0.583263 -0.028391 0.768849 -0.638800
0.258258 -0.319443 0.384670 -0.056482 -0.800047 -0.597273
-0.596946 0.082904 -0.069228 -0.000114 0.701799 -0.708678
-0.183757 -0.067964 -0.083944 0.000192 -0.684795 -0.724883
-0.148566 -0.040585 0.100092 0.000615 -0.461586 0.883727
0.704280 0.098357 -0.044626 0.000047 0.864611 -0.496483
0.242512 0.382934 -0.471206 -0.056482 0.800047 0.597273
0.270138 -0.431489 0.540176 -0.028391 0.768849 0.638800
-0.275721 -0.067533 0.084290 0.000045 -0.635256 0.768650
-0.095438 0.082771 -0.069387 -0.000141 0.758258 -0.647701
-0.894244 -0.083367 0.068670 -0.000120 -0.701453 0.708757
0.535450 0.204252 0.254711 0.056515 -0.778898 0.624598
0.535450 -0.390638 -0.487141 0.112085 -0.775229 0.621656
0.535450 -0.577024 0.719572 0.056515 0.778898 0.624598
0.535450 -0.577024 -0.719572 0.112085 -0.775229 0.621656
0.535450 0.191827 -0.239215 0.112085 0.775229 0.621656
0.476303 0.339145 0.412263 0.112085 0.775229 -0.621656
0.371280 -0.394318 0.499933 -0.028391 0.768849 0.638800
1.216361 -0.044675 0.098335 0.000218 -0.406933 0.910280
-1.512044 0.066067 0.068113 -0.289137 0.718058 0.626114
-0.068571 -0.041537 -0.099701 0.000306 -0.451120 -0.889299
-1.266792 0.055615 -0.092588 -0.000100 0.588642 -0.804923
1.008412 0.107139 -0.013668 -0.001043 0.978157 -0.195969
0.423314 0.402806 0.512461 0.028222 -0.776034 0.629728
-0.970963 -0.044687 0.098330 -0.000024 -0.502694 0.861211
-1.272317 0.079785 0.072801 -0.000040 0.797299 0.598842
0.435243 -0.273037 -0.349555 0.056515 0.778898 -0.624598
-0.945081 0.098638 0.044001 -0.000031 0.869925 0.487528
0.105619 0.077648 0.106987 -0.028391 -0.768849 0.638800
0.385376 0.354115 -0.419093 -0.056482 0.800047 0.597273
0.393772 0.131301 0.176556 0.056515 -0.778898 0.624598
0.535450 0.514896 0.642095 0.056515 -0.778898 0.624598
0.283875 0.426283 0.525359 -0.056482 0.800047 -0.597273
-1.338614 0.106984 -0.014836 0.000198 0.971520 -0.225265
0.096761 -0.032080 0.103133 0.000839 -0.284803 0.954838
0.221776 0.357311 0.438844 -0.056482 0.800047 -0.597273
0.600439 0.082672 0.069505 0.000406 0.773148 0.629634
1.206014 -0.014333 -0.107052 0.000243 -0.206730 -0.976215
-0.780134 -0.108007 0.000000 -0.003513 -0.990797 -0.118779
0.414285 0.168184 -0.187886 0.112085 0.775229 0.621656
0.395528 -0.316532 0.407388 0.028222 0.776034 0.629728
0.383620 0.279557 -0.362357 -0.000080 -0.772684 -0.634462
1.280918 -0.100934 0.114380 -0.022767 -0.809215 -0.587071
0.157773 0.205431 -0.263102 -0.028391 -0.768849 -0.638800
0.013919 -0.097089 0.047323 -0.000418 -0.898151 0.433856
0.223675 0.239218 -0.280479 -0.056482 0.800047 0.597273
0.876329 -0.094428 -0.052430 0.000256 -0.824387 -0.561134
0.421913 -0.471586 0.572990 -0.056482 -0.800047 -0.597273
-0.471569 -0.082401 -0.069826 -0.001181 -0.730149 -0.680154
-1.222626 0.053841 0.093631 0.000038 0.571140 0.817416
0.459039 -0.523829 0.639458 -0.000224 -0.793730 -0.606914
0.195775 0.353985 -0.443588 -0.028391 -0.768849 -0.638800
0.371711 0.242583 0.317325 0.028222 -0.776034 0.629728
0.430237 -0.355408 -0.452727 0.056515 0.778898 -0.624598
-1.000172 0.108007 -0.000000 -0.001936 0.990701 0.109153
0.995355 0.044443 0.098440 0.000044 0.494742 0.865890
1.247030 -0.137059 -0.175731 -0.022767 0.748854 -0.662344
0.250297 -0.389871 0.479761 -0.056482 -0.800047 -0.597273
0.535450 -0.353361 -0.440655 0.112085 -0.775229 0.621656
-1.234946 -0.034580 -0.102322 -0.001287 -0.301774 -0.949308
0.464924 -0.139585 -0.180450 0.056515 0.778898 -0.624598
0.894236 -0.023686 -0.105378 -0.002784 -0.231958 -0.969554
0.281158 0.120649 -0.116220 -0.056482 0.800047 0.597273
0.834226 -0.105844 0.021512 0.001983 -0.946506 0.309835
1.440247 0.018779 -0.106362 0.007688 0.054084 -0.995588
0.647021 0.101236 0.037641 0.000182 0.896529 0.436574
1.355816 0.087414 0.123341 0.000013 -0.757509 0.652550
-1.602518 0.041148 -0.009491 -0.665514 0.677578 -0.298522
0.535450 0.291232 0.363178 0.056515 -0.778898 0.624598
0.273851 -0.447497 -0.559607 -0.028391 0.768849 -0.638800
1.286943 -0.105880 0.021329 0.000106 -0.973046 0.218916
0.227260 -0.155421 0.167894 -0.056482 -0.800047 -0.597273
0.380574 -0.522044 0.654074 -0.028391 0.768849 0.638800
0.535450 0.129698 0.161738 0.056515 -0.778898 0.624598
-1.508414 0.094154 0.019116 -0.343485 0.902723 0.239883
-0.026023 0.087669 -0.101092 -0.056482 0.800047 0.597273
1.149618 -0.067806 0.073808 -0.000000 0.625598 -0.780145
-0.080014 0.108007 -0.000000 -0.000177 0.987265 0.127202
1.048983 -0.091727 -0.110682 -0.022767 -0.809215 0.587071
0.268214 -0.405919 -0.509314 -0.028391 0.768849 -0.638800
0.677735 0.035704 -0.101935 0.000168 0.305057 -0.948121
0.293478 0.120325 0.166701 -0.028391 -0.768849 0.638800
1.124371 -0.142184 -0.177309 -0.022767 0.748854 -0.662344
-1.237424 -0.093657 0.053795 0.000141 -0.870025 0.487124
1.514200 -0.166384 0.207487 0.053141 -0.781953 -0.621069
0.535450 -0.291232 0.363178 0.056515 0.778898 0.624598
0.220038 0.000000 -0.108007 0.002111 -0.118758 -0.989728
-0.509695 -0.066538 0.085078 0.000036 -0.561990 0.823775
1.027227 0.099336 0.042403 -0.000136 0.877345 0.474136
0.427638 0.473597 0.597856 -0.028391 -0.768849 0.638800
0.841220 0.081424 0.070963 0.000215 0.747332 0.660510
1.358113 -0.211191 -0.263363 -0.022767 0.748854 -0.662344
-0.133279 0.094090 0.053035 -0.000099 0.869243 0.488353
0.280671 0.463259 0.575193 -0.056482 0.800047 -0.597273
0.503575 0.322138 -0.395971 0.112085 0.775229 0.621656
0.334468 0.479783 0.592238 -0.056482 0.800047 -0.597273
-0.006973 0.196212 -0.244684 -0.056482 0.800047 0.597273
0.535450 -0.278807 -0.347683 0.112085 -0.775229 0.621656
0.102510 0.127019 0.141647 -0.056482 0.800047 -0.597273
0.125371 0.186725 0.219461 -0.056482 0.800047 -0.597273
0.124019 0.267182 -0.327361 -0.056482 0.800047 0.597273
-0.437814 -0.029779 0.103821 0.000011 -0.331976 0.940456
0.187063 0.101701 -0.099737 -0.056482 0.800047 0.597273
0.165215 -0.031436 0.103332 -0.000624 -0.376321 0.923492
1.411775 -0.201648 0.248129 -0.022767 -0.809215 -0.587071
0.451089 0.602150 0.745121 -0.056482 0.800047 -0.597273
-0.709264 -0.054278 -0.093379 0.000157 -0.503781 -0.859125
-1.514224 -0.065360 0.067768 -0.297066 -0.707170 0.634471
1.531693 -0.045040 -0.032663 1.000000 0.000000 -0.000000
-0.811478 0.106980 -0.014863 0.002880 0.980446 -0.188694
0.304034 0.093458 -0.054141 -0.000250 0.810425 -0.581100
0.010801 -0.118545 -0.151996 -0.028391 0.768849 -0.638800
0.352373 0.131014 0.130370 0.112085 0.775229 -0.621656
-0.360062 0.108007 -0.000000 0.000811 0.987672 0.129356
0.504269 0.044451 0.098436 0.000251 0.498222 0.864091
0.483970 -0.107046 -0.014381 0.000076 -0.973752 -0.213897
0.367509 -0.407011 -0.515042 -0.028391 0.768849 -0.638800
0.419344 -0.390481 -0.497451 -0.000080 0.772684 -0.634462
-0.752840 0.092363 0.055988 -0.000417 0.853091 0.516104
0.301268 0.349540 0.442927 -0.028391 -0.768849 0.638800
0.349096 -0.226157 -0.296550 -0.028391 0.768849 -0.638800
0.212594 0.033003 0.102842 0.000062 0.291561 0.952667
1.440247 -0.082815 0.069334 0.010216 -0.705971 0.704563
-0.448489 0.079622 -0.072979 0.000060 0.727377 -0.682607
1.353400 -0.142516 -0.168885 -0.022767 -0.809215 0.587071
-0.360313 -0.049612 -0.095939 -0.000439 -0.415936 -0.906420
0.317716 0.402351 0.490102 -0.056482 0.800047 -0.597273
-1.536505 0.000000 -0.085299 -0.448056 -0.080692 -0.882430
0.476172 -0.327772 -0.414108 0.056515 0.778898 -0.624598
-1.459360 -0.073121 -0.077506 -0.134823 -0.600391 -0.781833
1.088410 0.131567 -0.164069 -0.022767 -0.748854 -0.662344
0.188029 -0.342064 0.428896 -0.028391 0.768849 0.638800
1.303875 -0.159718 -0.194517 -0.022767 -0.809215 0.587071
1.209224 -0.092172 -0.123681 -0.022767 0.748854 -0.662344
0.535450 0.527321 -0.657590 0.112085 0.775229 0.621656
0.271723 0.085431 0.069938 -0.000000 -0.625598 -0.780145
0.347895 0.168633 -0.227263 -0.000080 -0.772684 -0.634462
1.480485 0.099807 0.120780 0.053141 0.781953 -0.621069
0.156958 0.302574 0.371654 -0.056482 0.800047 -0.597273
-0.373243 -0.090078 -0.059594 0.001915 -0.879145 -0.470547
-0.592276 -0.015529 -0.106885 -0.000369 -0.190952 -0.979077
0.809916 0.016911 -0.106675 0.001316 0.102103 -0.991727
0.120021 0.108007 -0.000000 0.003556 0.989161 0.120780
0.512145 -0.457187 0.572238 0.056515 0.778898 0.624598
0.167414 -0.095246 -0.050930 -0.000088 -0.879194 -0.470373
0.404307 0.057775 0.091256 -0.001913 0.545443 0.834964
0.514449 0.259121 -0.325034 0.056515 -0.778898 -0.624598
1.224375 0.082638 -0.091353 -0.022767 0.809215 0.587071
0.077332 -0.081036 -0.071406 0.000287 -0.727083 -0.682498
-0.059380 -0.142611 -0.177841 -0.056482 -0.800047 0.597273
-0.760131 -0.000000 0.108007 -0.000521 0.028396 0.997574
0.324263 -0.379775 -0.480339 -0.028391 0.768849 -0.638800
0.265172 0.309664 0.370918 -0.056482 0.800047 -0.597273
0.063474 0.249767 -0.309759 -0.056482 0.800047 0.597273
0.593894 -0.020421 0.106059 0.000357 -0.208784 0.975374
1.302448 -0.140729 0.181785 -0.022767 0.748854 0.662344
0.455200 0.616659 -0.764167 -0.056482 0.800047 0.597273
-0.613260 -0.098109 0.045168 0.001501 -0.896659 0.435804
0.415375 -0.394025 0.469715 -0.000224 -0.793730 -0.606914
1.151293 -0.103422 -0.031137 -0.000100 -0.925153 -0.372752
1.141202 0.092599 -0.108308 -0.022767 0.809215 0.587071
0.487321 0.452436 0.568561 0.056515 -0.778898 0.624598
-0.419884 -0.102253 0.034785 0.000110 -0.904842 0.418963
0.535450 -0.465193 -0.580113 0.112085 -0.775229 0.621656
-0.500327 -0.102428 0.034265 -0.000361 -0.936710 0.342869
-0.339019 -0.086719 0.064385 -0.000741 -0.830358 0.551644
-0.924130 -0.079788 -0.072798 0.000115 -0.737598 -0.671100
0.535450 -0.241530 -0.301197 0.112085 -0.775229 0.621656
0.167715 0.167643 -0.189896 -0.056482 0.800047 0.597273
-0.273105 -0.010895 -0.107457 0.000850 -0.169342 -0.983452
-1.337021 0.083934 -0.067976 0.000435 0.772802 -0.630297
-0.620897 -0.087286 -0.063614 -0.000023 -0.837682 -0.540990
-1.082927 0.091181 0.057894 0.000331 0.790055 0.608435
-0.237098 0.052242 0.094532 -0.000056 0.482854 0.872476
0.153122 -0.292950 0.368232 -0.028391 0.768849 0.638800
0.640144 -0.047601 -0.096952 -0.000085 -0.439613 -0.895108
0.246588 -0.256866 -0.301952 -0.056482 -0.800047 0.597273
0.600983 0.102251 -0.034789 -0.000057 0.941262 -0.328267
-0.929545 0.052212 0.094549 0.000324 0.486999 0.870251
-0.254347 0.098697 0.043869 -0.000972 0.911661 0.403956
0.905814 -0.088873 0.061378 -0.000039 -0.819409 0.568260
0.298163 0.315163 -0.401413 -0.028391 -0.768849 -0.638800
0.577291 -0.101552 0.036781 0.000076 -0.938186 0.338677
1.160331 0.152800 -0.190548 -0.022767 -0.748854 -0.662344
-0.976205 -0.073289 -0.079337 0.000124 -0.677786 -0.731399
-0.448289 0.099967 0.040892 0.000410 0.904973 0.418278
0.177169 -0.089226 -0.124102 -0.028391 0.768849 -0.638800
0.077796 0.086822 -0.064246 -0.000013 0.796782 -0.599663
-0.514491 0.106290 0.019186 0.000660 0.971050 0.225809
0.022315 0.060191 0.089681 -0.000044 0.477257 0.875521
-0.687563 0.043827 0.098716 0.000604 0.354410 0.932640
1.059302 0.100408 -0.039798 -0.000059 0.889451 -0.450821
1.092729 0.082025 0.108205 -0.022767 -0.748854 0.662344
-0.020003 0.108007 -0.000000 -0.000725 0.996237 0.057172
-0.323498 0.024458 0.105202 -0.000572 0.311612 0.947017
-0.175975 -0.090813 0.058469 -0.000054 -0.781191 0.619769
-1.148473 0.052661 -0.094299 -0.000465 0.560981 -0.824255
0.535450 0.477619 0.595609 0.056515 -0.778898 0.624598
-1.201420 -0.102232 -0.034845 0.000840 -0.943494 -0.321753
-1.061654 0.065776 -0.085669 -0.000041 0.674886 -0.734088
0.905739 0.058313 -0.090913 -0.000372 0.448806 -0.890395
0.388371 -0.195963 -0.217855 0.112085 -0.775229 0.621656
0.351864 0.205220 0.222817 -0.000224 0.793730 -0.606914
0.629580 -0.075279 0.077451 0.000045 -0.695082 0.714954
1.220812 -0.095596 0.109353 -0.022767 -0.809215 -0.587071
1.112403 0.039095 -0.100684 -0.000187 0.361320 -0.929427
-0.122105 -0.092218 -0.056227 -0.000098 -0.793740 -0.603622
-1.063212 -0.032028 -0.103149 0.000662 -0.382132 -0.921083
-0.842800 0.074700 0.078009 0.000003 0.754073 0.652508
0.189740 -0.157361 0.206666 -0.028391 0.768849 0.638800
1.046849 -0.090349 0.108866 -0.022767 -0.809215 -0.587071
0.384077 0.457297 0.557428 -0.056482 0.800047 -0.597273
-1.167823 0.088731 -0.061583 0.000090 0.762925 -0.641927
0.716122 -0.093701 0.053718 -0.000035 -0.815858 0.573349
-0.661362 0.084700 0.067019 -0.000353 0.747315 0.660530
0.671137 -0.106519 -0.017871 -0.000199 -0.979767 -0.189006
-1.027858 -0.080894 -0.071566 0.000015 -0.747009 -0.660563
0.824998 0.097521 -0.046425 0.000284 0.856211 -0.511371
0.365874 -0.092714 0.130962 0.056515 0.778898 0.624598
0.403886 -0.088579 0.086740 0.112085 -0.775229 -0.621656
0.725394 -0.058032 -0.091093 -0.000506 -0.542344 -0.836728
1.199164 -0.094441 0.052406 -0.000065 -0.823872 0.561808
0.426947 0.101393 -0.037215 -0.001038 0.898932 -0.431343
-0.791331 0.066388 0.085195 0.000070 0.613849 0.785856
0.490768 -0.554392 -0.695391 0.056515 0.778898 -0.624598
0.403534 0.578458 0.722993 -0.028391 -0.768849 0.638800
0.520629 -0.083065 0.104927 0.056515 0.778898 0.624598
-0.255358 -0.069165 -0.082956 -0.000133 -0.694686 -0.715446
-1.131476 -0.081719 -0.070623 -0.000003 -0.756983 -0.649131
-0.710191 0.106960 -0.015003 0.000004 0.974967 -0.211222
-0.378731 -0.031436 0.103331 0.000476 -0.193590 0.978454
1.531693 -0.040595 0.098533 1.000000 -0.000000 -0.000000
0.403152 0.541174 0.678102 -0.028391 -0.768849 0.638800
0.426800 -0.101091 -0.106475 0.112085 -0.775229 0.621656
1.009417 -0.088721 0.061597 0.000003 -0.820770 0.566319
-1.182233 0.106549 0.017690 -0.001950 0.964284 0.254295
1.531693 -0.050785 0.018863 1.000000 0.000000 0.000000
1.320227 0.000000 -0.108007 0.002100 -0.058365 -0.996229
0.943998 0.051881 0.094731 -0.000045 0.484716 0.871494
1.332729 0.177511 -0.217923 -0.022767 0.809215 0.587071
-0.038417 0.164051 0.204579 -0.028391 -0.768849 0.638800
0.006904 0.147128 -0.186224 -0.028391 -0.768849 -0.638800
-0.013029 0.037480 -0.101296 0.000641 0.422869 -0.902872
-0.977233 0.089701 -0.060161 0.000553 0.872912 -0.481826
0.312880 -0.128114 -0.176938 -0.028391 0.768849 -0.638800
0.429534 0.486912 -0.613966 -0.028391 -0.768849 -0.638800
-1.302923 -0.052271 -0.094517 0.000097 -0.485390 -0.871083
1.529943 0.054175 -0.067559 0.053141 0.781953 0.621069
-0.404449 0.055333 -0.092757 0.000537 0.582000 -0.809876
1.209167 0.143959 0.176467 -0.022767 0.809215 -0.587071
0.377634 -0.446017 0.562439 -0.028391 0.768849 0.638800
-0.031633 -0.072035 -0.080681 -0.056482 -0.800047 0.597273
1.388287 -0.076449 0.076297 -0.000287 -0.706737 0.703842
0.740127 0.000000 -0.108007 -0.001195 -0.099961 -0.992197
0.353669 -0.147562 -0.151240 0.112085 -0.775229 0.621656
0.457491 -0.087619 0.063154 -0.000174 -0.751302 0.655709
0.317598 0.164428 -0.171416 -0.056482 0.800047 0.597273
-0.413167 0.105527 -0.023015 0.000355 0.972400 -0.222191
0.386843 0.583405 -0.726087 -0.056482 0.800047 0.597273
0.653696 0.107232 -0.012921 0.001575 0.978332 -0.195905
0.910603 0.013372 0.107176 0.000255 0.205467 0.975951
0.414445 0.327319 -0.386362 0.112085 0.775229 0.621656
0.301748 0.152659 0.205986 -0.028391 -0.768849 0.638800
-0.069324 -0.088343 0.062138 -0.000808 -0.822706 0.563404
0.053694 -0.103432 0.114668 -0.056482 -0.800047 -0.597273
0.452993 -0.414466 0.501988 0.112085 -0.775229 -0.621656
0.394478 -0.533146 -0.658043 -0.056482 -0.800047 0.597273
0.306105 -0.104427 0.148128 -0.028391 0.768849 0.638800
1.405607 0.054066 -0.093501 -0.000136 0.499063 -0.863630
0.502046 0.579091 0.716127 0.112085 0.775229 -0.621656
0.272045 0.176261 -0.233072 -0.028391 -0.768849 -0.638800
0.281108 0.439221 -0.542952 -0.056482 0.800047 0.597273
1.252573 -0.096850 -0.047809 -0.000258 -0.850729 -0.520654
0.437821 0.518523 0.634357 -0.056482 0.800047 -0.597273
0.338055 -0.226387 0.252475 -0.056482 -0.800047 -0.597273
0.316139 0.070034 0.107179 0.023500 -0.775448 0.630496
0.491389 -0.514741 -0.645889 0.056515 0.778898 -0.624598
0.469766 -0.088305 -0.062191 0.000184 -0.823312 -0.562858
-1.338868 -0.094311 0.052641 -0.000313 -0.820088 0.567546
0.497203 -0.175583 -0.222420 0.056515 0.778898 -0.624598
-1.229855 0.021376 -0.105871 0.001590 0.204512 -0.976724
1.182767 0.057166 0.091639 0.000147 0.528006 0.845923
0.493110 -0.562986 0.694431 0.112085 -0.775229 -0.621656
1.440247 0.106400 -0.018567 0.008107 0.995735 -0.052626
0.389033 0.136655 -0.144014 0.112085 0.775229 0.621656
0.513453 0.357544 0.447862 0.056515 -0.778898 0.624598
-0.830877 -0.106976 -0.014893 0.002012 -0.981798 -0.177856
0.413997 0.250215 -0.323017 0.056515 -0.778898 -0.624598
0.113496 -0.148744 -0.192906 -0.028391 0.768849 -0.638800
0.272045 -0.176261 -0.233072 -0.028391 0.768849 -0.638800
1.402704 0.109901 0.147151 0.053141 -0.776116 0.628347
0.320055 -0.000000 0.108007 0.000678 0.101140 0.991196
0.170414 -0.016500 -0.106740 0.001248 -0.227641 -0.971170
-0.100017 -0.108007 0.000000 -0.006714 -0.990688 -0.109078
1.010098 0.019712 -0.106194 -0.000840 0.195655 -0.978491
1.315996 0.140621 -0.167723 -0.022767 0.809215 0.587071
0.498576 -0.348294 0.437673 0.056515 0.778898 0.624598
-1.100189 -0.000000 0.108007 -0.000386 0.044647 0.997672
0.178427 -0.329010 -0.412758 -0.028391 0.768849 -0.638800
0.961009 -0.084646 -0.104334 -0.022767 -0.809215 0.587071
-0.926948 -0.107162 0.013489 -0.002343 -0.977980 0.198849
0.287669 -0.214758 -0.280101 -0.028391 0.768849 -0.638800
-0.356000 0.043651 -0.098794 -0.000431 0.398135 -0.914321
1.322153 0.200575 0.250124 -0.022767 -0.748854 0.662344
0.946657 -0.036240 -0.101746 0.000397 -0.421447 -0.903847
-1.388479 0.088495 0.061921 0.000295 0.818810 0.569463
0.371711 -0.264222 0.299973 -0.000224 -0.793730 -0.606914
-1.405607 -0.069334 -0.082815 0.000157 -0.641690 -0.763637
-1.440247 -0.108007 0.000000 -0.059843 -0.989883 -0.103662
-1.235409 0.086558 -0.064601 -0.000329 0.737943 -0.670818
-0.003053 -0.031744 0.103237 0.002846 -0.350872 0.933756
1.322096 0.124059 0.163613 -0.022767 -0.748854 0.662344
0.427345 0.544451 -0.683122 -0.028391 -0.768849 -0.638800
0.192299 -0.154105 -0.169438 -0.056482 -0.800047 0.597273
0.535450 -0.502470 -0.626600 0.112085 -0.775229 0.621656
0.480213 0.090473 -0.117821 0.056515 -0.778898 -0.624598
0.282123 -0.090399 -0.130177 -0.028391 0.768849 -0.638800
-0.424104 -0.095593 -0.050275 -0.000751 -0.925098 -0.372593
-0.117894 0.025972 -0.104838 -0.000248 0.320250 -0.944030
0.317598 -0.164428 0.171416 -0.056482 -0.800047 -0.597273
0.373065 -0.081859 -0.072803 0.112085 -0.775229 0.621656
0.215400 0.317157 -0.385661 -0.056482 0.800047 0.597273
1.389423 -0.107573 0.009680 0.003373 -0.983243 0.171577
0.623580 0.020784 0.105989 -0.000075 0.200712 0.977040
1.448014 -0.237732 -0.296461 -0.022767 0.748854 -0.662344
0.843630 0.032501 0.103002 -0.000404 0.379982 0.922107
0.486730 -0.054037 -0.093518 -0.000302 -0.496041 -0.865182
1.495115 0.107144 -0.000000 0.016009 0.995524 -0.053627
0.328048 0.107009 -0.152210 -0.000080 -0.772684 -0.634462
-0.665789 -0.099755 0.041406 -0.001706 -0.882273 0.462816
0.275726 -0.259826 0.303161 -0.056482 -0.800047 -0.597273
1.471787 0.164168 0.201068 0.053141 0.781953 -0.621069
-1.254224 -0.045001 0.098186 0.000411 -0.495359 0.865463
0.176629 0.124894 0.167007 -0.028391 -0.768849 0.638800
0.150672 -0.109563 0.113710 -0.056482 -0.800047 -0.597273
1.422927 -0.027781 -0.104374 0.003196 -0.248408 -0.965595
0.478098 -0.297064 -0.375640 0.056515 0.778898 -0.624598
1.066273 0.094161 -0.113367 -0.022767 0.809215 0.587071
0.394871 -0.107229 -0.012943 0.001576 -0.981724 -0.179553
0.459122 0.375205 -0.454133 0.112085 0.775229 0.621656
0.406578 0.229889 0.263444 0.112085 0.775229 -0.621656
0.329517 -0.273146 -0.352236 -0.028391 0.768849 -0.638800
0.052549 -0.209318 -0.256611 -0.056482 -0.800047 0.597273
0.466367 0.156887 -0.183188 0.112085 0.775229 0.621656
0.359803 0.205608 -0.272294 0.002752 -0.773009 -0.633980
0.410197 -0.148770 -0.196855 0.056515 0.778898 -0.624598
-0.700120 -0.108007 0.000000 -0.002745 -0.985898 -0.138651
0.038562 0.130360 0.152169 -0.056482 0.800047 -0.597273
0.253501 -0.044496 -0.098416 -0.000887 -0.419327 -0.904813
1.065622 -0.047305 -0.097097 0.000160 -0.439614 -0.895154
0.772174 0.013041 0.107217 0.000496 0.189421 0.979641
0.422170 0.225250 -0.260472 0.112085 0.775229 0.621656
1.341900 0.111238 -0.126217 -0.022767 0.809215 0.587071
1.060337 0.047534 -0.096985 0.000227 0.439109 -0.895175
0.275117 -0.164722 0.219320 -0.028391 0.768849 0.638800
-0.220038 0.108007 -0.000000 0.001300 0.996108 0.054248
1.490617 0.088314 0.060791 0.017153 0.764256 0.640501
0.209236 -0.367997 -0.454345 -0.056482 -0.800047 0.597273
0.268132 -0.139728 -0.143009 -0.056482 -0.800047 0.597273
0.538205 0.030087 -0.103732 0.003838 0.260698 -0.962158
1.487528 -0.150702 -0.190373 0.053141 0.776116 -0.628347
-0.424962 -0.018550 -0.106403 0.000589 -0.230557 -0.970236
1.484857 0.217976 -0.269934 0.053141 0.781953 0.621069
1.287261 -0.054865 -0.084185 -0.022767 0.748854 -0.662344
0.330819 -0.189413 -0.203633 -0.056482 -0.800047 0.597273
-1.552642 0.067105 -0.038396 -0.506839 0.693871 -0.501755
1.237190 -0.049576 -0.095957 0.000413 -0.539818 -0.838551
1.193540 -0.131539 0.167651 -0.022767 0.748854 0.662344
-0.311752 0.107249 -0.012776 -0.001683 0.980067 -0.186928
-0.055040 -0.094080 0.119624 -0.028391 0.768849 0.638800
0.438199 -0.295774 0.377641 0.056515 0.778898 0.624598
1.422263 -0.104813 -0.026073 0.003447 -0.966021 -0.246575
1.451158 -0.117608 0.152573 0.053141 0.776116 0.628347
0.672827 0.013639 0.107143 -0.000507 0.197662 0.978223
0.130314 -0.200231 -0.237085 -0.056482 -0.800047 0.597273
-0.329515 -0.014577 -0.107019 -0.000341 -0.044964 -0.996907
0.091290 0.048340 -0.096586 -0.000126 0.523219 -0.848899
1.148233 0.099152 0.129476 -0.022767 -0.748854 0.662344
1.354214 0.098704 -0.043854 0.000317 0.911128 -0.404942
0.436793 0.309918 0.368692 0.112085 0.775229 -0.621656
-1.486586 0.037397 -0.094871 -0.158686 0.356514 -0.916835
0.940244 -0.104911 0.025678 0.000071 -0.969569 0.234126
1.302998 -0.083341 0.068701 -0.000247 -0.708029 0.702187
-0.771796 0.107389 0.011545 -0.002553 0.981669 0.179452
-0.517798 -0.070829 -0.081541 0.002537 -0.632624 -0.772025
-1.040179 -0.000000 0.108007 0.003537 0.093696 0.993334
0.344343 0.529218 -0.657523 -0.056482 0.800047 0.597273
1.245487 0.118045 0.139339 -0.022767 0.809215 -0.587071
-0.533910 -0.017081 -0.106648 0.001525 -0.106564 -0.992489
-0.000348 -0.080975 0.089697 -0.056482 -0.800047 -0.597273
1.340230 -0.108007 0.000000 0.000856 -0.992856 -0.095198
-0.693793 -0.072939 0.079658 -0.000400 -0.676562 0.732096
-1.440247 -0.082815 0.069334 -0.069172 -0.818874 0.563613
0.394275 0.177680 0.196120 0.112085 0.775229 -0.621656
0.494285 0.585481 -0.733843 0.056515 -0.778898 -0.624598
0.446013 0.087526 0.117241 0.056515 -0.778898 0.624598
0.335528 -0.331792 -0.393905 -0.056482 -0.800047 0.597273
1.514884 0.033349 0.101494 0.016933 0.260226 0.962753
0.787199 -0.106666 0.016970 -0.000117 -0.970730 0.228231
1.471787 0.164168 -0.201068 0.053141 0.781953 0.621069
0.034214 0.219963 0.272604 -0.056482 0.800047 -0.597273
0.072105 0.200080 -0.252854 -0.028391 -0.768849 -0.638800
1.097806 0.028122 0.104282 0.000204 0.350119 0.933887
-0.761254 -0.093534 0.054010 -0.000279 -0.902945 0.423712
-0.116077 0.043284 0.098955 0.000015 0.482002 0.872951
0.495736 0.098896 -0.043418 0.000895 0.908853 -0.410118
-1.591462 -0.036491 0.036491 -0.629918 -0.639154 0.426995
0.891673 0.097014 0.047474 -0.000029 0.933927 0.350101
-1.093606 -0.106527 -0.017820 0.001010 -0.965887 -0.248031
0.535450 0.403064 -0.502637 0.112085 0.775229 0.621656
1.002858 0.092216 -0.113146 -0.022767 0.809215 0.587071
0.305011 0.080349 -0.119099 -0.028391 -0.768849 -0.638800
0.213731 0.065750 -0.085688 0.000074 0.600453 -0.796157
0.490774 0.560296 -0.690655 0.112085 0.775229 0.621656
-0.891680 -0.014357 -0.107049 0.000233 -0.196825 -0.978107
0.165219 0.244503 0.293086 -0.056482 0.800047 -0.597273
1.240213 0.108007 -0.000000 0.000248 0.997959 0.035869
-0.891063 0.098427 -0.044471 -0.000460 0.904947 -0.419219
0.445062 0.103376 0.031288 -0.000875 0.932390 0.355308
0.498679 0.212947 -0.258924 0.112085 0.775229 0.621656
1.375301 -0.109580 0.149072 0.027848 0.767516 0.640092
0.347230 -0.349408 0.416395 -0.056482 -0.800047 -0.597273
1.178311 -0.158108 -0.197167 -0.022767 0.748854 -0.662344
0.031587 -0.134148 0.171698 -0.028391 0.768849 0.638800
0.484570 0.280119 -0.353922 0.056515 -0.778898 -0.624598
0.455200 -0.616659 0.764167 -0.056482 -0.800047 -0.597273
0.234943 -0.066621 0.085013 -0.000026 -0.613111 0.786447
0.351298 -0.271241 -0.311306 -0.056482 -0.800047 0.597273
1.371835 -0.035812 -0.101898 -0.001678 -0.413077 -0.907732
1.338621 -0.014758 0.106994 0.000382 -0.233496 0.969306
0.509980 -0.517873 0.641216 0.112085 -0.775229 -0.621656
0.202132 -0.283892 0.342358 -0.056482 -0.800047 -0.597273
1.506026 -0.105505 0.017656 0.017617 -0.995420 0.054121
0.456227 -0.269026 0.321202 0.112085 -0.775229 -0.621656
1.185961 0.088560 -0.118798 -0.022767 -0.748854 -0.662344
-1.542658 -0.079363 -0.022236 -0.399930 -0.836190 -0.359372
0.393772 -0.131301 0.176556 0.056515 0.778898 0.624598
0.334468 -0.479783 -0.592238 -0.056482 -0.800047 0.597273
0.456227 0.269026 0.321202 0.112085 0.775229 -0.621656
0.427388 -0.235234 0.273862 0.112085 -0.775229 -0.621656
0.070408 -0.226442 0.284508 -0.028391 0.768849 0.638800
1.391063 0.188093 -0.238381 -0.022767 -0.748854 -0.662344
1.138463 -0.068073 -0.094003 -0.022767 0.748854 -0.662344
0.265348 -0.341993 -0.432246 -0.028391 0.768849 -0.638800
0.926589 -0.083793 0.104493 -0.022767 -0.809215 -0.587071
0.411406 0.365832 0.467430 0.028222 -0.776034 0.629728
0.256439 -0.104265 0.145725 -0.028391 0.768849 0.638800
0.499846 -0.406221 0.500153 0.112085 -0.775229 -0.621656
-0.503793 0.045721 -0.097853 0.001541 0.487609 -0.869985
0.345388 -0.425713 0.536568 -0.028391 0.768849 0.638800
0.266521 0.326341 0.413460 -0.028391 -0.768849 0.638800
-1.189327 -0.107224 0.012984 -0.002406 -0.981963 0.178765
0.491221 0.226803 0.274858 0.112085 0.775229 -0.621656
0.363824 0.525001 0.656888 -0.028391 -0.768849 0.638800
-0.640110 0.000000 -0.108007 0.000295 -0.097557 -0.992088
1.370938 0.170713 0.218040 -0.022767 -0.748854 0.662344
0.024342 -0.180443 -0.220600 -0.056482 -0.800047 0.597273
-1.553173 0.038181 0.066897 -0.510058 0.514874 0.681648
-1.553173 -0.038181 0.066897 -0.510044 -0.514906 0.681639
1.531693 -0.020559 -0.104566 0.019632 -0.059860 -0.994382
0.383021 0.417159 0.527945 -0.028391 -0.768849 0.638800
1.303369 -0.101358 -0.114094 -0.022767 -0.809215 0.587071
0.291304 -0.202979 0.266085 -0.028391 0.768849 0.638800
0.535450 0.092421 0.115252 0.056515 -0.778898 0.624598
0.044215 0.182586 0.221591 -0.056482 0.800047 -0.597273
0.259516 0.219000 -0.250008 -0.056482 0.800047 0.597273
-0.972152 -0.106654 0.017046 -0.001777 -0.970518 0.231953
1.113491 -0.111492 0.135425 -0.022767 -0.809215 -0.587071
-1.072737 -0.077641 0.075083 0.001075 -0.707702 0.701089
0.471662 0.503490 -0.616370 0.112085 0.775229 0.621656
-0.330389 -0.106702 0.016745 0.000579 -0.991967 0.099039
0.236343 0.146325 -0.154851 -0.056482 0.800047 0.597273
0.355267 -0.263818 0.342153 -0.028391 0.768849 0.638800
0.484344 0.433873 -0.545681 0.056515 -0.778898 -0.624598
0.540093 -0.000000 0.108007 -0.000018 0.028634 0.997941
0.403225 -0.191839 0.215390 0.112085 -0.775229 -0.621656
-0.485687 0.042027 0.099495 -0.000682 0.481118 0.873031
-1.319858 -0.098540 -0.044222 0.000089 -0.868547 -0.490014
0.444483 -0.366485 0.440619 0.112085 -0.775229 -0.621656
0.343771 -0.314019 0.369317 -0.056482 -0.800047 -0.597273
0.403006 0.415298 -0.499380 -0.056482 0.800047 0.597273
0.427115 -0.582826 -0.729299 -0.028391 0.768849 -0.638800
0.332266 0.234093 -0.305354 -0.028391 -0.768849 -0.638800
0.020003 -0.108007 0.000000 -0.000547 -0.997894 -0.025282
0.397395 0.440849 -0.557097 -0.028391 -0.768849 -0.638800
1.164102 0.091483 0.057414 0.000079 0.793165 0.604374
0.069485 0.076500 0.077100 -0.000000 -0.625598 -0.780145
0.053669 -0.043548 -0.098839 0.000493 -0.468870 -0.880207
0.493098 0.155817 0.198141 0.056515 -0.778898 0.624598
0.222017 -0.202990 0.263019 -0.028391 0.768849 0.638800
0.073658 -0.151009 0.193862 -0.028391 0.768849 0.638800
0.451769 -0.252982 -0.300390 0.112085 -0.775229 0.621656
0.410557 -0.498571 0.627155 -0.028391 0.768849 0.638800
0.216972 -0.091021 -0.058144 0.001686 -0.832875 -0.549651
0.351864 -0.180958 -0.242273 0.002752 0.773009 -0.633980
1.414962 0.134679 -0.159078 0.053141 0.781953 0.621069
1.458796 -0.131208 -0.158458 0.053141 -0.781953 0.621069
0.133786 -0.136281 0.151095 -0.056482 -0.800047 -0.597273
0.360062 0.108007 -0.000000 -0.000644 0.996223 0.048097
1.247411 -0.153656 0.188351 -0.022767 -0.809215 -0.587071
0.013172 0.093086 -0.121458 -0.028391 -0.768849 -0.638800
1.112822 -0.089183 0.060926 -0.000033 -0.822435 0.563894
0.740127 0.108007 -0.000000 -0.001611 0.991605 0.106683
0.290699 -0.351502 0.424545 -0.056482 -0.800047 -0.597273
0.259516 0.219000 0.250008 -0.056482 0.800047 -0.597273
0.167016 -0.234120 0.279008 -0.056482 -0.800047 -0.597273
0.356132 0.396673 -0.478864 -0.056482 0.800047 0.597273
1.070965 -0.058713 0.081100 -0.000000 0.625598 -0.780145
0.249390 0.409442 -0.506062 -0.056482 0.800047 0.597273
-1.165752 -0.018349 0.106437 -0.001170 -0.283777 0.955414
1.095402 0.090586 0.058820 -0.000186 0.838135 0.540347
0.125349 0.279548 0.350866 -0.028391 -0.768849 0.638800
0.123754 0.136969 0.179190 -0.028391 -0.768849 0.638800
0.464429 0.304207 -0.385784 0.056515 -0.778898 -0.624598
-1.129922 -0.091251 0.057783 0.001567 -0.831012 0.552707
0.226945 -0.086779 -0.123369 -0.028391 0.768849 -0.638800
0.165714 -0.100935 0.038440 0.000132 -0.934578 0.346427
1.484857 0.217976 0.269934 0.053141 0.781953 -0.621069
0.253073 0.099779 -0.041349 0.000345 0.885018 -0.459254
0.226290 0.383837 0.473949 -0.056482 0.800047 -0.597273
0.355267 0.283042 0.326737 -0.056482 0.800047 -0.597273
0.197065 0.087821 0.123294 -0.028391 -0.768849 0.638800
0.379650 -0.267232 -0.347346 -0.000080 0.772684 -0.634462
0.207138 0.155333 0.204999 -0.028391 -0.768849 0.638800
1.255575 0.091034 -0.123988 -0.022767 -0.748854 -0.662344
0.036022 -0.203381 0.250220 -0.056482 -0.800047 -0.597273
0.413661 0.078286 -0.075667 0.112085 0.775229 0.621656
0.482055 0.128548 0.165136 0.056515 -0.778898 0.624598
-0.542671 -0.010084 0.107536 0.002619 -0.185935 0.980616
0.290385 -0.289068 -0.340945 -0.056482 -0.800047 0.597273
0.275970 0.081797 0.119551 -0.028391 -0.768849 0.638800
0.351131 0.495782 -0.612093 -0.056482 0.800047 0.597273
1.403219 -0.080566 -0.110873 0.053141 0.776116 -0.628347
-0.600103 0.108007 -0.000000 0.000172 0.990437 0.111764
1.267598 -0.055215 0.083904 -0.000000 0.625598 -0.780145
1.242883 0.080793 0.111973 -0.022767 -0.748854 0.662344
-0.005690 0.125980 0.150488 -0.056482 0.800047 -0.597273
1.531693 0.041708 0.052011 0.053141 0.781953 -0.621069
0.146032 0.106942 -0.144040 -0.028391 -0.768849 -0.638800
0.952985 0.064309 -0.076612 -0.022767 0.809215 0.587071
0.178427 0.329010 -0.412758 -0.028391 -0.768849 -0.638800
-0.019937 -0.100678 -0.117942 -0.056482 -0.800047 0.597273
0.163013 0.070654 -0.081788 0.000000 -0.625598 0.780145
1.311441 0.077936 -0.111100 -0.022767 -0.748854 -0.662344
0.330770 0.378342 0.456708 -0.056482 0.800047 -0.597273
1.097535 -0.099479 -0.119486 -0.022767 -0.809215 0.587071
0.436259 0.130155 0.144424 0.112085 0.775229 -0.621656
0.497754 -0.319133 0.391174 0.112085 -0.775229 -0.621656
0.249390 0.409442 0.506062 -0.056482 0.800047 -0.597273
-0.858918 0.101564 0.036748 -0.001008 0.943554 0.318773
-0.088430 -0.085287 -0.107557 -0.028391 0.768849 -0.638800
0.328588 -0.488054 0.603874 -0.056482 -0.800047 -0.597273
1.440247 0.082677 0.069499 0.005251 0.816607 0.572740
1.040179 -0.108007 0.000000 -0.000127 -0.990953 -0.102170
-0.016422 -0.143115 0.174454 -0.056482 -0.800047 -0.597273
0.297208 0.480278 -0.600100 -0.028391 -0.768849 -0.638800
-0.552977 0.085715 0.065715 0.002121 0.856188 0.511141
0.264290 -0.206490 0.232799 -0.056482 -0.800047 -0.597273
1.031638 -0.065708 -0.075490 -0.022767 -0.809215 0.587071
0.472349 -0.164943 0.211400 0.056515 0.778898 0.624598
0.444570 0.366456 0.440600 0.112085 0.775229 -0.621656
-0.540093 -0.108007 0.000000 -0.001620 -0.995730 -0.047836
1.355816 -0.101404 0.112123 0.025315 -0.792448 -0.608980
0.264215 0.175483 -0.191272 -0.056482 0.800047 0.597273
-0.144464 0.099767 -0.041379 0.000511 0.919319 -0.386346
0.232707 -0.237994 0.305624 -0.028391 0.768849 0.638800
0.125041 -0.094313 -0.052637 0.000999 -0.903465 -0.421590
0.412646 0.262691 0.305444 0.112085 0.775229 -0.621656
-1.140620 -0.106214 0.019602 0.001441 -0.958590 0.273572
0.046584 -0.019737 0.106189 -0.001403 -0.286240 0.954366
1.353400 -0.133889 0.175803 -0.022767 0.748854 0.662344
-0.070070 0.094559 0.114487 -0.056482 0.800047 -0.597273
-1.570907 -0.038557 -0.054145 -0.528483 -0.603407 -0.583712
0.415455 -0.349083 -0.413685 0.112085 -0.775229 0.621656
0.009293 0.089730 -0.060118 -0.000103 0.874854 -0.478281
0.478406 -0.115531 0.149233 0.056515 0.778898 0.624598
-0.680117 -0.000000 0.108007 0.000797 0.040083 0.996888
0.212951 0.101813 0.036053 -0.000790 0.905648 0.417074
0.130061 -0.199934 0.236711 -0.056482 -0.800047 -0.597273
0.332266 0.234093 0.305354 -0.028391 -0.768849 0.638800
0.359604 0.075555 0.110130 0.056515 -0.778898 0.624598
0.427115 -0.582826 0.729299 -0.028391 0.768849 0.638800
1.110828 0.103820 -0.029781 -0.000211 0.960723 -0.264851
-1.461653 0.088077 -0.059487 -0.136570 0.742299 -0.649607
1.374838 0.082472 -0.089914 0.053141 0.781953 0.621069
0.373065 0.060398 -0.090012 -0.000000 -0.625598 0.780145
1.488518 0.085444 -0.103383 0.053141 0.781953 0.621069
-0.881678 0.067384 -0.084410 0.000581 0.697404 -0.712425
0.341983 0.505933 0.626556 -0.056482 0.800047 -0.597273
0.185379 0.340608 0.419913 -0.056482 0.800047 -0.597273
0.800137 0.108007 -0.000000 -0.000074 0.993551 0.086626
0.261211 0.270831 -0.319275 -0.056482 0.800047 0.597273
0.386245 -0.223061 0.291666 0.056515 0.778898 0.624598
1.251858 0.019053 0.106314 0.000191 0.201260 0.977049
-0.186785 0.031744 -0.103237 0.000620 0.383006 -0.920774
0.209236 -0.367997 0.454345 -0.056482 -0.800047 -0.597273
1.149618 0.057314 -0.082221 -0.022767 -0.748854 -0.662344
0.494854 0.065777 -0.085699 0.000000 -0.625598 0.780145
-1.001878 -0.017929 0.106509 -0.002439 -0.199813 0.977261
0.439540 0.395386 -0.501739 0.056515 -0.778898 -0.624598
0.378624 0.473552 0.595624 -0.028391 -0.768849 0.638800
1.301040 0.101679 -0.036427 0.001568 0.944774 -0.314732
0.280095 0.361470 -0.438900 -0.056482 0.800047 0.597273
-0.112275 -0.018335 -0.106440 0.001132 -0.210724 -0.974787
-0.066857 0.080524 -0.102782 -0.028391 -0.768849 -0.638800
0.316139 -0.070034 0.107179 0.023500 0.775448 0.630496
-1.613587 0.000000 -0.031682 -0.721634 -0.057589 -0.684843
0.251564 -0.133245 -0.180389 -0.028391 0.768849 -0.638800
0.271723 -0.085431 0.069938 -0.056482 -0.800047 -0.597273
0.810757 -0.083082 -0.069014 -0.000305 -0.706148 -0.704193
-1.158174 -0.063848 0.087115 0.000812 -0.582813 0.809686
0.133286 0.291366 -0.365444 -0.028391 -0.768849 -0.638800
0.133286 -0.291366 -0.365444 -0.028391 0.768849 -0.638800
1.453241 -0.202906 -0.248255 0.004355 -0.799982 0.599596
0.175656 0.014948 0.106968 0.000545 0.210523 0.974982
0.195344 0.288813 0.365129 -0.028391 -0.768849 0.638800
0.310830 0.199193 0.262396 -0.028391 -0.768849 0.638800
-0.588176 -0.076978 0.075763 -0.001269 -0.653235 0.752392
-1.000172 0.000000 -0.108007 -0.002928 -0.098030 -0.992281
1.166758 0.129012 0.157508 -0.022767 0.809215 -0.587071
1.411605 -0.184314 -0.224241 -0.022767 -0.809215 0.587071
0.233157 0.106318 -0.101563 -0.056482 0.800047 0.597273
0.201835 0.205637 -0.265308 -0.028391 -0.768849 -0.638800
0.183549 0.199860 0.231554 -0.056482 0.800047 -0.597273
1.531693 0.020559 -0.104566 0.019632 0.059860 -0.994382
0.420072 -0.000000 0.108007 -0.000867 0.043887 0.995393
1.490617 -0.088435 0.060615 0.017185 -0.765416 0.639114
1.474229 -0.075682 -0.089870 0.053141 -0.781953 0.621069
-0.373285 0.016005 0.106815 -0.000294 0.219430 0.972975
0.262630 0.036186 -0.101765 -0.001793 0.321735 -0.943570
-1.314915 0.021700 -0.105805 -0.001684 0.315380 -0.944515
1.045890 0.037768 0.101189 -0.001085 0.346701 0.935132
1.209350 0.144771 -0.177580 -0.022767 0.809215 0.587071
-0.027936 -0.174772 -0.217947 -0.056482 -0.800047 0.597273
0.202132 -0.283892 -0.342358 -0.056482 -0.800047 0.597273
1.457572 -0.045585 0.097616 0.010780 -0.422201 0.903618
0.190828 -0.060398 0.090012 0.000000 0.625598 -0.780145
0.360165 0.354588 -0.451620 -0.028391 -0.768849 -0.638800
0.454139 0.170788 0.220337 0.056515 -0.778898 0.624598
0.540093 0.108007 -0.000000 -0.008189 0.997097 0.047398
1.422351 0.025951 0.104843 0.003207 0.245198 0.966396
0.209827 -0.126007 0.130143 -0.056482 -0.800047 -0.597273
0.353673 0.123531 0.170495 0.056515 -0.778898 0.624598
0.491943 0.357294 -0.437715 0.112085 0.775229 0.621656
-0.658715 0.039903 -0.100366 -0.000362 0.410091 -0.909951
-0.587314 0.065126 0.086164 0.001115 0.504197 0.859946
1.531693 -0.088552 -0.059290 0.018750 -0.831361 -0.549000
1.531693 0.088552 0.059290 1.000000 -0.000000 -0.000000
-0.794962 0.083659 -0.068314 -0.001178 0.763917 -0.641563
0.359803 -0.228821 -0.253679 -0.000224 -0.793730 0.606914
0.259464 0.187829 0.208259 -0.056482 0.800047 -0.597273
0.060547 0.143003 -0.183643 -0.028391 -0.768849 -0.638800
-0.041361 -0.105089 -0.024940 -0.002222 -0.944098 -0.319436
1.365124 0.055766 0.083463 0.000000 -0.625598 -0.780145
0.262275 0.361137 0.440139 -0.056482 0.800047 -0.597273
-1.320227 -0.000000 0.108007 -0.002561 0.025555 0.996863
0.907855 0.014583 -0.107019 -0.000230 0.093516 -0.993507
-0.031633 0.072035 0.080681 -0.000000 -0.625598 -0.780145
1.002858 0.090409 0.114595 -0.022767 -0.748854 0.662344
-0.940161 -0.000000 0.108007 0.000602 0.028765 0.998322
0.295652 0.246266 0.318378 -0.028391 -0.768849 0.638800
0.306500 0.256988 -0.331766 -0.028391 -0.768849 -0.638800
1.424014 -0.164994 0.213398 0.027848 0.767506 0.640083
0.332468 -0.085431 0.069938 -0.000000 0.625598 -0.780145
1.388287 0.088426 0.062019 -0.000160 0.818133 0.570439
0.388153 0.551891 -0.690334 -0.028391 -0.768849 -0.638800
0.109933 -0.078286 0.075667 -0.056482 -0.800047 -0.597273
-0.260045 -0.108007 0.000000 0.002577 -0.995739 -0.058433
-1.307616 0.065147 0.086148 0.000328 0.612656 0.786771
0.387647 -0.051349 -0.095021 -0.000686 -0.388210 -0.918543
1.251889 -0.116184 -0.136525 -0.022767 -0.809215 0.587071
0.375264 -0.113822 -0.156435 0.056515 0.778898 -0.624598
-1.286345 -0.105574 -0.022797 0.001051 -0.946412 -0.310453
-1.252515 0.106429 -0.018396 -0.000690 0.978421 -0.194943
1.374035 -0.077219 -0.083231 0.053141 -0.781953 0.621069
-0.228824 -0.091973 0.056626 0.000093 -0.793389 0.604057
1.462984 -0.213056 0.261868 0.027848 -0.791549 -0.610122
1.414271 0.162305 -0.193802 0.026039 0.792193 0.609308
1.429163 0.202642 0.248824 -0.022767 0.809215 -0.587071
0.040161 -0.145148 -0.185319 -0.028391 0.768849 -0.638800
-0.853537 -0.084822 -0.066864 -0.003406 -0.828988 -0.552910
0.425402 -0.220574 -0.285022 0.056515 0.778898 -0.624598
-1.190526 0.014536 0.107025 -0.000862 0.215639 0.973787
0.167884 0.105683 -0.022286 0.000548 0.970352 -0.229113
1.287261 0.070254 0.071844 -0.000000 -0.625598 -0.780145
0.202596 -0.234342 -0.275941 -0.056482 -0.800047 0.597273
0.104956 0.214176 0.271280 -0.028391 -0.768849 0.638800
0.188989 0.171609 -0.223782 -0.028391 -0.768849 -0.638800
1.297475 0.162307 -0.206011 -0.022767 -0.748854 -0.662344
0.373065 0.081859 0.072803 -0.000000 -0.625598 -0.780145
-0.059380 0.142611 -0.177841 -0.056482 0.800047 0.597273
