0.227967 0.209655 0.228668 0.083484 -0.694037 0.715082
0.443674 0.386224 -0.374857 0.039162 0.695934 0.717037
0.268826 -0.513565 -0.498451 -0.175537 0.617030 -0.767112
-0.053262 -0.070146 0.068081 -0.083405 -0.724577 -0.684128
0.244441 -0.239320 -0.221395 0.039162 -0.695934 0.717037
-1.013759 0.077783 0.019113 -0.001189 0.946195 0.305993
0.155551 -0.069376 0.100971 0.083484 0.694037 0.715082
0.257691 0.274662 -0.288292 0.083484 -0.694037 -0.715082
0.276614 -0.090884 -0.079085 0.039162 -0.695934 0.717037
1.403268 -0.210811 0.207795 -0.013234 0.681117 0.732055
1.334072 -0.088081 0.078336 0.010023 -0.703103 -0.710915
-1.493142 -0.078026 -0.018133 -0.090456 -0.939600 -0.308401
-0.380359 0.070811 0.037435 -0.000245 0.843779 0.526648
0.154057 -0.316964 0.314052 -0.175537 0.617030 0.767112
0.443674 -0.128944 0.125149 0.083484 0.694037 0.715082
-0.184207 0.068175 0.042045 0.006867 0.891589 0.439167
1.359722 0.270620 0.262655 -0.013234 0.711388 -0.702674
1.290084 0.090655 0.081770 -0.013234 0.711388 -0.702674
0.935013 0.079407 0.077070 -0.013234 0.711388 -0.702674
1.439546 -0.017905 -0.078070 0.002458 -0.073615 -0.991708
-1.217033 0.070185 0.038595 -0.000169 0.836188 0.539223
0.911841 -0.033188 -0.072898 0.003833 -0.305154 -0.947908
0.183719 0.078167 0.017478 -0.001351 0.939346 0.327051
0.638237 -0.048049 0.064085 -0.000566 -0.479974 0.871404
0.750058 0.056341 -0.056932 -0.000018 0.712951 -0.693980
0.296434 0.551573 -0.535340 -0.083405 0.724577 0.684128
0.412705 0.090985 -0.086616 0.039162 0.695934 0.717037
0.424145 -0.291510 -0.285211 0.083484 0.694037 -0.715082
0.075573 -0.247514 -0.240229 -0.175537 0.617030 -0.767112
-1.327130 -0.060502 -0.052489 0.001067 -0.696816 -0.710140
-0.822794 0.077088 0.021748 0.005528 0.953418 0.290344
0.470503 -0.073276 -0.032346 -0.000680 -0.909934 -0.401005
1.167064 0.141549 -0.135612 -0.013234 0.711388 0.702674
-0.706967 -0.058287 -0.054937 -0.001655 -0.716544 -0.691850
0.215887 -0.201217 0.182854 0.039162 -0.695934 -0.717037
1.369781 0.132636 -0.134455 -0.000547 -0.685795 -0.727725
0.267470 0.489843 0.473491 -0.083405 0.724577 -0.684128
1.070920 0.140595 0.136457 -0.013234 0.711388 -0.702674
0.347030 -0.526178 0.505414 0.039162 -0.695934 -0.717037
1.542404 0.050982 0.022305 1.000000 -0.000000 -0.000000
0.443674 0.500571 -0.485839 0.039162 0.695934 0.717037
0.443674 0.143237 0.139021 0.039162 0.695934 -0.717037
1.441199 0.238906 -0.229014 0.012138 0.702346 0.711662
0.075573 0.247514 0.240229 -0.083405 0.724577 -0.684128
0.310282 0.310152 0.316597 0.083484 -0.694037 0.715082
-0.518110 0.071085 -0.036912 0.000019 0.913529 -0.391532
1.347139 -0.131623 -0.133103 -0.013234 0.681117 -0.732055
1.108106 0.000000 -0.080097 -0.000979 -0.122128 -0.988708
0.297208 -0.345358 0.352294 0.083484 0.694037 0.715082
0.103437 0.096589 -0.125208 -0.175537 -0.617030 -0.767112
-1.021050 -0.071431 0.036238 -0.001288 -0.919019 0.379328
-0.119536 -0.048052 -0.064082 0.000004 -0.537941 -0.836932
-1.534340 0.072464 -0.018204 -0.249136 0.909122 -0.314034
1.431385 -0.250953 -0.241395 -0.013234 -0.711388 0.702674
0.952001 -0.087056 0.084494 -0.013234 -0.711388 -0.702674
1.200012 -0.127203 -0.120468 -0.013234 -0.711388 0.702674
0.499322 0.017183 0.078232 -0.000378 0.140754 0.984971
0.310681 -0.362693 -0.367546 0.083484 0.694037 -0.715082
1.197823 -0.078991 0.013268 -0.002522 -0.963086 0.253665
0.149193 0.348867 -0.338599 -0.083405 0.724577 0.684128
1.087908 -0.148244 0.143881 -0.013234 -0.711388 -0.702674
0.443674 -0.514865 -0.499712 0.083484 0.694037 -0.715082
1.523591 0.240129 0.233062 0.024823 0.697665 -0.715994
-0.389334 0.000000 -0.080097 -0.002492 -0.155762 -0.981183
-0.757718 -0.037930 0.070547 -0.002955 -0.487005 0.868793
0.293797 -0.107561 0.121894 0.083484 0.694037 0.715082
0.280457 0.133050 0.120220 0.039162 0.695934 -0.717037
1.163411 0.076096 0.024998 0.002569 0.950136 0.298827
1.415681 0.019227 0.077755 -0.001938 0.278264 0.955348
-0.625712 -0.061890 0.050845 -0.000137 -0.714302 0.692651
0.156096 -0.021768 -0.077082 -0.000978 -0.331253 -0.938301
-0.350721 -0.060736 0.052218 -0.000772 -0.657011 0.747006
-0.053262 0.070146 0.068081 -0.083405 0.724577 -0.684128
-1.317781 -0.017170 0.078235 0.000297 -0.142051 0.984690
0.731467 -0.071645 -0.035813 -0.001008 -0.895868 -0.430959
-1.123026 0.060968 -0.051947 -0.002036 0.810636 -0.576981
1.542404 -0.089913 -0.037310 -0.222804 -0.933770 -0.266957
-0.896042 -0.013592 0.078935 0.002627 -0.264610 0.960698
0.069881 -0.080097 0.000000 0.000892 -0.979286 -0.167178
-0.998118 -0.017183 -0.078232 -0.000068 -0.140486 -0.984972
-0.195022 -0.058389 0.054829 0.000591 -0.775894 0.622601
-0.518911 0.016740 0.078328 -0.000514 0.279768 0.954767
1.528294 -0.197561 0.191747 0.024823 -0.697665 -0.715994
-1.487783 -0.000000 0.080315 -0.009132 -0.085637 0.988846
-0.582908 -0.029972 -0.074278 0.001347 -0.421661 -0.901500
1.330600 0.184645 0.176163 -0.013234 0.711388 -0.702674
0.321649 0.359805 -0.363462 0.083484 -0.694037 -0.715082
0.197738 0.214528 -0.194782 0.039162 0.695934 0.717037
-1.138088 -0.017170 0.078235 0.000297 -0.142051 0.984690
-1.242022 0.027866 -0.075094 0.003366 0.472977 -0.875623
0.049915 0.080097 -0.000000 -0.000480 0.992703 0.068526
-0.286292 0.061890 -0.050845 -0.000137 0.714302 -0.692651
0.327802 0.200393 -0.188166 0.039162 0.695934 0.717037
1.023830 -0.076446 -0.023906 -0.000059 -0.922908 -0.374463
0.656699 0.070618 0.037798 -0.000656 0.804662 0.584538
-1.430455 0.018783 -0.077864 -0.000010 0.278276 -0.955470
0.443674 0.500571 0.485839 0.039162 0.695934 -0.717037
0.593682 -0.063724 -0.048527 0.000331 -0.802088 -0.588073
1.371920 0.077600 -0.019845 0.000342 0.941556 -0.318356
0.443674 -0.329051 0.319367 0.083484 0.694037 0.715082
0.324041 -0.589580 -0.572228 -0.175537 0.617030 -0.767112
0.862335 0.078141 -0.017593 0.003865 0.940434 -0.320554
0.300098 0.070314 -0.038359 0.000038 0.840717 -0.531335
-0.898628 0.047585 -0.064430 -0.000024 0.534799 -0.838973
1.048208 0.080097 -0.000000 -0.000109 0.992617 0.080232
-0.732152 0.061135 -0.051750 0.000179 0.808486 -0.579684
0.190529 -0.157504 -0.139043 0.039162 -0.695934 0.717037
0.167729 0.159526 0.139760 0.039162 0.695934 -0.717037
0.340861 0.195773 0.202014 0.083484 -0.694037 0.715082
0.195684 0.294465 0.305479 -0.175537 -0.617030 0.767112
0.320505 -0.154809 -0.164633 0.083484 0.694037 -0.715082
0.350439 0.454436 -0.435969 0.039162 0.695934 0.717037
0.051710 -0.119257 0.131605 -0.175537 0.617030 0.767112
0.011155 0.158830 -0.154155 -0.083405 0.724577 0.684128
0.355361 -0.077594 0.019866 -0.000192 -0.942511 0.315909
1.410687 -0.293565 0.284925 -0.013234 -0.711388 -0.702674
0.049915 0.000000 0.080097 0.000001 0.063395 0.993898
0.379352 -0.016929 -0.078288 -0.000126 -0.071432 -0.992404
1.439266 -0.078245 0.017124 -0.003611 -0.936874 0.334637
0.288171 0.402689 0.382345 0.039162 0.695934 -0.717037
0.383419 0.301903 -0.289727 0.039162 0.695934 0.717037
0.245311 -0.279880 0.260809 0.039162 -0.695934 -0.717037
0.019759 -0.017932 -0.078064 0.000149 -0.286510 -0.952694
1.236568 -0.120535 0.120788 -0.013234 0.681117 0.732055
0.333244 -0.602249 0.584525 -0.083405 -0.724577 -0.684128
1.542404 0.018780 -0.095518 -0.224458 0.057126 -0.969408
-0.276105 0.019275 0.077743 0.000126 0.319347 0.940057
0.336426 -0.432955 0.414355 0.039162 -0.695934 -0.717037
1.339888 -0.070618 -0.037798 0.000656 -0.804662 -0.584538
1.179435 0.126612 0.120257 -0.013234 0.711388 -0.702674
1.428547 -0.138385 0.130627 0.024823 -0.697665 -0.715994
0.421970 0.332763 0.325503 0.083484 -0.694037 0.715082
0.763617 0.060295 0.052727 0.000963 0.797498 0.594206
-0.179434 0.048216 -0.063959 -0.000406 0.537613 -0.837140
-1.573738 -0.019697 -0.059771 -0.316626 -0.316900 -0.887184
1.227901 0.000000 0.080097 -0.002089 0.058279 0.994826
-1.249164 -0.077297 0.020993 -0.003500 -0.933056 0.343991
0.411998 0.077076 0.021791 -0.000612 0.908122 0.404145
0.239688 -0.436825 -0.430057 -0.175537 0.617030 -0.767112
0.350439 -0.454436 -0.435969 0.039162 -0.695934 0.717037
1.308757 -0.247674 0.240385 -0.013234 -0.711388 -0.702674
1.265498 0.103300 -0.105275 -0.013234 -0.681117 -0.732055
0.249203 -0.075847 0.025746 0.001262 -0.921144 0.371364
0.166156 -0.289957 -0.274139 -0.083405 -0.724577 0.684128
0.316378 -0.280285 -0.286898 0.083484 0.694037 -0.715082
-0.025655 -0.108153 -0.104970 -0.175537 0.617030 -0.767112
1.323367 -0.166038 0.157461 -0.013234 -0.711388 -0.702674
1.433621 -0.176097 -0.167550 0.024823 -0.697665 0.715994
-1.396726 -0.070185 0.038595 0.000699 -0.835318 0.540815
0.367635 -0.180567 0.171100 0.039162 -0.695934 -0.717037
-0.800211 -0.019486 -0.077691 0.001778 -0.144962 -0.983780
0.443674 -0.500571 0.485839 0.083484 0.694037 0.715082
0.377694 -0.229025 -0.218681 0.039162 -0.695934 0.717037
0.668857 0.000000 -0.080097 0.004280 -0.060564 -0.993853
1.003095 0.012585 -0.079102 -0.002314 0.111043 -0.990632
0.231962 0.013920 0.078878 0.005589 0.057882 0.994909
0.132075 -0.242697 0.249284 -0.175537 0.617030 0.767112
0.151105 0.265018 -0.271593 -0.175537 -0.617030 -0.767112
1.448184 0.083348 -0.084097 0.024823 -0.694840 -0.718736
0.342446 0.614918 -0.596821 -0.083405 0.724577 0.684128
1.528294 0.197561 -0.191747 0.024823 0.697665 0.715994
1.525159 -0.225940 -0.219290 0.024823 -0.697665 0.715994
1.520456 -0.268508 0.260606 0.024823 -0.697665 -0.715994
-1.584411 -0.000000 0.058511 -0.366191 -0.100946 0.913575
0.476668 0.013761 -0.078906 0.004143 0.121513 -0.988413
0.443674 0.157530 -0.152894 0.039162 0.695934 0.717037
0.833176 -0.076096 -0.024998 -0.002569 -0.950136 -0.298827
0.133594 0.067146 0.101371 0.083484 -0.694037 0.715082
0.538217 -0.070270 0.038440 0.000098 -0.908686 0.402129
0.207547 -0.380530 0.365021 -0.083405 -0.724577 -0.684128
1.423344 0.210194 0.207584 0.012138 -0.690370 0.723285
-0.484991 -0.015567 -0.078570 0.000739 -0.255373 -0.962174
0.029560 -0.184168 -0.178748 -0.175537 0.617030 -0.767112
-0.632563 0.057014 -0.056258 -0.002645 0.757332 -0.643144
0.129927 -0.152657 0.176368 -0.175537 0.617030 0.767112
1.189838 -0.194135 -0.188421 -0.013234 0.681117 -0.732055
-1.335005 0.059961 -0.053106 -0.000267 0.691274 -0.716075
1.182652 0.069319 -0.072161 -0.013234 -0.681117 -0.732055
1.461435 -0.107534 -0.101707 0.024823 -0.697665 0.715994
0.249573 0.000000 -0.080097 -0.001363 -0.072626 -0.992073
-0.922860 0.069055 0.040582 -0.000282 0.823085 0.558582
1.359722 0.270620 -0.262655 -0.013234 -0.681117 -0.732055
0.397948 -0.110577 -0.112661 0.083484 0.694037 -0.715082
0.988311 0.000000 0.080097 -0.002762 0.068283 0.992924
0.443674 -0.057477 0.055785 0.000000 0.717587 -0.696469
0.158740 -0.202481 -0.223038 -0.175537 0.617030 -0.767112
0.233415 -0.317131 -0.332345 -0.089491 0.646896 -0.754513
0.497917 0.079025 -0.013062 -0.006521 0.957405 -0.276383
1.504948 0.000000 0.088722 -0.222217 -0.055278 0.970318
1.384508 0.114617 0.105941 0.024823 0.697665 -0.715994
1.457185 0.286011 0.276402 -0.013234 0.711388 -0.702674
0.119424 0.167946 -0.186263 -0.175537 -0.617030 -0.767112
0.443674 -0.214704 0.208385 0.083484 0.694037 0.715082
-0.429266 0.000000 0.080097 0.000003 0.070737 0.992408
-0.129778 0.000000 0.080097 0.001779 0.059304 0.994680
1.537701 0.112424 0.109115 0.024823 0.697665 -0.715994
0.851541 0.042201 0.068078 -0.000803 0.441794 0.886854
-1.119009 0.070508 0.038002 -0.000356 0.841020 0.530877
1.520456 0.268508 -0.260606 0.024823 0.697665 0.715994
0.952894 0.072478 -0.034095 0.001739 0.881835 -0.462512
-0.742419 0.056445 0.056829 0.002979 0.756638 0.643416
1.452420 0.164201 -0.156610 0.024823 0.697665 0.715994
-0.988311 0.000000 0.080097 -0.002916 0.071619 0.992211
0.396576 0.552731 -0.541962 0.083484 -0.694037 -0.715082
0.828584 0.000000 -0.080097 -0.003338 -0.071829 -0.992366
0.722188 -0.019275 0.077743 0.000126 -0.319347 0.940057
1.091712 0.100077 -0.099135 -0.013234 -0.681117 -0.732055
1.118878 -0.073927 -0.030828 -0.001262 -0.893008 -0.440757
1.273010 0.077578 -0.019932 -0.000869 0.946160 -0.306667
1.256225 0.170954 -0.163703 -0.013234 0.711388 0.702674
0.296434 0.551573 0.535340 -0.083405 0.724577 -0.684128
1.154972 -0.099479 0.093249 -0.013234 -0.711388 -0.702674
-0.046706 -0.076767 -0.022857 -0.004024 -0.933670 -0.341194
-0.357211 -0.070618 -0.037798 0.000656 -0.804662 -0.584538
1.327730 0.000000 0.080097 -0.003483 0.063543 0.993868
0.177174 0.094220 -0.076892 0.039162 0.695934 0.717037
0.354333 0.492499 0.488435 0.083484 -0.694037 0.715082
0.928413 -0.080097 0.000000 -0.001152 -0.982203 -0.158193
-0.788652 -0.080097 0.000000 0.000354 -0.983147 -0.153553
1.453480 0.079170 0.012151 -0.040231 0.959788 0.257996
0.335659 0.122975 -0.113456 0.039162 0.695934 0.717037
-1.097351 -0.017677 -0.078122 -0.000493 -0.286522 -0.952952
0.293680 -0.208903 0.220266 0.083484 0.694037 0.715082
1.367849 0.203249 -0.200119 -0.013234 -0.681117 -0.732055
0.235420 0.361253 -0.368294 -0.175537 -0.617030 -0.767112
-0.109812 0.080097 -0.000000 0.002726 0.993088 0.059792
0.398621 -0.363408 -0.350252 0.039162 -0.695934 0.717037
0.968989 -0.094704 -0.091917 -0.013234 0.681117 -0.732055
0.094471 0.191078 0.178153 -0.083405 0.724577 -0.684128
0.381419 -0.373074 0.358694 0.039162 -0.695934 -0.717037
0.568370 0.060502 0.052488 -0.000140 0.704513 0.702500
1.357713 0.017170 -0.078235 -0.000153 0.142369 -0.984621
0.443674 0.614918 0.596821 0.039162 0.695934 -0.717037
0.281633 0.489688 -0.471600 -0.083405 0.724577 0.684128
1.256960 0.151073 0.149569 -0.013234 -0.681117 0.732055
0.294510 0.260135 0.244332 0.039162 0.695934 -0.717037
1.278757 -0.171542 -0.163874 -0.013234 -0.711388 0.702674
1.363232 -0.212396 -0.208547 -0.013234 0.681117 -0.732055
0.214413 -0.137277 0.120716 0.039162 -0.695934 -0.717037
0.362834 0.099981 0.092623 0.039162 0.695934 -0.717037
1.270438 -0.089397 -0.080867 -0.013234 -0.711388 0.702674
1.031261 0.082824 0.081989 -0.013234 -0.681117 0.732055
0.169710 -0.080097 0.000000 0.001013 -0.991028 -0.063715
-0.124054 -0.078470 0.016065 0.001803 -0.987362 0.123930
-1.308461 0.060656 0.052311 0.000140 0.654092 0.749701
0.354805 -0.537220 -0.516555 0.039162 -0.695934 0.717037
-1.227901 -0.000000 0.080097 -0.000189 0.070621 0.992433
1.033943 -0.086609 0.082498 -0.013234 -0.711388 -0.702674
-0.931081 -0.075771 0.025968 -0.003763 -0.927883 0.356578
-1.397435 0.017183 0.078232 -0.000378 0.140754 0.984971
-1.245271 -0.055842 -0.057421 0.002329 -0.748396 -0.653103
-0.668857 0.000000 0.080097 0.004783 0.169217 0.978100
0.087123 0.042387 -0.067962 0.000392 0.561198 -0.821026
1.184816 -0.044866 -0.066352 -0.000253 -0.667854 -0.737500
1.291768 0.240026 0.232962 -0.013234 0.711388 -0.702674
1.444664 -0.308862 -0.299772 -0.013234 0.681117 -0.732055
1.444664 0.308862 -0.299772 -0.013234 -0.681117 -0.732055
1.121885 -0.163541 -0.158728 -0.013234 0.681117 -0.732055
-1.417026 -0.068750 -0.041098 0.000209 -0.824697 -0.555547
-0.460077 0.070270 0.038440 0.000098 0.908686 0.402129
-0.438404 0.070285 -0.038414 0.000780 0.837274 -0.537054
1.110842 0.084994 0.085447 -0.013234 -0.681117 0.732055
0.443674 0.200410 0.194512 0.039162 0.695934 -0.717037
0.443674 -0.271877 0.263876 0.083484 0.694037 0.715082
0.443674 0.443398 -0.430348 0.039162 0.695934 0.717037
0.443674 -0.557745 0.541330 0.083484 0.694037 0.715082
0.213611 0.437550 0.424673 -0.083405 0.724577 -0.684128
0.112383 0.298190 0.289414 -0.083405 0.724577 -0.684128
0.259623 -0.500896 0.486154 -0.083405 -0.724577 -0.684128
1.518888 -0.282698 -0.274378 0.024823 -0.697665 0.715994
1.529862 0.183371 0.177975 0.024823 0.697665 -0.715994
0.281625 0.070092 0.038763 -0.002295 0.792590 0.600132
-0.568713 0.076567 0.023518 -0.002195 0.934550 0.339469
-1.467492 0.069306 0.040153 0.003533 0.841166 0.532103
0.661006 0.068830 -0.040963 -0.000278 0.791771 -0.602026
0.419593 0.018311 0.077976 0.000687 0.287893 0.952376
0.206822 0.109469 0.093312 0.039162 0.695934 -0.717037
-0.822747 0.014628 0.078750 0.000517 0.245909 0.964862
0.027605 -0.077555 0.066070 -0.083405 -0.724577 -0.684128
-0.569027 -0.080097 0.000000 -0.004468 -0.993970 -0.045681
-1.037509 0.048622 -0.063651 0.000079 0.543098 -0.833464
0.323420 -0.305922 0.290351 0.039162 -0.695934 -0.717037
-1.099131 -0.070811 0.037435 -0.000245 -0.843779 0.526648
0.163033 0.260622 0.243450 -0.083405 0.724577 -0.684128
0.360783 0.370020 0.354603 0.039162 0.695934 -0.717037
1.359722 -0.270620 -0.262655 -0.013234 0.681117 -0.732055
-0.809550 0.060440 -0.052560 -0.000622 0.797961 -0.594233
1.542404 -0.026026 0.017393 1.000000 0.000000 -0.000000
0.329508 0.437129 0.437592 0.083484 -0.694037 0.715082
0.367073 0.267519 0.268589 0.083484 -0.694037 0.715082
-1.057023 -0.069995 -0.038940 -0.003701 -0.909430 -0.399815
0.141326 -0.107656 -0.087975 0.039162 -0.695934 0.717037
-0.273983 -0.062535 0.050049 -0.000144 -0.821624 0.561498
0.890892 -0.044362 0.066690 0.000407 -0.602498 0.792227
-0.708331 -0.077918 0.018557 -0.003648 -0.938146 0.324013
0.371708 -0.107646 0.112880 0.083484 0.694037 0.715082
0.026768 0.105580 -0.095853 -0.083405 0.724577 0.684128
0.328663 0.265662 -0.251562 0.039162 0.695934 0.717037
1.463646 0.094774 0.089350 0.024823 0.697665 -0.715994
-0.188237 -0.076312 -0.024333 -0.001608 -0.932066 -0.346424
-1.566312 -0.065686 0.000000 -0.364118 -0.917884 0.085203
1.138873 0.171189 0.166151 -0.013234 0.711388 -0.702674
1.263161 -0.060761 0.052188 -0.000824 -0.828550 0.549837
-0.836030 -0.056406 0.056868 -0.000485 -0.747255 0.657692
1.525423 0.082369 -0.044111 -0.219764 0.858766 -0.455933
-0.255522 0.077587 0.019895 0.001918 0.942475 0.316004
1.151586 0.022661 0.076825 -0.001093 0.405102 0.908651
0.246872 0.345109 0.357928 -0.089491 -0.646896 0.754513
-0.029949 0.000000 0.080097 -0.000318 0.071722 0.992192
-0.079897 0.017170 -0.078235 0.000297 0.142051 -0.984690
0.160331 0.147025 -0.127223 0.039162 0.695934 0.717037
-1.602977 0.041039 -0.027534 -0.490885 0.630272 -0.591942
0.019674 0.070429 0.084999 -0.175537 -0.617030 0.767112
-1.494481 -0.019565 -0.077607 -0.094125 -0.362900 -0.920105
1.189838 0.194135 -0.188421 -0.013234 -0.681117 -0.732055
1.407713 -0.082052 0.084242 0.024823 0.694840 0.718736
0.232414 0.154603 0.174717 0.083484 -0.694037 0.715082
0.413618 -0.567098 -0.548767 0.039162 -0.695934 0.717037
0.049831 -0.087969 -0.074389 -0.083405 -0.724577 0.684128
0.233415 -0.335139 0.313792 -0.042581 -0.716035 -0.696089
1.118136 -0.099630 -0.099196 -0.013234 0.681117 -0.732055
1.176984 -0.154684 0.148723 -0.013234 -0.711388 -0.702674
0.660114 -0.077167 -0.021465 -0.000992 -0.912095 -0.392910
-0.598205 0.017677 0.078122 -0.000493 0.286522 0.952952
-1.168003 0.000000 -0.080097 0.003760 -0.177593 -0.978001
-0.413759 -0.077593 0.019873 -0.000775 -0.940359 0.321375
-0.636667 -0.075583 -0.026510 0.005539 -0.918949 -0.380637
-1.178848 -0.070270 0.038440 0.000098 -0.908686 0.402129
-1.447556 0.074436 -0.029576 0.001356 0.887819 -0.451680
-0.029949 0.080097 -0.000000 -0.002506 0.995919 0.040458
0.345743 0.505333 -0.501894 0.083484 -0.694037 -0.715082
0.892335 0.036720 -0.071184 -0.003870 0.366519 -0.924401
-0.364530 0.061677 -0.051102 -0.000015 0.721802 -0.685486
0.443674 0.329051 -0.319367 0.039162 0.695934 0.717037
-0.690262 0.009065 -0.079583 -0.000378 0.218832 -0.973390
-0.309471 0.000000 -0.080097 -0.000268 -0.067279 -0.992165
0.295660 -0.036536 0.071279 -0.000834 -0.515704 0.851718
0.149744 0.000000 0.080097 -0.000560 0.164091 0.979026
0.257115 0.173720 -0.190387 0.083484 -0.694037 -0.715082
-1.058210 0.017383 0.078188 0.000461 0.283736 0.953524
0.527033 -0.043883 -0.067006 0.000169 -0.558207 -0.823521
0.243298 -0.387062 -0.367580 -0.083405 -0.724577 0.684128
0.377031 -0.473532 0.467376 0.083484 0.694037 0.715082
1.118878 0.073927 -0.030828 -0.001262 0.893008 -0.440757
-0.229608 0.000000 -0.080097 -0.000017 -0.068459 -0.992397
1.514493 -0.146634 0.141645 0.024823 -0.697665 -0.715994
0.399093 -0.071464 -0.036173 -0.002315 -0.910930 -0.401782
0.129927 -0.152657 -0.176368 -0.175537 0.617030 -0.767112
-0.928644 -0.033204 -0.072891 0.000153 -0.280592 -0.954559
-0.967648 0.060656 -0.052311 -0.000140 0.654092 -0.749701
1.392357 -0.081939 -0.084664 0.024823 0.694840 -0.718736
-1.193438 0.068175 -0.042045 -0.006867 0.891589 -0.439167
0.759800 -0.018419 -0.077951 -0.002464 -0.353406 -0.929679
0.280271 -0.173864 0.159822 0.039162 -0.695934 -0.717037
0.424190 -0.464411 -0.449679 0.039162 -0.695934 0.717037
-1.273622 0.077088 -0.021748 -0.005528 0.953419 -0.290343
1.350302 0.061041 0.051861 0.000297 0.770130 0.629428
-0.557338 -0.048440 0.063789 0.000342 -0.706288 0.700906
0.201466 0.316641 -0.298096 -0.083405 0.724577 0.684128
1.450126 -0.251475 0.241570 0.012138 -0.702346 -0.711662
-0.479018 -0.047585 0.064430 0.000024 -0.534799 0.838973
0.257523 -0.173706 -0.190326 0.083484 0.694037 -0.715082
-0.359419 0.017170 0.078235 0.000153 0.142369 0.984621
0.273785 -0.401064 0.409094 -0.138736 0.630069 0.762014
1.334072 0.088081 -0.078336 0.010023 0.703103 0.710915
0.203906 -0.088471 -0.113860 0.083484 0.694037 -0.715082
1.223364 0.074574 0.066746 -0.000000 -0.717587 -0.696469
0.020358 0.171499 0.166452 -0.083405 0.724577 -0.684128
0.443674 0.086063 0.083531 0.039162 0.695934 -0.717037
0.443674 -0.243291 -0.236130 0.083484 0.694037 -0.715082
-0.016452 0.120822 0.117266 -0.083405 0.724577 -0.684128
-0.016452 -0.120822 0.117266 -0.083405 -0.724577 -0.684128
0.588993 0.000000 0.080097 0.000427 0.071314 0.992282
0.443674 0.557745 0.541330 0.039162 0.695934 -0.717037
-1.307765 0.000000 -0.080097 -0.001259 -0.065912 -0.993305
-0.424822 -0.062535 -0.050049 0.000144 -0.821624 -0.561498
0.220552 -0.063567 -0.049510 0.039162 -0.695934 0.717037
0.319321 0.017080 -0.078255 0.000019 0.141677 -0.984721
1.093123 -0.072937 0.033103 0.001491 -0.915103 0.387292
1.506392 -0.082539 0.033436 -0.225745 -0.937972 0.245874
0.754451 -0.070417 0.038171 0.001601 -0.843903 0.526581
0.239855 -0.073979 0.095598 0.083484 0.694037 0.715082
0.346318 0.156196 0.146282 0.039162 0.695934 -0.717037
-1.487692 -0.063843 0.048734 -0.077085 -0.793478 0.591326
0.299599 0.415722 -0.395618 0.039162 0.695934 0.717037
-0.979105 -0.069779 -0.039325 0.000616 -0.835544 -0.539716
-1.331665 -0.077498 0.020238 0.000232 -0.910060 0.398914
0.112810 0.076242 0.024549 0.001678 0.899289 0.423828
0.230183 0.060643 -0.052326 0.000585 0.655264 -0.748562
0.261546 -0.144127 -0.129938 0.039162 -0.695934 0.717037
0.373877 0.393153 -0.389731 0.083484 -0.694037 -0.715082
0.311583 -0.212680 -0.199207 0.039162 -0.695934 0.717037
0.229560 -0.264599 -0.281809 0.083484 0.694037 -0.715082
0.012086 0.048444 -0.063787 -0.000702 0.667559 -0.737655
0.330181 -0.061092 -0.051801 -0.000297 -0.708080 -0.698858
0.166132 0.177244 0.204430 -0.089491 -0.646896 0.754513
0.658855 0.017383 0.078188 0.000461 0.283736 0.953524
0.320557 0.319686 -0.303553 0.039162 0.695934 0.717037
0.278808 0.220283 -0.233048 0.083484 -0.694037 -0.715082
0.352715 -0.322423 -0.323553 0.083484 0.694037 -0.715082
0.375279 -0.409459 -0.393673 0.039162 -0.695934 0.717037
0.134681 0.227466 -0.211790 -0.083405 0.724577 0.684128
1.525423 -0.043902 -0.082480 -0.219585 -0.453957 -0.859866
0.342446 0.614918 0.596821 -0.083405 0.724577 -0.684128
0.106415 -0.061135 -0.051750 0.000179 -0.808486 -0.579684
0.132491 -0.133951 0.113013 -0.042581 -0.716035 -0.696089
0.088797 -0.053382 0.060004 -0.000000 0.717587 -0.696469
1.087908 0.148244 -0.143881 -0.013234 -0.681117 -0.732055
0.914059 0.016036 0.078475 0.000390 0.256846 0.961993
0.797183 0.079397 -0.010570 -0.001553 0.968220 -0.235478
0.186003 0.399543 -0.387784 -0.083405 0.724577 0.684128
-0.193606 0.014817 0.078715 0.002612 0.238075 0.966888
1.463960 -0.174914 0.172074 0.024823 0.694840 0.718736
1.370364 -0.075982 0.025345 0.001277 -0.884341 0.453008
1.321559 0.170792 -0.162309 -0.013234 0.711388 0.702674
0.728754 0.080097 -0.000000 0.002120 0.979784 0.169200
1.256500 -0.170411 0.167554 -0.013234 0.681117 0.732055
-0.568760 0.033630 -0.072695 -0.000595 0.481522 -0.870579
0.362539 0.059691 -0.053503 0.039162 0.695934 0.717037
0.377694 0.229025 -0.218681 0.039162 0.695934 0.717037
1.387635 0.158489 0.158831 0.012138 -0.690370 0.723285
1.040160 0.070633 -0.070807 -0.013234 -0.681117 -0.732055
0.381181 0.171810 -0.163340 0.039162 0.695934 0.717037
1.450708 -0.035094 0.072000 0.001338 -0.557881 0.823338
-1.376002 -0.016302 -0.078421 -0.000812 -0.276548 -0.955765
0.185192 -0.265315 0.279632 -0.175537 0.617030 0.767112
1.328379 0.131683 0.132820 -0.013234 -0.681117 0.732055
1.467492 -0.069306 -0.040153 -0.069932 -0.770692 -0.623729
0.217576 0.258003 -0.238061 0.039162 0.695934 0.717037
-0.868384 -0.011552 -0.079260 0.001532 -0.271355 -0.958072
1.253816 -0.077587 -0.019895 -0.001918 -0.942475 -0.316004
0.296434 -0.551573 0.535340 -0.083405 -0.724577 -0.684128
-0.329437 0.080097 -0.000000 -0.000252 0.990183 0.080599
-1.545425 0.050116 0.051815 -0.298698 0.578709 0.749088
1.153189 -0.040542 0.069079 -0.000456 -0.609718 0.786470
0.393002 -0.584755 0.573461 0.083484 0.694037 0.715082
0.077580 0.094622 0.078053 -0.083405 0.724577 -0.684128
0.588993 0.000000 -0.080097 0.002223 -0.062227 -0.993874
0.130788 -0.323528 -0.314007 -0.175537 0.617030 -0.767112
0.300698 -0.457018 0.460260 -0.089491 0.646896 0.754513
1.068002 -0.046237 -0.065404 0.000353 -0.513986 -0.852618
0.381753 -0.314434 0.312410 0.083484 0.694037 0.715082
0.982704 0.071058 0.036964 0.001402 0.843432 0.529050
0.110438 0.133503 0.115227 -0.083405 0.724577 -0.684128
0.381181 -0.171810 -0.163340 0.039162 -0.695934 0.717037
0.211688 -0.222230 0.242774 0.083484 0.694037 0.715082
0.288129 -0.474004 -0.454198 -0.083405 -0.724577 0.684128
0.371004 -0.034696 0.072192 -0.000202 -0.491542 0.865042
0.605021 -0.077464 0.020368 -0.000533 -0.912762 0.393279
1.298518 -0.124206 0.115578 -0.013234 -0.711388 -0.702674
1.542404 0.013290 -0.030868 1.000000 -0.000000 -0.000000
0.343738 0.071301 0.036493 -0.000119 0.849112 0.518172
0.335659 -0.122975 -0.113456 0.039162 -0.695934 0.717037
-0.117258 0.056406 0.056868 -0.000485 0.747255 0.657692
0.374709 -0.610894 -0.600967 -0.074962 0.650974 -0.751331
0.397803 0.456430 0.448352 0.083484 -0.694037 0.715082
0.253268 0.306213 0.286802 0.039162 0.695934 -0.717037
0.291384 -0.403575 -0.409477 0.083484 0.694037 -0.715082
-0.309471 -0.080097 0.000000 0.000605 -0.979569 -0.164857
0.608959 0.080097 -0.000000 0.000918 0.979567 0.164576
0.277670 0.078072 -0.095154 0.083484 -0.694037 -0.715082
0.258923 0.076263 0.095587 0.083484 -0.694037 0.715082
0.199962 0.149792 -0.173837 0.083484 -0.694037 -0.715082
-0.523568 -0.057285 -0.055982 -0.001373 -0.767361 -0.632355
-1.620459 -0.036647 0.013525 -0.521806 -0.730796 0.405486
0.266863 0.321442 -0.332624 0.083484 -0.694037 -0.715082
-0.873955 0.079302 -0.011260 -0.007945 0.966520 -0.246129
0.156425 -0.211037 0.191739 -0.083405 -0.724577 -0.684128
-0.209261 0.077538 -0.020086 -0.004938 0.934224 -0.341529
1.360854 -0.119710 0.122267 0.012138 0.690370 0.723285
1.479193 -0.102388 0.097308 0.024823 -0.697665 -0.715994
0.380036 -0.495007 -0.476963 0.039162 -0.695934 0.717037
1.461652 -0.316511 0.307196 -0.013234 -0.711388 -0.702674
1.257792 -0.224729 0.218115 -0.013234 -0.711388 -0.702674
1.359722 -0.270620 0.262655 -0.013234 -0.711388 -0.702674
1.406877 -0.137424 -0.128940 0.024823 -0.697665 0.715994
1.090230 -0.099944 0.098984 -0.013234 0.681117 0.732055
0.379625 0.350633 -0.347791 0.083484 -0.694037 -0.715082
0.286260 0.191837 0.177594 0.039162 0.695934 -0.717037
0.009983 -0.080097 0.000000 0.007297 -0.996726 -0.039145
-0.708788 0.080097 -0.000000 -0.001457 0.991377 0.066378
0.443674 -0.457691 0.444221 0.083484 0.694037 0.715082
0.443674 -0.171824 0.166767 0.083484 0.694037 0.715082
0.443674 -0.371931 0.360985 0.083484 0.694037 0.715082
0.443674 0.271877 -0.263876 0.039162 0.695934 0.717037
1.274508 0.196979 0.192598 -0.013234 -0.681117 0.732055
0.011155 -0.158830 0.154155 -0.083405 -0.724577 -0.684128
0.121586 0.310859 -0.301710 -0.083405 0.724577 0.684128
0.149193 0.348867 0.338599 -0.083405 0.724577 -0.684128
0.038763 0.196837 -0.191044 -0.083405 0.724577 0.684128
0.103180 -0.285521 -0.277118 -0.175537 0.617030 -0.767112
0.001953 -0.146161 -0.141859 -0.175537 0.617030 -0.767112
0.296434 -0.551573 -0.535340 -0.175537 0.617030 -0.767112
1.488692 0.036417 -0.076780 -0.228667 0.318661 -0.914947
1.518888 0.282698 0.274378 0.024823 0.697665 -0.715994
1.537701 -0.112424 -0.109115 0.024823 -0.697665 0.715994
0.106202 -0.209365 -0.196091 -0.083405 -0.724577 0.684128
-1.063747 0.077771 -0.019163 0.000959 0.944163 -0.311021
1.344275 -0.210249 0.201826 -0.013234 -0.711388 -0.702674
0.443674 -0.086063 -0.083531 0.083484 0.694037 -0.715082
1.276523 0.032918 0.073020 0.000043 0.407771 0.904781
0.168957 0.035901 -0.071601 0.000879 0.498593 -0.861377
0.195206 -0.412212 -0.400081 -0.175537 0.617030 -0.767112
-1.168200 0.033194 0.072895 0.000010 0.347436 0.932274
-0.149744 0.000000 -0.080097 0.000196 -0.072066 -0.992227
-1.427613 -0.033517 0.072747 -0.000291 -0.477661 0.872651
0.395436 0.173628 0.174150 0.083484 -0.694037 0.715082
0.982704 -0.071058 0.036964 0.001402 -0.843432 0.529050
1.542404 0.053955 0.081027 1.000000 -0.000000 -0.000000
0.294947 0.160314 -0.147473 0.039162 0.695934 0.717037
-0.049690 -0.032905 -0.073026 -0.000196 -0.345342 -0.933082
0.103180 -0.285521 0.277118 -0.083405 -0.724577 -0.684128
0.291139 -0.336994 -0.318745 0.039162 -0.695934 0.717037
1.371561 -0.174306 -0.164924 -0.013234 -0.711388 0.702674
-0.641254 -0.033785 -0.072623 0.000018 -0.462749 -0.881445
0.696015 -0.071431 0.036238 -0.001288 -0.919019 0.379328
-0.768686 0.080097 -0.000000 0.003956 0.990983 0.100807
-0.249573 -0.080097 0.000000 0.000867 -0.989350 -0.084107
0.445196 0.071124 -0.036837 -0.001444 0.814184 -0.571563
0.095442 -0.084939 0.114009 -0.175537 0.617030 0.767112
-1.501147 0.037629 -0.070127 -0.063048 0.590037 -0.797224
0.093978 0.272852 -0.264822 -0.083405 0.724577 0.684128
0.395607 0.531809 0.521769 0.083484 -0.694037 0.715082
0.712953 0.038398 0.070293 0.000244 0.519507 0.848543
1.469768 -0.214819 -0.206534 0.024823 -0.697665 0.715994
1.212108 0.015567 -0.078570 0.000739 0.255373 -0.962174
0.398901 0.232653 0.223361 0.039162 0.695934 -0.717037
1.368593 0.224141 0.219571 -0.013234 -0.681117 0.732055
1.215819 0.079181 -0.012077 0.000486 0.991899 -0.098588
0.067036 -0.160862 0.168577 -0.175537 0.617030 0.767112
0.080820 0.157943 -0.144723 -0.083405 0.724577 0.684128
0.329227 -0.150823 0.140134 0.039162 -0.695934 -0.717037
1.203009 -0.069131 0.072354 -0.013234 0.681117 0.732055
1.070343 0.043380 0.067333 -0.001829 0.419260 0.901823
0.075573 -0.247514 0.240229 -0.083405 -0.724577 -0.684128
0.121311 0.213691 0.223490 -0.175537 -0.617030 0.767112
-1.327730 0.080097 -0.000000 -0.000119 0.978834 0.174361
0.233783 0.268118 0.248764 0.039162 0.695934 -0.717037
-1.207648 -0.077952 -0.018411 -0.003768 -0.937248 -0.326674
0.192507 -0.051884 0.061022 0.000457 -0.738772 0.666566
0.443674 0.371931 0.360985 0.039162 0.695934 -0.717037
0.079074 -0.018491 -0.077933 0.000686 -0.290858 -0.951361
0.124083 0.071610 -0.035883 -0.000982 0.856759 -0.506784
0.367407 -0.274472 -0.262229 0.039162 -0.695934 0.717037
0.410062 0.034510 -0.072282 -0.001293 0.354907 -0.928693
0.976303 -0.044636 -0.066507 0.000390 -0.594647 -0.794785
-0.311545 0.062148 0.050529 -0.001417 0.853747 0.510680
0.874240 -0.078470 0.016065 0.002064 -0.987370 0.133224
0.945484 0.018783 -0.077864 0.000571 0.277705 -0.955613
0.917567 0.076597 0.023418 -0.005825 0.891605 0.439256
1.414545 0.258190 0.252081 -0.013234 -0.681117 0.732055
1.467492 0.039839 0.069486 -0.037045 0.532782 0.837191
1.477345 0.198862 0.191248 0.024823 0.697665 -0.715994
1.402858 0.074168 0.067164 0.024823 0.697665 -0.715994
-0.110433 0.060344 -0.052671 0.000067 0.702623 -0.704384
-1.556588 0.033810 -0.060042 -0.303543 0.584342 -0.742068
0.401359 0.471048 -0.454874 0.039162 0.695934 0.717037
0.322080 -0.394376 0.376128 0.039162 -0.695934 -0.717037
1.392357 0.087073 -0.079374 0.024823 0.697665 0.715994
0.269954 0.451491 0.432568 -0.083405 0.724577 -0.684128
1.478473 -0.144686 -0.142350 0.024823 0.694840 -0.718736
0.047965 0.209506 0.203340 -0.083405 0.724577 -0.684128
1.376547 -0.173396 0.172501 -0.013234 0.681117 0.732055
0.188721 0.057335 0.085413 0.083484 -0.694037 0.715082
0.784479 0.015567 0.078570 -0.000739 0.255373 0.962174
-0.759493 0.018491 -0.077933 0.000686 0.290858 -0.951361
0.130961 -0.250326 -0.236455 -0.083405 -0.724577 0.684128
0.105031 -0.203121 0.211263 -0.175537 0.617030 0.767112
0.294510 -0.260135 0.244332 0.039162 -0.695934 -0.717037
0.176072 -0.172054 0.152375 0.039162 -0.695934 -0.717037
0.351041 0.401690 0.400683 0.083484 -0.694037 0.715082
-0.317219 -0.018604 0.077907 0.001603 -0.305432 0.946395
-1.283419 -0.076795 -0.022761 0.000925 -0.905807 -0.411744
0.230639 0.397747 0.380440 -0.083405 0.724577 -0.684128
0.365204 0.314121 0.314038 0.083484 -0.694037 0.715082
1.036943 -0.125298 0.121611 -0.013234 -0.711388 -0.702674
-0.965515 -0.047623 0.064402 0.001577 -0.662688 0.742301
-1.545910 -0.052349 0.049373 -0.294007 -0.597142 0.734766
1.031261 -0.084426 -0.080338 -0.013234 -0.711388 0.702674
0.480106 0.070345 0.038302 -0.000164 0.796869 0.596163
0.193045 -0.254664 -0.233480 -0.001725 -0.706487 0.707059
1.224470 0.130399 -0.129746 -0.013234 -0.681117 -0.732055
0.302053 -0.237593 -0.247135 0.083484 0.694037 -0.715082
1.419909 0.122423 -0.114774 0.024823 0.697665 0.715994
0.099966 -0.072420 -0.104974 -0.175537 0.617030 -0.767112
-0.001972 -0.061006 -0.052148 -0.083405 -0.724577 0.684128
-0.693526 -0.049538 0.062941 -0.000511 -0.677012 0.729657
-1.602973 0.041025 0.027559 -0.490859 0.630065 0.592181
0.287368 -0.079016 -0.013116 -0.000540 -0.986240 -0.131444
0.158396 -0.361536 0.350896 -0.083405 -0.724577 -0.684128
0.682870 -0.049763 -0.062763 0.001401 -0.625917 -0.772576
1.229761 0.108730 0.109681 -0.013234 -0.681117 0.732055
1.321184 -0.095928 -0.099423 -0.013234 0.681117 -0.732055
1.463495 0.239189 0.230063 0.024823 0.697665 -0.715994
0.443674 -0.329051 -0.319367 0.083484 0.694037 -0.715082
1.379527 -0.021367 0.077195 0.000710 -0.417176 0.900544
1.473348 0.197742 -0.193819 0.024823 -0.694840 -0.718736
0.154399 -0.110045 -0.140578 0.083484 0.694037 -0.715082
0.442039 -0.027705 -0.075153 0.001482 -0.343444 -0.933303
-0.861381 -0.078752 0.014619 -0.002640 -0.967714 0.235735
0.320883 -0.498985 -0.498635 -0.095713 0.645002 -0.755714
1.121426 0.123687 0.121639 -0.013234 -0.681117 0.732055
1.191896 0.163394 0.159857 -0.013234 -0.681117 0.732055
0.293970 0.443030 -0.447469 -0.089491 -0.646896 -0.754513
1.298973 0.050593 -0.062095 0.000558 0.676266 -0.729887
0.403201 0.129809 -0.130714 0.083484 -0.694037 -0.715082
1.319081 0.126574 -0.117588 -0.013234 0.711388 0.702674
1.211148 -0.089091 -0.081673 -0.013234 -0.711388 0.702674
0.229726 0.061741 0.051026 -0.000963 0.694243 0.712737
0.139417 -0.065782 0.047228 -0.000000 0.717587 -0.696469
1.307107 -0.035577 -0.071762 0.000176 -0.565981 -0.818048
1.284038 -0.129958 -0.130413 -0.013234 0.681117 -0.732055
0.806196 -0.076577 0.023485 0.005308 -0.920994 0.375705
1.157033 0.021579 -0.077136 -0.002462 0.387463 -0.913919
1.329256 0.239427 -0.231650 -0.013234 0.711388 0.702674
1.502885 0.232628 -0.225035 0.024823 0.697665 0.715994
-0.759188 -0.065353 -0.046309 0.000994 -0.754808 -0.648805
-0.965515 0.047623 0.064402 0.001577 0.662688 0.742301
0.330780 -0.076478 0.068061 0.039162 -0.695934 -0.717037
0.527945 0.027718 -0.075148 -0.000995 0.367133 -0.924546
1.300594 -0.077949 0.018425 0.001930 -0.958451 0.268276
0.284649 0.020864 0.077332 -0.005020 0.328946 0.939102
1.504216 -0.231884 0.225760 0.024823 0.694840 0.718736
1.407864 0.033643 -0.072689 -0.000459 0.350835 -0.930936
-0.874091 0.056204 0.057067 0.001977 0.650718 0.751768
-0.508933 0.033194 -0.072895 0.000249 0.348013 -0.932010
0.199040 0.099311 -0.124949 0.083484 -0.694037 -0.715082
0.190516 -0.200370 -0.180646 0.039162 -0.695934 0.717037
-0.518188 0.070345 0.038302 -0.000164 0.796869 0.596163
0.171941 -0.113565 0.141947 0.083484 0.694037 0.715082
0.554268 -0.078418 -0.016316 0.000847 -0.968673 -0.232613
0.421848 0.192969 -0.189838 0.083484 -0.694037 -0.715082
0.347796 -0.554939 0.549801 -0.089491 0.646896 0.754513
-1.367875 -0.033157 0.072912 0.000059 -0.475260 0.874088
-0.601249 0.078027 -0.018094 0.006089 0.991806 -0.066906
1.243721 0.074762 -0.066553 -0.000000 -0.717587 0.696469
1.501717 0.097239 -0.095678 0.024823 -0.694840 -0.718736
0.549061 0.080097 -0.000000 -0.002456 0.989283 0.079160
1.514239 0.161376 -0.156001 0.024823 0.697665 0.715994
0.408078 -0.529474 0.511947 0.039162 -0.695934 -0.717037
-0.825061 -0.059386 -0.053749 -0.000160 -0.661898 -0.743211
-0.439249 0.016929 -0.078288 0.001027 0.069749 -0.992404
-1.278154 -0.048727 0.063571 0.000397 -0.657427 0.746615
-1.620653 -0.013537 -0.036509 -0.521819 -0.405953 -0.730471
1.542404 -0.037082 0.090007 -0.222786 -0.265385 0.934255
0.802651 0.053661 -0.059464 -0.000123 0.576956 -0.810514
0.423513 0.293078 0.283352 0.039162 0.695934 -0.717037
-1.048469 -0.034055 0.072497 0.000188 -0.484589 0.868891
-1.267840 0.033467 0.072770 -0.000117 0.350144 0.931170
-1.367218 -0.076848 -0.022580 -0.004627 -0.935900 -0.332608
1.514493 0.146634 0.141645 0.024823 0.697665 -0.715994
0.443674 0.572038 -0.555203 0.039162 0.695934 0.717037
0.539112 -0.017170 0.078235 -0.000135 -0.141507 0.984809
-1.380586 0.039784 -0.069518 -0.002482 0.622534 -0.773888
0.952001 0.087056 -0.084494 -0.013234 -0.681117 -0.732055
-1.537507 -0.059921 -0.043451 -0.217438 -0.713676 -0.660191
-0.189634 -0.033261 -0.072865 0.000316 -0.346350 -0.932740
0.488076 -0.076245 0.024541 0.004818 -0.928476 0.358214
0.632384 -0.036716 -0.071186 -0.002488 -0.468336 -0.877921
1.111104 0.076242 0.024549 0.001678 0.899289 0.423828
0.386724 -0.434687 0.428543 0.083484 0.694037 0.715082
0.985978 0.102353 0.099340 -0.013234 0.711388 -0.702674
-1.347893 0.033194 0.072895 0.000010 0.347436 0.932274
0.289309 -0.033194 -0.072895 -0.000256 -0.351160 -0.930561
-1.048208 0.000000 -0.080097 -0.000711 -0.145498 -0.983870
0.700044 0.044617 -0.066519 0.000600 0.654475 -0.748750
1.410919 0.277557 -0.270035 -0.013234 -0.681117 -0.732055
0.814086 0.068175 0.042045 0.006867 0.891589 0.439167
0.101406 0.019486 0.077691 -0.000762 0.145387 0.983774
-0.239138 -0.031678 0.073567 -0.000256 -0.476820 0.873295
1.396563 0.176062 -0.166231 0.012138 0.702346 0.711662
0.631117 0.038062 -0.070476 -0.002676 0.483358 -0.869626
1.265121 0.071645 0.035813 0.001008 0.895868 0.430959
0.129927 0.152657 0.176368 -0.175537 -0.617030 0.767112
-1.445391 -0.077118 0.021641 -0.003935 -0.932586 0.347916
0.179589 0.227839 0.206710 -0.045505 0.716708 -0.695294
-0.924929 0.077279 -0.021060 -0.000152 0.938479 -0.326571
-1.192672 -0.049538 -0.062941 -0.000511 -0.677012 -0.729657
1.318588 0.078702 0.014886 0.001575 0.955651 0.279470
-0.399666 -0.048413 0.063810 0.000203 -0.541088 0.834905
-1.069492 0.060736 0.052218 -0.000772 0.657011 0.747006
1.467981 0.276612 -0.266683 0.012138 0.702346 0.711662
0.489122 -0.033261 0.072865 -0.000316 -0.346350 0.932740
-0.762757 0.014273 0.078815 -0.003199 0.258719 0.960471
0.784123 -0.069429 -0.039940 -0.001435 -0.868714 -0.485172
0.578751 -0.048052 0.064082 -0.000004 -0.537941 0.836932
1.367893 -0.033204 -0.072891 0.000330 -0.281474 -0.954208
-1.108373 0.033630 0.072695 0.000542 0.480844 0.870893
1.245037 -0.047623 -0.064402 -0.001577 -0.662688 -0.742301
-0.419542 0.048052 0.064082 -0.000004 0.537941 0.836932
-1.188182 -0.033157 0.072912 0.000059 -0.475260 0.874088
-0.469411 0.033157 0.072912 0.000059 0.475260 0.874088
0.857814 -0.050425 -0.062232 0.000051 -0.645219 -0.757583
-0.958328 0.017170 -0.078235 -0.000297 0.142051 -0.984690
-0.349132 -0.033643 -0.072689 0.000038 -0.350293 -0.931102
-0.107401 -0.044362 0.066690 0.000407 -0.602498 0.792227
0.412705 -0.090985 0.086616 0.039162 -0.695934 -0.717037
1.467981 -0.274825 -0.268525 -0.000547 0.685795 -0.727725
1.087043 0.044845 -0.066366 0.000081 0.500922 -0.860213
0.940742 -0.033785 0.072623 -0.000018 -0.462749 0.881445
0.249573 0.080097 -0.000000 0.003299 0.969312 0.207279
0.309503 0.518337 0.498545 -0.083405 0.724577 -0.684128
0.154399 0.110045 0.140578 0.083484 -0.694037 0.715082
-1.019451 0.050593 0.062095 -0.000558 0.676266 0.729887
0.381486 0.049126 0.063263 -0.000359 0.546954 0.831192
0.181657 -0.325609 -0.310008 -0.083405 -0.724577 0.684128
0.360258 -0.080719 -0.088082 0.083484 0.694037 -0.715082
0.159701 -0.065228 -0.047799 0.039162 -0.695934 0.717037
1.138873 0.171189 -0.166151 -0.013234 -0.681117 -0.732055
0.443674 0.443398 0.430348 0.039162 0.695934 -0.717037
0.618604 0.048727 0.063571 0.000489 0.657199 0.746789
0.443674 -0.128944 -0.125149 0.083484 0.694037 -0.715082
0.210254 -0.415543 0.401774 -0.083405 -0.724577 -0.684128
0.297208 0.345358 0.352294 0.083484 -0.694037 0.715082
1.418457 0.070285 -0.038413 0.000019 0.798652 -0.592781
0.420546 -0.206818 -0.203431 0.083484 0.694037 -0.715082
-0.016452 0.120822 -0.117266 -0.083405 0.724577 0.684128
-0.237789 0.047431 -0.064543 -0.000383 0.652206 -0.751488
-1.168003 0.080097 -0.000000 0.002269 0.989212 0.094821
1.244954 -0.203421 -0.196785 -0.013234 -0.711388 0.702674
-1.104986 -0.060961 -0.051954 -0.000238 -0.658826 -0.745497
0.199269 0.355043 0.339036 -0.083405 0.724577 -0.684128
0.411998 -0.077076 0.021791 -0.000612 -0.908122 0.404145
-0.557338 0.048440 0.063789 0.000342 0.706288 0.700906
1.391566 -0.077464 -0.020368 0.000533 -0.912762 -0.393279
-1.288896 0.044845 -0.066366 0.000081 0.500922 -0.860213
-1.467492 -0.056509 -0.056765 0.003107 -0.588130 -0.801162
1.145669 -0.073487 0.031862 -0.001687 -0.852683 0.512984
-1.450232 0.032642 0.073144 0.001041 0.344680 0.933369
0.221226 -0.147756 0.169377 0.083484 0.694037 0.715082
0.002526 0.070950 0.037171 0.005936 0.915275 0.385857
0.264003 -0.293109 0.305459 0.083484 0.694037 0.715082
0.186538 -0.107270 0.090069 0.039162 -0.695934 -0.717037
0.343591 -0.213280 0.218688 0.083484 0.694037 0.715082
-1.424612 -0.030800 -0.073939 0.000554 -0.451216 -0.887079
0.087270 -0.169995 -0.156701 -0.083405 -0.724577 0.684128
0.070598 0.091924 -0.076047 -0.083405 0.724577 0.684128
0.354524 0.576563 -0.554726 -0.042581 0.716035 0.696089
0.201989 0.123351 0.147937 0.083484 -0.694037 0.715082
0.166132 0.177244 -0.204430 -0.089491 -0.646896 -0.754513
-0.021439 0.014786 -0.078721 -0.000071 0.058788 -0.993944
-0.918265 0.030676 0.073990 -0.000200 0.505196 0.857432
-0.693526 0.049538 0.062941 -0.000511 0.677012 0.729657
0.391950 0.611900 0.599930 0.083484 -0.694037 0.715082
0.391950 0.611900 -0.599930 -0.000000 0.717587 -0.696469
-0.848497 0.033517 -0.072747 0.000194 0.478129 -0.872436
0.186317 0.219210 -0.242805 -0.089491 -0.646896 -0.754513
1.542404 0.097347 0.000000 -0.224394 0.969337 -0.057597
0.034387 -0.106759 -0.117588 -0.175537 0.617030 -0.767112
1.508446 0.074392 0.049809 -0.226252 0.807189 0.539113
0.310229 0.065220 0.078880 0.083484 -0.694037 0.715082
1.043693 -0.072478 0.034095 -0.001739 -0.881835 0.462512
-0.894009 -0.057285 0.055982 0.001373 -0.767361 0.632355
-0.620133 0.014860 -0.078707 0.001638 0.137553 -0.985619
0.241027 0.406123 -0.388045 -0.083405 0.724577 0.684128
-0.605839 0.060961 0.051954 -0.000238 0.658826 0.745497
0.253600 -0.359097 0.370720 -0.089491 0.646896 0.754513
1.467492 0.069486 -0.039839 -0.149576 0.774249 -0.603773
-0.518188 -0.070345 0.038302 -0.000164 -0.796869 0.596163
1.034860 -0.032721 0.073109 -0.002378 -0.422655 0.899110
0.058495 0.053464 0.059642 -0.001283 0.558868 0.823317
-0.152953 0.076767 -0.022857 0.004024 0.933670 -0.341193
0.339543 0.245236 0.232331 0.039162 0.695934 -0.717037
0.856414 -0.011994 0.079194 -0.002893 -0.227182 0.969656
1.314127 -0.193124 -0.189728 -0.013234 0.681117 -0.732055
1.154937 0.101910 -0.095710 -0.013234 0.711388 0.702674
1.502158 0.301248 -0.291873 0.011232 0.702672 0.711343
1.177914 0.081205 0.083134 -0.013234 -0.681117 0.732055
-0.062402 0.071139 -0.036808 0.000462 0.843308 -0.526874
-0.588873 -0.067802 -0.042643 -0.002763 -0.796589 -0.596129
1.507756 -0.185042 -0.178836 0.024823 -0.697665 0.715994
0.395316 -0.217500 0.208458 0.039162 -0.695934 -0.717037
0.133594 0.067146 -0.101371 0.083484 -0.694037 -0.715082
-0.968345 0.080097 -0.000000 -0.005052 0.989058 0.082588
-0.084234 0.016036 0.078475 0.000390 0.256846 0.961993
-0.409300 0.080097 -0.000000 -0.000805 0.979026 0.154248
1.542404 0.000000 0.058408 1.000000 -0.000000 0.000000
0.222862 -0.196091 -0.216099 0.083484 0.694037 -0.715082
0.861962 0.074097 0.030417 0.001164 0.962759 0.254645
0.405822 -0.147977 0.148041 0.083484 0.694037 0.715082
0.253268 -0.306213 -0.286802 0.039162 -0.695934 0.717037
0.215887 0.201217 0.182854 0.039162 0.695934 -0.717037
0.937911 -0.065353 -0.046309 0.000994 -0.754808 -0.648805
0.080403 0.157385 0.144182 -0.083405 0.724577 -0.684128
1.384869 0.237718 -0.228872 -0.013234 0.711388 0.702674
1.277390 -0.014696 0.078737 -0.000512 -0.285549 0.952890
-1.018867 -0.079270 -0.011479 -0.000159 -0.964511 -0.252601
1.331658 -0.239782 -0.231964 -0.013234 -0.711388 0.702674
1.410687 0.293565 0.284925 -0.013234 0.711388 -0.702674
0.095962 -0.127045 0.147996 -0.175537 0.617030 0.767112
0.292974 0.209927 0.221342 0.083484 -0.694037 0.715082
-0.489164 0.080097 -0.000000 0.006066 0.996096 0.045479
1.244959 0.203428 -0.196792 -0.013234 0.711388 0.702674
1.470155 0.132211 -0.126054 0.024823 0.697665 0.715994
1.126416 -0.043856 -0.067024 0.000761 -0.651003 -0.752794
-1.400718 0.070816 -0.037426 -0.000262 0.911315 -0.394911
1.172861 -0.161741 -0.157975 -0.013234 0.681117 -0.732055
0.241218 -0.475558 -0.461562 -0.175537 0.617030 -0.767112
0.117419 -0.146737 -0.128393 -0.083405 -0.724577 0.684128
-1.262436 -0.014691 -0.078738 0.005295 -0.076523 -0.994033
1.004590 0.077988 -0.018258 -0.004559 0.937561 -0.332632
1.297268 -0.205084 0.200551 -0.013234 0.681117 0.732055
1.342999 0.093858 0.097891 0.012138 -0.690370 0.723285
-0.226935 0.045534 0.065895 -0.000149 0.525805 0.844490
0.443674 -0.371931 -0.360985 0.083484 0.694037 -0.715082
0.412565 0.414465 -0.405899 0.083484 -0.694037 -0.715082
0.199269 0.355043 -0.339036 -0.083405 0.724577 0.684128
0.322667 -0.172794 0.181836 0.083484 0.694037 0.715082
0.177476 -0.252865 0.233474 -0.083405 -0.724577 -0.684128
1.048208 0.000000 -0.080097 -0.001387 -0.070461 -0.992467
1.125452 -0.129005 0.123696 -0.013234 -0.711388 -0.702674
1.068976 -0.079188 -0.012033 0.003821 -0.972281 -0.218299
1.423344 -0.210194 -0.207584 -0.006891 0.683456 -0.729890
-0.011195 -0.051004 0.061759 0.001219 -0.671934 0.734007
1.233868 -0.160461 -0.157887 -0.013234 0.681117 -0.732055
0.324136 0.291374 0.276270 0.039162 0.695934 -0.717037
0.296704 0.148265 0.161060 0.083484 -0.694037 0.715082
-0.682024 0.071101 -0.036881 0.002405 0.843178 -0.528173
0.212715 -0.361275 -0.343997 -0.083405 -0.724577 0.684128
0.149559 0.053345 0.060043 -0.000000 -0.717587 -0.696469
1.433621 0.172734 0.171015 0.024823 -0.694840 0.718736
-0.932348 -0.077498 -0.020238 0.000232 -0.910060 -0.398914
-1.487483 0.080323 -0.000000 -0.069157 0.988852 -0.067809
1.158803 -0.087514 -0.081063 -0.013234 -0.711388 0.702674
0.261546 -0.144127 0.129938 0.039162 -0.695934 -0.717037
0.443674 0.114650 -0.111276 0.039162 0.695934 0.717037
0.393345 -0.404701 0.390042 0.039162 -0.695934 -0.717037
1.313717 -0.049763 0.062763 -0.001401 -0.625917 0.772576
1.035449 0.015449 0.078593 -0.002082 0.301135 0.949024
0.379622 0.124106 0.127931 0.083484 -0.694037 0.715082
0.341068 0.540951 0.537009 -0.089491 -0.646896 0.754513
0.240186 0.226939 -0.209146 0.039162 0.695934 0.717037
1.297394 0.204561 -0.196951 -0.013234 0.711388 0.702674
1.502063 -0.301263 0.291884 0.011232 -0.702672 -0.711343
0.307323 -0.444122 -0.423604 0.039162 -0.695934 0.717037
0.319304 0.092710 -0.083189 0.039162 0.695934 0.717037
0.238328 0.160597 -0.144655 0.039162 0.695934 0.717037
0.341698 0.414962 -0.414655 0.083484 -0.694037 -0.715082
1.402213 0.078802 0.014344 0.002298 0.956790 0.275706
0.219376 -0.122625 -0.145203 0.083484 0.694037 -0.715082
0.181080 0.070456 -0.038099 -0.000714 0.907161 -0.410300
0.248974 -0.200293 0.217129 0.083484 0.694037 0.715082
0.384695 0.255677 -0.255038 0.083484 -0.694037 -0.715082
0.498582 0.057009 -0.056263 0.001193 0.588449 -0.800996
1.274990 -0.085297 0.088697 -0.013234 0.681117 0.732055
1.171462 0.076995 -0.022075 -0.002476 0.924720 -0.362043
