0.031728 0.421112 -0.587431 -0.014797 -0.793905 -0.607247
-0.128440 0.108133 -0.172077 -0.052077 -0.787809 -0.613714
1.236167 0.180284 0.247692 -0.014277 -0.788755 0.614542
1.313631 0.086092 -0.106767 0.030760 0.810992 0.584248
-0.290084 -0.188959 -0.262115 -0.052077 0.787809 -0.613714
1.344468 0.209539 -0.282973 -0.014277 0.822681 0.568323
-0.248712 -0.246180 0.330050 -0.068304 -0.825847 -0.559743
1.135625 -0.054564 -0.083997 -0.000000 0.591736 0.806132
-0.146265 0.192854 0.279318 -0.052077 -0.787809 0.613714
-0.138079 -0.155474 0.232029 -0.052077 0.787809 0.613714
-0.223206 0.058507 0.100331 -0.052077 -0.787809 0.613714
-0.219223 -0.279260 -0.375257 -0.068304 -0.825847 0.559743
-0.139805 -0.223038 -0.282617 -0.068304 -0.825847 0.559743
0.051728 0.317873 -0.444471 0.068352 -0.804246 -0.590352
-0.327634 -0.098043 -0.142221 -0.052077 0.787809 -0.613714
0.109379 -0.566993 0.777177 0.068352 0.804246 0.590352
1.127830 -0.075974 0.095072 -0.014277 -0.822681 -0.568323
-1.546923 0.046829 0.047813 -0.292916 0.720869 0.614523
0.038554 -0.195759 -0.249675 0.089612 -0.802888 0.589355
0.069995 0.000000 0.081047 -0.002891 0.137937 0.982916
-0.379672 -0.151958 -0.207015 -0.068304 -0.825847 0.559743
0.069891 0.033629 -0.073741 0.000208 0.473826 -0.874913
1.050211 -0.022854 0.077758 0.001256 -0.326997 0.939543
0.023853 0.508549 0.699004 -0.052077 -0.787809 0.613714
-0.106775 -0.293024 -0.411255 -0.052077 0.787809 -0.613714
1.320418 0.231610 0.315526 -0.014277 0.822681 -0.568323
-0.017349 0.249047 -0.358707 0.068352 -0.804246 -0.590352
0.719104 -0.070614 0.039779 0.000240 -0.905035 0.409652
0.100622 0.425928 0.586016 0.068352 -0.804246 0.590352
0.096840 -0.458882 0.616994 0.089612 -0.802888 -0.589355
1.330489 -0.084779 -0.105832 0.030760 -0.810992 0.584248
-0.052144 -0.308035 0.435160 -0.052077 0.787809 0.613714
-0.022516 0.394076 -0.548123 -0.052077 -0.787809 -0.613714
1.307961 -0.066056 0.046960 0.000648 -0.881430 0.462999
1.449899 0.078270 0.021036 -0.114239 0.981456 0.090249
1.437268 0.072424 -0.036379 -0.001319 0.909601 -0.405501
0.084807 -0.382938 0.529280 0.068352 0.804246 0.590352
-0.080071 0.017705 0.079090 0.000011 0.350143 0.931288
-0.100652 -0.073447 0.034267 -0.000268 -0.834453 0.541830
0.022005 0.089926 0.137376 0.068352 -0.804246 0.590352
1.377679 -0.062868 -0.077901 0.030760 -0.810992 0.584248
0.103179 0.364358 0.501841 0.068352 -0.804246 0.590352
-1.530921 -0.049144 -0.052529 -0.292926 -0.720867 -0.614520
-0.087371 -0.254811 -0.323097 -0.068304 -0.825847 0.559743
-0.025845 -0.183337 -0.222961 0.089612 -0.802888 0.589355
-0.138079 0.155474 0.232029 -0.052077 -0.787809 0.613714
-0.747695 0.076672 -0.026270 -0.003138 0.887151 -0.450623
-0.051247 -0.235181 0.289726 -0.019414 -0.820520 -0.570161
1.068519 0.103464 0.145201 -0.014277 -0.788755 0.614542
0.108310 -0.394681 -0.531276 0.089612 -0.802888 0.589355
-0.091445 -0.060041 -0.109799 0.068352 0.804246 -0.590352
-0.332237 -0.073353 -0.085252 -0.068304 -0.825847 0.559743
1.262665 0.018137 0.078992 -0.004230 0.142164 0.984563
-0.391638 0.076781 0.025950 -0.002010 0.931854 0.349658
-0.250541 0.120057 -0.177022 -0.052077 -0.787809 -0.613714
-0.669379 0.069309 -0.042010 -0.003142 0.809222 -0.579430
1.337467 -0.208728 -0.286553 -0.014277 0.788755 -0.614542
-0.035004 -0.113821 0.176529 0.068352 0.804246 0.590352
-0.026371 0.129172 0.149091 0.089612 0.802888 -0.589355
-0.316960 0.076676 -0.115699 -0.052077 -0.787809 -0.613714
-0.083515 0.127089 -0.200221 -0.011924 -0.794308 -0.606697
0.815352 0.058252 0.081290 -0.014277 -0.788755 0.614542
0.999932 -0.109170 -0.150931 -0.014277 0.788755 -0.614542
0.027125 -0.207878 -0.297471 0.068352 0.804246 -0.590352
-0.110825 -0.049594 -0.064134 0.000000 0.591736 0.806132
0.918190 0.083072 0.110612 -0.014277 0.822681 -0.568323
0.058530 0.221526 -0.312429 0.068352 -0.804246 -0.590352
-0.118128 0.206107 -0.298718 -0.052077 -0.787809 -0.613714
-0.052333 0.297345 -0.381576 -0.068304 0.825847 0.559743
-0.199429 -0.063237 0.054120 -0.068304 -0.825847 -0.559743
-0.019114 -0.495562 0.669972 -0.068304 -0.825847 -0.559743
1.538945 -0.050869 -0.023114 1.000000 -0.000000 0.000000
1.246877 0.113722 0.162510 -0.014277 -0.788755 0.614542
0.048617 0.132255 0.191961 0.068352 -0.804246 0.590352
-0.115612 -0.282391 0.396856 -0.052077 0.787809 0.613714
0.044954 0.358663 -0.500825 0.068352 -0.804246 -0.590352
1.076028 -0.134370 -0.180905 -0.014277 -0.822681 0.568323
-0.178987 0.315129 -0.433503 -0.052077 -0.787809 -0.613714
-0.168424 -0.240702 -0.312171 -0.068304 -0.825847 0.559743
-0.399747 0.073372 -0.104433 -0.052077 -0.787809 -0.613714
1.045410 -0.074042 -0.094346 -0.014277 -0.822681 0.568323
0.028086 -0.475933 0.635252 -0.068304 -0.825847 -0.559743
0.704911 0.079130 -0.017524 0.000362 0.991788 -0.072581
-0.179956 0.020902 -0.078306 -0.000121 0.313181 -0.943921
-0.069686 0.162371 0.246686 -0.011924 -0.794308 0.606697
1.408457 -0.072394 0.092745 0.030760 -0.810992 -0.584248
-1.540400 0.067294 -0.015718 -0.320337 0.882467 -0.321483
-0.262843 -0.157771 -0.201334 -0.068304 -0.825847 0.559743
0.106852 -0.422282 -0.568656 0.089612 -0.802888 0.589355
0.132849 0.141335 0.189870 0.089612 0.802888 -0.589355
-0.293995 -0.078559 0.019927 0.000386 -0.913463 0.392002
0.078211 0.496986 -0.685413 0.068352 -0.804246 -0.590352
-0.049775 -0.454730 -0.613470 -0.068304 -0.825847 0.559743
-0.041196 -0.395269 0.548069 -0.052077 0.787809 0.613714
0.769946 0.081047 -0.000000 -0.000295 0.978299 0.164752
0.365082 -0.017111 0.079221 0.000377 -0.344038 0.933671
1.304082 -0.075289 0.091269 0.030760 -0.810992 -0.584248
-1.617532 0.015102 -0.024873 -0.606675 0.515184 -0.598033
0.065965 0.391631 0.543305 0.068352 -0.804246 0.590352
0.095607 -0.215880 0.300444 0.068352 0.804246 0.590352
0.138824 0.017841 -0.079059 0.000527 0.284730 -0.953616
-0.405948 -0.096549 0.128470 -0.068304 -0.825847 -0.559743
-0.239250 0.256713 0.344436 -0.068304 0.825847 -0.559743
-0.999930 0.016938 0.079258 -0.000603 0.066640 0.992570
-0.200074 -0.190071 -0.241330 -0.068304 -0.825847 0.559743
-0.071717 0.091941 -0.091475 0.089612 0.802888 0.589355
-0.131359 0.217290 0.311950 -0.052077 -0.787809 0.613714
-0.032808 -0.256459 0.370593 -0.011924 0.794308 0.606697
-0.027086 -0.233754 -0.291456 0.089612 -0.802888 0.589355
1.261851 -0.108148 0.138279 -0.014277 -0.822681 -0.568323
-0.179139 0.228658 -0.295707 -0.068304 0.825847 0.559743
-0.302567 -0.235158 -0.320359 -0.068304 -0.825847 0.559743
0.868198 -0.071402 0.094976 -0.014277 -0.822681 -0.568323
-0.089221 -0.172446 -0.257962 -0.052077 0.787809 -0.613714
-0.271390 0.143872 0.181871 -0.068304 0.825847 -0.559743
0.795335 -0.058482 -0.081121 -0.000000 0.591736 0.806132
0.010245 0.203144 0.292977 0.068352 -0.804246 0.590352
1.418836 -0.094692 -0.133644 0.030760 0.800445 -0.598617
0.150429 0.400653 0.545816 0.089612 0.802888 -0.589355
1.034884 0.087220 0.123570 -0.014277 -0.788755 0.614542
-0.116443 0.192696 -0.234999 -0.068304 0.825847 0.559743
-0.065076 -0.174132 0.262175 -0.011924 0.794308 0.606697
0.067072 0.414765 -0.552366 0.089612 0.802888 0.589355
-0.047364 0.448929 0.616428 -0.052077 -0.787809 0.613714
0.056011 -0.076725 0.090168 0.089612 -0.802888 -0.589355
-0.282298 0.027651 -0.076185 0.005281 0.371387 -0.920445
0.068697 -0.110783 0.160384 0.068352 0.804246 0.590352
-0.173221 0.282298 0.374126 -0.068304 0.825847 -0.559743
1.460448 -0.194254 0.264636 0.030760 0.800445 0.598617
-0.075912 0.303159 0.426884 -0.052077 -0.787809 0.613714
-1.289910 0.000000 -0.081047 -0.002276 0.085929 -0.989754
1.505292 0.073095 0.098816 0.030760 0.810992 -0.584248
-0.092408 0.243771 0.307422 -0.068304 0.825847 -0.559743
-0.203656 0.141089 0.207998 -0.052077 -0.787809 0.613714
0.979309 -0.105730 0.146037 -0.014277 0.788755 0.614542
1.477269 -0.159900 -0.217835 0.030760 -0.810992 0.584248
1.001254 0.137554 0.187392 -0.014277 0.822681 -0.568323
1.200313 0.031687 0.074596 0.000067 0.460051 0.882263
0.087993 0.263777 -0.366576 0.068352 -0.804246 -0.590352
-0.259986 0.238738 -0.320445 -0.068304 0.825847 0.559743
-0.021453 -0.406175 -0.538376 -0.068304 -0.825847 0.559743
-0.613513 0.017569 0.079120 -0.000805 0.290883 0.951208
-0.180839 0.071279 0.038575 -0.000582 0.910136 0.398672
-0.011174 0.197649 -0.244688 0.089612 0.802888 0.589355
1.237730 0.097521 -0.141504 -0.014277 -0.788755 -0.614542
-0.018979 -0.291742 -0.417059 -0.011924 0.794308 -0.606697
-0.111911 -0.239030 0.302807 -0.068304 -0.825847 -0.559743
-0.256468 0.104689 0.156792 -0.052077 -0.787809 0.613714
-0.218371 0.198279 -0.255673 -0.068304 0.825847 0.559743
-0.088779 -0.316000 -0.442275 -0.052077 0.787809 -0.613714
0.955471 0.061709 0.078752 -0.014277 0.822681 -0.568323
0.781717 0.031229 -0.074789 -0.000349 0.458772 -0.883482
0.389973 -0.081047 0.000000 0.000333 -0.978991 -0.168833
-0.043016 0.061989 -0.055036 0.089612 0.802888 0.589355
1.521813 0.082746 0.044313 -0.169658 0.865389 0.465007
0.102795 -0.545603 -0.748799 0.068352 0.804246 -0.590352
-0.060720 -0.070034 -0.040790 0.000811 -0.829581 -0.548899
-0.031076 0.330936 0.428542 -0.068304 0.825847 -0.559743
0.023881 0.308809 -0.401454 0.089612 0.802888 0.589355
-0.089421 -0.424128 0.581022 -0.052077 0.787809 0.613714
-0.221400 -0.232026 -0.305833 -0.068304 -0.825847 0.559743
-0.111348 -0.142527 0.160358 -0.068304 -0.825847 -0.559743
-0.909937 -0.081047 0.000000 -0.010180 -0.981428 -0.161804
0.029723 -0.535648 -0.734288 -0.052077 0.787809 -0.613714
0.044145 0.559219 0.765769 -0.052077 -0.787809 0.613714
0.106237 -0.150503 0.210149 0.068352 0.804246 0.590352
-0.156830 0.367560 -0.497923 -0.068304 0.825847 0.559743
-1.386031 0.079411 -0.016204 0.000313 0.959597 -0.264220
-0.233016 -0.075196 -0.120922 -0.052077 0.787809 -0.613714
0.060787 0.299162 0.417932 0.068352 -0.804246 0.590352
-0.155294 -0.347560 -0.468227 -0.068304 -0.825847 0.559743
-0.194736 -0.190673 0.272405 -0.052077 0.787809 0.613714
1.420612 -0.201249 -0.276036 0.030760 0.800445 -0.598617
-0.062913 -0.117002 0.126954 0.089612 -0.802888 -0.589355
1.379985 0.017404 -0.079157 -0.000192 0.280179 -0.954724
0.030373 -0.381779 0.501850 0.089612 -0.802888 -0.589355
0.865498 0.082431 0.111009 -0.014277 0.822681 -0.568323
1.215634 -0.130632 -0.183488 -0.014277 0.788755 -0.614542
0.130183 0.474467 0.643295 0.089612 0.802888 -0.589355
-0.337742 -0.042142 0.069605 0.000000 0.591736 -0.806132
0.098452 -0.186594 -0.260219 0.068352 0.804246 -0.590352
-0.178006 -0.276244 0.383671 -0.052077 0.787809 0.613714
0.150429 -0.459435 -0.625896 0.089612 -0.802888 0.589355
0.205309 0.037813 -0.071686 -0.001087 0.518246 -0.849888
0.047094 0.267126 0.348197 0.089612 0.802888 -0.589355
-1.617462 0.024412 0.015934 -0.607578 0.596687 0.516974
1.401056 0.108866 0.142982 0.030760 0.810992 -0.584248
-0.000540 -0.338785 -0.479012 -0.011924 0.794308 -0.606697
0.042375 0.278247 -0.362630 0.089612 0.802888 0.589355
0.034362 -0.056377 0.059155 0.089612 -0.802888 -0.589355
-0.057059 -0.126685 -0.141036 0.089612 -0.802888 0.589355
1.320575 -0.025116 -0.077058 -0.003595 -0.353060 -0.929025
1.151022 0.081228 -0.102095 -0.014277 0.822681 0.568323
0.495629 -0.062143 0.052028 -0.000649 -0.811677 0.575503
-0.004910 -0.297348 0.423067 0.068352 0.804246 0.590352
-0.370034 0.162358 0.221183 -0.052077 -0.787809 0.613714
-1.249913 0.081047 -0.000000 0.006439 0.995947 0.052916
-0.135204 -0.095450 0.155221 -0.052077 0.787809 0.613714
-0.673238 0.019515 0.078663 0.000796 0.385254 0.916591
-0.959352 -0.020489 -0.078415 0.001421 -0.306915 -0.945338
-0.150510 -0.046381 0.090933 -0.052077 0.787809 0.613714
-0.016978 0.490581 -0.672473 -0.052077 -0.787809 -0.613714
0.038077 -0.161720 0.203231 0.089612 -0.802888 -0.589355
1.409075 0.257737 -0.351119 0.000737 -0.792812 -0.609356
0.082455 -0.305175 0.405409 0.089612 -0.802888 -0.589355
-0.130731 0.152766 0.177830 -0.068304 0.825847 -0.559743
-0.027249 -0.192510 0.235243 0.089612 -0.802888 -0.589355
-0.858753 -0.024561 0.077236 0.003986 -0.277408 0.956496
-0.050311 -0.150205 -0.227869 0.068352 0.804246 -0.590352
0.128210 0.527270 0.714930 0.089612 0.802888 -0.589355
0.010531 -0.101142 -0.153984 0.068352 0.804246 -0.590352
-0.003102 -0.225728 0.284169 0.089612 -0.802888 -0.589355
-0.073043 0.272369 0.347252 -0.068304 0.825847 -0.559743
-1.369905 -0.081047 0.000000 -0.001814 -0.995122 -0.039202
-0.028143 -0.085345 0.089115 0.089612 -0.802888 -0.589355
-0.399747 -0.073372 -0.104433 -0.052077 0.787809 -0.613714
-0.028143 0.085345 -0.089115 0.089612 0.802888 0.589355
1.361043 -0.096635 0.139212 0.030760 0.800445 0.598617
1.001849 -0.073959 0.095320 -0.014277 -0.822681 -0.568323
-0.509964 0.081047 -0.000000 -0.000064 0.996672 0.040620
0.006041 0.078548 0.019973 -0.000314 0.942522 0.315940
-0.044732 -0.158356 -0.186056 0.089612 -0.802888 0.589355
-0.113432 0.100428 0.163459 -0.052077 -0.787809 0.613714
-0.137782 -0.273835 -0.357316 -0.068304 -0.825847 0.559743
1.430870 -0.039879 -0.070558 -0.001659 -0.416259 -0.901618
0.809943 -0.081047 0.000000 0.000319 -0.989336 -0.084234
1.078828 0.116482 -0.162149 -0.014277 -0.788755 -0.614542
-0.212668 0.099543 -0.109302 -0.068304 0.825847 0.559743
-0.241154 -0.200644 -0.281266 -0.052077 0.787809 -0.613714
0.111082 -0.264461 0.354296 0.089612 -0.802888 -0.589355
-0.147074 -0.147482 -0.172027 -0.068304 -0.825847 0.559743
-0.060070 -0.460840 0.623741 -0.068304 -0.825847 -0.559743
-0.185336 0.112979 0.173469 -0.052077 -0.787809 0.613714
-0.206237 0.199081 0.282222 -0.052077 -0.787809 0.613714
-1.099377 0.018297 -0.078955 -0.000015 0.291999 -0.950927
1.134083 0.144105 0.193538 -0.014277 0.822681 -0.568323
1.373612 0.247286 0.336882 -0.014277 0.822681 -0.568323
0.004100 -0.535097 0.731406 -0.052077 0.787809 0.613714
-1.176294 0.078504 0.020145 -0.001062 0.913374 0.391918
-0.155790 0.070983 -0.122066 -0.052077 -0.787809 -0.613714
-0.235099 0.307958 0.419535 -0.052077 -0.787809 0.613714
-0.703456 -0.077329 0.024269 0.003202 -0.959518 0.269762
-1.152519 -0.064001 0.049724 0.000535 -0.734045 0.671730
0.065474 -0.458686 -0.634712 0.068352 0.804246 -0.590352
0.096264 0.592685 -0.799188 -0.012125 0.819343 0.571445
1.262982 0.156160 0.207750 -0.014277 0.822681 -0.568323
1.225485 0.142259 -0.198640 -0.014277 -0.788755 -0.614542
0.150429 0.247819 -0.337607 0.089612 0.802888 0.589355
-0.117304 0.392341 -0.537852 -0.052077 -0.787809 -0.613714
1.390882 -0.046118 0.066647 0.000267 -0.621441 0.777554
1.336905 0.063880 0.077159 0.030760 0.810992 -0.584248
1.296131 0.064891 -0.076416 0.013247 0.815694 0.578165
-0.219856 0.017021 0.079240 0.000888 0.136853 0.985215
0.056011 -0.076725 -0.090168 0.089612 -0.802888 0.589355
1.383441 0.151819 0.201677 0.030760 0.810992 -0.584248
-0.013290 0.426524 0.567403 -0.068304 0.825847 -0.559743
0.939038 -0.071492 -0.038178 -0.001011 -0.843914 -0.526011
-0.293558 0.073604 -0.033929 -0.001191 0.934377 -0.342573
-0.046674 0.148761 -0.172689 0.089612 0.802888 0.589355
1.075574 0.055255 -0.083489 -0.014277 -0.788755 -0.614542
1.189491 0.039702 -0.070657 -0.000186 0.601043 -0.792173
0.574825 -0.078323 0.020838 0.000585 -0.937779 0.328340
0.062696 0.120737 0.151142 0.089612 0.802888 -0.589355
0.128251 0.081527 -0.107693 0.089612 0.802888 0.589355
-0.416778 -0.045466 0.067165 0.000000 0.591736 -0.806132
0.067783 -0.404414 0.560509 0.068352 0.804246 0.590352
-1.097247 -0.079192 0.017245 0.000084 -0.956361 0.276308
1.470238 -0.037940 0.075697 -0.179697 -0.346231 0.914822
1.169916 -0.036038 -0.072594 0.000559 -0.379526 -0.918939
0.063996 -0.503438 -0.695849 -0.011924 0.794308 -0.606697
0.049674 0.034849 0.073172 -0.000161 0.362370 0.926379
1.194472 -0.083717 0.104605 -0.014277 -0.822681 -0.568323
1.033483 0.017569 -0.079120 0.000805 0.290883 -0.951208
-0.199429 0.063237 -0.054120 -0.068304 0.825847 0.559743
-0.259420 -0.163722 0.232320 -0.052077 0.787809 0.613714
-0.233915 0.078308 0.020894 -0.000417 0.935014 0.335967
1.418453 0.056491 -0.082582 0.030760 -0.800445 -0.598617
0.875403 -0.057560 -0.081798 -0.000000 0.591736 0.806132
1.226639 -0.126517 0.165754 -0.014277 -0.822681 -0.568323
-0.089994 0.081047 -0.000000 -0.000278 0.979445 0.163641
1.355251 -0.169379 -0.224568 0.015749 -0.815053 0.579056
-0.094625 -0.208066 -0.303227 -0.052077 0.787809 -0.613714
-0.280309 -0.064901 0.103693 -0.052077 0.787809 0.613714
-1.029354 0.062301 -0.051839 -0.000317 0.716519 -0.690307
1.522124 -0.068290 0.093032 0.030760 0.800445 0.598617
1.471662 0.171352 0.233435 0.030760 0.810992 -0.584248
1.432413 -0.251511 0.342637 0.015749 0.796708 0.604048
1.449234 0.217157 -0.295837 0.030760 -0.800445 -0.598617
1.494089 0.125547 0.171034 0.030760 0.810992 -0.584248
1.089567 -0.034341 -0.073412 0.000361 -0.360433 -0.926931
0.266007 0.079139 0.017485 -0.000220 0.931182 0.350323
-0.089626 0.033950 -0.073594 -0.000206 0.350319 -0.931139
0.112190 0.360965 -0.485935 0.089612 0.802888 0.589355
0.065705 -0.078449 -0.020359 -0.000455 -0.940344 -0.321679
-0.209559 -0.050202 0.090827 -0.052077 0.787809 0.613714
-0.071717 -0.091941 -0.091475 0.089612 -0.802888 0.589355
0.560591 0.070594 -0.039814 -0.000339 0.834355 -0.541330
-0.256468 -0.104689 0.156792 -0.052077 0.787809 0.613714
-0.886256 0.078221 -0.021215 0.000272 0.936493 -0.331737
-1.492687 -0.035617 -0.071065 -0.147491 -0.571838 -0.796542
-0.239250 -0.256713 -0.344436 -0.068304 -0.825847 0.559743
0.164641 -0.079642 0.015028 0.000086 -0.964213 0.248699
0.161183 -0.028503 0.075870 -0.001704 -0.407910 0.908015
0.449969 0.000000 -0.081047 -0.001484 0.152747 -0.983165
0.040947 0.458621 -0.608140 -0.015641 0.819990 0.570881
1.538945 0.019416 0.047271 1.000000 -0.000000 0.000000
0.005856 0.567956 -0.773736 -0.068304 0.825847 0.559743
-0.051974 0.505557 0.688728 -0.052077 -0.787809 0.613714
-0.051974 -0.505557 -0.688728 -0.068304 -0.825847 0.559743
-0.080888 0.474357 -0.646224 -0.068304 0.825847 0.559743
-0.157994 -0.391157 0.532880 -0.068304 -0.825847 -0.559743
-0.100165 0.453557 0.617888 -0.052077 -0.787809 0.613714
-0.215823 -0.328757 -0.447872 -0.068304 -0.825847 0.559743
-0.264014 0.276758 0.377031 -0.052077 -0.787809 0.613714
0.025132 -0.588756 0.802072 -0.068304 -0.825847 -0.559743
-0.389311 -0.141558 0.192847 -0.068304 -0.825847 -0.559743
-1.240021 -0.018575 0.078890 0.000259 -0.292786 0.950674
0.969291 -0.069185 -0.098899 -0.014277 0.788755 -0.614542
0.979309 0.105730 0.146037 -0.014277 -0.788755 0.614542
1.215693 -0.053642 0.084674 -0.014277 0.788755 0.614542
0.775318 0.058713 0.080952 -0.014277 -0.788755 0.614542
-1.085909 0.078559 -0.019927 -0.000386 0.913463 -0.392002
-0.151086 -0.088126 -0.084943 -0.068304 -0.825847 0.559743
0.015513 0.331796 -0.467631 0.068352 -0.804246 -0.590352
-0.669953 0.081047 -0.000000 0.000787 0.982124 0.147560
0.849941 -0.081047 0.000000 -0.000231 -0.977586 -0.172939
1.069925 0.081047 -0.000000 0.000575 0.982170 0.152591
-0.969932 0.081047 -0.000000 -0.000559 0.977883 0.181252
-1.389903 0.000000 -0.081047 -0.004737 0.153049 -0.981591
-0.389973 0.000000 0.081047 -0.001007 0.063571 0.992938
0.609957 0.000000 0.081047 -0.000056 0.146382 0.983730
0.929935 0.081047 -0.000000 -0.001525 0.981600 0.169310
0.989931 0.081047 -0.000000 0.002781 0.984769 0.142364
-0.749948 0.000000 0.081047 -0.007038 0.139970 0.984318
-1.289910 -0.081047 0.000000 -0.002944 -0.992500 -0.063410
-0.510023 -0.033598 0.073755 -0.000151 -0.347086 0.932391
0.127508 0.191919 -0.264107 0.068352 -0.804246 -0.590352
-0.088125 0.145806 0.162361 -0.015641 0.819990 -0.570881
1.141949 0.037055 -0.072080 -0.001597 0.589640 -0.799009
-0.065076 0.201665 -0.241964 -0.015641 0.819990 0.570881
0.139977 0.050805 0.063147 -0.000325 0.675636 0.730311
-0.487233 0.068977 0.042553 0.003082 0.806041 0.580623
-0.094347 -0.266795 0.341629 -0.068304 -0.825847 -0.559743
-0.772237 -0.073417 -0.034332 -0.000005 -0.871697 -0.479878
-0.192547 -0.086125 0.087050 -0.068304 -0.825847 -0.559743
-1.179888 0.050884 -0.063083 -0.000663 0.568568 -0.816404
0.113390 0.092679 0.120626 0.089612 0.802888 -0.589355
1.046797 0.071920 -0.037366 -0.000660 0.851666 -0.514001
-1.155432 -0.076475 -0.026838 0.002160 -0.886760 -0.449662
1.140443 -0.033635 0.073739 -0.000308 -0.354223 0.929548
-0.068471 0.105168 0.109988 0.089612 0.802888 -0.589355
1.154345 -0.139560 -0.186451 -0.014277 -0.822681 0.568323
-1.026744 -0.039404 -0.070824 -0.001134 -0.427204 -0.895686
-1.165864 0.078803 -0.018939 0.000338 0.946581 -0.304375
-0.909627 0.060896 -0.053483 0.000004 0.698876 -0.708267
0.916094 0.071885 0.037433 -0.000661 0.854874 0.508744
0.700230 0.047631 0.065574 -0.000001 0.529301 0.842595
0.110381 -0.317584 -0.437286 0.068352 0.804246 -0.590352
0.640632 0.070701 -0.039624 -0.000050 0.833909 -0.541970
0.002985 -0.253526 -0.362454 0.068352 0.804246 -0.590352
-1.095788 -0.054982 -0.059545 0.000091 -0.768751 -0.631723
1.243041 -0.154315 -0.205580 -0.014277 -0.822681 0.568323
-1.464444 0.080191 0.013489 -0.041538 0.962465 0.249289
-1.350082 0.040596 -0.070147 0.000811 0.612430 -0.783978
-0.033680 -0.079404 0.016241 -0.000248 -0.958680 0.267380
-0.007884 0.273694 0.391187 0.068352 -0.804246 0.590352
0.549962 0.000000 -0.081047 0.000846 0.068249 -0.992426
1.487207 0.079897 -0.036155 -0.176675 0.940774 -0.268969
0.959536 0.031687 -0.074596 -0.000067 0.460051 -0.882263
-1.229629 0.064215 -0.049448 0.000390 0.741242 -0.663483
-0.037830 0.052710 0.093605 0.068352 -0.804246 0.590352
0.282987 -0.064529 -0.049037 0.000982 -0.833749 -0.542900
-0.696944 0.064529 0.049037 0.000982 0.833749 0.542900
0.150429 0.330114 0.449719 0.089612 0.802888 -0.589355
0.150429 -0.424166 -0.577848 0.089612 -0.802888 0.589355
0.150429 0.236062 0.321591 0.089612 0.802888 -0.589355
0.150429 -0.177280 0.241511 0.089612 -0.802888 -0.589355
0.150429 0.130254 -0.177447 0.089612 0.802888 0.589355
0.150429 -0.341870 -0.465736 0.089612 -0.802888 0.589355
0.150429 -0.094985 0.129399 0.089612 -0.802888 -0.589355
0.150429 0.189036 0.257527 0.089612 0.802888 -0.589355
0.150429 -0.083228 -0.113383 0.089612 -0.802888 0.589355
0.150429 0.377140 0.513784 0.089612 0.802888 -0.589355
0.150429 0.482948 -0.657928 0.089612 0.802888 0.589355
0.150429 -0.565243 -0.770040 0.089612 -0.802888 0.589355
0.150429 0.529974 -0.721992 0.089612 0.802888 0.589355
-1.260254 0.017645 0.079103 -0.000186 0.349627 0.931504
-0.144857 0.078604 -0.019749 0.000069 0.941959 -0.317271
0.034114 -0.295975 0.385525 0.089612 -0.802888 -0.589355
-0.073085 0.208996 -0.306248 -0.052077 -0.787809 -0.613714
-0.254376 -0.287158 0.391199 -0.068304 -0.825847 -0.559743
-0.300154 0.177457 -0.246495 -0.052077 -0.787809 -0.613714
0.947006 0.068801 -0.097888 -0.014277 -0.788755 -0.614542
1.106702 0.018544 0.078897 -0.000565 0.365541 0.924953
-0.921080 0.071455 0.038247 -0.000366 0.911106 0.396858
1.193483 0.133225 0.176297 -0.014277 0.822681 -0.568323
-0.094448 0.160491 -0.242172 -0.052077 -0.787809 -0.613714
-0.548500 0.047203 0.065883 -0.000246 0.639397 0.762394
-1.339969 -0.017183 0.079205 0.000299 -0.140472 0.985032
0.530023 0.033613 -0.073748 -0.000227 0.346281 -0.932774
1.186477 -0.016308 0.079390 -0.000603 -0.333331 0.937789
1.488737 0.070987 -0.098354 0.030760 -0.800445 -0.598617
1.143105 0.179357 0.244341 -0.014277 0.822681 -0.568323
1.355881 -0.242061 0.329763 -0.014277 -0.822681 -0.568323
1.284955 -0.221160 0.301289 -0.014277 -0.822681 -0.568323
0.948060 0.121878 -0.166036 -0.014277 -0.788755 -0.614542
1.231761 0.205483 0.279933 -0.014277 0.822681 -0.568323
0.823940 0.085300 -0.116206 -0.014277 -0.788755 -0.614542
1.089911 -0.163681 0.222985 -0.014277 -0.822681 -0.568323
-1.016461 -0.067472 -0.044902 0.000103 -0.809463 -0.578200
0.935960 -0.072577 0.036073 -0.000020 -0.821335 0.561444
0.430208 0.035274 -0.072969 -0.000144 0.553887 -0.826643
1.357779 0.103431 0.133159 0.030760 0.810992 -0.584248
1.062669 -0.063729 0.050073 -0.000036 -0.826708 0.553374
-0.799539 -0.037260 -0.071975 0.000043 -0.522927 -0.846245
-1.327746 -0.032026 -0.074451 0.001856 -0.344224 -0.933461
-0.110302 0.060896 0.053483 -0.000004 0.698876 0.708267
-1.172087 0.034918 0.073139 0.000521 0.489291 0.866453
-0.597455 -0.071891 -0.037420 -0.000058 -0.849351 -0.517963
0.075356 0.075322 0.091198 0.089612 0.802888 -0.589355
-0.791893 -0.066056 0.046960 0.000648 -0.881430 0.462999
-0.259858 -0.050332 0.063524 -0.000245 -0.670956 0.734495
0.106237 0.150503 -0.210149 0.068352 -0.804246 -0.590352
0.650058 -0.033629 0.073741 -0.000208 -0.473826 0.874913
0.049373 0.060703 -0.053702 0.000193 0.695039 -0.712054
1.122410 -0.061894 0.052324 0.000240 -0.717663 0.689133
-0.111174 0.056523 0.107291 -0.007902 -0.794836 0.605902
-0.508938 -0.061218 -0.053113 0.000782 -0.796654 -0.595958
-0.000074 0.461817 -0.617861 -0.068304 0.825847 0.559743
-0.254376 -0.287158 -0.391199 -0.068304 -0.825847 0.559743
-0.345834 0.056659 0.087554 -0.052077 -0.787809 0.613714
1.357292 0.063374 -0.077530 0.030760 0.810992 0.584248
-0.216440 -0.050373 -0.063492 0.000666 -0.718458 -0.688714
-0.171043 0.087216 -0.086036 -0.068304 0.825847 0.559743
-0.265490 0.228904 0.306607 -0.068304 0.825847 -0.559743
-0.075728 -0.405346 -0.558074 -0.052077 0.787809 -0.613714
-0.272134 0.212287 -0.293582 -0.052077 -0.787809 -0.613714
-0.185784 -0.085226 -0.137805 -0.052077 0.787809 -0.613714
0.048076 0.129237 -0.160499 0.089612 0.802888 0.589355
1.410905 -0.240856 -0.329495 0.015749 0.796708 -0.604048
0.639579 -0.030633 -0.075035 0.000429 -0.500025 -0.860562
0.321256 0.070731 -0.039570 0.002145 0.846711 -0.521792
-1.338470 -0.076691 -0.026215 0.003796 -0.928840 -0.353441
0.071048 0.199846 0.260184 0.089612 0.802888 -0.589355
0.686995 0.077504 0.023702 0.004170 0.930306 0.349658
-0.321843 -0.214358 0.292023 -0.068304 -0.825847 -0.559743
-0.097345 0.091806 -0.153756 -0.011924 -0.794308 -0.606697
-0.368789 -0.108879 -0.152639 -0.052077 0.787809 -0.613714
0.052422 -0.339758 0.447956 0.089612 -0.802888 -0.589355
0.689805 -0.032923 0.074059 0.000199 -0.341518 0.934616
1.468987 -0.071154 -0.099593 0.030760 0.800445 -0.598617
-0.060467 -0.212837 0.257885 -0.015641 -0.819990 -0.570881
1.023839 -0.123268 0.169580 -0.014277 0.788755 0.614542
-0.051247 0.209415 0.308640 -0.011924 -0.794308 0.606697
0.729949 -0.081047 0.000000 0.000263 -0.987806 -0.097096
-0.103517 -0.373760 -0.515170 -0.052077 0.787809 -0.613714
-0.026835 0.343301 -0.446267 -0.068304 0.825847 0.559743
-0.368789 -0.108879 0.152638 -0.052077 0.787809 0.613714
0.008871 0.240132 0.305611 0.089612 0.802888 -0.589355
1.507685 -0.032299 0.085446 -0.179609 -0.308053 0.929875
1.306032 -0.158902 -0.210638 -0.014277 -0.822681 0.568323
1.154401 -0.135994 0.188947 -0.014277 0.788755 0.614542
0.071453 -0.135895 -0.194276 0.068352 0.804246 -0.590352
-0.369503 0.114057 -0.149855 -0.068304 0.825847 0.559743
0.189987 0.081047 -0.000000 -0.000558 0.983449 0.145491
1.303706 -0.127669 -0.165485 -0.014277 -0.822681 0.568323
-0.294061 -0.060418 -0.096772 -0.052077 0.787809 -0.613714
-0.019332 -0.025116 0.077058 -0.003595 -0.353060 0.929025
1.110921 0.104363 0.136591 -0.014277 0.822681 -0.568323
-0.034168 -0.369243 -0.515256 -0.052077 0.787809 -0.613714
1.214030 -0.200258 0.272815 -0.014277 -0.822681 -0.568323
0.150429 0.306601 -0.417687 0.089612 0.802888 0.589355
1.383441 -0.146907 -0.205282 0.030760 0.800445 -0.598617
-0.034984 0.383080 0.505952 -0.068304 0.825847 -0.559743
0.544858 0.071937 0.037334 0.000249 0.845656 0.524035
-1.490231 -0.079773 0.000000 -0.155534 -0.978327 0.076658
1.390316 0.177671 0.237924 0.030760 0.810992 -0.584248
-1.621224 -0.018578 0.018549 -0.630104 -0.475764 0.597834
1.206504 -0.084753 -0.124391 -0.014277 0.788755 -0.614542
-1.572043 -0.030006 0.048043 -0.426966 -0.585498 0.681665
-1.192084 -0.061924 0.052289 0.000280 -0.809056 0.578970
-0.116528 0.304504 0.425164 -0.052077 -0.787809 0.613714
0.139959 -0.020902 -0.078306 0.000121 -0.313181 -0.943921
-0.009815 0.033222 -0.073925 -0.000018 0.343670 -0.933793
0.974645 -0.073711 0.033696 -0.001007 -0.930055 0.353718
1.445198 0.144153 0.194287 0.030760 0.810992 -0.584248
1.261773 0.058039 0.056570 -0.000251 0.758765 0.641644
1.024390 0.086183 -0.112448 -0.014277 0.822681 0.568323
0.075232 0.468915 0.647516 0.068352 -0.804246 0.590352
1.272714 -0.169221 0.226413 -0.014277 -0.822681 -0.568323
0.027859 -0.466424 -0.645269 -0.052077 0.787809 -0.613714
1.538945 0.047744 -0.021285 1.000000 0.000000 -0.000000
0.273568 0.023411 -0.077593 0.001917 0.345533 -0.929864
-0.110903 -0.174082 0.206859 -0.068304 -0.825847 -0.559743
0.105143 -0.062759 0.078612 0.089612 -0.802888 -0.589355
-0.016855 0.468556 0.629851 -0.068304 0.825847 -0.559743
-1.084799 -0.016620 0.079325 0.000497 -0.234425 0.969084
-0.251002 -0.212371 0.295484 -0.052077 0.787809 0.613714
-1.242026 0.048606 0.064855 -0.000362 0.700661 0.706711
-0.018979 0.313385 -0.401171 -0.015641 0.819990 0.570881
-1.012991 -0.019426 0.078685 -0.000968 -0.301201 0.947716
1.189631 -0.064215 -0.049448 -0.000390 -0.741242 -0.663483
0.209700 0.064215 0.049448 -0.000390 0.741242 0.663483
1.196299 0.195033 -0.265696 -0.014277 -0.788755 -0.614542
0.092644 -0.191176 0.251656 0.089612 -0.802888 -0.589355
1.200720 0.173272 0.234086 -0.014277 0.822681 -0.568323
1.236167 0.180284 -0.247692 -0.014277 -0.788755 -0.614542
0.504499 0.071934 0.037339 0.000030 0.851739 0.514749
1.294581 0.108987 0.157542 -0.014277 -0.788755 0.614542
0.620465 -0.058954 -0.055615 0.001538 -0.677847 -0.728848
1.436565 -0.160463 0.220678 0.030760 0.800445 0.598617
-0.060861 -0.285289 0.405222 -0.052077 0.787809 0.613714
1.450808 -0.114341 -0.158275 0.030760 0.800445 -0.598617
1.101436 0.090490 -0.129314 -0.014277 -0.788755 -0.614542
-0.313565 -0.023411 -0.077593 -0.001917 -0.345533 -0.929864
0.018669 0.155779 -0.192186 0.089612 0.802888 0.589355
0.798827 -0.071176 0.038765 -0.000325 -0.838583 0.534874
-0.309978 0.081047 -0.000000 -0.000017 0.995245 0.045200
1.013508 0.073604 0.033929 0.001191 0.934377 0.342573
1.255727 0.065166 -0.076214 -0.014277 0.822681 0.568323
-0.326979 -0.107936 0.135635 -0.068304 -0.825847 -0.559743
-1.571033 -0.048843 -0.029610 -0.425166 -0.686583 -0.579479
0.108125 -0.257371 -0.355518 0.068352 0.804246 -0.590352
1.060301 0.129447 0.174173 -0.014277 0.822681 -0.568323
-0.789245 0.037293 0.071958 0.001403 0.530171 0.841590
0.190686 -0.037293 -0.071958 0.001403 -0.530171 -0.841590
1.368927 0.127531 -0.167199 0.030760 0.810992 0.584248
-0.051247 -0.209415 -0.308640 -0.011924 0.794308 -0.606697
-0.140690 -0.240074 0.340406 -0.052077 0.787809 0.613714
0.759019 0.070639 0.039733 -0.000081 0.792443 0.600995
-1.136156 -0.078912 0.018483 -0.001446 -0.951376 0.291008
1.179166 -0.080209 0.011627 0.002834 -0.992356 0.093938
-0.345834 0.056659 -0.087554 -0.052077 -0.787809 -0.613714
-0.231538 0.095659 0.105874 -0.068304 0.825847 -0.559743
0.297111 -0.076563 0.026587 0.000802 -0.912418 0.398183
-1.209916 -0.081047 0.000000 -0.002787 -0.992897 -0.061482
1.200720 -0.173272 -0.234086 -0.014277 -0.822681 0.568323
-1.449899 -0.078364 0.020682 -0.008661 -0.919652 0.376379
1.507685 0.032299 -0.085446 -0.179609 0.308053 -0.929875
1.507686 0.032299 0.085446 -0.178468 0.314311 0.927527
-0.672735 -0.074278 -0.032426 0.000336 -0.878182 -0.468796
1.505303 -0.102644 -0.139833 0.030760 -0.810992 0.584248
1.018985 0.142779 -0.194510 -0.014277 -0.788755 -0.614542
0.909791 -0.033861 -0.073635 0.000106 -0.478452 -0.872366
1.307547 0.097163 -0.142667 0.000737 -0.792812 -0.609356
-0.290084 0.194137 0.258314 -0.068304 0.825847 -0.559743
0.391760 -0.048765 -0.064735 0.000075 -0.702906 -0.704072
1.054448 -0.153230 -0.208748 -0.014277 0.788755 -0.614542
-0.097345 -0.091806 -0.153756 -0.011924 0.794308 -0.606697
0.054777 0.492137 -0.655902 -0.011870 0.819424 0.571575
-0.023781 0.204711 0.252392 0.089612 0.802888 -0.589355
-0.161402 -0.105872 0.112384 -0.068304 -0.825847 -0.559743
-0.463809 0.077267 -0.024463 0.004174 0.930584 -0.349366
1.126657 -0.158809 -0.215010 -0.014277 -0.822681 0.568323
1.231563 -0.080414 0.010109 -0.000506 -0.965780 0.247222
-1.470799 0.031044 -0.075007 -0.037866 0.246035 -0.963065
0.020454 -0.487768 0.672039 -0.052077 0.787809 0.613714
0.868927 0.073018 -0.101487 -0.014277 -0.788755 -0.614542
-0.110296 0.347827 0.481305 -0.052077 -0.787809 0.613714
-0.310002 -0.150971 -0.197057 -0.068304 -0.825847 0.559743
-0.190862 0.119907 0.136686 -0.068304 0.825847 -0.559743
0.906363 0.039183 -0.070946 0.004554 0.366653 -0.923042
1.351368 -0.048602 0.064858 -0.000836 -0.663467 0.742446
1.229914 0.000000 -0.081047 -0.000089 0.164119 -0.979672
0.060545 -0.099030 -0.145317 0.068352 0.804246 -0.590352
0.397164 0.072883 0.035451 -0.002265 0.875218 0.475374
1.306032 0.158902 -0.210638 -0.014277 0.822681 0.568323
-0.369974 0.000000 -0.081047 0.001185 0.156206 -0.981939
-0.142096 0.261777 0.368146 -0.052077 -0.787809 0.613714
0.443323 0.068306 0.043622 -0.000491 0.799741 0.587338
0.470684 -0.078606 0.019744 0.001449 -0.929999 0.347773
-0.009496 -0.504389 -0.681822 -0.068304 -0.825847 0.559743
1.306032 0.153334 0.214725 -0.014277 -0.788755 0.614542
1.139621 -0.119816 0.158239 -0.014277 -0.822681 -0.568323
1.322719 0.183163 0.245339 -0.014277 0.822681 -0.568323
-0.522196 0.056831 -0.057783 -0.003185 0.656501 -0.746466
-0.857708 -0.056831 0.057783 0.003185 -0.656501 0.746466
0.985973 -0.078548 -0.019973 -0.000314 -0.942522 -0.315940
1.321064 0.071754 -0.037684 0.000374 0.912843 -0.393039
-0.018403 -0.260245 -0.328865 0.089612 -0.802888 0.589355
-0.157313 0.057330 0.104412 -0.052077 -0.787809 0.613714
1.408457 0.072394 0.092745 0.030760 0.810992 -0.584248
-0.637883 0.078650 0.019567 0.000846 0.945741 0.306701
1.538945 -0.000000 -0.096918 -0.172342 0.059535 -0.979594
0.621490 -0.070328 0.040281 -0.005889 -0.902431 0.418275
-0.062085 -0.347236 -0.456375 -0.068304 -0.825847 0.559743
0.129270 -0.309412 0.423967 0.068352 0.804246 0.590352
0.007905 -0.336087 0.436186 0.089612 -0.802888 -0.589355
-0.025949 -0.150238 0.177854 0.089612 -0.802888 -0.589355
0.096840 0.452035 -0.622020 0.068352 -0.804246 -0.590352
1.329907 0.000000 0.081047 -0.000425 0.157413 0.981074
0.031728 -0.436277 -0.576299 -0.015641 -0.819990 0.570881
1.304082 0.075289 0.091269 0.030760 0.810992 -0.584248
-0.560712 0.080209 0.011627 0.005923 0.992325 0.093152
1.436615 -0.074803 -0.031196 -0.000310 -0.884900 -0.453732
0.048788 -0.523786 0.720679 -0.052077 0.787809 0.613714
-0.134128 -0.125025 -0.137315 -0.068304 -0.825847 0.559743
-0.939461 -0.032414 0.074283 -0.000467 -0.345091 0.933149
-0.879361 -0.033329 -0.073877 0.000099 -0.478350 -0.872393
0.054425 -0.233507 -0.329226 0.068352 0.804246 -0.590352
-1.213629 0.078230 0.021182 -0.000372 0.907135 0.405202
1.291646 -0.075057 -0.113924 0.015749 0.796708 -0.604048
1.469114 0.096555 -0.129476 0.030760 0.810992 0.584248
1.107642 0.168906 -0.230103 -0.014277 -0.788755 -0.614542
-0.005898 -0.438979 0.607174 -0.052077 0.787809 0.613714
1.163313 -0.113291 -0.160016 -0.014277 0.788755 -0.614542
-0.185336 0.134558 -0.157629 -0.068304 0.825847 0.559743
-1.063228 -0.078327 -0.020822 -0.000968 -0.945361 -0.307047
-0.351821 -0.061849 -0.052377 0.003611 -0.700766 -0.705727
1.354697 0.201017 0.270380 -0.014277 0.822681 -0.568323
-0.025043 0.128855 -0.195857 0.068352 -0.804246 -0.590352
-0.126080 -0.355470 -0.489778 -0.052077 0.787809 -0.613714
-0.359973 0.138952 0.191991 -0.052077 -0.787809 0.613714
1.469114 0.096555 0.129476 0.030760 0.810992 -0.584248
0.636451 -0.077329 -0.024269 0.003164 -0.959434 -0.270034
-0.599721 -0.016855 0.079275 0.000114 -0.137644 0.985490
0.696804 -0.061843 -0.052384 -0.005464 -0.706511 -0.701185
0.962712 -0.019767 0.078600 -0.000770 -0.328202 0.937553
0.030890 0.382373 0.502737 0.089612 0.802888 -0.589355
1.152969 0.071064 0.038969 0.000276 0.840822 0.531310
0.061244 -0.447266 0.619644 0.068352 0.804246 0.590352
0.844598 0.078618 0.019693 0.000095 0.914634 0.388845
-0.165028 0.263489 -0.368398 -0.052077 -0.787809 -0.613714
-1.431741 -0.062294 0.051847 0.000071 -0.690729 0.716948
-0.120152 -0.381307 0.523447 -0.052077 0.787809 0.613714
-0.333065 0.151278 -0.210097 -0.052077 -0.787809 -0.613714
-1.431890 0.040105 -0.070429 -0.000075 0.607759 -0.787427
-0.017582 -0.365714 0.478206 -0.068304 -0.825847 -0.559743
-0.056119 -0.267189 0.337545 -0.068304 -0.825847 -0.559743
1.402954 -0.231768 0.313681 0.000737 -0.818950 -0.573748
0.806209 -0.080075 0.109087 -0.014277 -0.822681 -0.568323
0.806209 -0.080075 -0.109087 -0.014277 0.788755 -0.614542
-0.086836 -0.102115 0.103037 0.089612 -0.802888 -0.589355
0.583303 -0.061233 -0.053096 -0.000796 -0.726553 -0.680487
1.200721 -0.173272 0.234086 -0.014277 -0.822681 -0.568323
1.339349 0.148582 0.194863 0.000737 0.818950 -0.573748
1.293641 -0.193286 -0.265715 -0.014277 0.788755 -0.614542
1.333551 -0.199375 0.268534 -0.014277 -0.822681 -0.568323
-0.997036 -0.015468 -0.079558 -0.000233 -0.265164 -0.959532
0.729278 0.068596 -0.043166 -0.001648 0.809405 -0.577647
-1.084705 0.020276 0.078470 0.004557 0.315065 0.943397
-0.136829 -0.305881 0.425209 -0.052077 0.787809 0.613714
0.502337 0.013265 0.079954 0.002594 0.239136 0.968438
0.004609 0.420229 -0.555930 -0.068304 0.825847 0.559743
1.137564 0.079121 -0.017563 -0.001167 0.954945 -0.279817
-0.169988 -0.081047 0.000000 0.000171 -0.989204 -0.089466
-0.169683 0.174413 -0.214521 -0.068304 0.825847 0.559743
0.102795 -0.551689 0.744332 0.089612 -0.802888 -0.589355
1.464376 -0.106655 0.143246 0.030760 -0.810992 -0.584248
-0.135302 0.293166 -0.385534 -0.068304 0.825847 0.559743
-0.094712 0.316513 -0.415028 -0.068304 0.825847 0.559743
0.877134 -0.100976 -0.137562 -0.014277 0.788755 -0.614542
-0.299722 -0.183737 0.244146 -0.068304 -0.825847 -0.559743
-1.419192 0.074727 -0.031377 -0.000514 0.886084 -0.452915
-0.185784 0.085226 -0.137805 -0.052077 -0.787809 -0.613714
-0.350758 -0.183158 -0.249519 -0.068304 -0.825847 0.559743
-0.406416 0.017569 -0.079120 0.000805 0.290883 -0.951208
-0.042028 0.257525 0.321568 -0.015641 0.819990 -0.570881
-0.063944 0.232710 -0.337465 -0.052077 -0.787809 -0.613714
0.089253 0.151822 0.197528 0.089612 0.802888 -0.589355
1.538945 -0.050869 0.023114 1.000000 -0.000000 -0.000000
0.225071 -0.079976 0.013134 0.000125 -0.967995 0.234803
-0.634506 -0.072710 -0.035804 0.000866 -0.858993 -0.502766
-0.011227 -0.438005 -0.584089 -0.068304 -0.825847 0.559743
0.106352 0.078122 -0.021580 0.004867 0.932668 -0.343921
-0.296657 -0.215193 -0.290183 -0.068304 -0.825847 0.559743
-0.691892 -0.056482 -0.058124 -0.001028 -0.732156 -0.674492
-0.149990 0.000000 -0.081047 -0.000706 0.152007 -0.982514
0.051698 -0.319773 -0.420620 0.089612 -0.802888 0.589355
-0.284707 -0.163655 -0.230088 -0.052077 0.787809 -0.613714
0.025826 -0.078358 -0.020706 -0.000466 -0.909195 -0.400842
1.390154 -0.124424 0.174874 0.030760 0.800445 0.598617
-0.203656 -0.141089 0.207998 -0.052077 0.787809 0.613714
0.686995 -0.077504 0.023702 0.004170 -0.930306 0.349658
-0.333065 -0.151278 0.210097 -0.052077 0.787809 0.613714
-0.526467 -0.078155 -0.021458 -0.000688 -0.908181 -0.403767
-0.075026 0.356150 0.471105 -0.068304 0.825847 -0.559743
-0.124340 -0.181104 -0.218859 -0.068304 -0.825847 0.559743
-0.026110 0.129436 -0.149490 0.089612 0.802888 0.589355
0.013633 0.077905 -0.022348 -0.000126 0.902329 -0.415841
0.114115 0.167152 0.222193 0.089612 0.802888 -0.589355
-0.229984 0.000000 -0.081047 0.000124 0.083874 -0.989873
0.929680 0.036763 0.072230 0.000860 0.510280 0.854560
0.038139 -0.405521 -0.535374 0.089612 -0.802888 0.589355
-0.004629 -0.086303 -0.093996 0.089612 -0.802888 0.589355
0.129027 0.264468 -0.362767 0.068352 -0.804246 -0.590352
-0.196528 0.303684 0.417322 -0.052077 -0.787809 0.613714
-0.060305 -0.375872 0.521548 -0.052077 0.787809 0.613714
0.769916 -0.033457 -0.073820 0.000367 -0.473120 -0.875269
-0.458768 -0.070729 -0.039574 -0.000023 -0.793462 -0.599691
0.048860 0.077766 0.022828 0.000886 0.937958 0.330781
0.150429 -0.259575 -0.353623 0.089612 -0.802888 0.589355
1.468987 0.071154 0.099593 0.030760 -0.800445 0.598617
0.108621 -0.472893 0.649071 0.068352 0.804246 0.590352
-0.173494 -0.165833 0.242322 -0.052077 0.787809 0.613714
-0.326979 0.107936 -0.135635 -0.068304 0.825847 0.559743
1.108783 0.050811 -0.063142 0.002833 0.581291 -0.807084
0.104860 -0.078604 -0.019749 -0.000069 -0.941959 -0.317271
-0.131049 -0.181419 0.265930 -0.052077 0.787809 0.613714
-0.157857 -0.198131 -0.248072 -0.068304 -0.825847 0.559743
-0.113365 0.170761 0.253749 -0.052077 -0.787809 0.613714
0.114394 0.510542 -0.690041 0.089612 0.802888 0.589355
0.081813 -0.286304 -0.379604 0.089612 -0.802888 0.589355
-0.046638 -0.221176 0.324128 -0.011924 0.794308 0.606697
-1.137142 -0.019767 0.078600 -0.000770 -0.328202 0.937553
1.101436 -0.090490 -0.129314 -0.014277 0.788755 -0.614542
-1.229914 0.000000 -0.081047 -0.000139 0.166937 -0.980007
-0.149990 0.000000 0.081047 0.000183 0.064836 0.992422
1.347300 -0.158981 0.209715 0.000737 -0.818950 -0.573748
1.397678 0.162230 -0.216878 0.030760 0.810992 0.584248
-1.059443 0.018597 -0.078885 0.000207 0.294733 -0.950057
-0.156629 0.238547 0.337093 -0.052077 -0.787809 0.613714
1.538945 0.096918 0.000000 -0.172242 0.979516 0.060049
-0.107522 -0.205707 -0.253107 -0.068304 -0.825847 0.559743
1.538945 -0.015161 0.032825 1.000000 0.000000 0.000000
0.933996 0.093277 -0.129001 -0.014277 -0.788755 -0.614542
0.131653 -0.217634 0.298660 0.068352 0.804246 0.590352
1.505247 0.063750 -0.064815 -0.177440 0.612747 -0.765415
-0.943084 -0.057076 -0.057541 -0.001352 -0.664799 -0.740093
1.033686 -0.098122 -0.137535 -0.014277 0.788755 -0.614542
1.336905 -0.063880 -0.077159 0.030760 -0.810992 0.584248
-0.012131 -0.174460 -0.256491 0.068352 0.804246 -0.590352
1.400565 -0.021866 -0.078042 0.000161 -0.344932 -0.930917
1.216821 0.084192 0.104732 -0.014277 0.822681 -0.568323
0.280428 0.020399 0.078438 0.000787 0.330765 0.936796
0.081299 0.325667 0.433150 0.089612 0.802888 -0.589355
-0.387261 -0.077863 -0.022495 -0.000529 -0.933954 -0.338617
-0.829750 0.036852 0.072184 -0.001019 0.506039 0.856922
-1.501759 0.076396 -0.016875 -0.157092 0.919636 -0.344023
0.083876 -0.055242 -0.082963 0.068352 0.804246 -0.590352
-0.003407 -0.384685 0.537689 -0.052077 0.787809 0.613714
0.010048 0.214781 -0.271255 0.089612 0.802888 0.589355
-1.090641 0.078606 0.019744 -0.002144 0.931120 0.345806
0.490982 0.078539 -0.020009 0.000101 0.939556 -0.323274
0.908921 -0.078539 -0.020009 -0.000101 -0.939556 -0.323274
-0.099674 0.148536 0.226381 -0.052077 -0.787809 0.613714
-0.005150 0.327024 0.463524 -0.011924 -0.794308 0.606697
-0.048725 -0.089559 0.145065 0.068352 0.804246 0.590352
-0.104848 -0.124874 -0.195569 -0.052077 0.787809 -0.613714
-0.283235 0.132896 -0.167123 -0.068304 0.825847 0.559743
-0.028199 -0.268220 -0.386082 -0.011924 0.794308 -0.606697
1.162966 -0.170250 0.233114 -0.014277 0.788755 0.614542
-0.063021 -0.129774 0.201506 0.068352 0.804246 0.590352
1.076028 -0.134370 0.180905 -0.014277 -0.822681 -0.568323
1.465868 0.139373 -0.190973 0.030760 -0.800445 -0.598617
-0.150166 0.060861 0.053522 -0.000201 0.699692 0.707380
-0.839090 0.071279 -0.038575 0.000584 0.910138 -0.398666
-0.099453 0.417335 0.564359 -0.068304 0.825847 -0.559743
-1.221311 -0.058334 -0.056265 0.000256 -0.701839 -0.705867
-0.025949 0.150238 0.177854 0.089612 0.802888 -0.589355
0.060698 0.590721 0.800630 -0.068304 0.825847 -0.559743
0.060698 -0.590721 -0.800630 -0.068304 -0.825847 0.559743
-0.207896 0.239312 -0.314936 -0.068304 0.825847 0.559743
0.150429 -0.130254 0.177447 0.089612 -0.802888 -0.589355
1.487390 -0.036069 -0.079972 -0.176495 -0.266141 -0.942024
0.299224 0.073943 0.033184 -0.000291 0.933065 0.345471
-0.108812 -0.112627 0.179511 -0.052077 0.787809 0.613714
-0.025043 -0.128855 -0.195857 0.068352 0.804246 -0.590352
-0.280335 -0.101494 -0.150665 -0.052077 0.787809 -0.613714
1.503326 -0.090570 0.000000 -0.178183 -0.977723 0.063812
0.711217 0.033934 -0.073601 -0.001334 0.279203 -0.952863
-0.815942 0.078692 0.019398 -0.001042 0.944129 0.311003
-0.263077 0.063574 0.103452 -0.052077 -0.787809 0.613714
0.540613 0.019902 0.078566 -0.001245 0.372483 0.922198
-0.095946 0.233054 -0.292041 -0.068304 0.825847 0.559743
-0.177270 -0.370357 -0.504544 -0.068304 -0.825847 0.559743
0.879827 0.018695 0.078862 0.000632 0.295927 0.949684
-0.829942 0.000000 0.081047 -0.000331 0.166511 0.979837
-0.004629 0.066493 0.108537 0.068352 -0.804246 0.590352
-0.442095 0.061025 -0.053335 0.000647 0.835272 -0.540185
-0.140151 0.099720 0.100715 -0.068304 0.825847 -0.559743
0.126474 -0.303072 -0.409238 0.089612 -0.802888 0.589355
0.412974 -0.070559 -0.039876 -0.003290 -0.907451 -0.403112
1.099735 -0.114476 0.160059 -0.014277 0.788755 0.614542
-0.073621 0.106134 0.170528 0.068352 -0.804246 0.590352
-0.094448 -0.160491 0.242172 -0.052077 0.787809 0.613714
-1.540852 0.015456 -0.067206 -0.329208 0.320736 -0.881166
-0.248876 0.071952 -0.073013 -0.068304 0.825847 0.559743
-0.026916 0.226402 0.328964 0.068352 -0.804246 0.590352
-0.026916 0.226402 -0.328964 0.068352 -0.804246 -0.590352
1.395004 -0.221370 -0.298829 0.015749 -0.815053 0.579056
-0.549962 0.000000 -0.081047 0.000245 0.059803 -0.993387
0.809943 0.000000 0.081047 0.000476 0.144222 0.984212
0.236036 0.071538 -0.038093 -0.000021 0.838984 -0.535197
0.028615 0.337442 0.473807 0.068352 -0.804246 0.590352
0.959589 -0.019100 -0.078765 0.000054 -0.297043 -0.949284
-0.107522 0.205707 0.253107 -0.068304 0.825847 -0.559743
-0.192005 -0.289420 -0.399396 -0.052077 0.787809 -0.613714
0.887852 -0.062423 0.051692 -0.000306 -0.848863 0.518823
0.068606 0.525653 -0.703664 -0.011870 0.819424 0.571575
0.054425 0.233507 0.329226 0.068352 -0.804246 0.590352
0.026654 -0.163318 0.236822 0.068352 0.804246 0.590352
-0.179356 -0.228422 0.295387 -0.068304 -0.825847 -0.559743
-0.065964 -0.353999 -0.492990 -0.052077 0.787809 -0.613714
-0.140043 0.133946 -0.204228 -0.052077 -0.787809 -0.613714
0.072129 0.241475 -0.338032 0.068352 -0.804246 -0.590352
-0.076711 -0.049349 0.093527 0.068352 0.804246 0.590352
-0.041199 -0.215356 -0.264245 0.089612 -0.802888 0.589355
0.007057 0.280310 0.360070 0.089612 0.802888 -0.589355
-0.175809 0.162238 0.197305 -0.068304 0.825847 -0.559743
0.895777 0.092654 -0.127314 -0.014277 -0.788755 -0.614542
-0.028199 0.268220 -0.386082 -0.011924 -0.794308 -0.606697
1.273648 -0.030650 0.075028 -0.002522 -0.445904 0.888843
-0.205813 -0.113918 0.129676 -0.068304 -0.825847 -0.559743
-0.059357 -0.171069 0.201152 0.089612 -0.802888 -0.589355
-0.100306 0.247241 0.353033 -0.052077 -0.787809 0.613714
-0.721978 0.037055 0.072080 0.001597 0.589640 0.799009
1.075574 0.055255 0.083489 -0.014277 -0.788755 0.614542
1.075013 0.082383 -0.105677 -0.014277 0.822681 0.568323
-0.009400 0.098762 0.153050 0.068352 -0.804246 0.590352
0.404038 -0.047766 0.065476 -0.001513 -0.638970 0.763298
-0.192438 -0.061210 -0.106411 -0.052077 0.787809 -0.613714
0.932178 0.100178 0.137816 -0.014277 -0.788755 0.614542
0.025626 -0.269573 0.348267 0.089612 -0.802888 -0.589355
0.020454 0.487768 -0.672039 -0.052077 -0.787809 -0.613714
-0.184392 0.158256 0.231670 -0.052077 -0.787809 0.613714
-0.540265 -0.048741 0.064753 0.000349 -0.651640 0.751806
-0.063064 0.117268 -0.127294 0.089612 0.802888 0.589355
1.212514 0.064001 -0.049724 -0.000535 0.734045 -0.671730
0.167622 -0.062938 -0.051063 0.000750 -0.723810 -0.682971
1.269911 0.081047 -0.000000 -0.008671 0.983015 0.142853
-0.402023 -0.099387 -0.137634 -0.052077 0.787809 -0.613714
-0.594437 0.079109 -0.017617 -0.002865 0.986347 -0.129518
0.129109 0.418541 0.566944 0.089612 0.802888 -0.589355
-0.979734 0.049278 -0.064345 0.000306 0.661395 -0.743319
-0.166785 0.334730 -0.459700 -0.052077 -0.787809 -0.613714
1.538945 -0.015161 -0.032825 1.000000 0.000000 -0.000000
-0.032808 0.279869 -0.353409 -0.015641 0.819990 0.570881
-0.120833 0.107045 -0.109165 -0.068304 0.825847 0.559743
-0.974742 -0.071438 -0.038279 -0.004038 -0.931893 -0.345033
-0.900450 0.049348 0.064292 -0.000026 0.658714 0.745611
1.229901 -0.159674 0.213668 -0.014277 -0.822681 -0.568323
-1.040792 0.047710 0.065517 -0.001011 0.584344 0.805757
0.238546 -0.057921 0.056690 -0.000129 -0.756986 0.645937
-1.020522 0.079093 0.017692 0.001610 0.959386 0.268515
-0.023548 -0.073823 -0.120713 0.068352 0.804246 -0.590352
0.355579 -0.077197 0.024683 -0.001774 -0.894243 0.437568
0.030382 0.161315 0.233661 0.068352 -0.804246 0.590352
-0.109992 0.000000 0.081047 0.000029 0.064451 0.992403
0.108777 0.066524 0.095449 0.068352 -0.804246 0.590352
-0.062412 -0.332568 0.465781 -0.052077 0.787809 0.613714
