0.958995 -0.114700 -0.034126 0.000096 -0.950150 -0.304916
-0.800486 0.067447 0.098851 -0.000803 0.587151 0.806580
0.386829 0.370708 0.362710 -0.025004 -0.679052 0.733665
-0.900739 0.031754 0.115379 0.000083 0.311463 0.947888
-0.689483 0.101614 -0.063209 0.000014 0.816706 -0.573193
0.493445 0.422980 0.399852 0.095251 0.689571 -0.717927
0.195284 -0.172824 -0.151499 -0.048835 -0.717483 0.694862
0.482905 0.278799 -0.259967 0.095251 0.689571 0.717927
-0.242191 -0.118025 0.019768 -0.000566 -0.980432 0.185872
0.506672 -0.046375 -0.110318 0.000585 -0.344642 -0.936131
-0.531356 -0.013147 -0.118945 0.001384 -0.180464 -0.981552
-0.105310 -0.056255 -0.105622 -0.000021 -0.425147 -0.902293
0.100034 -0.160535 0.145503 -0.048835 -0.717483 -0.694862
1.520152 -0.301677 0.296100 -0.099831 0.507141 0.856062
0.989535 -0.137559 -0.136995 -0.099831 0.507141 -0.856062
0.276709 -0.433807 -0.417359 -0.025004 0.679052 -0.733665
1.099252 -0.132627 0.146869 -0.066817 0.572167 0.815272
0.000000 -0.119669 -0.000000 0.005793 -0.991389 -0.101450
0.434975 -0.170562 0.149646 0.095251 -0.689571 -0.717927
0.283150 -0.163938 -0.136148 -0.048835 -0.717483 0.694862
0.541847 -0.372377 0.357669 0.095251 -0.689571 -0.717927
0.397544 0.223996 -0.224937 0.048867 -0.691893 -0.720345
0.471460 -0.118312 -0.118414 0.048867 0.691893 -0.720345
-1.301141 -0.119669 0.000000 -0.002536 -0.993435 -0.094154
1.285603 -0.227859 0.209119 -0.099831 -0.834941 -0.541210
0.055448 0.237658 -0.228271 -0.048835 0.717483 0.694862
-0.004233 0.179445 0.172358 -0.025004 -0.679052 0.733665
-0.075850 -0.109591 0.105262 -0.048835 -0.717483 -0.694862
0.222554 -0.400651 0.384826 -0.048835 -0.717483 -0.694862
-1.361641 0.065578 0.100101 0.000088 0.504834 0.860540
1.460786 0.049911 -0.103293 0.246935 0.331840 -0.907765
1.043826 0.115067 -0.130003 -0.033540 -0.634027 -0.770321
-1.181036 -0.000000 0.119669 -0.001794 -0.051745 0.995955
-0.140123 -0.000000 0.119669 -0.000806 -0.055003 0.995430
1.284003 0.191159 0.203089 -0.066817 -0.572167 0.815272
-0.969700 -0.078467 0.090353 0.000439 -0.617423 0.783838
1.495036 -0.238218 0.209328 0.163493 -0.660590 -0.730342
1.350697 -0.108170 0.051185 -0.000134 -0.899573 0.431211
0.795924 0.112937 -0.039572 0.000627 0.928626 -0.364570
-1.342579 0.109629 0.047981 0.000040 0.871560 0.485576
0.226162 0.117388 -0.023257 0.000308 0.973562 -0.217568
1.316309 -0.081853 -0.059140 0.000000 -0.692720 0.721206
1.455914 -0.062388 -0.079404 0.074221 0.699205 -0.708625
1.136817 0.081853 0.059140 0.000000 0.692720 -0.721206
-0.096055 0.109579 0.048096 -0.000162 0.871620 0.485501
0.078489 0.056374 -0.105559 0.000149 0.527058 -0.847168
0.220826 0.107324 0.113275 -0.025004 -0.679052 0.733665
0.073816 -0.108635 0.050192 0.000320 -0.888277 0.454477
-0.734403 -0.083055 0.086155 0.000009 -0.674341 0.735308
0.541847 -0.315163 0.302714 0.095251 -0.689571 -0.717927
1.159588 -0.204665 0.196581 -0.099831 -0.834941 -0.541210
0.904932 -0.123986 0.119089 -0.099831 -0.834941 -0.541210
1.105019 -0.187377 0.179976 -0.099831 -0.834941 -0.541210
-1.518644 0.000000 -0.101977 -0.334754 0.052874 -0.937244
0.541847 -0.186431 0.179067 0.095251 -0.689571 -0.717927
0.150326 -0.121974 -0.102152 -0.048835 -0.717483 0.694862
-1.085338 0.039909 -0.112819 0.000136 0.279308 -0.957049
0.541847 0.515412 0.495054 0.048867 -0.691893 0.720345
0.541847 0.200734 0.192806 0.048867 -0.691893 0.720345
0.541847 0.329466 -0.316453 0.095251 0.689571 0.717927
0.541847 0.415287 -0.398884 0.095251 0.689571 0.717927
-1.252696 0.102334 0.062036 -0.000117 0.799968 0.596217
0.460852 -0.380729 -0.354946 0.095251 -0.689571 0.717927
-1.323655 0.043009 -0.111673 -0.000185 0.442228 -0.893947
-0.154332 -0.056821 0.105319 -0.000194 -0.520126 0.851388
0.121420 0.115033 -0.032988 0.000614 0.950649 -0.303114
-0.213526 -0.062089 0.102302 0.000451 -0.598047 0.798586
1.426075 -0.108536 0.123730 -0.000000 0.692720 0.721206
1.357398 0.035170 0.114385 0.000910 0.372585 0.925475
0.874974 0.109278 -0.048776 -0.000552 0.896367 -0.438203
0.541847 -0.257949 -0.247760 0.095251 -0.689571 0.717927
-1.311697 -0.061165 -0.102857 -0.000009 -0.483698 -0.872614
0.158614 -0.273892 0.258434 -0.048835 -0.717483 -0.694862
-0.063914 0.121233 0.116445 -0.025004 -0.679052 0.733665
0.884680 -0.029296 0.116028 -0.000871 -0.209815 0.975854
-1.412550 -0.115184 0.032455 -0.000072 -0.945948 0.317237
0.480421 -0.000000 0.119669 0.002099 -0.050715 0.996106
1.392904 -0.114126 -0.129098 0.000000 0.692720 -0.721206
-1.579080 0.013695 0.066430 -0.618455 0.244874 0.740808
0.265215 -0.175210 0.177620 -0.025004 0.679052 0.733665
-0.500333 -0.108670 -0.050116 -0.000871 -0.926702 -0.370260
1.201054 0.119669 -0.000000 0.000914 0.990398 -0.114831
0.979125 -0.035777 -0.114196 -0.001190 -0.268982 -0.960011
0.230748 -0.013893 0.118860 -0.000112 -0.077858 0.995437
-0.963049 -0.016739 -0.118493 -0.001242 -0.175963 -0.982537
0.904758 0.062654 -0.101957 -0.000076 0.571965 -0.817667
0.401965 -0.304065 -0.301544 -0.000375 0.683664 -0.729576
-0.631465 0.015743 -0.118629 -0.000536 0.168059 -0.983438
0.360691 -0.245657 -0.215078 -0.048835 -0.717483 0.694862
-0.434501 -0.081350 0.087766 0.003963 -0.678310 0.731665
-0.040035 -0.000000 0.119669 0.003889 -0.033763 0.998274
1.467377 0.199016 0.210635 -0.000000 -0.692720 0.721206
1.071796 -0.115520 0.031240 0.000013 -0.937562 0.341152
1.482975 0.050050 0.096935 0.246876 0.387926 0.885157
1.511944 -0.036943 0.052697 1.000000 0.000000 0.000000
0.278916 -0.230385 -0.205055 -0.048835 -0.717483 0.694862
0.411941 0.018211 0.118275 -0.001905 0.243162 0.967496
0.446222 0.089456 -0.079488 -0.000199 0.778588 -0.623953
0.819125 0.077682 0.063482 -0.099831 0.834941 -0.541210
1.301141 0.000000 -0.119669 -0.000241 -0.125056 -0.988473
1.376822 0.248395 0.223973 -0.099831 0.834941 -0.541210
1.265528 -0.204771 -0.177202 -0.066817 -0.791565 0.604540
0.677358 0.020983 0.117815 0.000396 0.249071 0.966126
1.004037 0.106730 0.054123 -0.001970 0.924489 0.374843
0.172639 0.018826 0.118179 -0.002019 0.205818 0.975972
0.386140 0.503590 -0.479620 -0.048835 0.717483 0.694862
1.529315 0.142810 0.137169 0.244273 0.639252 -0.729169
1.300187 -0.118532 0.133331 0.000000 0.692720 0.721206
-0.916287 0.105597 -0.056303 0.001855 0.846577 -0.527374
0.013174 -0.127718 0.125074 -0.025004 0.679052 0.733665
1.470140 0.119248 -0.134018 0.082069 -0.699773 -0.707171
-1.413526 0.085901 -0.083317 0.000603 0.747552 -0.660882
1.037038 -0.101541 -0.063326 -0.000519 -0.864584 -0.498148
1.396083 0.081853 -0.059140 0.000000 0.692720 0.721206
1.192784 0.175490 0.183169 -0.099831 -0.507141 0.856062
-0.864578 0.077532 0.091157 0.000401 0.586397 0.806046
0.416195 -0.254467 0.252940 0.048867 0.691893 0.720345
0.882127 -0.106417 0.054737 0.001089 -0.878112 0.474160
0.256561 -0.258280 -0.254212 -0.025004 0.679052 -0.733665
-0.879219 -0.070746 -0.096518 0.000337 -0.622268 -0.779956
0.578971 0.094735 0.073116 0.000642 0.831944 0.551000
-1.540167 0.047684 -0.078950 -0.435166 0.361870 -0.819309
-0.327328 -0.096838 0.070308 0.000379 -0.838570 0.540680
0.680597 -0.119669 -0.000000 -0.000492 -0.994529 -0.084751
0.379665 0.073639 0.094329 -0.000140 0.660895 0.747649
0.182548 -0.326134 0.310695 -0.048835 -0.717483 -0.694862
-0.214743 0.114014 0.036352 -0.000755 0.918057 0.390858
0.498435 0.589807 -0.560751 0.007259 0.707851 0.705067
1.468755 -0.249692 0.259309 -0.066817 0.572167 0.815272
1.450625 -0.296870 -0.285144 -0.099831 -0.834941 0.541210
0.000000 0.119669 -0.000000 -0.000345 0.988396 -0.122244
1.505705 0.261398 -0.270554 0.045357 -0.646399 -0.756017
-1.137178 -0.077532 -0.091157 -0.000401 -0.586397 -0.806046
1.361194 0.000000 -0.119669 0.001941 -0.039188 -0.996692
0.357714 -0.275843 -0.273915 -0.025004 0.679052 -0.733665
1.487923 0.209788 -0.182021 0.082069 0.678412 0.727688
0.424671 0.538906 0.513377 -0.048835 0.717483 -0.694862
-1.254406 0.058280 -0.104519 -0.000025 0.527131 -0.847106
0.403719 -0.081625 0.087771 0.000000 0.721206 -0.692720
-1.120841 -0.117297 -0.023712 0.001022 -0.970376 -0.231522
1.400459 -0.118075 0.019469 -0.000832 -0.982426 0.176765
0.256561 -0.258280 0.254212 -0.025004 0.679052 0.733665
0.053944 0.118569 0.117995 -0.025004 -0.679052 0.733665
0.799649 -0.076292 0.064930 -0.099831 -0.834941 -0.541210
0.292907 0.334036 0.311098 -0.048835 0.717483 -0.694862
1.401843 0.113241 0.038694 -0.000816 0.941045 0.331682
0.506799 0.347881 0.336518 0.048867 -0.691893 0.720345
0.116152 0.106605 0.054370 -0.000861 0.869875 0.488579
0.354097 0.370226 -0.361149 -0.025004 -0.679052 -0.733665
1.405974 -0.108571 -0.050329 0.000057 -0.908222 -0.412423
0.115782 0.134380 -0.117391 -0.048835 0.717483 0.694862
0.288100 0.236396 0.235032 -0.025004 -0.679052 0.733665
0.607194 0.062089 -0.102302 0.000451 0.598047 -0.798586
1.203447 -0.166450 0.140396 0.000000 -0.692720 -0.721206
1.330144 0.106423 -0.082740 0.000000 0.692720 0.721206
0.544239 -0.106987 -0.053614 0.000053 -0.872854 -0.483261
0.400591 0.409995 -0.399542 -0.025004 -0.679052 -0.733665
0.201130 -0.305726 -0.288317 -0.048835 -0.717483 0.694862
-1.521125 -0.035631 0.094478 -0.435309 -0.361748 0.819294
0.093356 -0.058531 -0.104378 0.000073 -0.527922 -0.846590
1.062302 0.140385 0.115360 -0.066817 0.791565 -0.604540
-0.737988 0.117203 0.024169 -0.001438 0.954204 0.290816
1.407102 0.065309 0.100277 0.000016 0.537648 0.840455
1.339429 -0.208719 -0.219955 -0.033540 0.634027 -0.770321
0.430369 -0.115173 -0.032493 -0.001840 -0.932698 -0.354329
-1.426220 -0.067809 -0.098604 -0.020811 -0.628690 -0.774367
0.213585 -0.180634 0.158276 -0.048835 -0.717483 -0.694862
1.505705 0.261398 0.270554 0.143551 -0.679116 0.713758
-0.120105 -0.119669 -0.000000 -0.002902 -0.998532 -0.029188
0.426083 -0.374413 0.367478 -0.000375 0.683664 0.729576
0.499903 -0.114116 0.036031 0.000530 -0.943799 0.323530
1.509706 0.224150 -0.229906 0.244273 -0.702830 -0.668102
1.218403 0.069530 -0.097398 -0.000565 0.630257 -0.773854
0.541847 -0.200734 -0.192806 0.095251 -0.689571 0.717927
-0.003057 0.019541 -0.118063 -0.001013 0.205738 -0.976069
0.105563 -0.205018 0.191046 -0.048835 -0.717483 -0.694862
1.211986 -0.132864 -0.108136 0.000000 -0.692720 0.721206
1.258525 0.133725 -0.147923 0.000000 -0.692720 -0.721206
1.043803 0.052903 0.107341 -0.000074 0.444513 0.893006
0.500439 0.119669 -0.000000 -0.000315 0.989990 -0.116493
-0.627797 0.115020 0.033032 0.000018 0.939334 0.336315
1.541829 0.309036 -0.287090 0.016069 0.781949 0.614409
1.550160 -0.226124 0.217193 0.244273 0.702830 0.668102
0.273366 0.378077 0.365664 -0.025004 -0.679052 0.733665
0.995881 -0.152800 0.146765 -0.099831 -0.834941 -0.541210
0.476079 0.461545 -0.447777 0.048867 -0.691893 -0.720345
1.267270 0.222051 -0.203541 -0.099831 0.834941 0.541210
0.170372 0.185067 0.183511 -0.025004 -0.679052 0.733665
1.516778 -0.267013 -0.241857 0.244273 -0.639252 0.729169
1.413330 0.232132 -0.242443 -0.033540 -0.634027 -0.770321
1.342712 0.113536 0.128531 -0.000000 -0.692720 0.721206
0.370710 -0.394865 0.384520 -0.025004 0.679052 0.733665
0.321415 0.311838 -0.286174 -0.048835 0.717483 0.694862
1.268948 -0.057380 0.105016 0.000339 -0.471102 0.879274
-0.300623 0.083074 0.086137 0.000477 0.736570 0.672961
-1.330674 0.018162 0.118283 0.000282 0.198000 0.977766
0.900790 0.119669 -0.000000 -0.000239 0.992078 -0.102609
0.331595 -0.158996 0.164876 -0.025004 0.679052 0.733665
0.358455 -0.491800 -0.473822 -0.025004 0.679052 -0.733665
-0.410176 -0.118463 0.016945 0.000156 -0.993350 0.093885
-0.340471 0.037870 -0.113519 0.001257 0.356197 -0.931703
0.448954 -0.249318 -0.227146 0.095251 -0.689571 0.717927
0.270299 0.447221 0.429557 -0.025004 -0.679052 0.733665
1.511944 0.020125 0.049428 1.000000 -0.000000 0.000000
0.191503 -0.024093 -0.117219 -0.000359 -0.292638 -0.953029
0.215395 -0.226184 -0.205182 -0.048835 -0.717483 0.694862
0.701416 -0.078200 -0.090584 0.000244 -0.691518 -0.719109
0.693829 0.100608 0.064798 -0.000952 0.829828 0.554034
-0.831106 0.118182 -0.018806 0.000143 0.965668 -0.250283
0.473466 0.376563 0.366329 0.048867 -0.691893 0.720345
-0.314807 -0.107128 -0.053331 -0.000279 -0.859707 -0.508101
-1.195339 -0.082992 -0.086215 0.000640 -0.753911 -0.653328
-0.249926 -0.018375 0.118250 -0.000914 -0.240148 0.968388
1.415186 0.126619 -0.141098 -0.000000 -0.692720 -0.721206
0.306120 -0.457458 0.437610 -0.048835 -0.717483 -0.694862
0.556849 -0.107143 0.053303 -0.000206 -0.886344 0.458369
0.840738 -0.000000 0.119669 -0.002976 -0.046672 0.996712
0.205509 -0.131717 0.108335 -0.048835 -0.717483 -0.694862
0.389121 0.145777 -0.150380 0.048867 -0.691893 -0.720345
1.506799 0.159295 -0.162743 0.244273 -0.702830 -0.668102
0.601754 -0.084031 -0.085203 -0.000368 -0.630434 -0.773210
-1.292309 -0.102078 0.062456 0.000028 -0.874510 0.480201
-0.461924 0.110096 -0.046901 -0.000015 0.897207 -0.436342
0.713243 0.102066 -0.062476 0.000081 0.831692 -0.551121
0.202668 0.105694 0.056121 0.001237 0.857138 0.511454
-0.410313 0.019288 -0.118105 0.000153 0.205423 -0.976178
1.314823 0.114479 0.034861 0.000055 0.926809 0.369054
0.502053 -0.401983 -0.380825 0.095251 -0.689571 0.717927
-0.720258 -0.066722 -0.099342 0.000069 -0.594011 -0.801597
0.295023 0.112586 -0.082290 -0.048835 0.717483 0.694862
1.408411 -0.047818 0.109700 0.000296 -0.467504 0.881355
0.032968 -0.105699 -0.056111 -0.000912 -0.902337 -0.425509
-0.223945 -0.055398 -0.106074 0.000191 -0.414889 -0.907172
-0.552062 0.115282 -0.032106 -0.000076 0.947128 -0.313740
-0.044092 -0.060457 0.103275 -0.000029 -0.583836 0.809050
-0.087602 0.033109 0.114998 0.000622 0.333055 0.940499
-0.380413 0.114715 0.034076 0.000792 0.969097 0.237098
-0.856364 0.109786 0.047621 0.000609 0.901320 0.427068
0.871673 0.018930 -0.118162 -0.000580 0.249063 -0.966024
-0.711430 0.015788 0.118623 0.000468 0.165886 0.984197
0.185611 0.122788 -0.126388 -0.025004 -0.679052 -0.733665
0.754632 -0.062999 0.101744 0.001190 -0.512018 0.856276
0.069127 0.106210 -0.091582 -0.048835 0.717483 0.694862
0.183285 -0.095898 0.072911 -0.048835 -0.717483 -0.694862
0.304300 -0.084311 0.084925 -0.000085 -0.687858 0.722647
1.249868 0.114253 -0.035596 0.000842 0.932405 -0.355165
-0.907063 -0.104623 -0.058092 -0.000330 -0.846771 -0.527938
0.186746 0.365724 -0.351279 -0.048835 0.717483 0.694862
0.404673 -0.439559 -0.427045 -0.025004 0.679052 -0.733665
-0.520935 0.065666 -0.100044 0.000062 0.586723 -0.806934
0.935697 0.049651 0.108883 -0.000770 0.434361 0.897954
1.463027 -0.110283 0.086447 0.163493 -0.660590 -0.730342
1.313482 -0.118666 0.015463 -0.000515 -0.977244 0.201504
-0.547144 -0.061400 0.102717 0.000388 -0.492248 0.867896
-1.371839 -0.090547 -0.078243 0.000448 -0.691503 -0.719341
-0.980241 0.090839 0.077904 -0.000149 0.689628 0.720801
-0.728672 -0.115645 -0.030773 0.000002 -0.950819 -0.302532
0.772596 0.028928 -0.116120 0.002321 0.272835 -0.959373
0.487987 -0.061565 0.102618 -0.000367 -0.501582 0.862578
1.371246 -0.079227 0.089688 -0.000008 -0.722355 0.688177
-1.154635 0.085024 -0.084212 -0.000237 0.637767 -0.767233
-0.780118 -0.067535 -0.098791 0.000017 -0.600634 -0.796622
-1.323790 0.112672 -0.040320 0.000503 0.903215 -0.423645
0.179773 0.110322 -0.046366 -0.000128 0.880066 -0.470067
0.222153 -0.096769 -0.070402 0.000004 -0.835073 -0.545962
-0.561262 0.091135 -0.077557 -0.000046 0.728561 -0.681610
1.300861 0.090006 0.078865 -0.000014 0.746034 0.662453
-0.610918 0.078702 -0.090148 -0.000033 0.692498 -0.718239
-0.456004 0.021828 0.117662 -0.000590 0.202798 0.977732
-1.244333 0.112745 -0.040116 -0.000576 0.923445 -0.377321
-0.088125 0.076774 -0.091796 0.000028 0.564865 -0.822434
-0.605057 -0.073788 0.094213 -0.000327 -0.635294 0.769327
1.450192 -0.214537 -0.225544 -0.000000 0.692720 -0.721206
0.417120 -0.546101 0.526080 -0.025004 0.679052 0.733665
0.379405 -0.183209 -0.186992 0.048867 0.691893 -0.720345
-0.352131 0.081715 -0.087426 0.000312 0.643759 -0.762263
-1.537731 0.072782 0.058626 -0.405613 0.711420 0.568927
-0.120105 0.119669 -0.000000 -0.001138 0.996296 -0.051714
0.504993 0.272415 0.256765 0.095251 0.689571 -0.717927
-1.191104 -0.053635 0.106977 -0.000425 -0.485746 0.871510
-0.606472 0.026176 0.116771 -0.000621 0.200053 0.977865
0.310414 -0.117663 -0.021822 -0.000139 -0.959842 -0.271038
0.322442 -0.355667 0.331358 -0.048835 -0.717483 -0.694862
-0.468724 -0.032810 0.115084 -0.000651 -0.337873 0.939440
1.122892 -0.118287 0.018138 0.001317 -0.984469 0.165390
-0.756063 0.043427 0.111512 0.000668 0.445281 0.892700
-0.828905 -0.081715 -0.087426 -0.000312 -0.643759 -0.762263
0.017875 0.082317 0.086860 -0.000081 0.614473 0.786085
0.570794 0.018375 -0.118250 -0.000914 0.240148 -0.968388
1.431822 0.159387 0.172572 -0.000000 -0.692720 0.721206
1.235712 0.111124 0.087255 0.000000 0.692720 -0.721206
0.399400 0.102428 -0.061880 -0.001839 0.805124 -0.588519
-0.804266 -0.017950 0.118315 -0.000808 -0.245612 0.966893
0.388615 0.064916 -0.100532 0.001788 0.544530 -0.836057
-0.680597 0.000000 -0.119669 -0.000330 -0.099137 -0.992414
0.429062 0.332416 -0.304323 0.095251 0.689571 0.717927
-1.241855 -0.098342 -0.068187 -0.000310 -0.856229 -0.512193
1.285623 0.144814 0.158574 0.000000 -0.692720 0.721206
0.132811 -0.020738 0.117859 0.004050 -0.269277 0.959967
-1.607928 -0.020720 0.036895 -0.731703 -0.382689 0.557683
0.096383 0.074830 0.093388 0.000400 0.671400 0.738121
-0.543324 0.100023 0.065697 -0.000535 0.873523 0.481557
0.135020 -0.072088 0.095520 0.001066 -0.573806 0.816586
1.120983 -0.000000 0.119669 -0.000351 -0.038183 0.997787
0.547960 0.115676 -0.030658 0.000566 0.952207 -0.299518
0.329613 -0.114280 -0.081608 -0.000763 -0.709478 0.703855
0.790694 0.118435 0.017141 -0.000285 0.996771 0.045262
0.302642 0.117912 0.020433 0.001403 0.959700 0.270987
-0.000043 0.113722 -0.111670 -0.025004 -0.679052 -0.733665
1.144278 -0.111124 -0.044410 0.000559 -0.929584 -0.362979
-0.286618 0.026312 -0.116741 0.000477 0.273801 -0.959783
0.120105 -0.119669 -0.000000 -0.001146 -0.994975 -0.060795
0.539603 0.082552 -0.086636 -0.000305 0.749763 -0.658377
0.156532 0.294679 -0.280044 -0.048835 0.717483 0.694862
0.254300 -0.364272 0.345032 -0.048835 -0.717483 -0.694862
0.330038 0.214551 -0.216242 -0.025004 -0.679052 -0.733665
1.152032 0.102190 -0.062273 -0.000256 0.840764 -0.537158
1.260025 -0.046274 -0.110360 -0.000858 -0.411021 -0.909065
-0.004233 -0.179445 0.172358 -0.048835 -0.717483 -0.694862
1.374036 0.182984 0.156276 -0.000000 0.692720 -0.721206
0.987240 0.072121 -0.069272 0.000000 -0.721206 0.692720
-1.490622 -0.103533 -0.040918 -0.208705 -0.900628 -0.371186
-0.641942 -0.016498 0.118526 -0.000642 -0.231714 0.970529
0.541847 -0.143520 0.137852 0.095251 -0.689571 -0.717927
1.460786 -0.103293 -0.049911 0.246930 -0.907755 -0.331876
0.617925 0.117422 -0.023083 0.000076 0.974814 -0.212011
1.125732 -0.099947 0.115479 -0.000000 0.692720 0.721206
0.148910 -0.259275 -0.244023 -0.048835 -0.717483 0.694862
-1.031468 -0.101228 -0.063826 0.000840 -0.816699 -0.572978
0.199209 0.264404 0.245785 -0.048835 0.717483 -0.694862
-0.285007 0.111578 -0.043257 0.000045 0.892062 -0.447018
0.420907 0.318111 0.289501 0.095251 0.689571 -0.717927
0.183331 0.065303 -0.100281 0.000092 0.521218 -0.850737
0.812322 0.080415 -0.082477 -0.099831 -0.507141 -0.856062
0.838600 -0.079072 -0.062035 -0.099831 -0.834941 0.541210
0.358466 -0.263202 0.262240 -0.025004 0.679052 0.733665
0.298021 0.097838 0.068910 0.000338 0.793417 0.605032
0.909716 0.099040 0.104869 -0.099831 -0.507141 0.856062
-1.428805 -0.050479 0.108502 -0.000056 -0.380990 0.922506
0.951451 -0.085801 -0.101893 -0.034490 0.632150 -0.771487
0.240109 0.258056 -0.236355 -0.048835 0.717483 0.694862
0.691065 -0.109569 0.048118 -0.001190 -0.908650 0.411594
1.355054 -0.189875 -0.162895 -0.000000 -0.692720 0.721206
0.273989 0.370931 -0.350524 -0.048835 0.717483 0.694862
1.175608 -0.193011 -0.175648 -0.099831 -0.834941 0.541210
-0.940825 -0.000000 0.119669 -0.001541 -0.045799 0.996837
-1.094750 -0.084369 0.084868 0.000330 -0.734728 0.675149
0.541847 -0.501109 -0.481316 0.095251 -0.689571 0.717927
0.858075 -0.063779 0.077957 -0.099831 0.507141 0.856062
1.491626 0.103978 -0.090500 0.244273 0.639252 0.729169
-1.060931 -0.000000 0.119669 0.000941 -0.039897 0.997603
0.104167 -0.227446 -0.214303 -0.048835 -0.717483 0.694862
0.783738 -0.029657 -0.115936 0.000100 -0.203739 -0.977240
-0.542165 0.044096 0.111249 0.001339 0.347360 0.935402
-0.812800 0.089862 -0.079029 0.000399 0.723655 -0.687514
-0.066489 0.106879 -0.053829 -0.000324 0.912725 -0.403962
1.197294 0.028525 -0.116220 0.000076 0.302094 -0.951131
0.262888 0.157262 0.160929 -0.025004 -0.679052 0.733665
0.490744 0.073269 -0.094617 0.000281 0.682962 -0.727258
-1.569294 -0.047210 -0.058150 -0.533220 -0.507451 -0.670470
-0.728474 0.114703 -0.034117 0.000358 0.942415 -0.327995
1.041308 -0.067232 -0.098998 0.000040 -0.635726 -0.769100
0.370886 -0.113291 -0.120414 0.048867 0.691893 -0.720345
0.500746 -0.329865 -0.319624 0.048867 0.691893 -0.720345
0.355480 0.402726 0.391276 -0.025004 -0.679052 0.733665
0.199135 -0.252899 0.233910 -0.048835 -0.717483 -0.694862
1.397221 0.059971 -0.103557 0.000404 0.472967 -0.878609
0.581864 -0.041362 0.112294 0.001603 -0.323588 0.943855
1.419882 -0.190817 0.202760 -0.000000 0.692720 0.721206
0.506436 0.485213 0.461350 0.095251 0.689571 -0.717927
0.424844 0.531368 -0.512707 -0.025004 -0.679052 -0.733665
0.972230 -0.081583 0.087549 0.000010 -0.740512 0.668605
1.567530 -0.295553 0.283879 0.244273 0.702830 0.668102
0.441856 -0.174935 -0.174809 0.048867 0.691893 -0.720345
0.098145 -0.178709 -0.175165 -0.025004 0.679052 -0.733665
1.136202 0.163798 -0.137848 -0.066817 0.791565 0.604540
1.210103 0.187211 -0.160336 -0.064419 0.788111 0.608825
1.215989 -0.099105 0.114671 -0.000000 0.692720 0.721206
1.172433 0.160709 0.134881 0.000000 0.692720 -0.721206
0.760667 -0.119669 -0.000000 0.002189 -0.991303 -0.106622
-0.862241 -0.092860 0.075483 -0.000658 -0.786474 0.613813
1.107553 0.099012 -0.114582 0.000000 -0.692720 -0.721206
1.410247 0.197597 -0.170312 0.000000 0.692720 0.721206
-1.485827 0.110703 -0.020449 -0.222905 0.931503 -0.273326
0.362119 0.468231 0.452132 -0.025004 -0.679052 0.733665
1.450595 0.270399 0.269459 -0.099831 -0.507141 0.856062
1.470140 0.119248 0.134018 0.163493 -0.703143 0.689470
0.493612 -0.501063 0.484544 0.048867 0.691893 0.720345
0.233340 -0.332871 -0.322459 -0.025004 0.679052 -0.733665
0.858075 0.063779 -0.077957 -0.099831 -0.507141 -0.856062
1.250537 -0.233479 -0.224257 -0.099831 -0.834941 0.541210
-0.329041 -0.068076 -0.098419 -0.000017 -0.489956 -0.869476
1.450595 0.270399 -0.269459 -0.099831 -0.507141 -0.856062
-0.111325 -0.080601 0.088454 -0.000025 -0.713113 0.697828
1.328798 -0.147013 0.160686 -0.000000 0.692720 0.721206
-0.765558 0.052819 -0.107382 0.001015 0.474884 -0.877557
1.306091 -0.164981 -0.138984 -0.000000 -0.692720 0.721206
0.988401 -0.116972 -0.092872 -0.066817 -0.791565 0.604540
1.336118 -0.120274 0.096043 -0.000000 -0.692720 -0.721206
0.085287 0.227561 0.215748 -0.048835 0.717483 -0.694862
1.425988 -0.190348 -0.163349 0.000000 -0.692720 0.721206
0.080070 -0.000000 0.119669 -0.000743 -0.094825 0.993219
1.475333 0.105741 0.033864 0.247716 0.945520 0.199811
0.855460 -0.118379 -0.017524 0.000234 -0.977502 -0.198598
1.269327 -0.106628 0.082936 0.000000 -0.692720 -0.721206
1.495036 -0.238218 -0.209328 0.163493 -0.660590 0.730342
0.480421 0.000000 -0.119669 -0.001098 -0.070821 -0.995275
0.893217 -0.048646 -0.109336 -0.000012 -0.319196 -0.945266
-1.441264 0.117847 0.020806 -0.023838 0.978400 0.194636
-1.611642 -0.009420 -0.037246 -0.742673 -0.221671 -0.626358
-0.450033 -0.108429 0.050635 0.000743 -0.942899 0.324887
1.511944 0.054049 -0.022354 1.000000 -0.000000 0.000000
0.464704 -0.261035 0.240490 0.095251 -0.689571 -0.717927
0.341351 0.270057 0.241632 -0.048835 0.717483 -0.694862
1.359304 -0.259574 -0.244451 -0.099831 -0.834941 0.541210
1.359304 0.259574 -0.244451 -0.099831 0.834941 0.541210
1.285623 -0.164278 0.138309 -0.000000 -0.692720 -0.721206
0.426671 0.241836 0.240098 0.048867 -0.691893 0.720345
0.300263 -0.000000 0.119669 0.002184 -0.053405 0.995669
0.843672 0.053024 0.107281 -0.000451 0.503015 0.861581
0.951451 0.105266 0.081628 -0.067767 0.792806 -0.602712
1.105384 0.147800 0.156573 -0.099831 -0.507141 0.856062
1.276422 0.081853 -0.059140 0.000000 0.692720 0.721206
1.528521 -0.192874 -0.190126 0.244273 0.702830 -0.668102
1.371316 -0.107705 -0.083970 0.000000 -0.692720 0.721206
-0.680597 -0.119669 0.000000 0.000665 -0.994394 -0.083220
0.449428 -0.497570 -0.482262 -0.025004 0.679052 -0.733665
-0.021490 -0.118332 -0.115206 -0.025004 0.679052 -0.733665
0.082917 -0.143049 -0.128652 -0.048835 -0.717483 0.694862
0.650746 -0.081467 0.087657 0.001111 -0.721833 0.689599
0.947762 0.043860 -0.111342 0.001824 0.417680 -0.906129
-1.006867 0.019725 0.118032 -0.000881 0.216944 0.974702
1.176693 0.196854 -0.193948 -0.099831 -0.507141 -0.856062
1.050450 0.170088 -0.163370 -0.099831 0.834941 0.541210
0.318461 -0.227299 0.227646 -0.025004 0.679052 0.733665
-1.000878 -0.119669 0.000000 -0.000873 -0.994162 -0.087999
0.376289 0.112260 -0.119057 0.048867 -0.691893 -0.720345
0.343686 0.445575 -0.430534 -0.025004 -0.679052 -0.733665
0.007703 -0.191088 -0.183540 -0.048835 -0.717483 0.694862
0.992935 -0.034687 0.114532 -0.000196 -0.385690 0.918942
1.431761 0.223335 0.233994 0.000000 -0.692720 0.721206
0.251255 0.081272 0.087839 0.000578 0.601666 0.795493
1.506170 0.224615 0.201133 0.244273 0.639252 -0.729169
1.176704 -0.062388 0.079404 0.000000 0.721206 -0.692720
0.371325 0.171362 0.141969 0.095251 0.689571 -0.717927
0.992935 0.034687 0.114532 -0.000196 0.385690 0.918942
0.770393 0.075807 0.092596 -0.000989 0.612938 0.786335
1.246564 -0.161527 -0.174628 0.000000 0.692720 -0.721206
0.495234 -0.518896 -0.501563 0.048867 0.691893 -0.720345
1.381063 0.121850 0.097557 0.000000 0.692720 -0.721206
1.082706 -0.110065 -0.125197 0.000000 0.692720 -0.721206
-1.341177 0.000000 -0.119669 -0.001978 -0.061073 -0.994544
0.464738 0.552758 0.533864 -0.025004 -0.679052 0.733665
1.067014 -0.072121 0.069272 0.000000 0.721206 -0.692720
-1.612317 0.026252 0.027047 -0.731703 0.382689 0.557683
1.115692 0.015677 -0.118638 0.002927 0.095564 -0.992855
0.411148 -0.523465 -0.504926 -0.025004 0.679052 -0.733665
-1.405578 -0.018512 -0.118229 -0.004848 -0.229100 -0.971527
0.426016 0.172069 0.173131 0.048867 -0.691893 0.720345
0.251165 -0.129712 -0.135031 -0.025004 0.679052 -0.733665
1.431805 -0.257450 -0.227801 -0.066817 -0.791565 0.604540
0.387084 -0.019165 -0.118125 0.001710 -0.253478 -0.964756
0.458302 -0.300198 -0.294008 0.048867 0.691893 -0.720345
1.135465 -0.146151 0.120898 0.000000 -0.692720 -0.721206
-1.500930 -0.074439 0.078662 -0.351736 -0.618427 0.697007
1.168509 0.113609 0.089641 -0.000000 0.692720 -0.721206
1.247996 -0.207580 0.184771 -0.099831 -0.834941 -0.541210
-1.201054 -0.119669 0.000000 0.000894 -0.998114 -0.026859
0.350235 0.502548 0.483490 -0.025004 -0.679052 0.733665
1.146788 -0.072121 -0.069272 0.000000 0.721206 0.692720
1.284138 -0.113041 -0.039275 0.001919 -0.944774 -0.320624
0.475343 -0.204114 -0.187229 0.095251 -0.689571 0.717927
1.222064 0.139944 0.153896 0.000000 -0.692720 0.721206
0.462917 0.091538 0.077450 -0.000000 -0.721206 -0.692720
0.495976 0.203672 0.189541 0.095251 0.689571 -0.717927
1.333090 0.183576 -0.156845 -0.000000 0.692720 0.721206
0.225176 0.177299 0.178189 -0.025004 -0.679052 0.733665
1.413397 -0.149421 0.162999 0.000000 0.692720 0.721206
0.377848 0.250145 0.218506 0.047265 0.700174 -0.711544
0.453818 -0.188911 0.187421 0.048867 0.691893 0.720345
0.244271 0.309742 0.301425 -0.025004 -0.679052 0.733665
0.307839 0.198031 0.169615 -0.048835 0.717483 -0.694862
1.235224 -0.088792 -0.104766 -0.000000 0.692720 -0.721206
1.096929 0.062388 0.079404 0.000000 -0.692720 0.721206
0.285990 -0.165737 0.137806 -0.048835 -0.717483 -0.694862
0.112931 -0.270096 0.260253 -0.025004 0.679052 0.733665
-1.539543 0.091051 0.016588 -0.453894 0.847929 0.261668
0.227366 0.287894 -0.280626 -0.025004 -0.679052 -0.733665
0.514920 0.109361 0.106868 0.048867 -0.691893 0.720345
0.394686 -0.024237 0.117189 0.003746 -0.185719 0.981118
-1.441264 0.040979 -0.112434 -0.078724 0.413246 -0.903278
0.350715 -0.094728 0.103952 0.048867 0.691893 0.720345
1.432027 0.151517 0.126052 -0.000000 0.692720 -0.721206
1.215122 -0.118955 -0.013059 -0.000363 -0.984110 -0.167007
-1.555290 -0.083883 0.000000 -0.553581 -0.825235 -0.061253
0.380334 -0.119669 -0.000000 -0.001343 -0.994517 -0.071226
-0.252301 0.059220 -0.103989 -0.000763 0.526750 -0.847670
-0.079507 0.085956 0.083262 -0.025004 -0.679052 0.733665
0.392801 -0.350840 -0.321428 -0.048835 -0.717483 0.694862
0.276148 0.413328 -0.394150 -0.048835 0.717483 0.694862
0.338050 0.057067 -0.105186 0.000532 0.537096 -0.840937
1.106249 0.116109 0.028971 -0.000706 0.943947 0.323126
1.339429 -0.228183 0.199690 -0.066817 -0.791565 -0.604540
-0.949088 -0.114446 0.034969 0.000494 -0.923355 0.378180
0.502382 -0.084969 -0.084290 0.000000 0.721206 0.692720
0.901411 -0.110448 -0.046065 0.000514 -0.911548 -0.405358
-0.017426 -0.112397 -0.041080 0.000135 -0.900232 -0.430248
0.441558 0.263098 -0.239400 0.095251 0.689571 0.717927
0.152920 0.153609 0.153800 -0.025004 -0.679052 0.733665
0.173853 0.135071 0.114022 -0.048835 0.717483 -0.694862
0.318925 -0.299009 -0.273102 -0.048835 -0.717483 0.694862
-0.771480 -0.114712 0.034087 -0.000209 -0.926040 0.371357
1.403812 -0.190715 -0.202662 0.000000 0.692720 -0.721206
1.340015 0.222135 -0.227971 -0.099831 -0.507141 -0.856062
1.485543 -0.142175 -0.121949 0.244273 -0.639252 0.729169
1.192784 -0.175490 0.183169 -0.099831 0.507141 0.856062
0.262434 -0.117965 0.090134 -0.048835 -0.717483 -0.694862
0.237503 0.127579 -0.132590 -0.025004 -0.679052 -0.733665
0.500847 0.241163 -0.234419 0.048867 -0.691893 -0.720345
-0.505062 0.118686 -0.015308 -0.000112 0.973578 -0.219147
-0.164000 0.024164 -0.117204 -0.000697 0.214232 -0.974702
0.167746 0.234056 -0.216660 -0.048835 0.717483 0.694862
1.267999 0.230647 0.216667 -0.099831 0.834941 -0.541210
0.031576 -0.214373 0.205905 -0.048835 -0.717483 -0.694862
0.221379 0.374532 0.360611 -0.025004 -0.679052 0.733665
1.159588 0.204665 0.196581 -0.099831 0.834941 -0.541210
1.136202 -0.144334 -0.158113 -0.033540 0.634027 -0.770321
0.339201 0.171828 -0.177012 -0.025004 -0.679052 -0.733665
1.511944 -0.019060 -0.051159 1.000000 0.000000 -0.000000
0.042278 0.176773 -0.166329 -0.048835 0.717483 0.694862
0.114436 0.252350 -0.243879 -0.025004 -0.679052 -0.733665
-1.042445 0.086462 0.082734 0.001767 0.656421 0.751770
1.353144 -0.140315 -0.154253 -0.000000 0.692720 -0.721206
0.274252 -0.089144 -0.079942 -0.000000 0.721206 0.692720
0.421259 -0.360344 -0.354291 -0.000375 0.683664 -0.729576
-1.037100 -0.097973 0.068717 0.000735 -0.761288 0.645208
-0.651419 0.114978 -0.033178 0.000335 0.944590 -0.321338
0.263592 -0.238859 0.214883 -0.048835 -0.717483 -0.694862
-1.470468 0.022174 0.113790 -0.145277 0.192579 0.968297
0.846168 0.111581 0.043249 -0.002535 0.927112 0.368482
0.391055 -0.515931 0.492017 -0.048835 -0.717483 -0.694862
-0.039078 0.085255 -0.083991 -0.025004 -0.679052 -0.733665
1.412354 -0.156116 -0.130469 0.000000 -0.692720 0.721206
0.172397 -0.118783 0.014539 0.000321 -0.982965 0.174207
0.322703 0.149575 0.118537 -0.048835 0.717483 -0.694862
1.021998 -0.102511 0.061743 -0.000000 -0.851170 0.520486
1.495562 -0.182217 0.160410 0.244273 -0.639252 -0.729169
0.002962 0.040066 0.112763 -0.000344 0.420263 0.904782
0.453452 -0.155107 -0.137253 0.095251 -0.689571 0.717927
1.470140 -0.119248 0.134018 0.163493 0.703143 0.689470
0.490263 0.202578 -0.198076 0.048867 -0.691893 -0.720345
-0.532597 -0.115829 0.030075 -0.001509 -0.983196 0.172996
1.303207 -0.225072 -0.201572 -0.099831 -0.834941 0.541210
1.441264 -0.112516 0.040755 0.041646 -0.937785 0.332677
0.331595 -0.158996 -0.164876 -0.025004 0.679052 -0.733665
-0.052894 -0.118029 0.019745 0.001372 -0.976995 0.201641
0.330038 -0.214551 -0.216242 -0.025004 0.679052 -0.733665
0.516383 0.024617 0.117110 0.000798 0.292254 0.953819
-0.056517 -0.071592 -0.095892 -0.000205 -0.517447 -0.852974
0.113705 -0.096880 -0.099958 -0.025004 0.679052 -0.733665
0.541847 -0.586930 0.563747 0.000000 -0.721206 0.692720
0.541847 -0.586930 -0.563747 0.095251 -0.689571 0.717927
1.482975 -0.096935 0.050050 0.246862 -0.885111 0.388038
0.378219 -0.196153 0.199505 0.048867 0.691893 0.720345
0.135266 0.185223 -0.182459 -0.025004 -0.679052 -0.733665
0.455827 -0.406942 -0.396704 0.048867 0.691893 -0.720345
0.154706 -0.180061 -0.178345 -0.025004 0.679052 -0.733665
1.050172 -0.130309 0.139772 -0.099831 0.507141 0.856062
1.035591 -0.118694 -0.015250 -0.001530 -0.973618 -0.218999
0.334268 -0.118794 0.014447 -0.003435 -0.978930 0.195732
0.676685 0.117692 -0.021664 -0.001983 0.951538 -0.295720
-1.521519 -0.057257 -0.082973 -0.352160 -0.617669 -0.697523
-1.567256 0.060376 -0.046634 -0.570060 0.708009 -0.407393
0.504487 -0.463169 0.447409 0.048867 0.691893 0.720345
0.297250 -0.416718 0.396167 -0.048835 -0.717483 -0.694862
0.225325 -0.319418 0.309735 -0.025004 0.679052 0.733665
0.387495 0.261856 -0.261984 -0.000375 -0.683664 -0.729576
0.891384 0.102965 -0.089158 -0.099831 0.834941 0.541210
0.477133 -0.423560 0.398244 0.095251 -0.689571 -0.717927
-0.840738 0.000000 -0.119669 0.000467 -0.043118 -0.996324
0.424053 0.214620 -0.190515 0.095251 0.689571 0.717927
0.209064 0.226647 -0.206105 -0.048835 0.717483 0.694862
0.265215 0.175210 -0.177620 -0.025004 -0.679052 -0.733665
-0.937135 0.082778 -0.086421 0.000418 0.653916 -0.753449
0.306876 0.019378 -0.118090 -0.000972 0.223957 -0.971545
0.287245 -0.182346 -0.184976 -0.025004 0.679052 -0.733665
0.520141 0.586194 0.564513 -0.000000 0.721206 0.692720
-1.062158 0.113296 0.038532 0.003166 0.956926 0.278308
0.022465 -0.116669 -0.105661 -0.048835 -0.717483 0.694862
0.333601 0.335437 0.328251 -0.025004 -0.679052 0.733665
-0.029901 0.100895 0.098780 -0.025004 -0.679052 0.733665
-0.029901 -0.100895 0.098780 -0.025004 0.679052 0.733665
0.189089 -0.194007 0.192424 -0.025004 0.679052 0.733665
-0.410985 0.051499 0.108021 -0.001744 0.526822 0.846180
1.156351 -0.136483 -0.111612 0.000000 -0.692720 0.721206
0.259008 0.103316 -0.060386 0.000933 0.839217 -0.539447
0.248788 -0.016721 -0.118495 -0.000546 -0.180033 -0.981613
0.541847 -0.157824 -0.151590 0.095251 -0.689571 0.717927
0.270932 -0.294552 0.271873 -0.048835 -0.717483 -0.694862
1.381212 -0.000000 0.119669 -0.006763 -0.047459 0.996580
0.391378 0.117702 0.021607 0.000667 0.972439 0.220499
0.248313 0.250285 0.227754 -0.048835 0.717483 -0.694862
0.426083 0.386010 0.355404 0.043825 0.700827 -0.710979
1.178003 -0.102787 0.061283 -0.000004 -0.809758 0.582825
0.208145 -0.362859 -0.349357 -0.025004 0.679052 -0.733665
1.027127 0.072121 0.069272 0.000000 -0.721206 -0.692720
1.085548 0.092079 0.107922 0.000000 -0.692720 0.721206
-1.194751 0.057765 -0.104804 0.000022 0.436847 -0.896649
0.464704 0.261035 0.240490 0.095251 0.689571 -0.717927
0.404072 0.459330 0.445324 -0.025004 -0.679052 0.733665
0.240608 -0.171109 -0.146543 -0.048835 -0.717483 0.694862
0.461502 -0.136511 0.136569 0.048867 0.691893 0.720345
0.458695 -0.353039 0.344736 0.048867 0.691893 0.720345
0.383987 -0.096770 -0.072004 0.095251 -0.689571 0.717927
0.938241 0.117967 -0.020114 -0.002177 0.960677 -0.267956
0.415902 -0.460482 0.433017 -0.048835 -0.717483 -0.694862
-0.855747 -0.018514 0.118228 0.003503 -0.096174 0.992970
0.082211 -0.083153 0.086180 -0.025004 0.679052 0.733665
0.235008 0.069848 -0.097170 -0.000015 0.655487 -0.752230
0.110542 0.160920 0.159123 -0.025004 -0.679052 0.733665
0.074541 0.209651 -0.198010 -0.048835 0.717483 0.694862
0.455984 -0.588369 0.562249 0.000000 -0.721206 0.692720
0.455984 0.588369 -0.562249 -0.048835 0.717483 0.694862
0.455984 -0.588369 -0.562249 -0.048835 -0.717483 0.694862
0.500043 0.358328 -0.338628 0.095251 0.689571 0.717927
-1.141001 0.000000 -0.119669 -0.001127 -0.036690 -0.997019
0.995881 0.152800 0.146765 -0.099831 0.834941 -0.541210
0.094789 0.118068 0.019511 0.001428 0.976877 0.201899
-1.480473 0.069155 0.090449 -0.196261 0.678134 0.702278
0.358475 0.301061 0.297282 -0.025004 -0.679052 0.733665
0.932758 -0.031485 0.115453 0.002808 -0.179571 0.981755
1.483789 0.090473 0.076035 0.244273 0.639252 -0.729169
1.501590 -0.277893 -0.279846 -0.099831 0.507141 -0.856062
0.921346 -0.104093 0.085371 -0.099831 -0.834941 -0.541210
1.495562 -0.167619 -0.175609 0.244273 0.702830 -0.668102
1.381063 -0.121850 0.097557 0.000000 -0.692720 -0.721206
0.370868 0.114360 0.087158 0.095251 0.689571 -0.717927
0.691515 -0.033437 0.114903 0.000512 -0.347847 0.935171
0.480196 0.322111 0.301209 0.095251 0.689571 -0.717927
0.325586 -0.366651 -0.356868 -0.025004 0.679052 -0.733665
1.351754 0.122282 -0.136932 -0.000000 -0.692720 -0.721206
0.334436 0.107089 -0.116930 -0.000375 -0.683664 -0.729576
0.450544 0.154942 0.136708 0.095251 0.689571 -0.717927
-0.350958 -0.117953 0.020196 0.002025 -0.991825 0.104312
0.459639 0.113784 -0.037065 0.000061 0.937746 -0.340534
1.441264 -0.040755 -0.112516 0.088935 -0.282035 -0.949385
0.361214 -0.402074 -0.376550 -0.048835 -0.717483 0.694862
0.477287 -0.092412 0.076032 0.000653 -0.748475 0.659759
0.329430 0.110357 -0.046282 0.000860 0.952112 -0.297960
-0.483529 0.100484 0.064990 -0.000091 0.890467 0.447893
0.416764 0.101933 0.106392 0.048867 -0.691893 0.720345
1.300187 0.137997 0.113066 -0.000000 0.692720 -0.721206
1.499098 0.181752 0.189183 0.244273 -0.702830 0.668102
1.135847 0.092402 0.108232 -0.000000 -0.692720 0.721206
1.229183 -0.108993 0.049410 -0.000119 -0.906364 0.416747
0.043512 -0.226015 -0.217088 -0.048835 -0.717483 0.694862
0.345284 -0.016294 -0.118555 0.000595 -0.179563 -0.981625
0.507156 -0.273971 0.265503 0.048867 0.691893 0.720345
0.702317 0.118339 0.017792 0.001180 0.969486 0.235684
1.355054 -0.170411 0.183160 0.000000 0.692720 0.721206
1.322176 -0.013297 0.118928 0.000481 -0.196293 0.978340
0.436283 0.464422 -0.435653 -0.048835 0.717483 0.694862
1.028285 0.115355 -0.091319 0.000000 0.692720 0.721206
1.433006 0.203140 0.175636 0.000000 0.692720 -0.721206
-1.459119 0.096553 0.067463 -0.186919 0.806367 0.554060
0.343759 0.187980 0.192117 -0.025004 -0.679052 0.733665
1.340015 0.222135 0.227971 -0.099831 -0.507141 0.856062
0.736956 0.064577 -0.100750 -0.000113 0.615198 -0.785462
0.183285 -0.081402 -0.088003 -0.000000 0.721206 0.692720
-1.261051 0.035997 0.114127 0.000037 0.389640 0.918469
0.276148 0.413328 0.394150 -0.048835 0.717483 -0.694862
0.392801 0.350840 -0.321428 -0.048835 0.717483 0.694862
1.120211 -0.038990 -0.113139 0.001644 -0.344061 -0.936320
1.441264 0.112516 -0.040755 0.205766 0.914443 -0.338583
1.093041 -0.157120 -0.160655 -0.099831 0.507141 -0.856062
0.480421 -0.119669 -0.000000 0.000102 -0.997414 -0.025690
0.071371 0.197222 0.191388 -0.025004 -0.679052 0.733665
0.037894 0.118545 0.016366 0.001332 0.981404 0.182135
1.446735 -0.189301 0.162344 -0.000000 -0.692720 -0.721206
-0.403660 0.100455 0.065035 -0.002509 0.812916 0.576929
1.103814 0.118339 -0.017790 0.002487 0.975385 -0.208515
0.260228 0.119669 -0.000000 0.000283 0.995996 -0.071837
1.462588 -0.220330 0.231107 -0.000000 0.692720 0.721206
0.338550 -0.376554 0.366476 -0.025004 0.679052 0.733665
1.083737 0.017496 0.118383 0.000365 0.208408 0.975598
1.511944 -0.099787 -0.019882 0.249096 -0.963024 -0.059052
0.192247 0.161767 -0.162691 -0.025004 -0.679052 -0.733665
0.799649 -0.067950 -0.073614 -0.099831 0.507141 -0.856062
0.743556 -0.098617 -0.067790 -0.000242 -0.765032 -0.640271
1.206619 -0.072121 -0.069272 0.000000 0.721206 0.692720
0.151927 0.217542 0.200720 -0.048835 0.717483 -0.694862
0.439749 0.352891 -0.345879 0.048867 -0.691893 -0.720345
0.501726 -0.552429 -0.525287 0.095251 -0.689571 0.717927
-1.092633 0.117005 -0.025111 0.001924 0.952071 -0.297300
0.464671 0.486971 0.472972 -0.000375 -0.683664 0.729576
-0.602191 -0.106435 0.054701 -0.000065 -0.875143 0.479238
1.378644 0.187924 -0.199981 -0.000000 -0.692720 -0.721206
0.262826 -0.397203 -0.378436 -0.048835 -0.717483 0.694862
0.360691 0.245657 -0.215078 -0.048835 0.717483 0.694862
0.502053 0.401983 -0.380825 0.095251 0.689571 0.717927
0.398746 0.192447 -0.165860 0.095251 0.689571 0.717927
0.394035 -0.337141 0.307197 -0.048835 -0.717483 -0.694862
0.506549 0.485175 -0.461329 0.095251 0.689571 0.717927
0.023545 -0.103141 0.060684 -0.000092 -0.809246 0.583689
0.430906 0.388483 -0.380665 -0.000375 -0.683664 -0.729576
0.342703 -0.471214 0.449242 -0.048835 -0.717483 -0.694862
0.110893 -0.119260 0.102122 -0.048835 -0.717483 -0.694862
0.492889 0.447035 0.432699 0.048867 -0.691893 0.720345
1.511944 -0.040700 -0.000000 1.000000 0.000000 -0.000000
1.316309 0.062388 -0.079404 0.000000 -0.692720 -0.721206
0.750578 0.016786 0.118486 -0.003292 0.194756 0.978669
-1.537731 -0.072782 0.058626 -0.405604 -0.711635 0.568676
-1.365709 -0.118619 0.015822 -0.000084 -0.972434 0.223897
0.474481 0.181442 -0.165337 0.095251 0.689571 0.717927
0.613444 0.118424 0.017218 0.001944 0.975762 0.206821
0.163960 0.284147 0.274998 -0.025004 -0.679052 0.733665
1.082706 0.129529 -0.104933 0.000000 0.692720 0.721206
0.584418 -0.116968 0.025282 -0.000993 -0.957985 0.278067
0.333751 -0.459945 -0.443496 -0.025004 0.679052 -0.733665
0.627937 0.015095 0.118713 -0.002846 0.096684 0.992948
1.500015 -0.049483 0.092352 0.244572 -0.486041 0.836501
0.458302 0.300198 -0.294008 0.048867 -0.691893 -0.720345
-0.315961 0.042615 0.111824 0.000160 0.438135 0.896672
-1.422379 -0.119163 -0.010997 0.001153 -0.983306 -0.173653
1.034294 0.115805 -0.030165 0.000965 0.945144 -0.321515
0.240211 -0.119669 -0.000000 -0.001239 -0.990008 -0.119448
0.501587 0.552514 -0.525349 0.095251 0.689571 0.717927
1.247996 0.207580 0.184771 -0.099831 0.834941 -0.541210
-1.351454 -0.050548 0.108469 0.000079 -0.463589 0.883435
1.173196 0.124491 -0.139054 0.000000 -0.692720 -0.721206
-1.495968 0.034907 -0.104119 -0.333931 0.268587 -0.898883
1.258525 0.153189 0.127658 -0.000000 0.692720 -0.721206
1.222064 0.159408 -0.133632 0.000000 0.692720 0.721206
0.988401 0.116972 0.092872 -0.066817 0.791565 -0.604540
1.037643 -0.087454 0.103480 -0.000000 0.692720 0.721206
-1.080948 -0.119669 0.000000 0.000676 -0.996142 -0.051905
-1.171363 0.053724 0.106932 0.000341 0.488596 0.869960
0.411612 0.332204 0.327918 -0.000375 -0.683664 0.729576
-0.550774 -0.047266 -0.109939 0.001239 -0.453852 -0.888308
0.520095 -0.453258 -0.436831 0.048867 0.691893 -0.720345
0.415906 -0.134553 0.137782 0.048867 0.691893 0.720345
-0.916596 0.118075 0.019469 0.000644 0.963991 0.256329
1.413630 0.260056 0.235174 -0.099831 0.834941 -0.541210
-0.596350 -0.118585 -0.016074 0.000034 -0.971780 -0.226550
0.389660 0.563645 0.541382 -0.025004 -0.679052 0.733665
0.389660 0.563645 -0.541382 -0.048835 0.717483 0.694862
0.389660 -0.563645 -0.541382 -0.048835 -0.717483 0.694862
0.103193 0.284227 0.273001 -0.025004 -0.679052 0.733665
-0.004233 0.179445 -0.172358 -0.048835 0.717483 0.694862
0.341916 -0.517075 0.496652 -0.048835 -0.717483 -0.694862
0.341916 0.517075 -0.496652 -0.048835 0.717483 0.694862
0.150937 0.330797 0.317731 -0.025004 -0.679052 0.733665
-0.028105 0.156161 0.149993 -0.025004 -0.679052 0.733665
0.820720 0.000000 -0.119669 0.002681 -0.027644 -0.997335
-1.006619 0.039963 -0.112799 -0.000183 0.274333 -0.958577
0.043172 -0.072740 -0.095024 0.000064 -0.565633 -0.821885
0.139001 0.319154 -0.306548 -0.048835 0.717483 0.694862
1.060406 0.088728 -0.104704 0.000000 -0.692720 -0.721206
-1.459119 -0.096553 -0.067463 -0.186919 -0.806367 -0.554060
-1.232975 -0.013385 -0.118918 -0.000823 -0.166460 -0.984107
0.051939 0.013385 -0.118918 0.000823 0.166460 -0.984107
-0.504559 -0.052971 -0.107307 -0.001356 -0.503179 -0.862393
1.213066 -0.173688 -0.147347 0.000000 -0.692720 0.721206
0.891384 -0.102965 -0.089158 -0.099831 -0.834941 0.541210
1.498592 0.232968 0.243247 0.163493 -0.703143 0.689470
0.674961 -0.110353 -0.046292 0.000426 -0.938440 -0.338812
1.416027 0.081853 0.059140 0.000000 0.692720 -0.721206
-1.245877 0.118747 0.014826 -0.000134 0.983397 0.170221
-0.441360 0.092234 -0.076248 0.000010 0.737221 -0.672226
-0.800702 0.000000 -0.119669 -0.000561 -0.110890 -0.990879
0.520457 0.000000 -0.119669 0.001301 -0.033016 -0.997608
-1.161018 0.119669 -0.000000 -0.004584 0.997951 -0.042508
0.640562 -0.119669 -0.000000 -0.004651 -0.997763 -0.040516
-1.060931 0.000000 -0.119669 0.000865 -0.039230 -0.996805
0.960843 0.000000 -0.119669 0.001897 -0.043014 -0.996655
-0.160140 0.119669 -0.000000 0.000954 0.993469 -0.089389
-0.300263 0.119669 -0.000000 -0.001790 0.997823 -0.032341
-1.421247 -0.000000 0.119669 -0.037796 -0.047930 0.994679
-1.281124 -0.000000 0.119669 0.000228 -0.103166 0.991969
1.315356 0.109596 -0.124748 0.000000 -0.692720 -0.721206
-1.495966 -0.034878 -0.104130 -0.333936 -0.268384 -0.898947
0.457208 -0.225954 0.222771 0.048867 0.691893 0.720345
0.179432 0.108639 -0.086338 -0.048835 0.717483 0.694862
1.321411 0.051437 0.108051 0.000042 0.423577 0.903297
0.627406 -0.038359 -0.113355 -0.000808 -0.270948 -0.959622
0.038889 -0.149750 0.146342 -0.025004 0.679052 0.733665
1.116873 0.062388 -0.079404 -0.000000 -0.692720 -0.721206
0.292383 0.107736 0.116095 -0.025004 -0.679052 0.733665
1.028285 0.115355 0.091319 0.000000 0.692720 -0.721206
1.413397 0.168885 -0.142734 0.000000 0.692720 0.721206
-1.401572 0.065213 0.100339 -0.000043 0.503461 0.861348
-0.007417 -0.021480 -0.117726 0.000230 -0.233805 -0.968963
-0.283992 -0.054978 0.106293 0.000784 -0.505733 0.860148
0.324799 0.453750 0.432468 -0.048835 0.717483 -0.694862
1.037215 0.114888 0.033487 0.000819 0.930159 0.360880
1.330152 -0.086951 -0.102996 -0.000000 0.692720 -0.721206
-0.980460 -0.089688 -0.079226 -0.001555 -0.700085 -0.710981
-0.284080 0.110839 0.045116 -0.000824 0.911004 0.406959
1.395226 -0.239627 -0.244772 -0.099831 0.507141 -0.856062
1.236534 0.081853 -0.059140 0.000000 0.692720 0.721206
1.356196 -0.062388 -0.079404 0.000000 0.692720 -0.721206
1.356196 0.081853 -0.059140 0.000000 0.692720 0.721206
-0.569727 -0.101133 -0.063976 0.000077 -0.816615 -0.573203
-0.127976 0.077970 -0.090782 -0.000064 0.576033 -0.814609
-0.649978 -0.079355 -0.089574 -0.000061 -0.624005 -0.778466
0.117248 0.048001 -0.109620 -0.000141 0.459508 -0.885600
-0.135684 -0.111212 0.044188 -0.001116 -0.889140 0.452199
0.584018 -0.105887 -0.055756 0.000128 -0.862508 -0.501457
-0.489964 0.018465 -0.118236 0.000119 0.200667 -0.977201
0.550660 -0.074336 -0.093781 0.000026 -0.661184 -0.747122
1.173196 -0.124491 0.139054 0.000000 0.692720 0.721206
-0.087302 -0.020949 -0.117821 0.000351 -0.226335 -0.970958
-1.104641 0.071892 -0.095667 0.000134 0.555952 -0.828397
1.487260 -0.282015 0.280616 -0.099831 0.507141 0.856062
-0.695574 0.076154 0.092311 -0.000033 0.615758 0.785005
-1.015905 0.104612 -0.058113 -0.000430 0.819667 -0.568686
1.158772 0.114378 0.035190 0.000060 0.952552 0.295810
0.073194 -0.105763 -0.055990 -0.000099 -0.833025 -0.549067
-0.590518 0.017141 -0.118435 0.000003 0.047840 -0.996549
-1.212785 0.102605 0.061587 -0.000474 0.878563 0.472968
0.445377 0.440356 0.410164 0.047265 0.700174 -0.711544
-1.261051 -0.035997 0.114127 0.000037 -0.389640 0.918469
-0.707176 0.101322 0.063675 -0.000068 0.830650 0.552642
-0.699718 -0.091987 -0.076545 0.000006 -0.824390 -0.561940
-1.202596 -0.092817 0.075536 -0.000047 -0.802964 0.592245
0.036157 0.109586 -0.048079 0.000149 0.904093 -0.422026
-1.131095 -0.055582 0.105978 -0.000904 -0.544568 0.835843
1.523384 0.319921 0.307285 -0.099831 0.834941 -0.541210
1.541573 -0.325684 -0.312820 -0.050286 -0.813088 0.573113
1.086829 0.181614 0.174440 -0.099831 0.834941 -0.541210
1.086829 0.181614 -0.174440 -0.099831 0.834941 0.541210
1.341486 0.262293 0.251933 -0.099831 0.834941 -0.541210
0.959501 0.141274 -0.135694 -0.099831 0.834941 0.541210
0.835495 0.111010 -0.044694 0.000317 0.904323 -0.421442
-0.637389 0.065303 0.100281 0.000092 0.521218 0.850737
-0.056643 0.107495 0.052589 0.000306 0.920706 0.384470
0.628262 0.097296 0.069672 -0.000077 0.796561 0.601112
0.094149 0.103785 -0.059577 0.000179 0.850947 -0.520881
-1.183552 0.112647 -0.040391 -0.001030 0.920681 -0.384353
-0.772877 0.089850 0.079043 0.000068 0.789069 0.610640
-0.450034 0.019080 -0.118138 0.000157 0.202718 -0.976756
0.576501 0.059971 0.103557 0.000647 0.470860 0.879764
1.399650 -0.032975 -0.115037 -0.000688 -0.295696 -0.952315
0.371368 -0.154910 -0.160356 0.048867 0.691893 -0.720345
