1.043007 -0.078931 0.043669 0.000075 -0.841499 0.538367
1.342806 0.145816 -0.196020 -0.000000 -0.771560 -0.636156
1.330515 0.076602 -0.047636 -0.000073 0.851445 -0.522633
0.352464 0.062085 0.093711 -0.033896 -0.756255 0.653398
1.433861 -0.249840 -0.283850 0.000000 -0.771560 0.636156
-0.590351 0.062340 -0.065199 -0.000095 0.667551 -0.743204
0.377220 0.280833 0.348178 -0.033896 -0.756255 0.653398
0.391524 0.178563 0.193246 -0.052559 0.792727 -0.607307
1.225689 0.064535 0.097440 -0.000000 -0.771560 0.636156
0.407170 -0.267610 -0.334427 -0.033896 0.756255 -0.653398
0.995898 -0.089955 0.006720 0.000124 -0.989271 0.139729
-1.069754 0.020899 0.087752 -0.000263 0.244181 0.968632
0.515832 0.423580 -0.502312 -0.007853 0.786073 0.617217
1.254429 0.135468 -0.145134 0.000000 0.771560 0.636156
1.466719 0.092104 -0.130875 -0.000000 -0.771560 -0.636156
0.473475 0.462443 -0.563370 -0.033896 -0.756255 -0.653398
-0.509408 0.036245 0.082604 -0.000010 0.372734 0.926837
0.758519 0.050434 -0.074790 0.000200 0.609748 -0.791315
-1.076589 0.087590 0.021567 -0.000382 0.954882 0.293829
-0.425887 -0.075606 -0.049202 0.000091 -0.855894 -0.515197
1.363648 -0.223351 0.290059 -0.000000 0.771560 0.636156
0.473751 -0.344367 -0.402556 -0.052559 -0.792727 0.607307
1.285713 -0.212900 0.239048 0.000000 -0.771560 -0.636156
0.244832 -0.258436 0.310201 -0.052559 -0.792727 -0.607307
0.500181 0.000000 -0.090206 0.000984 -0.024365 -0.999256
-1.304756 -0.072672 -0.053441 -0.000185 -0.789626 -0.612108
-1.413673 0.028878 0.085459 0.000165 0.328205 0.943556
0.543062 0.210475 0.260379 0.052593 -0.770492 0.635276
0.260094 -0.090206 0.000000 0.000427 -0.997364 -0.056792
0.855086 0.071681 -0.054763 -0.000163 0.832017 -0.552977
0.364027 0.111134 -0.107609 -0.052559 0.792727 0.607307
-0.017932 -0.088435 0.017785 0.000128 -0.964977 0.258361
0.472587 0.010543 0.089588 -0.001273 0.158801 0.986127
0.449673 -0.165343 -0.213372 0.052593 0.770492 -0.635276
0.448300 -0.083305 -0.113987 0.052593 0.770492 -0.635276
0.945564 0.079280 0.043032 0.001214 0.853099 0.520316
1.003405 0.077710 -0.113418 0.000000 -0.771560 -0.636156
1.518443 -0.038463 0.070751 1.000000 -0.000000 0.000000
-1.468846 0.056332 -0.067544 -0.138002 0.680230 -0.718308
0.011025 0.069096 -0.057991 -0.000579 0.793328 -0.606923
0.349227 -0.007850 0.089864 -0.000578 -0.146884 0.988230
-0.098988 0.082925 -0.035504 -0.000008 0.908452 -0.415610
-1.595710 0.000000 -0.033693 -0.634554 0.050753 -0.767726
1.468297 0.162361 -0.177752 0.112365 0.770506 0.622322
0.634563 0.044163 -0.078656 0.000025 0.517373 -0.854567
-1.017972 0.089689 -0.009645 0.001452 0.987720 -0.148072
-1.411721 0.084023 -0.032821 0.000013 0.941835 -0.333112
1.201056 0.087857 0.020453 0.000033 0.963584 0.263375
-1.480818 -0.022589 0.083042 -0.182741 -0.315563 0.929952
-0.975554 -0.008493 0.089805 0.001362 -0.157985 0.986358
0.360131 0.090206 -0.000000 0.001152 0.996941 -0.063833
0.156214 -0.074997 -0.098474 -0.033896 0.756255 -0.653398
1.242434 -0.207483 0.258034 -0.183950 0.550371 0.814404
-0.464322 0.028721 0.085512 0.000014 0.347611 0.936552
1.084315 0.147254 0.172207 -0.183950 0.904379 -0.385047
0.249204 0.249582 -0.305366 -0.033896 -0.756255 -0.653398
-0.265606 0.010451 0.089599 0.001701 0.183317 0.981718
-1.085529 0.015346 -0.088891 -0.000792 0.198839 -0.979129
-0.136304 -0.014223 0.089078 0.000340 -0.220606 0.974410
0.926991 -0.072404 -0.053803 -0.000581 -0.763499 -0.644338
0.773047 0.010236 -0.089623 -0.000063 0.144705 -0.988300
1.404425 -0.160042 0.174938 0.000000 -0.771560 -0.636156
0.063139 0.088882 0.015401 -0.000152 0.971453 0.233105
1.445817 -0.298757 0.365655 -0.183950 0.550371 0.814404
0.470254 -0.069982 0.056918 -0.000950 -0.766347 0.641009
0.715711 0.078293 0.044803 0.000048 0.882823 0.467530
1.349306 -0.121860 -0.166966 0.000000 0.771560 -0.636156
1.285407 0.081694 0.038252 -0.000285 0.921010 0.386898
-0.160058 0.000000 -0.090206 0.000030 -0.025667 -0.998874
-1.579851 -0.000000 0.045421 -0.579441 -0.037419 0.812076
0.561136 -0.415404 -0.507431 0.052593 0.770492 -0.635276
1.013563 0.123122 -0.149328 -0.183950 -0.550371 -0.814404
1.149999 -0.023299 0.087145 -0.000049 -0.283909 0.957714
0.341268 -0.345015 -0.420598 -0.033896 0.756255 -0.653398
0.077551 -0.087959 0.102152 -0.052559 -0.792727 -0.607307
-0.922291 -0.032917 -0.083986 -0.000062 -0.339233 -0.939617
1.342343 0.010346 -0.089611 0.000460 0.115528 -0.992503
-1.544800 -0.063091 0.017580 -0.429457 -0.886260 0.162860
-1.052999 -0.087472 -0.022040 0.000654 -0.959082 -0.279294
-1.492303 -0.072580 0.041677 -0.245490 -0.851788 0.459907
1.417151 -0.200430 -0.262259 0.000000 0.771560 -0.636156
0.095813 -0.084350 -0.031972 0.000568 -0.915946 -0.398842
-1.414764 -0.072686 0.053422 0.000103 -0.793620 0.606772
1.504953 -0.008701 -0.101054 -0.148513 -0.028502 -0.987676
-1.421361 0.088411 0.017905 -0.000151 0.985840 0.161428
0.436470 0.421640 -0.506648 -0.052559 0.792727 0.607307
1.375202 0.231961 0.300501 0.000000 -0.771560 0.636156
-0.046575 -0.038507 0.081574 0.000124 -0.368349 0.928596
0.955869 0.046858 0.077081 -0.000259 0.465930 0.883687
-0.953052 0.066548 -0.060897 0.000015 0.751627 -0.658043
0.572454 -0.383223 0.460642 0.081488 -0.768994 -0.634041
0.859100 -0.073542 0.052237 -0.000781 -0.779790 0.624643
-1.230783 -0.066864 0.060550 0.000013 -0.770686 0.635616
-0.306808 0.026982 0.086076 -0.000056 0.342396 0.938471
0.223386 0.042092 0.079783 -0.000415 0.515936 0.855578
-0.365673 0.066270 0.061200 0.000251 0.723000 0.689319
0.436735 -0.270125 0.338872 -0.033896 0.756255 0.653398
-0.408981 -0.052852 0.073101 0.000042 -0.558279 0.828431
1.267273 0.063616 0.077156 0.000000 -0.636156 -0.771560
-0.295453 0.081599 0.038454 -0.000332 0.895065 0.443693
1.245897 -0.151642 0.203086 -0.000000 0.771560 0.636156
0.552505 -0.149163 0.174200 0.081488 -0.768994 -0.634041
-0.530297 0.033842 -0.083617 0.000043 0.404057 -0.913616
-0.192703 0.050181 0.074960 0.000939 0.603909 0.795994
-0.225656 -0.079945 0.041785 0.000269 -0.871393 0.488531
1.147281 -0.050772 -0.074561 0.000033 -0.548389 -0.835005
0.272036 -0.081320 0.076654 -0.052559 -0.792727 -0.607307
1.305349 0.165464 0.219851 -0.000000 -0.771560 0.636156
-0.147972 0.069130 0.057950 0.000872 0.782463 0.620920
0.335792 -0.080203 -0.041287 -0.000073 -0.915411 -0.399994
-0.786688 -0.070571 -0.056186 -0.000272 -0.762007 -0.646063
0.043214 0.104803 -0.127110 -0.052559 0.792727 0.607307
1.178541 0.066543 -0.060903 -0.000196 0.694327 -0.718212
-1.329027 -0.065675 0.061838 -0.000033 -0.716516 0.696112
0.522424 0.069293 -0.057754 -0.000030 0.726501 -0.685676
1.071323 0.107124 0.110757 -0.000000 0.771560 -0.636156
0.110085 -0.042083 0.079788 0.000524 -0.501442 0.864019
0.664900 -0.025097 -0.086645 -0.000028 -0.248940 -0.967368
1.029787 0.047060 -0.076958 0.000020 0.534039 -0.844252
-0.322726 0.061600 0.065898 -0.000047 0.670718 0.740349
0.242096 0.114164 0.122117 -0.052559 0.792727 -0.607307
0.203310 -0.085740 0.028033 0.000380 -0.957249 0.285521
0.275779 -0.304240 0.370007 -0.033896 0.756255 0.653398
0.413410 -0.093175 0.128846 0.052593 0.770492 0.635276
0.358565 0.350198 0.427494 -0.033896 -0.756255 0.653398
-0.002752 0.064565 0.062997 -0.000285 0.744330 0.666329
1.408790 0.185210 -0.243800 0.000000 -0.771560 -0.636156
1.325550 0.039103 0.081290 0.000338 0.457077 0.888620
-0.722902 -0.073994 0.051596 -0.000146 -0.842386 0.537063
1.036330 -0.082098 -0.118740 0.000000 0.771560 -0.636156
1.485069 -0.095085 0.025443 -0.149267 -0.967619 0.199461
0.248851 0.146785 -0.164113 -0.052559 0.792727 0.607307
1.394321 0.277312 0.339531 -0.183950 -0.550371 0.814404
1.453136 -0.086751 0.086048 -0.000000 -0.771560 -0.636156
0.528840 -0.514540 -0.626540 0.000000 -0.636156 -0.771560
0.560535 -0.305276 0.373912 0.052593 0.770492 0.635276
0.624526 -0.076549 0.047723 -0.000033 -0.813256 0.580248
1.214122 -0.007444 -0.089898 -0.000636 -0.143144 -0.988778
0.421295 -0.162519 -0.173535 0.081488 -0.768994 0.634041
0.531771 0.332539 -0.393942 0.081488 0.768994 0.634041
0.901613 0.046545 0.077271 -0.001522 0.491243 0.869797
-0.024487 -0.062287 -0.065249 0.000060 -0.733165 -0.678601
0.552503 0.092331 0.116307 0.052593 -0.770492 0.635276
0.192069 -0.226592 -0.273201 -0.052559 -0.792727 0.607307
0.491759 -0.210289 -0.240528 0.081488 -0.768994 0.634041
1.518443 0.046481 0.077475 1.000000 0.000000 0.000000
1.390504 0.090206 -0.000000 -0.001403 0.997343 -0.063315
-1.454208 0.064742 0.061782 -0.098592 0.711836 0.693898
-0.627662 0.019184 0.088143 -0.000202 0.242446 0.969084
-0.381410 -0.012627 -0.089318 -0.000584 -0.149294 -0.987848
-0.182755 0.071389 -0.055143 -0.000250 0.803186 -0.594028
1.418124 0.148991 -0.161535 -0.000000 0.771560 0.636156
1.491547 -0.086474 -0.049030 -0.149381 -0.842315 -0.516289
0.555587 0.155417 -0.182181 0.081488 0.768994 0.634041
1.329330 0.081088 0.039521 -0.000306 0.868486 0.493768
-0.816827 -0.062463 0.065080 0.000118 -0.676975 0.734797
0.007630 0.089611 -0.010349 0.000528 0.987857 -0.148465
1.059747 -0.117711 0.123597 0.000000 -0.771560 -0.636156
0.262052 0.193406 -0.223825 -0.052559 0.792727 0.607307
0.606743 -0.041070 0.080315 -0.000078 -0.426552 0.903390
0.386599 -0.426191 -0.516904 -0.052559 -0.792727 0.607307
0.525284 -0.252169 -0.312420 0.052593 0.770492 -0.635276
0.840999 -0.065261 -0.062274 0.000202 -0.705478 -0.707374
0.378009 -0.384358 0.463042 -0.052559 -0.792727 -0.607307
-0.783965 0.089684 -0.009690 -0.000447 0.988235 -0.144578
1.010702 0.088263 0.018622 -0.000279 0.980054 0.190775
0.295647 -0.071434 -0.055085 0.000164 -0.808293 -0.587074
-1.090845 -0.042709 -0.079455 -0.000024 -0.454120 -0.889900
-1.217061 -0.088528 -0.017317 0.000108 -0.976463 -0.211131
0.905366 -0.077617 -0.094138 -0.183950 0.550371 -0.814404
0.162276 -0.182038 -0.222679 -0.033896 0.756255 -0.653398
1.105948 -0.065790 -0.061716 -0.000075 -0.685208 -0.726954
-0.749485 0.063674 -0.063897 -0.001035 0.719601 -0.692960
0.239248 -0.228782 0.280775 -0.033896 0.756255 0.653398
0.323737 -0.184293 -0.233666 -0.033896 0.756255 -0.653398
-0.675282 0.082009 0.037572 0.000399 0.881687 0.469948
1.314328 -0.173841 -0.191675 -0.000000 -0.771560 0.636156
0.453508 0.229817 0.259297 0.081488 0.768994 -0.634041
0.407955 -0.245665 0.309068 -0.033896 0.756255 0.653398
0.313349 0.073698 -0.052017 0.000083 0.835443 -0.547751
0.525212 0.127256 0.160925 0.052593 -0.770492 0.635276
0.568567 0.417896 0.509837 0.052593 -0.770492 0.635276
0.298229 -0.076728 -0.107845 -0.033896 0.756255 -0.653398
0.269819 -0.299557 -0.364277 -0.033896 0.756255 -0.653398
0.504062 -0.494903 -0.596430 -0.052559 -0.792727 0.607307
1.356517 0.078693 0.076275 -0.000000 0.771560 -0.636156
1.281842 -0.121590 -0.128302 0.000000 -0.771560 0.636156
1.010138 0.098731 0.100578 -0.000000 0.771560 -0.636156
-0.722563 0.031612 -0.084486 0.000033 0.375501 -0.925900
0.324080 0.135313 -0.176994 -0.033896 -0.756255 -0.653398
0.293230 0.064443 0.063780 -0.000000 -0.636156 -0.771560
-1.326434 0.089779 0.008768 0.000790 0.987381 0.152373
1.402293 0.090446 -0.090529 -0.000000 0.771560 0.636156
1.465058 0.252355 0.318839 0.332235 -0.708559 0.622546
1.446965 0.216219 -0.281408 -0.000000 -0.771560 -0.636156
1.359430 -0.246307 -0.279565 0.000000 -0.771560 0.636156
0.457649 -0.449796 -0.541568 -0.052559 -0.792727 0.607307
0.174789 0.009837 0.089668 0.001393 0.135258 0.989723
-1.497070 0.025491 -0.078518 -0.259441 0.346455 -0.899724
-0.274543 -0.058290 0.068844 -0.000221 -0.620139 0.783275
0.427492 -0.155315 0.165594 0.081488 -0.768994 -0.634041
-1.316001 0.010933 -0.089541 -0.000864 0.161084 -0.985575
0.454151 -0.489415 -0.593585 -0.052559 -0.792727 0.607307
-0.504143 -0.076947 -0.047077 0.000147 -0.834445 -0.549353
1.059063 0.075215 -0.110392 0.000000 -0.771560 -0.636156
1.346950 -0.080873 -0.039959 -0.000016 -0.915152 -0.400581
1.128673 0.109999 -0.152580 0.000000 -0.771560 -0.636156
0.598443 0.124075 -0.151005 0.052593 -0.770492 -0.635276
0.445426 0.381026 0.467681 -0.033896 -0.756255 0.653398
1.014278 -0.017622 -0.088468 0.000351 -0.256005 -0.965611
1.358443 0.208271 -0.233433 0.000000 0.771560 0.636156
1.423847 -0.069459 -0.103411 -0.000000 0.771560 -0.636156
0.196979 0.221322 -0.265896 -0.052559 0.792727 0.607307
1.507861 0.117490 0.142498 0.332235 0.746191 -0.576904
0.430987 -0.424572 -0.510950 -0.052559 -0.792727 0.607307
0.123435 0.074424 0.080513 -0.052559 0.792727 -0.607307
1.295322 0.216958 -0.243969 0.000000 0.771560 0.636156
0.506634 -0.414597 0.509713 -0.033896 0.756255 0.653398
0.385402 -0.308826 0.381002 -0.033896 0.756255 0.653398
0.518390 -0.420575 -0.517241 0.023769 0.766257 -0.641747
0.425413 -0.089696 0.085741 0.081488 -0.768994 -0.634041
0.578022 -0.393798 -0.474184 0.081488 -0.768994 0.634041
0.348808 0.321346 -0.393594 -0.033896 -0.756255 -0.653398
0.346471 0.207895 0.235432 -0.052559 0.792727 -0.607307
0.827440 0.009446 -0.089710 0.000019 0.167409 -0.984840
-1.164571 -0.089722 0.009337 -0.001555 -0.983634 0.173112
0.331109 -0.220084 -0.252672 -0.052559 -0.792727 0.607307
-0.487895 -0.051689 0.073928 0.000044 -0.601033 0.798084
0.433966 -0.215460 0.275458 0.023769 0.766257 0.641747
0.309389 0.165151 -0.210766 -0.033896 -0.756255 -0.653398
0.404794 0.139497 0.143492 0.081488 0.768994 -0.634041
0.957843 0.044516 -0.078457 0.000417 0.546247 -0.836405
0.145290 0.160101 0.190457 -0.052559 0.792727 -0.607307
0.586959 -0.490099 -0.595886 0.052593 0.770492 -0.635276
-0.049890 0.089667 0.009846 -0.000755 0.989826 0.135682
0.480908 -0.315959 0.367296 0.081488 -0.768994 -0.634041
1.269697 -0.103413 0.106256 0.000000 -0.771560 -0.636156
1.197122 0.139888 -0.150494 0.000000 0.771560 0.636156
1.275298 0.097700 -0.137662 -0.000000 -0.771560 -0.636156
0.496698 0.352816 0.414027 0.081488 0.768994 -0.634041
0.551461 -0.089823 0.008304 0.000173 -0.987065 0.154435
1.392194 -0.265491 -0.302832 -0.123531 -0.868280 0.473731
1.284027 -0.201182 -0.263171 -0.062214 0.704278 -0.702647
1.420596 -0.089819 -0.008345 -0.000125 -0.992789 -0.111816
0.508149 0.454707 -0.543607 -0.052559 0.792727 0.607307
0.043214 -0.104803 0.127110 -0.033896 0.756255 0.653398
0.996917 -0.116121 -0.140837 -0.183950 0.550371 -0.814404
1.431409 0.095122 0.096200 0.000000 0.771560 -0.636156
1.408790 -0.185210 0.243800 0.000000 0.771560 0.636156
0.499272 -0.450516 -0.538905 -0.052559 -0.792727 0.607307
0.573811 -0.290964 -0.348920 0.081488 -0.768994 0.634041
0.289788 0.288208 0.345172 -0.052559 0.792727 -0.607307
0.513589 -0.080388 -0.040925 0.000360 -0.874660 -0.482675
0.340046 -0.278010 0.327511 -0.052559 -0.792727 -0.607307
0.545849 0.266666 0.328300 0.052593 -0.770492 0.635276
-0.395061 0.041102 0.080298 0.000520 0.399065 0.915891
0.564681 -0.196565 0.241719 0.052593 0.770492 0.635276
0.516705 0.308696 0.363087 0.081488 0.768994 -0.634041
0.183641 0.194759 0.232378 -0.052559 0.792727 -0.607307
0.501867 -0.066010 0.088576 0.052593 0.770492 0.635276
1.418491 -0.119482 -0.164082 0.000000 0.771560 -0.636156
0.370668 -0.133200 0.135837 -0.052559 -0.792727 -0.607307
0.655006 -0.009130 0.089743 -0.000335 -0.130869 0.990355
1.089894 -0.099495 -0.139840 -0.000000 0.771560 -0.636156
1.131266 0.105890 -0.109260 -0.000000 0.771560 0.636156
1.059375 0.106698 -0.148577 -0.123531 -0.630548 -0.762063
1.344772 -0.197192 0.219996 -0.000000 -0.771560 -0.636156
-0.234735 0.056569 0.070265 0.000872 0.647377 0.760941
0.435793 0.094857 -0.129034 0.052593 -0.770492 -0.635276
0.553258 -0.256126 0.304025 0.081488 -0.768994 -0.634041
0.437187 0.088969 0.086372 0.081488 0.768994 -0.634041
1.226874 -0.190944 -0.212418 0.000000 -0.771560 0.636156
0.364343 -0.070847 0.104467 -0.033896 0.756255 0.653398
0.381086 -0.069889 -0.103280 0.052593 0.770492 -0.635276
1.414681 0.084546 0.031451 -0.000177 0.938439 0.342437
0.241302 0.074856 0.050336 -0.000070 0.814466 0.578463
0.313419 -0.357698 0.433833 -0.033896 0.756255 0.653398
0.122023 -0.178564 0.216571 -0.033896 0.756255 0.653398
0.076989 -0.136415 -0.165450 -0.052559 -0.792727 0.607307
0.133282 0.189101 -0.229351 -0.052559 0.792727 0.607307
0.476668 -0.510489 0.619145 -0.033896 0.756255 0.653398
0.604734 -0.197443 -0.239469 0.052593 0.770492 -0.635276
0.604734 -0.165612 0.200862 0.052593 0.770492 0.635276
0.604734 0.382066 0.463387 0.052593 -0.770492 0.635276
0.604734 0.407531 0.494273 0.052593 -0.770492 0.635276
0.604734 0.108315 0.131370 0.052593 -0.770492 0.635276
0.604734 -0.108315 0.131370 0.052593 0.770492 0.635276
1.465002 0.070714 0.104933 -0.000000 -0.771560 0.636156
1.233826 -0.060425 0.092454 -0.000000 0.771560 0.636156
0.740268 0.000000 0.090206 0.000291 -0.032429 0.998416
0.820297 0.000000 0.090206 0.000666 -0.071375 0.996157
1.350490 0.090206 -0.000000 0.000257 0.997811 -0.052140
0.104060 -0.089625 0.010221 0.000404 -0.982986 0.177238
1.207180 0.134402 0.182177 -0.000000 -0.771560 0.636156
1.254675 0.173583 0.229698 0.000000 -0.771560 0.636156
-0.911284 0.059394 0.067893 -0.000003 0.622301 0.781472
-0.660759 -0.018148 -0.088362 -0.000046 -0.231400 -0.971815
1.203960 0.024968 0.086682 -0.000811 0.236317 0.970681
0.201570 -0.131871 -0.148737 -0.052559 -0.792727 0.607307
1.421185 0.083521 -0.034079 0.000174 0.902758 -0.427151
1.304861 -0.245635 0.297918 -0.183950 0.550371 0.814404
1.238279 0.217632 -0.263955 -0.183950 -0.550371 -0.814404
1.313184 -0.249136 -0.302164 -0.183950 0.550371 -0.814404
-1.175568 -0.071461 0.055049 -0.000227 -0.817946 0.573408
0.429666 0.157603 -0.205642 0.052593 -0.770492 -0.635276
-0.339967 -0.005018 0.090066 -0.000057 -0.110221 0.993325
-0.380138 0.000000 0.090206 0.000038 -0.083697 0.995069
0.940622 -0.011461 -0.089475 -0.001573 -0.182139 -0.982400
0.105295 0.123972 0.146759 -0.052559 0.792727 -0.607307
-0.236734 -0.011200 -0.089508 0.000098 -0.145347 -0.988300
0.198562 -0.023662 -0.087047 -0.001228 -0.222592 -0.973916
0.570207 0.000000 0.090206 0.001012 -0.019308 0.998917
0.035006 -0.008632 0.089792 0.000473 -0.061191 0.997085
1.159387 0.032562 -0.084124 -0.000012 0.416961 -0.907804
1.287086 -0.042864 -0.079371 0.000032 -0.516508 -0.855116
-0.583998 -0.059206 0.068057 -0.000125 -0.637120 0.769465
0.423200 0.031482 0.084534 0.000141 0.380687 0.923599
1.496396 0.199412 -0.241856 0.332235 -0.708559 -0.622546
1.493751 -0.218317 0.264785 0.332235 0.708559 0.622546
0.472780 -0.254311 0.319364 0.052593 0.770492 0.635276
0.566149 0.364811 0.437500 0.081488 0.768994 -0.634041
0.814930 -0.069185 0.057884 -0.000284 -0.786398 0.615978
0.604734 -0.248374 -0.301239 0.052593 0.770492 -0.635276
-0.154592 -0.056909 -0.069989 0.000027 -0.597408 -0.800666
1.223812 0.076765 -0.112272 -0.000000 -0.771560 -0.636156
1.376487 0.166827 -0.183168 -0.000000 0.771560 0.636156
1.371491 -0.198912 -0.260417 0.000000 0.771560 -0.636156
0.305479 0.178223 0.200248 -0.052559 0.792727 -0.607307
0.369670 -0.071651 0.054803 0.000047 -0.754119 0.655189
0.969328 -0.063616 0.077156 -0.000000 0.636156 -0.771560
0.435128 -0.049989 0.075088 0.000186 -0.501455 0.864018
-0.288410 -0.043699 -0.078915 -0.000046 -0.447158 -0.893364
-0.774210 -0.007652 -0.089881 0.001120 -0.142683 -0.988875
-0.275144 -0.071911 -0.054461 0.000051 -0.757271 -0.651393
1.028164 0.099521 0.136676 -0.183950 -0.550371 0.814404
-1.444027 -0.008194 0.089692 -0.037816 -0.029757 0.997776
-1.044555 0.066252 -0.061220 0.000019 0.705109 -0.707655
0.552513 -0.071225 0.055354 0.000472 -0.765585 0.641844
1.446304 -0.241042 0.273179 -0.000000 -0.771560 -0.636156
-0.529769 -0.033180 0.083882 0.000035 -0.335536 0.940907
-0.622467 0.087046 -0.023666 0.000191 0.945470 -0.322725
0.330100 0.088211 0.122788 -0.033896 -0.756255 0.653398
0.138028 -0.098655 -0.124913 -0.033896 0.756255 -0.653398
0.759986 0.033515 0.083749 -0.000378 0.402169 0.914516
0.396960 0.303434 0.375360 -0.033896 -0.756255 0.653398
1.113334 -0.054207 0.084913 -0.000000 0.636156 -0.771560
0.430033 0.350075 0.413790 -0.052559 0.792727 -0.607307
0.584487 0.455297 0.553881 0.052593 -0.770492 0.635276
0.557259 0.461729 -0.563937 0.052593 -0.770492 -0.635276
1.518443 0.061724 -0.019327 1.000000 0.000000 0.000000
0.604734 0.070118 -0.085042 0.052593 -0.770492 -0.635276
-1.237563 0.087365 0.022462 0.000447 0.969608 0.240594
-0.206484 -0.088131 -0.019235 0.000057 -0.966150 -0.254038
0.869044 -0.026787 -0.086137 0.000142 -0.330575 -0.942773
-0.689247 0.026169 0.086327 -0.000062 0.349537 0.935864
1.235834 -0.146499 -0.158513 -0.000000 -0.771560 0.636156
0.558673 -0.469822 -0.563903 0.081488 -0.768994 0.634041
1.115905 0.083707 0.120692 -0.000000 -0.771560 0.636156
0.604734 -0.273839 -0.332125 0.052593 0.770492 -0.635276
1.518443 -0.014315 -0.050532 1.000000 0.000000 -0.000000
-0.476750 -0.025400 -0.086556 0.000005 -0.254129 -0.966143
-1.539105 -0.025270 -0.063241 -0.407903 -0.265311 -0.871833
1.186029 -0.062517 0.065029 0.000127 -0.735303 0.676285
0.239207 0.029448 -0.085264 0.000004 0.340725 -0.939140
0.400765 0.060600 -0.066819 0.000180 0.704265 -0.708586
-1.367780 0.061071 0.066389 0.000292 0.681327 0.730602
0.215601 0.078243 -0.044890 -0.000302 0.833824 -0.550301
1.456093 -0.178383 0.235520 -0.000000 0.771560 0.636156
1.462066 0.049119 -0.081272 -0.149318 0.481752 -0.862477
0.313830 -0.308686 0.377127 -0.033896 0.756255 0.653398
0.264309 -0.100238 0.133295 -0.033896 0.756255 0.653398
-1.211712 0.058566 0.068609 0.000132 0.692121 0.720469
0.017650 -0.072960 -0.053047 0.000004 -0.783496 -0.619792
-1.557485 0.058470 0.008342 -0.480611 0.873968 0.040046
1.304903 0.120669 -0.127185 -0.000000 0.771560 0.636156
-0.713906 -0.056665 -0.070187 -0.000122 -0.578230 -0.814671
0.380138 0.000000 -0.090206 0.000975 -0.010538 -0.999330
0.186631 -0.030067 0.085048 -0.000090 -0.383901 0.922476
1.462046 -0.188214 -0.247442 0.112365 0.757779 -0.637759
0.578985 -0.151201 -0.185515 0.052593 0.770492 -0.635276
0.402956 -0.211831 -0.235682 -0.052559 -0.792727 0.607307
0.426738 -0.383571 -0.457798 -0.052559 -0.792727 0.607307
0.139467 -0.070347 0.073804 -0.052559 -0.792727 -0.607307
-1.038765 -0.035690 0.082846 -0.000049 -0.379291 0.924180
0.225827 0.172695 0.215163 -0.033896 -0.756255 0.653398
1.033882 0.073024 0.069399 0.000000 -0.636156 -0.771560
0.476668 0.510489 0.619145 -0.052559 0.792727 -0.607307
1.192469 -0.091414 -0.130039 0.000000 0.771560 -0.636156
0.460982 -0.058877 -0.083309 0.052593 0.770492 -0.635276
1.192502 -0.162689 -0.216484 -0.066647 0.698869 -0.706878
0.458888 0.323939 -0.402306 -0.033896 -0.756255 -0.653398
-0.040015 0.000000 -0.090206 -0.000682 -0.015260 -0.999000
0.261567 0.207647 0.242456 -0.052559 0.792727 -0.607307
0.310388 0.316482 0.380296 -0.052559 0.792727 -0.607307
1.397667 0.128187 -0.136304 0.000000 0.771560 0.636156
1.153060 0.073024 0.069399 0.000000 -0.636156 -0.771560
0.522678 -0.099431 -0.127388 0.052593 0.770492 -0.635276
0.015067 0.078460 -0.095160 -0.052559 0.792727 0.607307
1.138405 -0.175628 -0.213010 -0.183950 0.550371 -0.814404
1.184182 0.178006 -0.196726 -0.062214 0.824007 0.557434
1.300668 0.226997 0.256145 -0.123531 0.868280 -0.473731
1.222581 0.073024 -0.069399 -0.000000 0.771560 0.636156
0.060835 0.027260 0.085989 -0.000815 0.331598 0.942383
1.140640 -0.091972 -0.130716 0.000000 0.771560 -0.636156
0.593959 -0.226825 0.275996 0.052593 0.770492 0.635276
0.529743 0.394442 0.468760 0.081488 0.768994 -0.634041
0.349732 0.061937 -0.065582 0.000060 0.710123 -0.702904
1.470606 -0.033610 -0.090191 -0.149299 -0.315068 -0.936342
0.580128 -0.440667 -0.531299 0.081488 -0.768994 0.634041
1.287429 0.031789 0.084419 0.000100 0.410212 0.910896
0.186679 0.194520 -0.238392 -0.033896 -0.756255 -0.653398
0.976170 -0.071704 -0.106134 -0.062214 0.704278 -0.702647
1.280464 -0.090206 0.000000 -0.002151 -0.999066 -0.025739
1.260736 -0.141079 0.151939 -0.000000 -0.771560 -0.636156
0.170062 0.090206 -0.000000 -0.000058 0.997787 -0.047219
1.080392 -0.090206 0.000000 0.001462 -0.998895 -0.025277
1.472763 -0.130455 0.139054 0.231117 -0.761360 -0.601079
1.188359 -0.136370 -0.184564 0.000000 0.771560 -0.636156
1.412917 0.229713 -0.297775 0.000000 -0.771560 -0.636156
-1.020370 0.000000 -0.090206 -0.003693 -0.065269 -0.996679
0.256288 -0.194601 -0.242097 -0.033896 0.756255 -0.653398
1.181105 0.090368 -0.128770 0.000000 -0.771560 -0.636156
-1.098413 0.089230 -0.013233 -0.001093 0.980829 -0.189291
0.368210 -0.063840 -0.064278 -0.000000 0.636156 0.771560
1.293614 -0.006257 -0.089989 -0.000263 -0.111076 -0.993007
-1.464944 -0.088004 -0.008818 -0.117948 -0.991240 -0.033067
0.794132 0.089183 -0.013547 0.000686 0.983338 -0.175309
1.494633 -0.212015 -0.257142 0.332235 0.708559 -0.622546
1.277563 -0.127068 -0.173282 -0.000000 0.771560 -0.636156
0.456987 -0.397083 0.472817 -0.052559 -0.792727 -0.607307
1.500806 -0.167904 0.203641 0.332235 0.708559 0.622546
1.192716 0.092052 0.092477 0.000000 0.771560 -0.636156
1.347831 0.158112 0.172598 0.000000 0.771560 -0.636156
-0.230083 0.090206 -0.000000 0.000073 0.996186 -0.072334
0.464199 -0.123169 -0.131323 0.081488 -0.768994 0.634041
1.462046 0.188214 0.247442 0.112365 -0.757779 0.637759
0.535807 -0.345311 0.409950 0.081488 -0.768994 -0.634041
0.186549 0.139538 0.160045 -0.052559 0.792727 -0.607307
0.439907 0.433393 0.528006 -0.033896 -0.756255 0.653398
0.570292 -0.424643 0.517878 0.052593 0.770492 0.635276
0.514913 -0.300084 0.352412 0.081488 -0.768994 -0.634041
-1.306026 -0.088998 -0.014713 0.000453 -0.977723 -0.205368
1.342587 0.183038 -0.202829 -0.000000 0.771560 0.636156
0.012677 -0.056858 0.070034 -0.033896 0.756255 0.653398
-0.640525 -0.037109 0.082220 -0.000027 -0.447407 0.893190
0.566359 -0.518179 -0.623539 -0.000000 -0.636156 -0.771560
0.366012 -0.230318 -0.263010 -0.052559 -0.792727 0.607307
1.280691 -0.162570 0.216340 0.000000 0.771560 0.636156
1.293218 0.084980 -0.083900 0.000000 0.771560 0.636156
-1.370497 -0.000000 0.090206 0.000850 -0.057836 0.997602
0.933283 0.089908 -0.007333 -0.000042 0.989448 -0.139091
0.425427 0.134596 -0.140200 0.081488 0.768994 0.634041
0.421790 0.167518 0.218319 0.052593 -0.770492 0.635276
0.946980 0.095119 0.115365 -0.183950 0.904379 -0.385047
0.480047 -0.179202 0.201320 0.081488 -0.768994 -0.634041
0.271283 0.146986 0.187765 -0.033896 -0.756255 0.653398
1.408790 0.204027 0.228285 0.000000 0.771560 -0.636156
0.171234 -0.131397 0.164531 -0.033896 0.756255 0.653398
0.144088 0.159219 -0.189410 -0.052559 0.792727 0.607307
0.384227 0.144600 -0.190862 -0.033896 -0.756255 -0.653398
0.231051 0.079385 0.107435 -0.033896 -0.756255 0.653398
1.392194 0.265491 0.302832 -0.123531 0.868280 -0.473731
0.519272 -0.474599 -0.568610 -0.052559 -0.792727 0.607307
1.032161 0.086102 -0.085261 -0.000000 0.771560 0.636156
0.480174 0.090206 -0.000000 0.000015 0.997912 -0.050081
0.420217 0.273054 0.314103 -0.052559 0.792727 -0.607307
0.449241 0.464370 0.564343 -0.033896 -0.756255 0.653398
-0.376449 0.084919 0.030429 0.001215 0.930350 0.364473
0.424107 0.207277 0.265474 -0.033896 -0.756255 0.653398
0.425399 -0.172989 0.224656 0.052593 0.770492 0.635276
1.314858 -0.101387 -0.103799 -0.000000 -0.771560 0.636156
0.888721 -0.070616 0.085647 -0.183950 0.550371 0.814404
-0.065250 -0.089640 -0.010089 0.000509 -0.987128 -0.151344
-0.327665 0.089688 -0.009652 0.000449 0.988336 -0.144173
0.502299 0.038728 0.081470 -0.000044 0.461750 0.885963
0.464864 0.267170 -0.306059 0.081488 0.768994 0.634041
1.279514 0.153934 0.167530 0.000000 0.771560 -0.636156
0.991007 0.084797 -0.030766 0.000051 0.943940 -0.327006
1.225784 0.195503 0.217947 -0.119079 0.864987 -0.479743
0.308108 0.238089 -0.278165 -0.052559 0.792727 0.607307
1.512270 -0.085982 -0.104283 0.332235 0.708559 -0.622546
0.594794 -0.276981 0.334658 0.081488 -0.768994 -0.634041
0.043238 -0.051500 -0.074060 0.000167 -0.587839 -0.807753
1.404735 0.287640 -0.348863 -0.183950 -0.550371 -0.814404
1.379767 -0.277139 0.336127 -0.183950 0.550371 0.814404
0.317888 0.086545 0.025439 -0.000204 0.947041 0.318006
0.058123 0.102222 0.122451 -0.052559 0.792727 -0.607307
1.341202 -0.076885 0.112417 0.000000 0.771560 0.636156
1.349335 0.206526 0.231316 0.000000 0.771560 -0.636156
0.323738 0.226133 0.261206 -0.052559 0.792727 -0.607307
1.357583 -0.171102 0.188352 0.000000 -0.771560 -0.636156
0.319916 -0.118555 -0.121114 -0.052559 -0.792727 0.607307
-0.794234 -0.087609 0.021492 -0.000479 -0.962205 0.268572
0.439317 0.058115 -0.084179 0.052593 -0.770492 -0.635276
0.288840 -0.130434 0.139308 -0.052559 -0.792727 -0.607307
1.431618 -0.163381 -0.178988 -0.000000 -0.771560 0.636156
1.431618 0.144564 0.194502 0.000000 -0.771560 0.636156
0.207727 -0.072758 -0.053324 -0.000162 -0.765676 -0.641706
1.484369 -0.074992 0.063592 -0.147939 -0.715884 0.681151
1.244525 0.188462 -0.209407 0.000000 0.771560 0.636156
0.524689 -0.037286 0.082139 -0.001034 -0.404737 0.913728
0.216892 -0.181825 0.212617 -0.052559 -0.792727 -0.607307
0.336141 -0.294379 -0.349215 -0.052559 -0.792727 0.607307
0.339893 -0.139518 -0.182681 -0.033896 0.756255 -0.653398
1.142579 0.160509 0.175505 -0.123531 0.868280 -0.473731
1.133677 0.089731 -0.009247 -0.001700 0.991113 -0.126935
1.077854 0.027118 -0.086034 0.000005 0.344025 -0.937874
0.231235 0.227523 -0.278902 -0.033896 -0.756255 -0.653398
0.403788 0.111993 0.110004 0.081488 0.768994 -0.634041
0.600218 -0.090206 0.000000 0.000566 -0.996561 -0.068247
1.444927 -0.114705 0.119952 -0.000000 -0.771560 -0.636156
1.461164 0.088658 0.033643 -0.149262 0.943019 0.294377
0.472540 0.233978 0.294723 0.052593 -0.770492 0.635276
1.170910 0.105304 0.146886 -0.000000 -0.771560 0.636156
1.474549 -0.098876 -0.139090 0.123562 0.755502 -0.637173
0.305384 0.089067 -0.122498 -0.033896 -0.756255 -0.653398
0.245980 0.250832 0.300176 -0.052559 0.792727 -0.607307
1.086876 0.091723 -0.092078 0.000000 0.771560 0.636156
1.108442 -0.105063 -0.108258 -0.000000 -0.771560 0.636156
0.710062 0.083137 -0.035004 -0.000244 0.943325 -0.328850
1.060385 0.090206 -0.000000 -0.001361 0.998364 -0.031552
1.363299 0.106098 -0.147848 0.000000 -0.771560 -0.636156
1.405893 0.155291 -0.207512 0.000000 -0.771560 -0.636156
0.307334 -0.064465 0.094124 -0.033896 0.756255 0.653398
-0.823273 0.082706 -0.036013 -0.001138 0.893973 -0.445893
1.451330 -0.264789 0.340316 0.049161 0.694338 0.704751
0.663553 -0.077243 0.046591 -0.000066 -0.872046 0.487597
1.329261 -0.101602 0.142396 -0.000000 0.771560 0.636156
0.154144 -0.104739 0.117426 -0.052559 -0.792727 -0.607307
0.483340 -0.131117 0.169075 0.052593 0.770492 0.635276
0.323451 -0.192262 0.242874 -0.033896 0.756255 0.653398
0.583761 -0.011927 -0.089414 -0.001825 -0.164792 -0.984990
-0.670489 0.055334 -0.071241 -0.000719 0.579854 -0.813756
1.143087 0.145297 -0.157055 0.000000 0.771560 0.636156
0.367196 -0.115348 -0.156122 -0.033896 0.756255 -0.653398
0.431656 0.185445 -0.239245 0.052593 -0.770492 -0.635276
1.410466 0.204530 0.267232 -0.000000 -0.771560 0.636156
1.431618 -0.144564 0.194502 0.000000 0.771560 0.636156
0.307334 0.064465 -0.094124 -0.033896 -0.756255 -0.653398
0.239036 -0.050967 -0.074428 0.000299 -0.530599 -0.846489
1.488146 0.166704 0.209032 0.332235 -0.708559 0.622546
0.427359 -0.292029 -0.363737 -0.033896 0.756255 -0.653398
1.379964 -0.102916 -0.143989 0.000000 0.771560 -0.636156
0.583170 -0.459576 0.554624 0.081488 -0.768994 -0.634041
0.407955 0.245665 -0.309068 -0.033896 -0.756255 -0.653398
1.159115 -0.106143 0.109568 -0.000000 -0.771560 -0.636156
1.296125 0.174939 -0.231342 0.000000 -0.771560 -0.636156
1.125938 -0.153510 -0.167016 -0.123531 -0.868280 0.473731
1.335308 -0.071050 -0.105341 0.000000 0.771560 -0.636156
1.451330 0.283605 -0.324802 0.049161 0.824178 0.547275
1.509625 -0.104887 0.127212 0.332235 0.708559 0.622546
-0.167004 -0.089588 -0.010541 0.000011 -0.988238 -0.144419
1.489341 0.249825 -0.303000 0.332235 -0.708559 -0.622546
-0.996625 -0.077179 0.046696 0.000053 -0.845332 0.532299
1.465618 0.162689 -0.216484 0.112365 -0.757779 -0.637759
0.499144 0.429983 0.527132 -0.033896 -0.756255 0.653398
1.192469 -0.091414 0.130039 0.000000 0.771560 0.636156
-0.708097 -0.012992 0.089266 0.001221 -0.170203 0.984311
1.266010 0.116021 0.121548 0.000000 0.771560 -0.636156
1.309837 0.153032 -0.166436 0.000000 0.771560 0.636156
0.346668 0.363869 -0.442700 -0.033896 -0.756255 -0.653398
-0.485692 0.089752 0.009039 -0.000098 0.990256 0.131532
0.300109 0.000000 0.090206 -0.000030 -0.025667 0.998874
0.302160 -0.347161 -0.421053 -0.052559 -0.792727 0.607307
-0.540121 -0.073626 -0.052119 -0.000206 -0.776672 -0.628325
0.436524 -0.239122 -0.268400 -0.003375 -0.785255 0.618090
0.517778 -0.221377 0.257321 0.081488 -0.768994 -0.634041
1.070351 0.083396 -0.034383 -0.000026 0.898661 -0.436322
-1.604940 -0.025266 -0.005895 -0.672256 -0.723996 -0.128145
0.368901 -0.153968 0.200910 -0.033896 0.756255 0.653398
1.335286 0.090161 -0.090183 -0.000000 0.771560 0.636156
-0.346991 -0.056035 -0.070691 0.000393 -0.572755 -0.818547
0.474845 0.110623 0.144922 0.052593 -0.770492 0.635276
0.482379 0.075069 -0.075322 0.081488 0.768994 0.634041
-1.379633 -0.080258 -0.041181 -0.000980 -0.873509 -0.484750
0.404278 0.430958 0.521597 -0.052559 0.792727 -0.607307
-1.498768 0.080222 -0.017564 -0.267410 0.946831 -0.171530
-0.098217 -0.009553 -0.089699 0.001211 -0.133287 -0.989984
-1.315856 0.009339 0.089721 0.001214 0.125252 0.991143
0.551458 0.380043 -0.454087 0.081488 0.768994 0.634041
0.170062 -0.090206 0.000000 -0.001254 -0.997126 -0.056258
0.938657 -0.091619 0.111119 -0.183950 0.550371 0.814404
1.376487 -0.166827 -0.183168 -0.000000 -0.771560 0.636156
1.274792 0.159338 -0.174084 -0.000000 0.771560 0.636156
0.055782 -0.078952 0.043632 -0.000061 -0.885963 0.461943
0.424656 -0.011077 -0.089523 0.000336 -0.158322 -0.986224
-0.462269 -0.088373 0.018091 0.000026 -0.963797 0.262711
1.122458 -0.123586 0.130723 -0.000000 -0.771560 -0.636156
0.594607 0.334772 0.404725 0.081488 0.768994 -0.634041
1.300668 -0.208181 0.271659 -0.062214 0.704278 0.702647
-0.793212 -0.043344 -0.079110 -0.000555 -0.516960 -0.854850
0.274856 -0.235081 -0.277117 -0.052559 -0.792727 0.607307
0.110040 0.000000 0.090206 -0.001296 -0.028898 0.998685
-0.580171 -0.017226 -0.088546 -0.000020 -0.159045 -0.986237
-1.539469 0.062760 -0.026024 -0.409684 0.867784 -0.275174
1.077254 -0.060877 -0.093002 -0.000000 0.771560 -0.636156
0.227080 -0.119302 0.130124 -0.052559 -0.792727 -0.607307
0.519077 0.322382 0.398092 0.052593 -0.770492 0.635276
1.011025 -0.020903 0.087751 -0.000276 -0.290474 0.955712
0.419529 0.295876 -0.343953 -0.052559 0.792727 0.607307
0.386645 -0.009623 0.089691 -0.000510 -0.167290 0.984817
1.251806 0.092266 0.092736 0.000000 0.771560 -0.636156
-0.490409 0.063041 -0.064521 0.000011 0.721016 -0.691446
1.119190 -0.025318 -0.086580 -0.000012 -0.323248 -0.945240
-1.159626 0.086091 0.026936 0.000502 0.969979 0.239023
0.138720 0.083616 -0.033846 0.000396 0.940951 -0.335547
-0.965897 -0.065790 0.061716 0.000075 -0.685208 0.726953
0.390141 -0.090206 0.000000 -0.000809 -0.995322 -0.082756
-0.444750 0.058709 0.068487 0.000006 0.673845 0.737495
-1.309785 0.059555 -0.067752 0.000020 0.631162 -0.774340
1.469191 0.137164 0.185526 0.112365 -0.757779 0.637759
-0.154483 0.055654 -0.070992 0.000773 0.649920 -0.758497
-0.545905 0.085483 -0.028808 -0.000023 0.936121 -0.348775
0.645494 0.086317 -0.026200 0.000003 0.935481 -0.350489
0.290902 0.336624 -0.408273 -0.052559 0.792727 0.607307
0.175487 0.068713 0.058444 0.000285 0.718603 0.694023
1.113437 -0.165127 0.200273 -0.183950 0.550371 0.814404
-0.973771 0.028526 0.085577 -0.000011 0.373396 0.926575
0.495366 -0.364634 0.451300 0.023769 0.766257 0.641747
-0.505211 0.079756 0.042144 -0.000014 0.851694 0.522094
1.263730 -0.065956 0.061538 0.000182 -0.755746 0.653396
-1.346094 -0.085652 0.028299 -0.000243 -0.933594 0.355544
-0.901783 0.025668 0.086477 0.000362 0.238705 0.970050
0.364602 0.150534 0.196713 -0.033896 -0.756255 0.653398
0.245666 -0.042618 0.079504 0.000028 -0.490502 0.870278
0.297585 0.118147 0.155750 -0.033896 -0.756255 0.653398
-0.213221 -0.067994 -0.059279 -0.000034 -0.725531 -0.686707
0.799382 -0.056913 -0.069986 0.000009 -0.612500 -0.789175
0.083539 0.067011 0.085461 -0.033896 -0.756255 0.653398
0.448518 0.128965 0.169348 0.052593 -0.770492 0.635276
0.575234 0.089795 -0.008600 -0.000229 0.996969 -0.061564
-0.234845 0.063678 -0.063892 0.000098 0.731128 -0.680756
0.500061 0.494905 -0.602321 -0.033896 -0.756255 -0.653398
0.465521 0.236811 -0.269323 0.081488 0.768994 0.634041
-0.865439 -0.089809 0.008459 -0.000259 -0.997086 0.063572
0.145491 -0.049936 -0.075124 0.000026 -0.521484 -0.852062
1.518443 -0.062077 -0.000000 1.000000 -0.000000 0.000000
0.101478 -0.102748 0.127755 -0.033896 0.756255 0.653398
-0.429973 0.018756 -0.088235 0.000147 0.238068 -0.970227
1.494848 0.025411 -0.096619 -0.149275 0.196479 -0.968260
0.200720 -0.099712 0.106833 -0.052559 -0.792727 -0.607307
0.430565 -0.414963 0.498444 -0.052559 -0.792727 -0.607307
1.262263 0.018578 -0.088272 -0.000156 0.264787 -0.963254
-0.928645 -0.084806 0.030743 0.000303 -0.916251 0.398004
-0.108788 -0.056701 -0.070158 0.000064 -0.644353 -0.763405
-0.358823 -0.065411 0.062117 -0.000060 -0.700971 0.711765
0.566359 0.518179 -0.623539 0.000000 0.636156 -0.771560
0.689501 -0.087773 0.020811 0.000416 -0.964271 0.261074
0.685218 -0.041586 0.080049 0.000018 -0.431554 0.900963
-0.246233 -0.089619 0.010276 0.001107 -0.987816 0.148952
-0.847261 -0.031482 -0.084534 0.000141 -0.380687 -0.923599
1.438040 -0.080865 -0.042472 -0.149089 -0.892178 -0.424051
1.170732 -0.064736 -0.097683 0.000000 0.771560 -0.636156
0.324497 -0.132909 0.139454 -0.052559 -0.792727 -0.607307
0.848634 0.040509 -0.080599 0.000025 0.505132 -0.861901
0.198562 -0.097420 -0.104028 -0.052559 -0.792727 0.607307
0.929675 -0.086330 0.026159 0.000319 -0.946611 0.319138
1.417647 0.108670 0.150968 -0.000000 -0.771560 0.636156
-0.985980 0.086627 -0.025159 -0.000323 0.953365 -0.298323
0.455843 -0.454490 0.553251 -0.033896 0.756255 0.653398
-0.584693 -0.078420 -0.044580 0.000011 -0.884119 -0.465079
-0.902151 -0.044065 0.078711 0.000056 -0.526938 0.848753
0.102372 -0.152131 -0.184957 -0.033896 0.756255 -0.653398
-0.257196 0.080096 -0.041494 -0.000074 0.875116 -0.481800
0.482235 -0.299795 -0.347861 0.081488 -0.768994 0.634041
0.766091 -0.066935 -0.060472 -0.000050 -0.697725 -0.714948
-0.113327 0.064875 -0.062677 0.000079 0.761252 -0.646946
-0.910884 0.085026 -0.030128 -0.000338 0.926776 -0.372956
-0.306634 0.082093 -0.037388 0.000266 0.880537 -0.471815
0.734739 -0.078485 0.044466 -0.000007 -0.853169 0.519677
1.489588 0.069670 0.070492 -0.148414 0.652773 0.741743
0.559352 -0.065046 -0.062499 0.000330 -0.702195 -0.710596
1.439942 0.033946 0.085107 -0.149101 0.390394 0.907467
1.469597 0.000000 0.096098 -0.149294 0.029761 0.987446
0.506738 -0.278087 0.324682 0.081488 -0.768994 -0.634041
0.489878 -0.408747 -0.485196 -0.052559 -0.792727 0.607307
0.847552 -0.088346 -0.018224 0.000273 -0.972645 -0.227997
0.573235 -0.325431 -0.397306 0.052593 0.770492 -0.635276
-1.545557 -0.000000 0.065135 -0.448713 -0.041991 0.890562
-0.013480 0.088346 0.018226 0.001249 0.965510 0.256049
1.464156 -0.127154 0.173387 -0.000000 0.771560 0.636156
-0.031357 0.062487 -0.065058 -0.000145 0.673932 -0.737452
1.010345 0.060999 0.093150 0.000000 -0.771560 0.636156
-0.751785 -0.014720 0.088997 -0.002316 -0.177718 0.982674
-0.827383 0.046935 0.077034 -0.000031 0.532613 0.845167
-0.874132 -0.052032 -0.073688 0.000088 -0.626505 -0.778116
1.003333 -0.080584 0.040538 0.000142 -0.861848 0.505150
0.934834 -0.020725 0.087793 0.001905 -0.197337 0.979180
0.110134 0.086639 0.025117 -0.000475 0.970730 0.236118
0.523127 0.234910 -0.274421 0.081488 0.768994 0.634041
-0.938660 -0.009633 0.089690 0.000965 -0.166913 0.984891
-0.847722 0.010268 -0.089620 0.000760 0.184672 -0.981358
0.480047 -0.179202 -0.201320 0.081488 -0.768994 0.634041
-0.165838 -0.080313 0.041073 -0.000130 -0.904496 0.424114
-0.970385 -0.078939 -0.043655 -0.000042 -0.842297 -0.537167
1.217464 -0.192003 0.213703 -0.119079 -0.864987 -0.479743
1.169615 -0.182806 0.224910 -0.183950 0.550371 0.814404
0.912391 0.071692 0.054748 -0.000317 0.808066 0.587579
0.472900 0.299058 -0.345768 0.081488 0.768994 0.634041
0.328745 0.066295 0.061172 -0.000158 0.719463 0.693062
1.409610 -0.177591 -0.234558 0.000000 0.771560 -0.636156
1.257613 -0.160645 -0.214006 0.000000 0.771560 -0.636156
1.317339 0.059752 -0.091638 0.000000 -0.771560 -0.636156
-0.980356 -0.090206 0.000000 -0.000209 -0.999353 -0.017934
0.440183 -0.467893 -0.567951 -0.033896 0.756255 -0.653398
-0.418074 -0.086973 0.023933 -0.000019 -0.953327 0.298741
0.956853 0.007522 0.089892 -0.000975 0.107090 0.993482
0.079920 0.086837 -0.024424 -0.000007 0.942706 -0.330597
1.083258 0.065369 0.062161 0.000048 0.694704 0.717878
-0.803197 0.037223 -0.082168 0.000083 0.373910 -0.926456
0.998177 -0.066931 0.100345 0.000000 0.771560 0.636156
0.484783 0.202346 -0.229998 0.081488 0.768994 0.634041
-0.767073 0.017218 0.088548 -0.000006 0.227384 0.972761
0.655549 -0.085063 -0.030025 0.001736 -0.916143 -0.397895
1.480843 0.112354 0.120296 0.332235 0.746191 -0.576904
0.458765 0.330100 0.409430 -0.033896 -0.756255 0.653398
0.691121 -0.068749 -0.058402 -0.000093 -0.746550 -0.663858
-0.415044 0.086568 0.025361 -0.000366 0.974407 0.219965
1.381009 -0.089867 0.128163 0.000000 0.771560 0.636156
-1.388321 -0.044539 0.078444 -0.000037 -0.481916 0.875085
1.235834 0.127682 -0.174027 -0.000000 -0.771560 -0.636156
0.433664 0.170486 0.184788 0.081488 0.768994 -0.634041
0.240626 0.089492 0.011326 -0.001370 0.987475 0.150954
-1.228378 0.071280 -0.055284 -0.000678 0.803055 -0.594255
0.336047 0.124669 0.165295 -0.033896 -0.756255 0.653398
1.029612 0.073296 -0.052581 0.000024 0.820213 -0.570270
1.160928 -0.123225 -0.130285 0.000000 -0.771560 0.636156
1.394006 -0.249407 0.283324 0.000000 -0.771560 -0.636156
-1.567108 0.009107 -0.052794 -0.532689 0.105078 -0.836619
-0.691951 -0.082374 -0.036765 0.000013 -0.925277 -0.376668
0.251497 0.299743 -0.363543 -0.052559 0.792727 0.607307
1.437927 0.126613 -0.134394 -0.000000 0.771560 0.636156
1.472763 0.130455 -0.139054 0.120372 0.769816 0.620829
1.308989 0.211680 -0.275904 -0.123531 -0.630548 -0.762063
-0.603828 0.069574 0.057416 0.000432 0.727950 0.684209
1.410505 -0.120662 0.165512 0.000000 0.771560 0.636156
0.319048 0.362967 0.440223 -0.052559 0.792727 -0.607307
0.339553 0.084593 -0.031323 -0.000416 0.927663 -0.370781
0.040531 -0.093593 -0.113997 -0.033896 0.756255 -0.653398
-0.319438 0.063386 -0.064182 0.000077 0.724911 -0.687432
0.363681 0.287880 -0.338348 -0.052559 0.792727 0.607307
0.424686 -0.044403 -0.078521 0.000206 -0.519042 -0.853625
-0.963498 -0.042464 -0.079586 -0.000413 -0.415270 -0.908537
0.130392 -0.073899 -0.051730 0.000674 -0.801395 -0.596406
-0.293123 0.032029 -0.084328 0.000238 0.414257 -0.909038
0.081859 -0.056913 -0.069986 -0.000132 -0.662630 -0.747600
0.406573 0.084360 -0.031946 -0.000013 0.917696 -0.394798
0.249426 -0.191156 0.237754 -0.033896 0.756255 0.653398
0.267460 -0.142041 0.181843 -0.033896 0.756255 0.653398
0.452812 -0.219034 0.246129 0.081488 -0.768994 -0.634041
-0.030801 -0.005629 0.090030 -0.003712 -0.108680 0.993588
1.146735 0.167881 -0.190836 -0.183950 0.904379 0.385047
-1.156006 0.009477 0.089707 -0.000341 0.180406 0.982033
1.442014 0.142377 -0.191850 0.000000 -0.771560 -0.636156
-0.323831 -0.086730 -0.024800 -0.000629 -0.939867 -0.337993
-0.213883 -0.013475 0.089194 0.000019 -0.209101 0.977037
0.151465 -0.127890 -0.147877 -0.052559 -0.792727 0.607307
0.285273 0.331355 0.401883 -0.052559 0.792727 -0.607307
1.420515 -0.000000 -0.090206 -0.002055 -0.030872 -0.998554
0.545087 0.065316 -0.084156 0.052593 -0.770492 -0.635276
1.314858 0.101387 0.103799 -0.000000 0.771560 -0.636156
-1.378726 0.052821 -0.073124 -0.001021 0.596247 -0.801907
0.247585 0.070302 -0.056523 0.001032 0.804136 -0.592602
0.627840 -0.037861 -0.081876 0.000241 -0.388405 -0.920464
0.379930 0.086261 0.075729 0.081488 0.768994 -0.634041
1.308989 -0.230497 -0.260389 -0.123531 -0.868280 0.473731
1.350396 -0.193866 0.254297 -0.000000 0.771560 0.636156
-0.366732 0.046521 -0.077285 -0.000137 0.566325 -0.823019
0.409519 -0.132088 0.135113 0.081488 -0.768994 -0.634041
1.446965 0.216219 0.281408 -0.000000 -0.771560 0.636156
0.258754 -0.114054 -0.148999 -0.033896 0.756255 -0.653398
-0.073073 0.050023 0.075065 -0.000118 0.534571 0.844022
1.365895 0.150243 0.201389 0.000000 -0.771560 0.636156
0.131501 -0.084650 0.031168 0.000048 -0.929443 0.366189
1.180537 -0.166596 0.182888 0.000000 -0.771560 -0.636156
0.215020 0.142706 -0.179893 -0.033896 -0.756255 -0.653398
0.680428 0.049113 0.075664 -0.000012 0.489375 0.870905
1.354102 -0.173819 -0.229984 0.000000 0.771560 -0.636156
-0.055559 -0.087149 0.023284 0.000934 -0.972645 0.228087
0.301693 -0.256772 -0.316411 -0.033896 0.756255 -0.653398
-1.430519 -0.039158 0.081264 -0.003108 -0.490759 0.870102
0.392156 -0.099208 -0.137923 0.052593 0.770492 -0.635276
-1.323561 0.055233 0.071320 -0.000182 0.619146 0.784060
0.524101 0.188944 -0.235836 0.052593 -0.770492 -0.635276
0.288743 0.069165 0.098599 -0.033896 -0.756255 0.653398
-1.302065 0.074186 0.051318 -0.000323 0.828912 0.557849
-0.073463 0.082344 0.036833 0.000598 0.885772 0.461990
1.473266 0.293656 -0.361465 0.332235 -0.708559 -0.622546
0.938703 -0.067844 -0.095063 -0.183950 0.550371 -0.814404
0.070025 0.000000 -0.090206 0.000272 -0.028548 -0.998495
0.422927 -0.113081 -0.113784 0.081488 -0.768994 0.634041
0.473930 0.165751 -0.184220 0.081488 0.768994 0.634041
0.586579 -0.064649 0.062910 -0.001030 -0.665799 0.744379
1.454902 -0.239264 -0.309358 0.112365 0.757779 -0.637759
1.181336 -0.082308 0.036913 0.000110 -0.927015 0.372312
0.390154 0.088531 0.017301 -0.000097 0.974573 0.219413
1.415747 -0.086148 0.026753 -0.000043 -0.948041 0.314951
1.376947 -0.077689 -0.113393 -0.000000 0.771560 -0.636156
0.297289 -0.217329 0.270531 -0.033896 0.756255 0.653398
-0.863393 0.006367 0.089981 0.001803 0.116648 0.992433
0.413083 -0.126931 -0.169814 0.052593 0.770492 -0.635276
1.067695 0.129014 0.137307 -0.127964 0.871403 -0.467614
-0.918559 -0.082172 -0.037213 0.000045 -0.882105 -0.468893
1.489807 0.093603 -0.101204 0.332235 0.746191 0.576904
0.991453 0.037159 -0.082197 -0.000005 0.355014 -0.933772
-0.850957 0.084797 0.030766 -0.000051 0.943940 0.327006
1.518443 0.017504 0.012333 1.000000 -0.000000 0.000000
-0.555405 0.056084 -0.070652 -0.000007 0.595877 -0.801806
0.279198 0.079280 -0.043033 -0.000073 0.893883 -0.446043
-0.205127 0.008181 -0.089834 -0.000413 0.122806 -0.991486
0.314473 -0.030922 0.084741 0.000025 -0.362048 0.931066
1.038372 -0.042815 0.079398 -0.000045 -0.505505 0.861641
-0.421152 0.049552 -0.075377 0.000035 0.578902 -0.814189
0.016448 0.008137 -0.089838 -0.000235 0.133187 -0.990128
-0.045413 0.036184 -0.082631 0.000112 0.377670 -0.924932
0.091489 0.142925 0.172693 -0.052559 0.792727 -0.607307
0.872075 -0.063616 -0.077156 -0.183950 0.550371 -0.814404
1.403420 0.025406 0.086555 0.000090 0.220056 0.974447
0.738635 -0.026841 -0.086120 -0.000475 -0.256027 -0.965644
0.545142 -0.272895 -0.335913 0.052593 0.770492 -0.635276
-0.686558 -0.038711 0.081478 0.000290 -0.454179 0.889823
-0.114836 0.083625 0.033824 -0.000513 0.914664 0.401679
0.916947 0.057144 -0.069798 0.000796 0.601090 -0.797948
-0.181632 0.020275 0.087898 -0.000968 0.286065 0.957062
1.357977 0.130854 0.139538 0.000000 0.771560 -0.636156
0.376425 -0.275598 -0.321214 -0.052559 -0.792727 0.607307
-0.814014 -0.082227 -0.037093 0.000216 -0.901225 -0.430965
0.798758 -0.017388 -0.088514 -0.000566 -0.156099 -0.986735
0.567554 -0.359251 0.430939 0.081488 -0.768994 -0.634041
-0.927726 0.089758 0.008981 0.000601 0.986101 0.159796
0.769381 -0.087950 0.020050 0.000041 -0.958077 0.282709
-0.264269 -0.028331 0.085642 -0.000369 -0.346855 0.936834
0.620238 0.049688 0.075288 -0.000023 0.576133 0.816108
1.336992 0.121738 0.166818 0.000000 -0.771560 0.636156
-1.390733 0.081846 0.037926 -0.000214 0.884602 0.464314
-0.764847 -0.045015 0.078172 0.000390 -0.528801 0.847716
1.494848 -0.025411 0.096619 -0.149275 -0.196479 0.968260
0.526252 0.199924 0.232391 0.081488 0.768994 -0.634041
0.336227 -0.089818 -0.008355 0.000131 -0.991152 -0.124945
1.272382 0.180474 0.199720 -0.000000 0.771560 -0.636156
1.306080 -0.130390 0.177311 0.000000 0.771560 0.636156
-0.329302 -0.037043 0.082250 -0.000097 -0.439759 0.896990
-0.409179 -0.021636 0.087573 0.000024 -0.298809 0.953100
-1.021765 -0.037929 -0.081845 0.000444 -0.440870 -0.896608
-0.874491 0.055941 -0.070765 0.000092 0.569654 -0.820650
