0.670935 -0.111685 -0.009996 0.000912 -0.992634 -0.114599
1.123953 -0.160780 0.130173 -0.046630 -0.722088 -0.690228
-1.286997 0.091412 0.064940 -0.000033 0.797516 0.602210
0.009888 0.109541 0.023960 0.000528 0.984701 0.171906
-1.377409 0.098666 -0.053277 -0.000390 0.865008 -0.500515
-0.101993 0.179688 -0.126257 -0.065926 0.657851 0.750257
-0.870857 0.091875 0.064284 0.000230 0.801609 0.596771
-0.981521 -0.111772 0.008965 -0.000218 -0.992219 0.119079
0.136736 -0.514323 -0.401232 0.105755 -0.625723 0.772843
-0.094940 -0.475022 -0.384596 -0.041061 0.609567 -0.791671
1.674764 -0.201812 0.163395 0.133947 -0.609331 -0.781520
1.608479 0.245595 -0.186171 0.073952 0.649924 0.754413
1.677439 0.217113 0.175783 0.133947 0.609331 -0.781520
0.132679 -0.354935 -0.297154 0.065977 0.627881 -0.775508
1.389542 0.175395 -0.127521 -0.046630 0.722088 0.690228
0.244840 -0.112131 -0.000000 -0.000065 -0.998966 -0.026061
-0.034678 -0.336692 -0.281211 -0.041061 0.609567 -0.791671
1.305791 0.073661 -0.084542 0.000151 0.621841 -0.782282
0.107332 -0.171858 -0.119935 0.105755 -0.625723 0.772843
-0.486987 -0.105404 0.038254 0.000047 -0.924125 0.380382
-0.544767 0.034464 -0.106703 -0.000240 0.355597 -0.933992
1.339705 -0.222405 -0.180067 -0.046630 0.524865 -0.849908
-0.099470 -0.298018 0.229791 -0.065926 -0.657851 -0.750257
-0.289271 0.220898 -0.178848 -0.041061 -0.609567 -0.791671
1.570298 -0.282672 -0.229937 -0.046630 0.524865 -0.849908
-0.724526 0.112131 -0.000000 0.000027 0.999074 -0.024829
0.899790 -0.107987 -0.030202 0.000028 -0.949743 -0.311009
0.019271 0.167438 0.153687 -0.041061 -0.609567 0.791671
0.247697 0.172686 0.139813 0.105755 0.625723 -0.772843
1.531608 0.146512 -0.136726 0.000000 -0.629252 -0.777201
0.974362 0.000000 -0.112131 0.000233 0.059135 -0.997452
-0.340411 -0.154023 -0.124703 -0.041061 0.609567 -0.791671
0.207790 -0.651307 0.530718 0.065977 0.627881 0.775508
0.247697 0.662582 -0.536452 0.065977 -0.627881 -0.775508
0.114409 -0.552856 0.434448 -0.065926 -0.657851 -0.750257
0.381231 -0.104125 -0.041609 0.000008 -0.923001 -0.383088
1.566419 0.009096 0.111761 0.001539 0.089325 0.995516
-1.498981 -0.079643 -0.078933 0.000137 -0.676898 -0.735215
0.134146 0.222382 0.189710 0.065977 -0.627881 0.775508
0.142151 0.349963 0.268900 0.105755 0.625723 -0.772843
0.204882 -0.459520 0.366186 0.105755 -0.625723 -0.772843
1.318932 -0.130689 0.087707 -0.000000 -0.629252 -0.777201
0.607444 0.090038 0.066832 -0.000544 0.803062 0.594696
-0.169889 0.008634 -0.111798 0.000000 0.025680 -0.999009
0.126066 0.105808 -0.037123 -0.000049 0.925585 -0.376815
-0.021128 -0.385937 0.299998 -0.065926 -0.657851 -0.750257
1.139737 0.135045 -0.115147 -0.046630 -0.524865 -0.849908
-0.742554 -0.090314 0.066459 -0.000217 -0.800754 0.597878
0.479667 -0.008638 -0.111798 0.001045 -0.053068 -0.997807
-1.685706 0.009241 0.085046 -0.426375 0.133583 0.893143
1.439349 -0.166525 0.116721 -0.000000 -0.629252 -0.777201
-0.061518 0.326801 -0.251694 -0.065926 0.657851 0.750257
0.944382 -0.000000 0.112131 -0.001903 -0.060656 0.997344
-1.118363 0.050161 -0.100286 0.000102 0.406896 -0.912889
-1.683590 0.038371 -0.077619 -0.452498 0.348125 -0.819531
-1.104805 -0.099094 0.052476 0.000622 -0.863976 0.502164
0.120125 -0.369147 0.281419 0.105755 -0.625723 -0.772843
-1.230834 -0.031711 -0.107554 -0.000296 -0.326230 -0.944641
-0.791375 -0.026722 -0.108900 -0.000217 -0.281776 -0.958817
-0.291221 0.092983 0.062670 0.000139 0.809056 0.586584
0.043578 0.577355 -0.470575 -0.041061 -0.609567 -0.791671
-1.159248 0.109141 0.025722 -0.000357 0.978500 0.203144
0.738473 0.060788 0.094224 -0.000167 0.547961 0.835739
0.241123 -0.043590 -0.103312 -0.000095 -0.411621 -0.910639
0.962166 0.111887 0.007400 0.000042 0.994437 0.099725
0.394296 0.102465 -0.045545 -0.000375 0.895259 -0.444225
0.537793 -0.078967 0.079609 -0.000570 -0.725477 0.687358
0.177170 0.479246 -0.394016 0.065977 -0.627881 -0.775508
1.324133 -0.000000 0.112131 0.001494 -0.023205 0.998874
1.087736 -0.046676 0.101954 0.000054 -0.421958 0.905886
-0.077519 0.337847 0.262785 -0.065926 0.657851 -0.750257
1.550074 -0.120650 0.115786 -0.000000 0.629252 0.777201
-0.227977 -0.121830 0.086596 -0.065926 -0.657851 -0.750257
0.145392 0.364984 -0.281506 0.105755 0.625723 0.772843
-0.858732 -0.073196 0.084945 0.000079 -0.681071 0.731527
0.084944 -0.000000 0.112131 0.000825 -0.022379 0.998940
0.140157 0.222833 -0.189563 0.065977 -0.627881 -0.775508
0.111515 -0.618682 -0.505919 -0.041061 0.609567 -0.791671
0.121327 -0.139378 0.123597 0.065977 0.627881 0.775508
1.234550 -0.184515 0.150899 -0.046630 0.524865 0.849908
1.540970 -0.005395 -0.112001 -0.001123 -0.087068 -0.995743
1.429247 -0.120493 -0.115659 0.000000 0.629252 -0.777201
1.439048 0.074929 0.083421 0.000201 0.666186 0.744921
-0.029608 0.230736 -0.199890 -0.041061 -0.609567 -0.791671
-0.070885 0.224484 0.192936 -0.041061 -0.609567 0.791671
0.153528 -0.273149 0.229164 0.065977 0.627881 0.775508
-1.549411 0.064447 0.091760 0.000044 0.536868 0.842905
-0.505048 0.066018 0.090637 -0.000182 0.601183 0.798274
-0.641144 0.069429 0.088051 -0.000356 0.639095 0.768358
0.377312 0.042143 0.103910 -0.000046 0.378635 0.924834
1.236052 -0.089436 -0.090515 -0.000000 0.629252 -0.777201
-1.029527 0.071354 0.086499 -0.000048 0.656931 0.753088
-1.413364 -0.019277 0.110462 -0.000981 -0.172635 0.984328
0.155737 0.670289 0.547949 -0.041061 -0.609567 0.791671
0.175306 -0.235658 -0.180892 0.105755 -0.625723 0.772843
0.247697 0.530388 0.429423 0.105755 0.625723 -0.772843
1.078204 -0.038524 -0.105306 -0.000055 -0.384331 -0.922550
-0.093879 0.110805 -0.017194 -0.000467 0.991366 -0.126339
-1.669366 -0.087087 0.032530 -0.385980 -0.881141 0.269985
-0.210243 0.157100 -0.133823 -0.041061 -0.609567 -0.791671
0.194785 -0.681013 -0.544134 0.105755 -0.625723 0.772843
1.232849 0.059691 0.094923 0.000021 0.531460 0.846309
0.283486 0.083802 -0.074502 -0.000163 0.741189 -0.670356
-0.210265 0.183101 0.153843 -0.041061 -0.609567 0.791671
-0.457579 0.088761 -0.068519 -0.000831 0.822481 -0.567676
-1.507636 0.111905 -0.007115 -0.000261 0.998063 -0.050189
-0.565425 -0.071162 -0.086656 -0.000007 -0.634141 -0.772361
1.681451 -0.240064 -0.194365 0.133947 -0.609331 0.781520
-1.565813 -0.111789 0.008755 -0.001490 -0.991697 0.122902
0.058492 0.568738 0.464714 -0.041061 -0.609567 0.791671
1.592979 -0.294747 0.238638 -0.046630 -0.722088 -0.690228
0.718488 0.039808 -0.104827 0.000014 0.397577 -0.916854
-0.041129 0.432360 -0.354539 -0.041061 -0.609567 -0.791671
1.431909 -0.110582 0.018572 -0.000121 -0.977212 0.209001
0.141513 0.437023 0.339301 0.105755 0.625723 -0.772843
1.632205 0.081193 -0.017182 0.518156 0.845780 -0.120194
1.034323 -0.112131 -0.000000 -0.000476 -0.999334 -0.019792
1.072351 0.111096 -0.015201 -0.000376 0.995387 -0.090306
1.349124 -0.022198 -0.109912 -0.000622 -0.193443 -0.980619
-0.964319 0.076912 -0.081596 0.000019 0.671938 -0.739703
0.006440 -0.511565 -0.417992 -0.041061 0.609567 -0.791671
0.152591 -0.093170 -0.062391 0.000481 -0.854556 -0.518190
-1.321218 -0.110484 0.019146 -0.000282 -0.984671 0.170695
0.014972 -0.034047 -0.106837 0.000110 -0.279685 -0.959378
-0.122846 0.051398 0.099658 0.000361 0.472198 0.880659
-1.317986 0.027676 -0.108662 -0.000051 0.295038 -0.954714
1.562747 -0.147557 -0.137571 0.047947 0.633204 -0.771729
1.114009 -0.148653 -0.122139 -0.046630 0.524865 -0.849908
-0.742286 -0.099555 -0.051597 0.000495 -0.866326 -0.498264
-0.101331 -0.071322 -0.086525 -0.000268 -0.653927 -0.755713
-0.019847 -0.227863 -0.161280 -0.065926 -0.657851 0.750257
1.452271 0.254557 0.206099 -0.046630 -0.524865 0.849908
1.243160 -0.110396 0.019652 -0.000025 -0.974249 0.222589
0.456059 0.105542 0.037872 0.000570 0.923692 0.381460
0.108186 -0.630692 0.503244 -0.065926 -0.657851 -0.750257
0.247697 -0.514836 -0.416831 0.105755 -0.625723 0.772843
-1.197523 -0.068222 0.088990 0.000003 -0.643811 0.764320
1.442890 -0.251877 0.203930 -0.046630 -0.722088 -0.690228
-0.011518 -0.095556 0.058673 -0.000046 -0.828173 0.559314
1.420356 0.111607 -0.010829 0.000395 0.988068 -0.148022
0.083214 -0.211998 0.185635 0.065977 0.627881 0.775508
0.872231 -0.026203 -0.109026 -0.000151 -0.233549 -0.971748
0.247697 -0.126029 0.102038 0.105755 -0.625723 -0.772843
1.586032 0.185170 0.135211 0.133947 0.609331 -0.781520
1.095811 0.152742 0.123666 -0.046630 -0.524865 0.849908
1.393525 0.161235 0.112439 -0.031122 0.692180 -0.720345
0.274281 0.037441 0.105696 -0.000084 0.337305 0.940706
-0.113158 -0.179656 -0.127210 -0.065926 -0.657851 0.750257
-0.194675 -0.300695 -0.245196 -0.041061 0.609567 -0.791671
0.438755 -0.100138 0.050456 0.001107 -0.890857 0.452877
-0.304774 -0.056306 0.096969 0.001549 -0.479984 0.876474
1.294323 0.144646 0.129557 -0.046630 -0.524865 0.849908
0.025754 0.356160 -0.299335 -0.041061 -0.609567 -0.791671
-1.593301 0.008015 -0.111203 -0.096656 0.109238 -0.988615
-0.060663 0.447351 0.365068 -0.041061 -0.609567 0.791671
-1.414075 0.000000 -0.112131 -0.000372 0.026891 -0.998944
-0.214841 -0.110801 -0.017220 0.000000 -0.994063 -0.102559
0.157792 0.596808 0.470897 0.105755 0.625723 -0.772843
-0.056197 -0.231175 0.167378 -0.065926 -0.657851 -0.750257
0.777623 -0.110941 -0.016296 0.000227 -0.983835 -0.175439
-0.126572 -0.055918 0.097193 -0.000008 -0.502880 0.863640
0.043548 0.487668 0.401516 -0.041061 -0.609567 0.791671
-0.268815 0.247648 0.200505 -0.065926 0.657851 -0.750257
0.083881 0.503331 -0.415668 -0.041061 -0.609567 -0.791671
0.618121 0.088357 -0.069039 0.000206 0.783249 -0.620731
-0.404753 0.017222 -0.110801 -0.000157 0.128580 -0.991020
1.649350 0.009144 0.047710 1.000000 -0.000000 0.000000
0.048115 0.071450 -0.086419 0.000776 0.602726 -0.797250
0.799439 0.111930 -0.006705 -0.000552 0.995184 -0.092515
-0.949401 0.111792 0.008720 -0.000158 0.997971 0.052000
-0.669270 -0.028913 0.108339 0.000057 -0.303942 0.952023
0.206705 0.108657 0.027696 0.001069 0.952006 0.303142
-0.195506 0.110139 0.073491 -0.065926 0.657851 -0.750257
1.076823 0.057246 -0.096417 -0.000225 0.508022 -0.860585
0.104506 0.735834 0.595759 -0.065926 0.657851 -0.750257
-1.051917 -0.031916 0.107493 0.000204 -0.285415 0.957698
-0.197219 0.341273 -0.276307 -0.041061 -0.609567 -0.791671
0.155506 0.686296 -0.547841 -0.065926 0.657851 0.750257
1.615335 -0.091659 -0.016778 0.517659 -0.844181 -0.133984
0.127731 -0.429584 -0.358014 0.065977 0.627881 -0.775508
0.834454 -0.000000 0.112131 -0.001035 -0.028741 0.999033
-1.583963 0.091872 -0.064288 -0.054765 0.785887 -0.614274
1.323848 -0.139828 -0.128202 -0.046630 0.524865 -0.849908
1.138701 0.034486 0.106696 0.000068 0.306029 0.951344
0.247697 -0.281552 0.227955 0.105755 -0.625723 -0.772843
0.022590 -0.522786 0.427469 -0.041061 0.609567 0.791671
-1.228005 0.025600 0.109170 -0.000232 0.203793 0.978350
0.716582 -0.088438 0.068935 0.000930 -0.812275 0.582296
0.247697 0.530388 -0.429423 0.065977 -0.627881 -0.775508
-0.298530 0.108122 -0.029717 -0.000974 0.969002 -0.244824
0.191892 0.065814 -0.090785 0.000019 0.546904 -0.836408
-1.034323 0.000000 -0.112131 -0.000731 0.023989 -0.998892
-0.657841 -0.058179 -0.095857 0.000442 -0.480346 -0.876368
0.000236 -0.106034 -0.036471 0.000431 -0.937219 -0.346738
-0.583879 -0.099726 0.051266 -0.000287 -0.887437 0.459558
-1.718740 -0.043120 -0.049896 -0.573028 -0.479275 -0.662307
1.545364 0.106428 0.104272 0.000000 -0.629252 0.777201
-0.390506 -0.099394 0.051905 0.000065 -0.904378 0.425197
-1.719051 0.064635 0.011939 -0.554151 0.814559 0.163056
1.226359 0.120706 -0.081332 -0.046630 0.722088 0.690228
-0.628521 0.094588 -0.060220 0.000208 0.828023 -0.559661
1.558053 0.082564 -0.075872 -0.000038 0.765767 -0.642117
-0.197219 0.341273 0.276307 -0.065926 0.657851 -0.750257
-0.236004 -0.212194 0.166535 -0.065926 -0.657851 -0.750257
-0.844442 0.017234 0.110799 0.000023 0.179536 0.983102
-0.068333 -0.410333 -0.325537 -0.065926 -0.657851 0.750257
-0.076534 -0.154688 0.102099 -0.065926 -0.657851 -0.750257
0.604221 -0.089509 -0.067538 0.000171 -0.765553 -0.642374
-0.359854 -0.076028 -0.082420 -0.000255 -0.677008 -0.735152
-0.031927 0.139885 -0.085199 -0.065926 0.657851 0.750257
-0.140284 0.103075 -0.095854 -0.041061 -0.609567 -0.791671
-0.188139 -0.203887 -0.170995 -0.041061 0.609567 -0.791671
0.247697 0.693687 0.561636 0.105755 0.625723 -0.772843
0.907134 -0.085149 0.065700 -0.046630 -0.722088 -0.690228
1.330324 0.219725 -0.177898 -0.046630 0.722088 0.690228
-0.022475 -0.453431 0.359297 -0.065926 -0.657851 -0.750257
0.168223 -0.102371 0.045755 0.000029 -0.911272 0.410199
0.973864 0.117910 0.095465 -0.046630 -0.524865 0.849908
0.149411 -0.757126 -0.610483 0.000000 -0.777201 -0.629252
-0.762018 0.076281 -0.082186 0.000035 0.703559 -0.709747
-0.243712 0.060118 -0.094653 -0.000168 0.546450 -0.836819
-0.371364 0.059866 0.094813 -0.000163 0.574854 0.817496
0.045094 -0.374182 -0.283872 -0.065926 -0.657851 0.750257
-0.044686 0.093684 0.093581 -0.041061 -0.609567 0.791671
0.052740 0.359236 0.270094 -0.065926 0.657851 -0.750257
-1.349995 0.043408 0.103388 0.000050 0.332268 0.942255
0.684776 -0.064084 -0.092014 -0.000059 -0.586586 -0.809084
-0.484734 -0.045865 0.102322 0.001136 -0.377178 0.925520
-1.499966 -0.008531 0.111806 0.001696 -0.113640 0.992777
1.455623 -0.036680 -0.105962 0.000182 -0.363025 -0.931132
-0.930586 -0.094936 -0.059670 0.000012 -0.845464 -0.532799
0.426189 -0.030560 0.107886 0.000220 -0.316992 0.947638
-1.423265 -0.103174 -0.043916 -0.000159 -0.903727 -0.426690
0.577537 0.021159 0.110117 0.000013 0.232739 0.971827
1.456767 0.133667 -0.090118 0.000000 0.629252 0.777201
-0.814467 0.112131 -0.000000 0.000082 0.999019 -0.025556
1.145583 -0.103624 0.068918 -0.046630 -0.722088 -0.690228
1.264173 0.000000 -0.112131 -0.000665 0.018137 -0.999341
0.624752 -0.094298 0.060673 -0.001034 -0.840398 0.540573
0.150833 -0.302218 -0.231433 0.105755 -0.625723 0.772843
-0.165698 -0.337025 0.269814 -0.065926 -0.657851 -0.750257
0.221004 -0.364654 -0.297509 0.065977 0.627881 -0.775508
-0.273297 -0.084089 -0.074337 -0.000000 0.777201 0.629252
-0.167226 -0.254523 0.197607 -0.065926 -0.657851 -0.750257
0.104506 0.735834 -0.595759 -0.041061 -0.609567 -0.791671
1.264173 0.112131 -0.000000 -0.000619 0.998787 -0.029311
1.601498 -0.224542 -0.168560 0.133947 -0.609331 0.781520
0.239763 0.347469 0.281999 0.065977 -0.627881 0.775508
0.079589 -0.565199 -0.448330 -0.065926 -0.657851 0.750257
1.573187 -0.067298 0.054487 -0.180222 0.764475 -0.618949
0.117332 0.132622 -0.118466 0.065977 -0.627881 -0.775508
0.056108 0.223661 -0.197384 0.065977 -0.627881 -0.775508
1.303397 0.154894 -0.111893 -0.046630 0.722088 0.690228
0.952746 0.074179 -0.067299 -0.000000 -0.777201 0.629252
0.150191 0.290177 -0.243234 0.065977 -0.627881 -0.775508
0.159265 -0.757536 0.609977 -0.065926 -0.657851 -0.750257
0.072702 -0.092430 -0.089723 0.065977 0.627881 -0.775508
0.176157 -0.586926 0.481284 0.065977 0.627881 0.775508
0.300193 -0.094460 -0.060421 -0.000578 -0.826146 -0.562368
1.173523 0.124589 0.088964 -0.046630 0.722088 -0.690228
-0.945527 0.065627 0.090920 -0.000011 0.605620 0.794942
-0.117451 -0.332917 -0.261972 -0.065926 -0.657851 0.750257
-1.302995 0.110707 -0.017817 -0.000186 0.981787 -0.186035
0.247697 0.211567 -0.171292 0.065977 -0.627881 -0.775508
0.190132 0.052311 0.099181 0.000257 0.505788 0.861963
-0.265505 -0.181812 -0.149985 -0.041061 0.609567 -0.791671
-1.165914 -0.077247 -0.081279 -0.000111 -0.686121 -0.726708
0.049080 0.101031 0.098696 0.065977 -0.627881 0.775508
-1.363842 0.105497 0.037996 -0.001359 0.939598 0.340963
0.800437 0.025352 -0.109228 -0.000193 0.198620 -0.979441
1.462055 0.187325 -0.165116 -0.046630 -0.524865 -0.849908
0.115932 0.623713 -0.510022 -0.041061 -0.609567 -0.791671
-0.429700 -0.110191 -0.020766 -0.000008 -0.971624 -0.233277
0.158117 0.416234 -0.344620 0.065977 -0.627881 -0.775508
0.225162 0.345766 -0.276862 0.105755 0.625723 0.772843
1.373980 -0.072851 0.068940 -0.000000 0.777201 -0.629252
0.214279 0.474038 0.379227 0.105755 0.625723 -0.772843
0.411117 -0.051630 -0.099538 -0.000018 -0.471262 -0.881246
-0.868416 -0.057430 -0.096307 0.000269 -0.511833 -0.858314
0.751124 -0.017533 0.110752 0.000825 -0.208014 0.977353
0.947641 -0.071874 -0.086067 0.000173 -0.671995 -0.739751
0.324168 -0.110965 0.016128 -0.000253 -0.991551 0.124875
0.008726 0.490117 -0.388723 -0.065926 0.657851 0.750257
0.545254 0.038217 -0.105417 0.001110 0.295867 -0.954666
1.630885 -0.146324 0.124504 0.133947 0.637622 0.758615
0.456305 0.065682 -0.090880 0.000018 0.590783 -0.806067
0.057537 0.245304 0.172586 0.105755 0.625723 -0.772843
-0.299805 0.025708 0.109144 0.000309 0.177958 0.983396
0.108357 0.280602 0.239041 0.065977 -0.627881 0.775508
-1.269937 -0.092084 -0.063984 -0.000306 -0.845609 -0.532558
1.646059 0.279291 0.218883 0.073952 0.649924 -0.754413
0.043138 -0.655584 -0.530786 -0.041061 0.609567 -0.791671
-0.248359 0.274398 -0.222163 -0.041061 -0.609567 -0.791671
-0.110282 -0.454960 0.368353 -0.065926 -0.657851 -0.750257
0.247697 0.592597 -0.479790 0.065977 -0.627881 -0.775508
1.621120 0.302785 -0.245146 -0.046630 0.722088 0.690228
1.546076 0.281350 -0.227792 -0.046630 0.722088 0.690228
-0.936553 -0.085971 0.071989 0.000050 -0.736312 0.675720
1.158550 0.077178 -0.063595 0.000000 -0.777201 0.629252
0.137091 -0.483367 0.400763 0.065977 0.627881 0.775508
-0.291640 0.160873 -0.126424 -0.065926 0.657851 0.750257
1.674764 0.201812 -0.163395 0.133947 0.609331 0.781520
1.685464 -0.263016 0.212948 0.133947 -0.609331 -0.781520
1.685464 0.263016 -0.212948 0.133947 0.609331 0.781520
-0.037357 -0.267515 -0.227807 -0.041061 0.609567 -0.791671
-0.489698 0.111798 0.008637 -0.000384 0.998018 0.050707
-0.511383 -0.104880 -0.039669 -0.000407 -0.935917 -0.350340
-1.371053 -0.083775 0.074532 0.000079 -0.746301 0.664629
1.155416 -0.064158 -0.091963 -0.000910 -0.567326 -0.822728
-0.040102 0.382547 0.316237 -0.041061 -0.609567 0.791671
0.091984 0.182614 0.126544 0.105755 0.625723 -0.772843
0.061437 -0.091134 0.089632 0.065977 0.627881 0.775508
0.535072 0.105691 0.037453 0.000071 0.941132 0.336169
1.216530 -0.129816 0.091526 -0.046630 -0.722088 -0.690228
0.878285 0.111689 -0.009942 0.001279 0.992655 -0.114386
-0.790282 0.087029 0.070706 0.000288 0.739219 0.672297
1.498794 -0.096344 0.057369 0.000018 -0.861280 0.507062
1.602796 0.183833 -0.137042 0.133947 0.609331 0.781520
1.590669 -0.065038 -0.086322 0.514990 -0.518103 -0.682208
1.535393 0.219842 -0.164167 -0.046630 0.722088 0.690228
-1.002302 -0.070810 -0.086944 -0.000701 -0.607699 -0.793518
1.009007 -0.043233 0.103462 0.000144 -0.393912 0.918436
0.683840 0.099241 0.052198 -0.000124 0.904130 0.425678
0.136799 -0.429187 0.332311 0.105755 -0.625723 -0.772843
0.041338 -0.179336 -0.162753 0.065977 0.627881 -0.775508
1.065753 -0.122876 0.094452 -0.046630 -0.722088 -0.690228
1.382625 0.100893 -0.099791 0.000000 -0.629252 -0.777201
0.091163 0.107171 0.032982 0.000196 0.954675 0.295518
-0.094116 -0.356662 0.293504 -0.041061 0.609567 0.791671
-0.030151 -0.312048 0.262471 -0.041061 0.609567 0.791671
1.398615 -0.187836 -0.139923 -0.046630 -0.722088 0.690228
0.274603 -0.052743 0.098952 -0.000127 -0.508550 0.860293
1.588419 0.070441 0.046170 0.133947 0.609331 -0.781520
-1.507045 -0.082945 0.075455 -0.000149 -0.767968 0.639525
-0.148617 -0.129392 0.086252 -0.065926 -0.657851 -0.750257
-0.783122 -0.037272 0.105755 0.000028 -0.369733 0.928455
0.170773 0.177060 0.132828 0.105755 0.625723 -0.772843
-1.059259 -0.111801 -0.008591 0.000731 -0.998014 -0.051687
-0.660604 -0.096236 0.057550 0.000098 -0.831744 0.554001
1.490729 0.024092 0.109512 0.000033 0.257523 0.965616
0.214163 0.228636 0.180524 0.105755 0.625723 -0.772843
0.546838 -0.043982 -0.103145 0.000350 -0.365827 -0.930152
-1.118516 0.102718 -0.044971 0.000241 0.894217 -0.446212
-0.874445 0.017222 -0.110801 -0.000260 0.124536 -0.991620
1.343315 0.108647 -0.027736 -0.000155 0.955983 -0.291178
0.047971 -0.349450 0.295321 -0.041061 0.609567 0.791671
1.414749 -0.243839 -0.197422 -0.046630 0.524865 -0.849908
-0.107966 0.237771 -0.177711 -0.065926 0.657851 0.750257
1.524303 0.235266 0.181051 -0.046630 0.722088 -0.690228
-0.148188 0.223815 0.169008 -0.065926 0.657851 -0.750257
-1.624688 0.063470 0.085906 -0.182106 0.586823 0.787269
-0.644580 0.110797 0.017244 -0.000011 0.991085 0.128173
-0.327600 0.060081 -0.094676 0.000036 0.560559 -0.827318
0.048252 -0.662271 0.536200 -0.065926 -0.657851 -0.750257
-1.039394 0.073024 -0.085093 -0.000001 0.638029 -0.769176
1.489793 -0.265274 -0.214776 -0.046630 0.524865 -0.849908
0.176910 -0.142816 -0.121652 0.065977 0.627881 -0.775508
0.157411 -0.557522 -0.459072 0.065977 0.627881 -0.775508
-0.061986 0.375767 -0.309882 -0.041061 -0.609567 -0.791671
-1.086159 0.103418 0.043336 -0.000300 0.927621 0.371684
-0.374329 0.108311 -0.029020 -0.001253 0.949635 -0.311045
0.381867 0.101629 0.047381 -0.000449 0.906770 0.420230
1.110229 0.097868 0.054728 -0.000072 0.893382 0.447831
-0.260154 0.146876 0.111384 -0.065926 0.657851 -0.750257
-0.549044 0.093856 -0.061355 0.000128 0.849925 -0.525661
0.762970 0.089209 -0.067934 -0.000204 0.761131 -0.647570
0.022596 -0.318322 -0.236868 -0.065926 -0.657851 0.750257
-1.190396 0.031769 -0.107536 0.000147 0.330807 -0.943054
-0.336711 -0.125342 0.099230 -0.065926 -0.657851 -0.750257
-1.451748 0.096290 -0.057459 0.000258 0.862010 -0.505672
-1.133412 -0.111084 -0.015285 0.000156 -0.995216 -0.092080
0.129187 -0.060764 0.094240 -0.000081 -0.541039 0.840218
0.181625 -0.328558 0.271634 0.065977 0.627881 0.775508
1.404225 0.233961 -0.190744 -0.046630 -0.524865 -0.849908
-0.614598 0.000000 -0.112131 -0.000265 0.025474 -0.998950
1.370463 -0.161348 0.144049 -0.046630 0.524865 0.849908
-0.175012 -0.064317 -0.091852 -0.000429 -0.591182 -0.805857
0.829694 -0.091153 -0.065303 -0.000460 -0.839223 -0.542511
0.247697 0.110477 0.089446 0.105755 0.625723 -0.772843
1.494192 -0.155152 -0.107513 -0.000000 -0.629252 0.777201
-0.110282 0.454960 -0.368353 -0.041061 -0.609567 -0.791671
1.282956 -0.066040 0.090621 0.000003 -0.620862 0.783082
-1.259674 -0.096171 0.057659 0.000131 -0.878845 0.475760
-1.733979 -0.045448 0.029952 -0.624064 -0.601077 0.494818
0.584617 -0.112131 -0.000000 0.000305 -0.998928 -0.026898
-1.234199 0.110798 0.017236 0.000218 0.983267 0.178611
1.450288 -0.086574 -0.051990 0.000000 -0.629252 0.777201
1.608479 -0.233200 0.201480 0.073952 0.602662 0.792678
0.017096 -0.245843 0.173799 -0.065926 -0.657851 -0.750257
-0.210337 0.224325 -0.174916 -0.065926 0.657851 0.750257
0.964019 -0.110204 0.020701 0.000050 -0.981237 0.189385
0.074449 -0.476581 -0.394582 -0.041061 0.609567 -0.791671
-0.013116 0.582022 0.471227 -0.065926 0.657851 -0.750257
-0.711157 0.089111 0.068063 0.000113 0.782136 0.622066
-1.125120 -0.021960 -0.109960 -0.000091 -0.240300 -0.970076
-0.020245 0.173108 -0.156004 -0.041061 -0.609567 -0.791671
0.247697 -0.234895 -0.190180 0.105755 -0.625723 0.772843
0.247697 0.468179 -0.379056 0.065977 -0.627881 -0.775508
-1.489699 -0.111561 -0.011290 0.001811 -0.992883 -0.113133
-1.018683 -0.089549 0.067486 -0.001112 -0.802895 0.594639
1.084905 -0.096287 -0.057465 0.000139 -0.879087 -0.475342
-0.908635 -0.111878 0.007525 -0.000467 -0.994572 0.098195
1.418362 0.200720 0.170992 -0.046630 -0.524865 0.849908
1.479914 0.134799 0.091035 0.000000 0.629252 -0.777201
0.187406 -0.466015 -0.382433 0.065977 0.627881 -0.775508
-0.350801 0.128668 0.104642 -0.041061 -0.609567 0.791671
-0.047418 0.289619 0.217853 -0.065926 0.657851 -0.750257
0.624591 0.112131 -0.000000 0.000637 0.998049 -0.050249
1.656038 -0.094705 -0.076677 0.133947 -0.609331 0.781520
0.274437 0.021420 -0.110066 0.001921 0.196030 -0.979717
0.099705 -0.228148 -0.164466 0.105755 -0.625723 0.772843
-0.132686 0.313597 -0.258345 -0.041061 -0.609567 -0.791671
-0.474689 0.000000 -0.112131 0.000026 0.026605 -0.998944
-0.044942 0.190965 0.131132 -0.065926 0.657851 -0.750257
1.398390 0.015416 0.111066 0.000055 0.181744 0.982668
0.207053 -0.707202 0.576036 0.065977 0.627881 0.775508
1.602216 0.226698 0.197121 0.073952 -0.602662 0.792678
-1.521135 -0.016214 -0.110953 0.000408 -0.188215 -0.981559
1.274041 0.203649 0.164882 -0.046630 -0.524865 0.849908
1.279423 -0.191531 -0.151841 -0.046630 -0.722088 0.690228
0.247697 0.724791 -0.586819 0.065977 -0.627881 -0.775508
0.106527 0.625580 0.510972 -0.041061 -0.609567 0.791671
-0.127901 0.102807 0.044767 -0.000399 0.907476 0.418372
0.663059 0.043149 0.103496 -0.000053 0.342022 0.938765
0.182611 -0.535792 0.424891 0.105755 -0.625723 -0.772843
-1.202978 0.082835 0.075576 -0.000008 0.702700 0.710556
-0.809673 -0.105596 0.037721 -0.000143 -0.927547 0.371938
-0.094938 0.000000 -0.112131 -0.000013 0.025702 -0.999008
-0.005311 0.282814 -0.241250 -0.041061 -0.609567 -0.791671
-1.433245 0.111716 0.009640 0.000932 0.990585 0.131852
-0.449705 0.025723 0.109141 0.000082 0.204178 0.978257
1.640651 -0.287060 -0.227377 -0.046630 -0.722088 0.690228
0.178087 0.292258 0.227098 0.105755 0.625723 -0.772843
0.102160 0.378731 0.319016 0.065977 -0.627881 0.775508
0.184491 0.391082 0.307986 0.105755 0.625723 -0.772843
1.507298 -0.180317 0.127888 -0.000000 -0.629252 -0.777201
0.142730 -0.201403 0.148700 0.105755 -0.625723 -0.772843
0.247697 -0.608149 0.492381 0.105755 -0.625723 -0.772843
0.247697 -0.413746 0.334985 0.105755 -0.625723 -0.772843
-0.028458 -0.561959 0.454984 -0.065926 -0.657851 -0.750257
1.508554 -0.270633 0.219115 -0.046630 -0.722088 -0.690228
1.178854 -0.135180 -0.099684 -0.046630 -0.722088 0.690228
0.912139 0.031545 -0.107602 0.000314 0.252894 -0.966784
-0.571989 0.045824 0.102340 -0.000005 0.425698 0.904223
0.092475 -0.307333 0.262034 0.065977 0.627881 0.775508
0.247697 -0.499284 0.404239 0.105755 -0.625723 -0.772843
-1.120058 -0.050539 0.100096 0.000125 -0.488287 0.872017
0.184428 0.635838 -0.506141 0.105755 0.625723 0.772843
-0.884267 0.110994 -0.015927 -0.000547 0.994794 -0.097463
1.668076 0.163559 0.132424 0.133947 0.609331 -0.781520
0.924657 0.063633 0.092327 0.000002 0.601022 0.798501
1.489075 0.079264 -0.061018 0.000000 -0.777201 0.629252
0.035647 -0.156451 -0.097652 0.105755 -0.625723 0.772843
-0.229864 -0.025705 -0.109145 0.000000 -0.178844 -0.983206
-0.722995 -0.037521 -0.105667 0.000187 -0.377275 -0.925417
-0.030946 -0.453158 -0.371081 -0.041061 0.609567 -0.791671
-0.711030 -0.111769 0.008998 0.000903 -0.990829 0.130075
0.450245 -0.094802 -0.059884 0.000245 -0.851592 -0.523040
0.220599 0.104875 -0.039680 0.000010 0.932172 -0.360208
1.389572 -0.073418 -0.084753 0.000094 -0.688304 -0.724621
0.185047 -0.382164 0.314745 0.065977 0.627881 0.775508
1.024197 0.105161 0.038917 -0.000087 0.952114 0.303614
0.024241 0.031499 0.107616 0.000038 0.324125 0.945325
-0.141092 -0.104150 -0.041547 -0.000139 -0.919574 -0.391608
-1.566713 -0.064442 -0.091764 0.000029 -0.537053 -0.842800
1.302397 -0.071260 -0.086576 0.000017 -0.631225 -0.774764
1.302418 0.062019 0.093419 -0.000051 0.590271 0.806387
-0.130738 -0.428210 -0.346695 -0.041061 0.609567 -0.791671
-0.023344 0.568647 -0.460398 -0.041061 -0.609567 -0.791671
-0.002887 0.227581 0.198847 -0.041061 -0.609567 0.791671
0.328445 0.108850 -0.026928 0.000053 0.969848 -0.240791
-0.575513 -0.110785 -0.017323 -0.000896 -0.982967 -0.178655
1.312651 -0.110389 0.019686 0.000060 -0.983141 0.179226
0.228933 -0.108013 -0.084884 0.105755 -0.625723 0.772843
1.515477 -0.039159 0.105071 -0.000019 -0.345425 0.937773
-1.642645 -0.047921 0.090391 -0.281948 -0.502384 0.815934
-1.649879 0.088640 -0.046511 -0.307229 0.870775 -0.380490
1.244560 0.126013 0.085654 -0.046630 0.722088 -0.690228
1.582597 -0.191590 0.139628 0.133947 -0.609331 -0.781520
0.058391 0.109008 -0.026281 0.000046 0.969642 -0.241739
-0.011868 0.330381 0.277535 -0.041061 -0.609567 0.791671
-0.696157 0.093973 -0.061175 -0.000115 0.853269 -0.520282
0.022682 0.628834 -0.509128 -0.041061 -0.609567 -0.791671
0.329791 -0.008650 0.111797 0.000603 -0.051489 0.998017
0.750406 0.103791 0.042436 -0.000338 0.908000 0.417741
0.090843 -0.333772 -0.248771 0.105755 -0.625723 0.772843
0.089517 0.376944 -0.318646 -0.005370 -0.616295 -0.787072
0.187745 -0.149157 0.125864 0.065977 0.627881 0.775508
0.067139 -0.178725 0.119995 0.105755 -0.625723 -0.772843
1.022507 0.083327 -0.055999 -0.000000 -0.777201 0.629252
1.022507 -0.072113 -0.069851 -0.046630 0.524865 -0.849908
-0.238556 0.060204 0.094599 -0.000557 0.544838 0.837872
0.143475 0.536648 -0.420229 0.105755 0.625723 0.772843
1.596338 0.033088 -0.099288 0.517848 0.256052 -0.815498
0.144799 -0.674118 0.538105 -0.065926 -0.657851 -0.750257
0.348998 0.069150 -0.088270 -0.001046 0.651706 -0.757454
-0.059142 -0.521834 -0.422497 -0.041061 0.609567 -0.791671
1.624201 0.096781 -0.084043 0.133947 -0.637622 -0.758615
0.856525 -0.108821 0.027044 -0.000069 -0.957545 0.286038
-0.004644 0.152377 0.093756 -0.065926 0.657851 -0.750257
0.107858 0.466224 0.388340 -0.041061 -0.609567 0.791671
0.247697 -0.647030 -0.523861 0.105755 -0.625723 0.772843
1.307092 -0.178254 0.136082 -0.046630 -0.722088 -0.690228
-0.810361 -0.081926 -0.076560 -0.000468 -0.759282 -0.649977
0.113854 0.066994 -0.089918 -0.000431 0.630460 -0.775313
-0.057127 -0.116642 -0.067034 -0.065926 -0.657851 0.750257
-1.558588 0.106795 0.034179 0.000002 0.952923 0.301090
1.254179 -0.000000 0.112131 -0.002209 -0.035852 0.998292
0.310842 -0.042432 -0.103793 -0.000109 -0.351223 -0.935603
0.032595 -0.401270 0.334423 -0.041061 0.609567 0.791671
0.990012 0.047350 0.101643 0.000142 0.420906 0.906463
1.418362 -0.200720 0.170992 -0.046630 0.524865 0.849908
0.058492 -0.568738 0.464714 -0.041061 0.609567 0.791671
1.229463 0.053849 -0.098355 -0.000130 0.483072 -0.874800
1.422224 -0.102977 0.101478 0.000000 0.629252 0.777201
1.187502 0.171830 -0.140484 -0.046630 -0.524865 -0.849908
1.037199 0.130644 0.104507 -0.046630 0.722088 -0.690228
0.492844 -0.039142 0.105078 0.001211 -0.322106 0.946106
-1.295628 -0.038787 -0.105209 0.000141 -0.388615 -0.920702
-0.239877 0.109144 0.025708 0.000000 0.978284 0.204059
-0.204109 -0.061633 0.093674 0.000028 -0.584851 0.810373
-0.233017 0.294460 0.238406 -0.065926 0.657851 -0.750257
1.534771 -0.224280 -0.191928 -0.046630 0.524865 -0.849908
-0.078098 -0.410277 0.326345 -0.065926 -0.657851 -0.750257
0.731171 -0.095444 -0.058854 -0.000040 -0.861013 -0.507286
-0.078728 -0.207726 -0.179626 -0.041061 0.609567 -0.791671
0.219979 0.579357 0.465277 0.105755 0.625723 -0.772843
-0.139270 -0.119113 -0.108256 -0.041061 0.609567 -0.791671
0.170835 -0.403603 -0.316255 0.105755 -0.625723 0.772843
0.094366 0.323138 -0.274670 0.065977 -0.627881 -0.775508
0.436079 0.066740 0.090107 -0.000015 0.632071 0.774087
0.504018 -0.108708 0.027495 -0.000447 -0.968543 0.246354
-0.136403 0.310078 0.255443 -0.041061 -0.609567 0.791671
-1.174659 -0.104464 0.040752 -0.001022 -0.936228 0.349628
-1.319025 0.083024 -0.075368 0.000800 0.706966 -0.706366
1.093950 -0.109521 0.024052 -0.000665 -0.978336 0.203928
0.102492 0.180641 -0.158607 0.065977 -0.627881 -0.775508
-1.498350 0.096815 0.056570 -0.000174 0.840941 0.539925
1.649350 -0.047387 0.017119 1.000000 -0.000000 0.000000
0.015784 0.407388 -0.338263 -0.041061 -0.609567 -0.791671
0.173794 -0.040891 -0.104409 0.000007 -0.411377 -0.910751
-1.670431 -0.026356 -0.088689 -0.381599 -0.318568 -0.866663
0.173805 -0.633752 -0.502999 0.105755 -0.625723 0.772843
1.075345 0.129472 -0.108172 -0.046630 -0.524865 -0.849908
0.123107 -0.672633 -0.538708 -0.065926 -0.657851 0.750257
-1.626808 -0.105713 -0.011613 -0.228632 -0.958098 -0.166309
-0.068412 -0.086308 0.086672 -0.041061 0.609567 0.791671
1.249221 -0.149175 -0.109570 -0.046630 -0.722088 0.690228
-1.184232 0.107125 -0.033129 -0.000341 0.961884 -0.271098
0.587902 -0.041669 0.104101 -0.000432 -0.392030 0.919261
1.379064 0.094086 0.094280 -0.000000 -0.629252 0.777201
-0.260825 -0.165484 0.127759 -0.065926 -0.657851 -0.750257
1.056919 0.008165 0.111833 -0.000148 0.111989 0.993105
-0.042052 -0.260446 0.222121 -0.041061 0.609567 0.791671
-1.737233 0.017728 -0.048600 -0.650205 0.329039 -0.681772
-1.432161 -0.058683 -0.095549 0.000453 -0.557000 -0.829699
1.022507 -0.083327 0.055999 -0.046630 -0.722088 -0.690228
-0.277680 -0.097518 0.055350 0.000042 -0.889096 0.456299
1.514886 -0.063944 -0.092112 0.000043 -0.533248 -0.845177
0.025180 -0.143103 0.085413 0.105755 -0.625723 -0.772843
-0.003357 -0.388103 -0.322421 -0.041061 0.609567 -0.791671
-1.590928 0.015752 0.110570 -0.093832 0.112967 0.988462
-0.815132 0.039004 -0.105129 -0.000385 0.394296 -0.918224
1.373788 0.038361 -0.105365 -0.000113 0.382740 -0.923093
-1.609907 -0.096059 0.052578 -0.144381 -0.845757 0.512115
0.883607 -0.039342 0.105003 -0.000187 -0.392534 0.919089
1.272964 -0.106163 -0.036093 0.000087 -0.930214 -0.365227
1.500000 0.074769 0.066570 -0.124701 -0.770508 -0.623833
-0.084523 0.272407 -0.229128 -0.041061 -0.609567 -0.791671
0.421272 0.015397 -0.111069 0.000502 0.177266 -0.983519
-0.339796 0.109144 0.025708 0.000003 0.978096 0.204852
-0.893763 -0.022090 0.109934 0.000165 -0.242687 0.969393
-0.013032 0.106619 -0.034724 0.000020 0.934330 -0.354551
-1.138666 0.074176 0.084091 -0.000020 0.677792 0.734360
0.461611 0.107827 -0.030770 -0.000160 0.948152 -0.315890
-1.005693 0.105149 0.038949 -0.000361 0.930401 0.364490
-1.381089 0.051964 -0.099363 0.000007 0.482056 -0.875433
0.682350 0.082349 -0.076105 0.000350 0.766429 -0.641292
-0.168213 -0.109386 0.024658 0.000214 -0.967864 0.249349
0.120997 0.471062 -0.364052 0.105755 0.625723 0.772843
-0.282660 -0.138510 -0.106026 -0.065926 -0.657851 0.750257
-0.155023 0.185725 -0.158728 -0.041061 -0.609567 -0.791671
-0.395362 0.078734 -0.079839 -0.000040 0.679803 -0.732501
0.024987 -0.035622 0.106323 0.000153 -0.319406 0.946870
0.090441 0.686598 0.557120 -0.041061 -0.609567 0.791671
-0.269642 0.116076 -0.085212 -0.065926 0.657851 0.750257
1.613068 -0.033485 0.088423 0.517611 -0.270528 0.810928
0.128368 0.045367 0.102544 -0.000147 0.405767 0.913257
0.059947 0.008644 -0.111797 -0.000381 0.051744 -0.997988
0.913583 0.102665 0.045093 0.000010 0.894833 0.444916
-1.294153 0.017225 0.110800 0.000135 0.127333 0.991214
-0.202998 0.108043 -0.096427 -0.041061 -0.609567 -0.791671
0.093972 -0.409012 -0.310116 0.048580 -0.638101 0.767294
-1.255068 0.025322 -0.109235 0.000521 0.276441 -0.960402
1.601483 -0.125841 -0.091602 0.133947 -0.609331 0.781520
0.091573 -0.271881 0.198762 0.105755 -0.625723 -0.772843
0.028347 0.529035 -0.432579 -0.041061 -0.609567 -0.791671
-0.163559 0.143533 0.125799 -0.041061 -0.609567 0.791671
0.080314 -0.507570 0.397736 -0.065926 -0.657851 -0.750257
0.796870 0.076711 0.081785 0.000058 0.649659 0.759363
-0.130786 0.358668 0.293147 -0.041061 -0.609567 0.791671
0.018263 0.537705 0.429611 -0.065926 0.657851 -0.750257
-0.039014 -0.061109 -0.094016 0.000085 -0.586935 -0.808822
-1.074309 0.034050 0.106836 0.000003 0.278791 0.959665
1.483991 -0.124143 0.118615 -0.000000 0.629252 0.777201
0.247697 -0.701463 -0.567932 0.105755 -0.625723 0.772843
-0.195168 -0.256607 -0.201889 -0.065926 -0.657851 0.750257
1.341903 0.182585 0.138261 -0.046630 0.722088 -0.690228
-0.554820 0.091600 0.064674 0.000208 0.798298 0.601059
1.558053 -0.111203 0.014399 -0.000261 -0.984351 0.172548
-0.050712 0.107254 0.032711 0.000110 0.941245 0.335890
1.038972 0.008062 -0.111841 -0.001022 0.042373 -0.998329
-1.014337 0.017223 0.110801 0.000001 0.128085 0.991097
0.015996 0.123105 -0.119382 -0.005370 -0.616295 -0.787072
0.207487 0.010443 -0.111644 0.001052 0.133614 -0.990171
0.323938 0.073585 0.084609 0.000024 0.657319 0.752758
0.002629 0.450115 0.370479 -0.041061 -0.609567 0.791671
1.583403 0.139863 -0.099436 0.133947 0.609331 0.781520
-1.490317 0.051433 0.099640 -0.000108 0.418410 0.907592
1.603528 0.124243 0.110776 0.133947 -0.637622 0.758615
-1.737045 0.019099 0.048248 -0.649356 0.344196 0.675366
-0.108979 0.262985 0.220605 -0.041061 -0.609567 0.791671
-0.519660 0.008634 0.111798 -0.000171 0.022161 0.999015
1.575303 0.109483 -0.024223 0.002742 0.975763 -0.215885
-1.380751 -0.111898 0.007228 -0.000448 -0.994543 0.098950
1.148302 -0.043150 0.103496 0.000008 -0.390958 0.919692
-0.616878 -0.060351 0.094504 0.000412 -0.534445 0.844539
-0.442760 0.078414 0.080153 0.000346 0.734717 0.677441
1.118159 0.015748 -0.111020 0.000284 0.178123 -0.983422
1.531608 0.164220 0.114855 -0.000000 0.629252 -0.777201
0.547995 0.069023 0.088370 -0.000033 0.580788 0.813246
-0.531411 -0.026694 -0.108907 -0.000010 -0.237346 -0.970711
0.102849 0.581700 -0.460755 -0.065926 0.657851 0.750257
1.649350 0.023536 -0.019861 1.000000 0.000000 0.000000
-0.111959 -0.218418 0.186135 -0.041061 0.609567 0.791671
-1.451808 -0.065108 0.091292 0.000368 -0.587020 0.808778
-1.676719 0.071660 0.054111 -0.436928 0.716601 0.540990
1.212776 -0.105667 -0.037521 -0.000026 -0.926299 -0.375076
0.379162 -0.103410 0.043355 0.000200 -0.919863 0.390954
0.102075 0.257307 -0.220714 0.065977 -0.627881 -0.775508
1.500119 0.039710 -0.104864 -0.000067 0.393523 -0.918687
-0.154899 -0.000000 0.112131 -0.000110 -0.025398 0.999031
-0.533554 -0.075021 0.083338 0.000032 -0.698977 0.714223
-0.094938 -0.000000 0.112131 -0.000471 -0.025077 0.998966
-0.039972 -0.111797 0.008649 0.000003 -0.998018 0.051370
0.281044 -0.097543 0.055307 -0.000022 -0.872156 0.488033
0.185482 0.630015 0.515378 0.065977 -0.627881 0.775508
-0.905912 0.064227 -0.091914 0.000072 0.544852 -0.837751
0.658433 0.036627 -0.105980 -0.001012 0.361167 -0.932045
0.012980 -0.269301 -0.194729 -0.065926 -0.657851 0.750257
-0.598840 0.057752 -0.096115 0.000140 0.558399 -0.828800
0.206785 -0.245198 0.202003 0.065977 0.627881 0.775508
-0.624590 0.017239 0.110798 0.000006 0.129635 0.990856
0.972574 -0.105595 -0.037724 0.001073 -0.926899 -0.373805
-1.348264 -0.017544 0.110750 0.000157 -0.198785 0.979339
-1.549677 -0.101685 -0.047260 -0.000058 -0.886663 -0.461003
0.076503 0.533012 0.420379 -0.065926 0.657851 -0.750257
-0.686876 0.035510 0.106360 0.000084 0.364600 0.930423
-0.438484 -0.078859 0.079716 0.000075 -0.735041 0.677068
-0.268815 -0.247648 0.200505 -0.065926 -0.657851 -0.750257
-0.744529 0.017223 -0.110800 0.000253 0.128804 -0.990984
0.724608 -0.018641 -0.110571 -0.000430 -0.133960 -0.990229
1.463536 0.108249 0.029249 -0.000345 0.952027 0.303861
1.474486 -0.218324 0.166693 -0.046630 -0.722088 -0.690228
-0.213892 0.234261 0.183941 -0.065926 0.657851 -0.750257
0.188147 0.257964 -0.200709 0.105755 0.625723 0.772843
0.015924 0.223537 -0.154343 -0.065926 0.657851 0.750257
0.181886 0.198939 -0.152063 0.105755 0.625723 0.772843
0.200131 -0.731301 -0.585581 0.105755 -0.625723 0.772843
-0.200234 -0.171122 0.127378 -0.065926 -0.657851 -0.750257
0.724626 -0.111250 0.014026 0.000113 -0.990961 0.129401
-1.627285 0.052205 -0.092532 -0.227009 0.521851 -0.821151
-0.089346 0.085980 -0.072001 -0.000000 -0.777201 0.629252
1.371706 -0.138645 -0.094148 -0.000000 -0.629252 0.777201
0.067932 0.129692 -0.080405 0.105755 0.625723 0.772843
0.085468 -0.407784 0.309787 -0.065926 -0.657851 -0.750257
0.488497 -0.063298 -0.092557 -0.000110 -0.534937 -0.844250
0.889449 -0.076872 -0.081634 -0.000260 -0.684423 -0.728256
0.173145 0.124181 -0.090340 0.105755 0.625723 0.772843
-1.445480 0.053042 -0.098792 -0.000665 0.469024 -0.882293
-0.051001 -0.189288 -0.130194 -0.065926 -0.657851 0.750257
1.270808 -0.132693 0.120886 -0.046630 0.524865 0.849908
-0.101709 0.180925 0.157797 -0.041061 -0.609567 0.791671
0.125271 -0.249589 -0.212492 0.065977 0.627881 -0.775508
-1.408386 0.041555 0.104147 0.000546 0.366717 0.929563
-1.323435 -0.104642 -0.040291 0.000122 -0.913698 -0.404779
-0.079489 0.124067 -0.115171 -0.041061 -0.609567 -0.791671
0.189288 0.117180 0.099843 0.065977 -0.627881 0.775508
1.190386 0.007850 0.111856 0.000058 0.107501 0.993638
-0.080169 -0.177020 0.155908 -0.041061 0.609567 0.791671
0.183066 0.538924 0.441833 0.065977 -0.627881 0.775508
0.162173 0.718716 0.585570 -0.041061 -0.609567 0.791671
0.189378 -0.519798 -0.425810 0.065977 0.627881 -0.775508
-1.523446 0.094421 -0.060481 0.000016 0.818439 -0.573429
0.139919 -0.111797 -0.008647 -0.000717 -0.997653 -0.056166
0.006012 0.031891 -0.107500 -0.001478 0.310317 -0.950096
-0.724451 -0.046265 0.102142 0.000132 -0.399391 0.916047
0.024765 -0.110989 0.015964 -0.000242 -0.992172 0.120497
0.218289 -0.085925 0.072070 0.065977 0.627881 0.775508
-0.268630 0.204057 0.162267 -0.065926 0.657851 -0.750257
0.193953 -0.329960 -0.259795 0.105755 -0.625723 0.772843
1.171901 0.068866 0.073861 -0.015579 -0.595342 0.802685
0.954697 -0.064902 0.091439 -0.000620 -0.531678 0.845946
1.201728 -0.086574 0.051990 -0.000000 -0.629252 -0.777201
-0.180427 0.053761 0.098403 -0.000465 0.447747 0.893485
-0.022346 -0.115586 0.111604 -0.041061 0.609567 0.791671
1.613068 0.033485 0.088423 0.517106 0.273080 0.810321
1.599387 -0.101671 0.092535 0.133947 0.637622 0.758615
0.146393 -0.709775 -0.577868 -0.041061 0.609567 -0.791671
0.112091 -0.111217 0.071490 0.105755 -0.625723 -0.772843
-0.984221 0.027803 -0.108630 -0.000530 0.280889 -0.959018
0.269455 0.111653 -0.010344 -0.000704 0.988532 -0.145027
-0.361702 -0.067265 0.089715 -0.000042 -0.594707 0.803298
1.271325 0.086574 0.051990 -0.000000 0.629252 -0.777201
0.084032 0.442154 0.340050 -0.065926 0.657851 -0.750257
0.202514 -0.267956 -0.220792 0.065977 0.627881 -0.775508
-0.081063 -0.130303 -0.119890 -0.041061 0.609567 -0.791671
1.179920 -0.170040 0.136081 -0.046630 -0.722088 -0.690228
-0.369689 -0.111066 -0.015417 -0.000346 -0.994483 -0.101091
1.610372 -0.179402 -0.134886 0.133947 -0.609331 0.781520
0.235687 0.114575 -0.093786 0.065977 -0.627881 -0.775508
-0.403313 -0.039458 -0.104959 -0.000214 -0.352620 -0.935096
-0.991419 0.104863 -0.039714 0.001070 0.923253 -0.382174
-0.686023 -0.095277 -0.059124 -0.000111 -0.847075 -0.530291
-0.060767 0.478086 -0.384280 -0.065926 0.657851 0.750257
-1.352013 -0.024903 -0.109331 -0.000739 -0.241583 -0.969775
1.375136 -0.109864 0.022432 -0.000347 -0.976538 0.212027
0.568647 0.111657 -0.010299 0.000049 0.988802 -0.143688
0.999793 0.049480 -0.100624 -0.000146 0.423584 -0.905152
-0.784644 -0.111044 -0.015575 -0.000601 -0.990461 -0.133688
-0.113366 0.363950 -0.288824 -0.065926 0.657851 0.750257
0.156945 -0.191575 -0.142688 0.105755 -0.625723 0.772843
1.103513 0.100428 -0.068417 -0.046630 0.722088 0.690228
0.125030 0.550984 0.454495 -0.041061 -0.609567 0.791671
-0.149913 0.111797 -0.008647 -0.000213 0.998116 -0.050120
0.426969 -0.111766 -0.009044 0.000569 -0.990347 -0.133366
0.885750 0.023890 0.109557 0.000358 0.253231 0.966829
0.152169 0.101297 0.048086 -0.000106 0.901204 0.431806
-0.088534 0.406876 0.332458 -0.041061 -0.609567 0.791671
1.393788 0.104499 0.040660 0.000107 0.929517 0.367040
1.261382 0.086574 -0.051990 -0.000000 -0.777201 0.629252
-1.688370 -0.081683 -0.020450 -0.455079 -0.841363 -0.286515
1.653152 -0.199915 -0.165616 0.133947 0.637622 -0.758615
-0.153485 0.156148 -0.110140 -0.065926 0.657851 0.750257
1.247595 0.147538 -0.128780 -0.046630 -0.524865 -0.849908
1.336273 0.136728 0.092596 -0.000000 0.629252 -0.777201
-0.084712 0.488397 0.395425 -0.065926 0.657851 -0.750257
0.149908 -0.008650 0.111797 0.000001 -0.055145 0.997994
-0.087228 -0.289461 -0.242119 -0.041061 0.609567 -0.791671
0.056810 -0.614412 -0.493484 -0.065926 -0.657851 0.750257
-1.009043 -0.104940 -0.039508 0.000109 -0.919228 -0.392042
0.019972 -0.473928 0.389714 -0.041061 0.609567 0.791671
0.016822 -0.088041 -0.090923 0.065977 0.627881 -0.775508
0.192422 0.385193 -0.304304 0.105755 0.625723 0.772843
0.024804 0.614140 0.497924 -0.041061 -0.609567 0.791671
1.204605 -0.040597 -0.104524 0.000348 -0.398314 -0.916553
-0.084127 -0.360791 -0.297202 -0.041061 0.609567 -0.791671
1.524845 0.127072 -0.084779 -0.000000 0.629252 0.777201
-0.127308 0.044505 -0.102921 -0.001251 0.431534 -0.901199
1.403269 -0.008926 -0.111775 -0.000367 -0.125926 -0.991377
-1.272937 -0.111793 -0.008699 0.001137 -0.991531 -0.124713
0.025219 0.271927 -0.195957 -0.065926 0.657851 0.750257
-0.608382 -0.094627 -0.060158 0.000695 -0.868190 -0.494955
1.150482 0.160001 0.131148 -0.046630 -0.524865 0.849908
-0.435934 0.110799 -0.017233 0.000801 0.990273 -0.133460
0.200989 -0.105892 -0.036883 0.000927 -0.939419 -0.341161
0.360451 -0.070686 -0.087045 -0.000157 -0.600618 -0.798699
1.426021 0.092916 -0.062770 -0.000407 0.828752 -0.558654
-0.355194 -0.011978 -0.111489 -0.000661 -0.145617 -0.988727
0.067238 0.319608 0.234073 0.048580 0.638101 -0.767294
-0.494467 0.057888 -0.096033 0.000631 0.509144 -0.859633
-0.039974 -0.008634 -0.111798 0.000000 -0.025680 -0.999009
1.484029 -0.112131 -0.000000 -0.000281 -0.999345 -0.016386
1.458874 -0.162193 -0.149422 -0.031122 0.560546 -0.826921
-1.185867 -0.009958 0.111688 -0.000347 -0.130277 0.990888
1.127506 0.110810 -0.017164 -0.000061 0.987120 -0.155448
1.648809 -0.303103 0.243608 -0.046630 -0.722088 -0.690228
1.642749 0.063904 0.053135 0.133947 -0.637622 0.758615
-0.022705 -0.555111 -0.450009 -0.041061 0.609567 -0.791671
1.524222 -0.198566 -0.142663 -0.015579 -0.661235 0.749336
-0.345493 -0.015153 0.111103 -0.000004 -0.156562 0.987112
0.127473 -0.117144 -0.105072 0.065977 0.627881 -0.775508
-0.063237 0.215748 -0.154470 -0.065926 0.657851 0.750257
0.766322 -0.100834 0.049050 -0.000501 -0.877891 0.477519
0.120038 -0.053093 -0.098765 -0.000186 -0.447247 -0.893759
1.403226 -0.107276 -0.032639 0.000022 -0.942683 -0.331734
-1.164601 0.081199 -0.077331 -0.000389 0.740777 -0.670872
0.494980 0.081110 0.077425 -0.000027 0.753941 0.655938
-0.115396 0.448272 0.362938 -0.065926 0.657851 -0.750257
-0.030498 -0.195964 0.134246 -0.065926 -0.657851 -0.750257
0.207911 0.691092 -0.562919 0.065977 -0.627881 -0.775508
-1.239024 -0.036813 0.105916 0.000097 -0.368331 0.929011
1.313876 0.025506 -0.109192 -0.000016 0.226009 -0.973460
0.062512 -0.107064 -0.033326 0.001139 -0.961953 -0.271325
-0.219097 -0.088339 -0.069088 -0.000000 0.777201 0.629252
1.379136 -0.134857 0.091082 0.000000 -0.629252 -0.777201
0.153323 -0.242302 0.183263 0.105755 -0.625723 -0.772843
0.198271 0.429610 0.352034 0.065977 -0.627881 0.775508
-0.132961 -0.202217 -0.172571 -0.041061 0.609567 -0.791671
-1.558350 0.051422 -0.099645 -0.000032 0.498344 -0.866271
0.702701 -0.044185 0.103058 0.000816 -0.369836 0.928634
0.050367 0.158518 0.101340 0.105755 0.625723 -0.772843
1.429247 0.120493 0.115659 0.000000 -0.629252 0.777201
1.221810 0.105514 0.037950 0.000025 0.940911 0.336711
1.372132 -0.034086 0.106825 -0.000091 -0.306086 0.951320
0.212383 -0.199118 -0.156382 0.105755 -0.625723 0.772843
-0.011907 0.325594 -0.273847 -0.041061 -0.609567 -0.791671
0.151095 -0.715920 0.574204 -0.065926 -0.657851 -0.750257
1.336782 0.123390 -0.081797 -0.000000 0.629252 0.777201
-0.102269 0.101374 0.096517 -0.041061 -0.609567 0.791671
0.784069 0.025258 0.109249 -0.000226 0.261986 0.964444
-0.252220 -0.039808 0.104827 0.000269 -0.397315 0.916904
-0.172206 -0.340713 -0.273619 -0.065926 -0.657851 0.750257
-0.248039 0.192085 -0.149960 -0.065926 0.657851 0.750257
-0.171009 -0.175348 -0.128516 -0.065926 -0.657851 0.750257
0.207426 0.437662 -0.348837 0.105755 0.625723 0.772843
1.542893 0.186192 0.168852 -0.032235 -0.558046 0.828643
0.817783 0.097610 -0.055187 0.000203 0.843479 -0.535954
-0.902787 0.036713 0.105950 -0.000344 0.354870 0.933973
1.545364 -0.106428 -0.104272 0.000000 0.629252 -0.777201
0.802460 -0.042953 0.103578 0.000092 -0.387638 0.921195
-0.178938 0.058825 -0.095462 0.000021 0.553544 -0.832017
0.161552 0.468836 0.386917 0.065977 -0.627881 0.775508
1.064855 -0.127537 -0.106402 -0.046630 0.524865 -0.849908
-0.056069 0.135372 0.125090 -0.041061 -0.609567 0.791671
0.016643 -0.336479 0.253312 -0.065926 -0.657851 -0.750257
-0.151360 -0.288146 0.237780 -0.041061 0.609567 0.791671
1.468734 0.218993 0.167781 -0.046630 0.722088 -0.690228
-0.203830 0.298379 -0.239278 -0.065926 0.657851 0.750257
1.355370 0.046852 0.101874 -0.000181 0.459693 0.887386
0.007750 0.378713 0.291125 -0.065926 0.657851 -0.750257
0.597521 0.047869 -0.101400 -0.000058 0.409104 -0.911836
-0.053074 0.039284 0.105024 -0.000065 0.348206 0.936717
-0.608574 0.098055 0.054393 -0.000006 0.859996 0.509020
0.962712 0.081557 0.058187 -0.046630 0.722088 -0.690228
0.192309 0.324233 0.267224 0.065977 -0.627881 0.775508
0.484575 -0.085140 0.072970 0.000757 -0.776452 0.629435
-1.000622 -0.045164 0.102633 0.000306 -0.400225 0.915870
-0.862864 -0.105931 0.036769 0.000120 -0.942054 0.333530
-0.797458 0.044135 0.103080 0.000499 0.443094 0.895618
-0.767196 0.107655 -0.031366 0.000699 0.949388 -0.311847
1.449816 -0.076982 0.063837 -0.000000 0.777201 -0.629252
