1.756141 0.146194 0.139629 0.041173 0.688705 -0.723872
1.123367 -0.071868 -0.069537 -0.021771 0.664786 -0.746717
-1.222101 0.013371 0.088421 0.001057 0.186326 0.981630
-1.459632 0.071125 0.054207 -0.000103 0.782285 0.621278
1.307240 0.075963 0.078543 -0.021771 -0.664786 0.746717
1.501715 0.145445 0.146072 -0.021771 -0.664786 0.746717
1.198601 -0.091613 -0.085564 -0.021771 -0.715406 0.698370
-1.414096 0.087196 -0.019849 0.001034 0.970925 -0.235680
-1.675967 -0.079117 -0.041685 0.000414 -0.869766 -0.491432
1.574117 0.204218 -0.189210 -0.021771 0.715406 0.698370
0.128307 0.067199 0.059003 0.000317 0.704835 0.707292
-0.583060 -0.016163 0.087954 0.000256 -0.214657 0.975682
-0.286298 -0.074763 0.095051 0.070136 0.688982 0.721377
1.549973 -0.078017 -0.043710 -0.000049 -0.887151 -0.459227
1.679754 -0.092758 -0.092756 0.041173 0.691487 -0.721215
0.779695 0.080218 -0.039524 0.000257 0.906934 -0.418847
1.450352 -0.042096 0.078899 -0.000283 -0.481696 0.875155
-0.269587 0.139208 0.154978 0.070136 -0.688982 0.721377
-0.313712 -0.126947 0.141503 -0.070999 0.654282 0.752910
1.623911 0.278528 -0.263781 -0.021771 0.715406 0.698370
-0.973489 0.085452 0.026364 0.000397 0.942819 0.330401
-0.172593 -0.172627 -0.152451 0.069206 -0.689027 0.721424
-0.837032 0.084932 0.027993 0.000035 0.941366 0.334285
-0.331091 0.078227 -0.097526 -0.070999 -0.654282 -0.752910
-0.173514 0.515810 0.492647 -0.070061 0.721693 -0.688658
0.207059 0.036478 0.081649 0.000063 0.463759 0.884866
0.074014 -0.079403 0.041138 0.000044 -0.905049 0.422925
-0.037081 -0.049759 -0.074305 0.000341 -0.501450 -0.864041
-1.494081 -0.052151 0.072646 -0.000105 -0.618697 0.784319
0.519848 -0.087941 0.016231 0.001263 -0.977570 0.206468
-0.228478 0.078902 0.093383 0.070136 -0.688982 0.721377
-1.781933 0.044992 -0.056975 -0.342986 0.528897 -0.774086
1.247197 0.078159 0.043455 -0.000045 0.878037 0.476444
1.468044 -0.218601 0.210219 -0.021771 0.664786 0.746717
1.083589 -0.037469 -0.081199 0.000207 -0.370523 -0.927956
-0.092537 -0.351800 -0.340809 0.070136 0.688982 -0.721377
0.023258 -0.036092 0.081820 0.001394 -0.432441 0.900306
-1.086957 -0.082537 0.034420 0.000470 -0.897755 0.438491
-0.776372 -0.026225 0.085495 0.000687 -0.233582 0.971325
1.725584 0.025115 0.074803 0.254195 0.336058 0.905586
-0.057961 0.507336 -0.483126 0.069206 0.689027 0.721424
-0.043091 0.158270 -0.151162 0.070136 -0.688982 -0.721377
-0.328996 -0.138250 -0.112792 -0.070061 -0.721693 0.688658
-0.084244 0.075298 0.048242 -0.001138 0.802620 0.594405
-0.127956 0.043563 0.078099 -0.000828 0.469606 0.881629
1.720312 0.313154 -0.301752 -0.000785 -0.673987 -0.738542
1.334039 0.100926 -0.090882 -0.021771 0.715406 0.698370
-1.028465 -0.033254 0.083014 0.000411 -0.429350 0.901954
-0.302606 0.083753 -0.031345 -0.000027 0.928945 -0.367338
1.224770 -0.087801 0.016975 0.000246 -0.979330 0.196527
1.755675 -0.138980 0.132739 0.041173 -0.688705 -0.723872
-1.310298 -0.044119 -0.077786 -0.000063 -0.542350 -0.838966
1.536662 -0.106004 -0.111977 -0.021771 0.664786 -0.746717
-0.929709 -0.056336 0.069450 -0.000040 -0.578747 0.814233
1.750084 -0.046252 -0.019057 1.000000 0.000000 0.000000
-0.257859 0.369512 0.357560 -0.070999 -0.654282 0.752910
1.707840 -0.048219 -0.068243 0.254494 -0.539358 -0.801230
-0.998359 0.016561 -0.087880 -0.000069 0.243753 -0.968621
0.415281 0.064485 -0.061958 -0.000075 0.704188 -0.708565
1.214847 -0.101521 0.095207 -0.021771 -0.715406 -0.698370
0.437465 -0.031513 -0.083690 -0.001024 -0.369474 -0.928048
1.640901 0.121438 0.122472 0.041173 -0.691487 0.721215
-0.220009 -0.064856 0.061570 0.000000 0.723158 -0.690683
-0.177084 0.077598 0.044448 -0.000075 0.883190 0.466840
1.665664 -0.034787 -0.082383 0.000075 -0.417190 -0.907676
-1.137117 0.042529 0.078667 -0.000279 0.493776 0.868474
0.384623 -0.073797 0.050508 0.000026 -0.805326 0.591078
-0.835323 0.040656 0.079651 0.000009 0.490432 0.870296
-0.052357 -0.328017 -0.312398 0.069206 -0.689027 0.721424
1.699884 0.119031 -0.110586 0.041173 0.688705 0.723872
0.334062 0.081155 -0.037563 -0.000009 0.915549 -0.399617
0.661024 -0.055710 -0.069954 -0.000160 -0.596811 -0.801109
-0.362022 -0.087097 -0.062546 -0.070061 -0.721693 0.688658
1.619682 0.085171 -0.027258 0.000000 0.940906 -0.335591
1.413441 -0.007274 -0.089130 -0.000070 -0.109787 -0.993116
0.329624 -0.078089 0.043580 -0.000012 -0.856387 0.514338
-0.940697 -0.007636 0.089100 0.001501 -0.118434 0.992095
1.500459 0.010011 -0.088865 -0.000122 0.136554 -0.989549
0.800365 -0.051205 -0.073315 0.000139 -0.622678 -0.781179
0.965086 -0.019740 -0.087221 -0.000017 -0.281716 -0.958357
1.469347 0.047240 0.075931 0.000148 0.486559 0.872463
-1.045424 0.085524 -0.026131 0.000089 0.938468 -0.342314
-0.962198 0.075341 -0.048176 0.000851 0.836096 -0.546873
0.300142 0.068150 0.057903 0.000054 0.718135 0.694420
-1.359720 -0.051025 0.073441 -0.000150 -0.553448 0.831726
-0.202711 -0.230308 -0.235485 0.070136 0.688982 -0.721377
-0.605181 0.072342 0.052571 0.000005 0.768621 0.638101
0.393310 0.084932 -0.027993 0.000035 0.941366 -0.334285
-1.638271 -0.042338 -0.078769 -0.000027 -0.498557 -0.865662
-0.113100 -0.297525 0.277448 0.069206 -0.689027 -0.721424
-0.049884 0.507743 0.484290 0.069206 0.689027 -0.721424
-0.068506 0.402830 0.387211 0.070136 -0.688982 0.721377
-1.747446 -0.070766 0.043436 -0.222106 -0.864537 0.447773
-1.585183 0.076970 -0.045528 -0.000077 0.874310 -0.483241
1.456787 0.209934 0.198723 -0.021771 0.715406 -0.698370
-0.734427 -0.083620 0.031698 0.000007 -0.909203 0.413927
-0.084536 -0.521378 0.493988 0.069206 -0.689027 -0.721424
1.544379 0.266144 -0.254771 -0.021771 -0.664786 -0.746717
1.416481 -0.160489 -0.149329 -0.021771 -0.715406 0.698370
0.896395 0.063407 0.063061 0.000654 0.699194 0.713454
0.877904 0.089163 -0.006860 0.000150 0.990622 -0.131164
-0.043091 -0.381471 0.364340 0.070136 0.688982 0.721377
-0.087731 -0.145983 0.135145 0.069206 -0.689027 -0.721424
1.135523 0.075104 -0.048543 -0.000821 0.820775 -0.568813
0.694919 0.073763 -0.050559 -0.000103 0.786810 -0.615577
0.199991 0.023458 -0.086295 -0.000713 0.251187 -0.967110
-0.212355 0.211879 -0.186126 0.069206 0.689027 0.721424
1.469687 -0.197368 -0.185448 -0.021771 -0.715406 0.698370
1.591714 -0.060487 -0.066841 -0.109380 0.718819 0.686539
1.385298 0.183485 0.176543 -0.021771 -0.664786 0.746717
1.365380 -0.089427 -0.000000 -0.000228 -0.998349 -0.033830
-0.361060 0.291797 -0.276967 -0.070061 0.721693 0.688658
-0.092003 0.127888 0.126901 0.070136 -0.688982 0.721377
-1.360129 -0.031630 -0.083646 -0.000592 -0.404512 -0.913407
-0.400952 -0.062477 -0.077251 -0.070999 0.654282 -0.752910
-0.690328 -0.066875 -0.059370 -0.000029 -0.705309 -0.707466
-0.132517 -0.080864 0.038185 0.000228 -0.908293 0.415961
0.966395 0.007022 0.089151 0.001149 0.130169 0.990758
-0.457162 -0.084314 0.069308 -0.070061 -0.721693 -0.688658
0.510490 -0.080595 -0.038750 -0.000209 -0.884445 -0.464570
1.567865 -0.178588 -0.177506 -0.021771 0.664786 -0.746717
-1.481155 0.088911 0.009591 -0.001695 0.990565 0.129120
-0.240620 0.324658 -0.320207 -0.070999 -0.654282 -0.752910
-0.418106 0.097917 0.079591 -0.070061 0.721693 -0.688658
1.391085 0.077748 0.044186 -0.000035 0.894541 0.445002
1.715472 -0.148008 -0.143690 0.041173 0.691487 -0.721215
-0.493558 -0.049413 0.074535 -0.000354 -0.577414 0.815305
-0.700027 -0.026948 0.085270 0.000045 -0.361770 0.931155
-0.146924 -0.316151 0.312049 0.070136 0.688982 0.721377
1.382558 -0.055188 -0.070366 -0.000653 -0.586083 -0.808853
-0.308601 0.085376 0.105859 -0.070999 -0.654282 0.752910
0.388232 -0.023144 -0.086380 0.000195 -0.298236 -0.953395
1.704712 0.235480 0.228170 0.041173 -0.691487 0.721215
-0.182822 0.223884 0.200425 0.069206 0.689027 -0.721424
1.587271 -0.260791 -0.246753 -0.021771 -0.715406 0.698370
-0.534986 -0.014143 -0.088301 -0.001025 -0.213573 -0.975682
1.740194 0.033821 -0.067025 0.253784 0.392018 -0.882673
-1.084893 0.035055 0.082269 -0.000003 0.429985 0.901686
-0.160359 -0.249267 0.249474 0.070136 0.688982 0.721377
-0.413112 -0.012522 -0.088546 0.000873 -0.147134 -0.988056
0.440695 0.078835 0.042215 -0.000344 0.866574 0.496566
1.259689 -0.026716 -0.085343 -0.000082 -0.263945 -0.963193
1.220219 0.094440 0.087787 -0.021771 0.715406 -0.698370
-0.225647 -0.146200 -0.122122 0.069206 -0.689027 0.721424
-1.606266 0.064514 0.061928 -0.000023 0.708881 0.703852
-0.360225 -0.311293 0.297314 -0.070061 -0.721693 -0.688658
1.366874 0.078574 -0.042699 0.000244 0.894877 -0.443964
-1.618733 -0.056715 0.069141 0.000357 -0.648232 0.760305
1.159347 0.072927 0.051756 0.000564 0.818814 0.572342
-0.090080 -0.070814 -0.072202 0.070136 0.688982 -0.721377
-0.557919 0.094746 -0.090491 -0.070061 0.721693 0.688658
-0.676954 -0.085421 0.026464 -0.001678 -0.944541 0.324799
-0.359942 -0.245051 0.239776 -0.070999 0.654282 0.752910
0.158753 -0.065610 -0.060766 0.000274 -0.773921 -0.631615
-0.213920 -0.368946 -0.361211 -0.070999 0.654282 -0.752910
1.512102 0.160362 -0.159655 -0.021771 -0.664786 -0.746717
-1.691645 0.052750 0.072260 -0.025421 0.598997 0.799540
-0.040362 0.082080 -0.035497 0.000545 0.910489 -0.411411
-0.308124 0.152706 -0.125819 -0.070061 0.721693 0.688658
-0.144389 -0.301151 -0.277910 0.069206 -0.689027 0.721424
-0.064339 0.336280 0.323245 0.070136 -0.688982 0.721377
-0.359069 0.149410 -0.127547 -0.070061 0.721693 0.688658
0.051244 0.050795 -0.073601 -0.000012 0.617512 -0.785273
-0.249053 0.319337 0.294434 -0.070061 0.721693 -0.688658
0.360043 0.025664 0.085665 0.000023 0.317089 0.947298
-0.144590 0.327198 -0.322373 0.070136 -0.688982 -0.721377
1.660951 0.188210 -0.174190 0.041173 0.688705 0.723872
-0.423109 -0.106460 0.113383 -0.070999 0.654282 0.752910
-1.223316 -0.066495 -0.059796 -0.000150 -0.738099 -0.673220
0.220436 -0.075855 -0.047362 0.000162 -0.836921 -0.545527
0.067824 0.082692 0.034046 -0.000125 0.914327 0.402452
1.751016 -0.066843 0.063841 0.041173 -0.688705 -0.723872
0.400291 -0.042094 0.078900 0.000016 -0.497526 0.866255
0.653836 -0.087000 -0.020692 0.000063 -0.965165 -0.257689
0.751868 0.031155 0.083824 -0.000149 0.407014 0.912210
-1.281997 -0.015663 0.088044 0.000463 -0.238850 0.969919
0.711516 -0.037212 0.081316 -0.000135 -0.398762 0.916173
-0.097683 0.542487 -0.512889 -0.000000 0.723158 -0.690683
0.000972 0.048104 0.075387 -0.000046 0.571954 0.819031
1.672379 0.082345 0.034878 0.000723 0.894849 0.443986
1.739533 0.214011 -0.203206 0.041173 0.688705 0.723872
-0.623120 0.008965 -0.088976 0.000829 0.160580 -0.985953
-0.865334 0.010866 0.088764 -0.000578 0.141878 0.988824
-0.306696 0.057767 -0.068265 -0.000054 0.631192 -0.774293
0.444929 0.049995 0.074146 0.000045 0.584619 0.810040
-0.243594 -0.391732 0.369746 -0.070061 -0.721693 -0.688658
0.333006 -0.046675 -0.076280 0.000043 -0.485211 -0.873212
-0.043091 -0.122270 -0.116779 0.069206 -0.689027 0.721424
0.925386 -0.087239 0.019661 0.000589 -0.970061 0.238602
0.393310 -0.084932 -0.027993 0.000035 -0.941366 -0.334285
0.721675 0.026846 -0.085302 -0.000431 0.332272 -0.942117
-0.318027 0.118069 0.133381 -0.070999 -0.654282 0.752910
-1.154027 -0.067724 -0.058400 -0.000036 -0.750637 -0.659159
-0.255452 -0.259204 0.232066 -0.070061 -0.721693 -0.688658
0.947447 0.064863 -0.061562 -0.000000 0.744697 -0.665847
0.572083 0.052739 -0.072220 -0.000602 0.564704 -0.824176
1.405911 -0.079547 -0.040858 -0.000347 -0.874176 -0.483647
-0.072678 0.089662 -0.082798 0.069206 0.689027 0.721424
-0.315597 0.191095 -0.197070 -0.070999 -0.654282 -0.752910
-0.735062 0.088063 0.015555 -0.000099 0.978253 0.202666
-1.214704 0.070899 0.054501 -0.000189 0.779564 0.624682
1.443099 0.083734 -0.089422 -0.021771 -0.664786 -0.746717
0.615171 -0.089427 -0.000000 0.001151 -0.997546 -0.041086
-0.079486 -0.538104 -0.517478 0.000000 -0.723158 -0.690683
-1.569807 -0.080566 -0.038810 -0.000026 -0.884420 -0.464485
-1.065288 -0.011764 0.088649 -0.001679 -0.185129 0.981509
-0.205152 -0.324491 -0.323407 -0.070999 0.654282 -0.752910
0.494459 0.035589 0.082040 0.000593 0.366041 0.929490
-0.298246 -0.213445 0.218129 -0.070999 0.654282 0.752910
-0.645081 -0.070827 0.054596 0.000109 -0.752426 0.657216
-0.083148 0.080622 -0.038694 -0.000281 0.874160 -0.483777
1.750084 0.071742 0.010324 0.256066 0.963790 0.042876
0.630521 -0.065318 0.061079 0.000146 -0.710182 0.702570
-0.156542 -0.320382 -0.317024 0.070136 0.688982 -0.721377
-0.757265 -0.073896 -0.050364 -0.000403 -0.853336 -0.519512
-0.279246 -0.355362 -0.343246 -0.070999 0.654282 -0.752910
-1.633809 0.085202 -0.027162 -0.000029 0.942986 -0.329713
1.719996 -0.073181 -0.033228 0.254120 -0.895688 -0.361745
1.111077 -0.009193 0.088953 0.002575 -0.166192 0.985010
-0.382805 -0.055860 0.069834 0.000122 -0.649780 0.758801
-1.370520 -0.086006 -0.024496 -0.000312 -0.969601 -0.240721
-0.151484 -0.417529 -0.409317 -0.023955 0.667092 -0.743764
1.431526 -0.100422 -0.087327 -0.021771 -0.715406 0.698370
0.785017 -0.055532 0.070095 0.000394 -0.607856 0.792811
1.663260 -0.254437 -0.247815 -0.021771 0.664786 -0.746717
0.240691 -0.041141 0.079401 -0.000124 -0.401813 0.914684
-0.131402 0.512122 0.484497 -0.070061 0.721693 -0.688658
0.592406 0.077470 0.044672 -0.000224 0.832220 0.552607
-1.600371 -0.006501 0.089190 -0.000264 -0.049194 0.998181
0.022189 -0.089086 0.007803 0.001156 -0.992945 0.111099
-1.117856 -0.045705 0.076865 0.001059 -0.478390 0.877135
0.035096 -0.032789 -0.083199 0.000116 -0.425458 -0.903838
-1.160694 0.008099 0.089059 0.000331 0.119995 0.991949
-0.062318 0.013857 -0.088347 0.000439 0.200487 -0.978471
1.127504 -0.087552 0.083620 -0.021771 -0.715406 -0.698370
0.976108 0.058329 0.067785 0.000219 0.638282 0.768486
1.268636 0.054090 0.071214 -0.000076 0.608276 0.792445
1.694893 0.040724 -0.076829 0.254716 0.398719 -0.879929
-1.508660 -0.035443 -0.082103 0.000122 -0.452889 -0.890437
-0.376121 0.024932 0.085881 0.000072 0.339067 0.939671
1.630595 -0.147970 0.134178 0.041173 -0.688705 -0.723872
-0.438586 0.139557 -0.125311 -0.070061 0.721693 0.688658
-0.199679 -0.268124 -0.271308 0.070136 0.688982 -0.721377
-0.128854 -0.455654 -0.426965 0.069206 -0.689027 0.721424
0.146431 -0.009217 -0.088950 0.000834 -0.167447 -0.984753
0.437174 -0.082523 -0.034454 0.000067 -0.934118 -0.353679
1.644203 0.217332 -0.214225 -0.000785 -0.673987 -0.738542
-0.247927 0.138527 0.112656 0.069206 0.689027 -0.721424
1.521657 -0.091385 -0.075259 -0.021771 -0.715406 0.698370
1.320263 -0.138804 -0.134869 -0.021771 0.664786 -0.746717
1.731979 -0.301334 -0.289753 0.041173 0.691487 -0.721215
-0.254921 -0.185578 -0.156923 0.069206 -0.689027 0.721424
-1.503371 0.010710 -0.088783 -0.000940 0.153879 -0.987083
-0.182219 -0.470000 0.452016 -0.070999 0.654282 0.752910
-1.396483 0.051517 -0.073097 0.000163 0.557514 -0.828975
-0.233921 0.449643 0.429451 -0.070061 0.721693 -0.688658
-0.283673 -0.089092 0.007731 0.000261 -0.992206 0.117061
-0.110636 0.365436 0.355593 0.070136 -0.688982 0.721377
-0.500131 -0.120188 -0.111275 -0.070061 -0.721693 0.688658
-0.126429 0.241707 0.222858 0.069206 0.689027 -0.721424
-0.663821 -0.087238 -0.019664 -0.000235 -0.963344 -0.264186
-1.274195 -0.055130 0.070412 0.000371 -0.602699 0.796767
-0.022390 -0.037446 0.081209 0.000262 -0.454479 0.889607
-1.699756 -0.010144 -0.088715 -0.018712 -0.123682 -0.991271
-0.201136 -0.354355 0.349737 -0.070999 0.654282 0.752910
-0.443337 0.059341 0.066901 0.000188 0.687742 0.724605
-0.658482 0.082091 -0.035470 0.000046 0.897986 -0.437705
1.018433 0.068522 0.057462 -0.001078 0.725535 0.686748
-0.160986 -0.370306 0.365139 0.070136 0.688982 0.721377
-0.188200 0.149711 0.129067 0.069206 0.689027 -0.721424
1.564529 0.040872 0.079540 -0.000090 0.476703 0.877911
0.675373 -0.016865 0.087822 -0.000043 -0.250626 0.967014
0.552165 -0.036579 0.081603 0.000172 -0.431403 0.901100
1.750084 -0.027576 0.021433 1.000000 0.000000 0.000000
-0.520463 -0.082912 0.074279 -0.070061 -0.721693 -0.688658
-0.329329 0.220107 0.198610 -0.070061 0.721693 -0.688658
1.222523 -0.006528 -0.089188 -0.003152 -0.127129 -0.991154
1.307240 -0.081948 0.072276 -0.021771 -0.715406 -0.698370
1.418173 0.038345 -0.080789 0.000740 0.449634 -0.892193
-0.249325 0.093142 -0.069176 0.069206 0.689027 0.721424
-0.458032 -0.135639 0.123184 -0.070061 -0.721693 -0.688658
-0.080900 -0.444266 -0.427991 0.070136 0.688982 -0.721377
1.284881 0.124588 0.116654 -0.021771 0.715406 -0.698370
-0.466869 -0.149373 -0.146548 -0.070999 0.654282 -0.752910
-0.227460 -0.405523 -0.391720 -0.070999 0.654282 -0.752910
0.829819 0.056339 0.069448 0.000001 0.658442 0.751274
-0.173209 0.472879 -0.455368 -0.070999 -0.654282 -0.752910
-0.377915 0.176170 0.157509 -0.070061 0.721693 -0.688658
-0.102776 0.237888 -0.233008 0.070136 -0.688982 -0.721377
1.657507 0.250956 -0.244548 -0.021771 -0.664786 -0.746717
-1.475410 -0.000000 0.089427 -0.001672 -0.039946 0.997590
1.646996 0.016117 0.087962 -0.000735 0.190501 0.980550
-0.681670 0.082263 0.035071 -0.000659 0.892872 0.447897
1.473107 -0.230657 -0.221100 -0.021771 0.664786 -0.746717
-0.034808 0.028805 0.084660 0.000439 0.340618 0.939183
-0.411279 -0.119725 -0.126026 -0.070999 0.654282 -0.752910
1.636211 -0.281277 0.270921 -0.021771 0.664786 0.746717
1.592809 0.165047 0.166178 -0.021771 -0.664786 0.746717
-1.039311 -0.073687 0.050670 0.000244 -0.844753 0.533236
-0.090695 -0.251529 -0.235667 0.069206 -0.689027 0.721424
-0.301625 -0.186003 -0.160052 -0.070061 -0.721693 0.688658
1.677134 -0.043479 0.078145 0.042774 -0.435351 0.896123
1.714271 -0.172593 0.167330 0.041173 0.691487 0.721215
1.280589 0.054697 -0.070749 -0.000029 0.642968 -0.764520
1.648227 0.097904 0.087547 0.041173 0.688705 -0.723872
1.320115 -0.089238 0.005807 0.000545 -0.993108 0.110875
1.652637 -0.071936 0.053125 -0.002291 -0.786389 0.616277
-0.248403 0.177825 -0.150144 0.069206 0.689027 0.721424
1.020480 0.088940 0.009318 0.001111 0.984852 0.166628
1.524993 0.087677 -0.095321 -0.021771 -0.664786 -0.746717
-0.176509 0.165747 -0.145505 0.069206 0.689027 0.721424
0.942958 0.075854 0.047363 0.000033 0.837879 0.544095
-1.340649 0.086247 -0.023636 0.000487 0.978016 -0.204029
-0.389330 -0.222441 0.217357 -0.070999 0.654282 0.752910
-0.362223 -0.192050 0.172554 -0.070061 -0.721693 -0.688658
-0.295836 -0.332462 -0.312947 -0.070061 -0.721693 0.688658
-0.284403 0.121821 -0.139812 0.026459 -0.679474 -0.732486
-0.230774 0.427014 -0.410083 -0.070999 -0.654282 -0.752910
-0.112680 -0.006290 0.089205 0.000532 -0.123146 0.991687
1.383822 -0.090829 0.094011 -0.021771 0.664786 0.746717
-0.294615 -0.121602 -0.138659 -0.070999 0.654282 -0.752910
-1.555433 -0.000000 0.089427 -0.000068 -0.022952 0.999207
-0.365574 -0.147106 0.125795 -0.070061 -0.721693 -0.688658
-0.216916 -0.128779 0.106320 0.069206 -0.689027 -0.721424
-0.359942 0.245051 -0.239776 -0.070999 -0.654282 -0.752910
0.707276 0.089225 0.005996 -0.000857 0.992465 0.117365
-0.331091 -0.078227 0.097526 -0.070999 0.654282 0.752910
0.909391 0.010812 0.088771 0.000582 0.190120 0.980253
-1.302997 0.039272 -0.080342 -0.000066 0.488784 -0.871274
-1.171321 -0.005753 -0.089241 -0.001073 -0.108461 -0.993394
1.324374 0.088548 -0.012502 0.000905 0.985326 -0.163171
-0.166953 -0.231451 -0.209175 0.069206 -0.689027 0.721424
-0.310992 -0.273126 0.268789 -0.070999 0.654282 0.752910
-1.856226 -0.024341 -0.015573 -0.642380 -0.695579 -0.311445
1.560979 0.121396 -0.126389 -0.021771 -0.664786 -0.746717
1.428859 -0.193520 -0.182779 -0.021771 -0.715406 0.698370
-0.253064 -0.117427 -0.132568 0.070136 0.688982 -0.721377
1.474818 0.132449 -0.118786 -0.021771 0.715406 0.698370
-0.173001 -0.202640 0.181078 0.069206 -0.689027 -0.721424
-0.123874 0.274541 0.254463 0.069206 0.689027 -0.721424
1.430713 -0.111861 0.114102 -0.021771 0.664786 0.746717
1.647945 0.196830 0.194355 0.041173 -0.691487 0.721215
-1.130762 -0.088850 0.010139 0.000348 -0.988304 0.144696
-0.520660 -0.088770 0.010815 0.000772 -0.981973 0.182467
-0.192457 0.281408 -0.283293 0.070136 -0.688982 -0.721377
-0.252699 0.379814 -0.358183 -0.070061 0.721693 0.688658
1.663253 -0.259141 0.242694 -0.021771 -0.715406 -0.698370
1.713717 0.103488 0.096585 0.041173 0.688705 -0.723872
-1.695186 -0.078638 0.042572 -0.032264 -0.846308 0.528460
-0.718436 0.040968 0.079490 -0.001372 0.502281 0.863882
-0.126091 -0.357960 0.333923 0.069206 -0.689027 -0.721424
1.499954 0.215442 0.208337 -0.021771 -0.664786 0.746717
-1.779549 0.027092 0.068316 -0.367178 0.302423 0.877497
1.676338 0.311913 -0.296346 -0.021771 0.715406 0.698370
-0.357506 0.115253 -0.091593 -0.070061 0.721693 0.688658
-0.374461 0.012209 -0.088589 0.000532 0.120622 -0.992094
0.297087 0.088271 -0.014331 0.000442 0.990321 -0.132898
-1.803371 -0.010232 0.062470 -0.448851 -0.233801 0.859630
-0.202411 -0.173025 0.149972 0.069206 -0.689027 -0.721424
1.457745 0.236102 -0.225500 -0.021771 0.715406 0.698370
1.424934 -0.080449 0.039052 -0.000234 -0.902052 0.429473
1.038518 -0.081777 -0.036189 -0.000102 -0.924895 -0.377504
-0.269411 0.177835 0.189902 -0.070999 -0.654282 0.752910
-0.366782 0.162462 -0.167361 -0.070999 -0.654282 -0.752910
-0.349611 0.074157 0.092243 -0.070999 -0.654282 0.752910
-1.016322 -0.088082 -0.015452 0.000243 -0.981698 -0.184696
1.710491 0.056698 0.051884 0.041173 0.688705 -0.723872
-0.208624 0.325634 0.296920 -0.070061 0.721693 -0.688658
-0.490086 0.121568 -0.111699 -0.070061 0.721693 0.688658
-0.389747 0.197488 0.195633 -0.070999 -0.654282 0.752910
-1.052529 0.051094 -0.073393 0.000061 0.578229 -0.814607
-0.285460 -0.352200 0.332576 -0.070061 -0.721693 -0.688658
-0.293898 0.124896 0.095227 -0.023639 0.712076 -0.700851
-0.146088 0.077545 -0.044542 -0.000127 0.858672 -0.510705
-0.294314 0.263715 0.262184 -0.070999 -0.654282 0.752910
0.205057 0.089427 -0.000000 -0.000174 0.998652 0.026596
-0.271744 -0.149984 -0.165479 -0.023955 0.667092 -0.743764
-0.481343 0.087917 0.016364 -0.001285 0.988119 0.147884
-0.084298 0.279845 -0.271284 0.070136 -0.688982 -0.721377
-0.017299 -0.080473 0.039003 0.000139 -0.889281 0.455117
-0.448674 0.203052 0.192878 -0.070061 0.721693 -0.688658
-0.335205 -0.324562 -0.311204 -0.070999 0.654282 -0.752910
-0.200253 0.277024 0.249507 0.069206 0.689027 -0.721424
-1.555823 0.088909 0.009610 0.000610 0.986474 0.156424
-0.155840 0.088874 0.009923 0.001275 0.978698 0.196403
-0.150754 -0.512234 -0.486584 -0.070061 -0.721693 0.688658
-0.436640 -0.162611 0.160902 -0.070999 0.654282 0.752910
1.508417 -0.108254 0.113157 -0.021771 0.664786 0.746717
-0.141918 -0.356049 -0.330579 0.069206 -0.689027 0.721424
1.597991 0.126575 -0.111967 0.041173 0.688705 0.723872
-0.208106 -0.055204 -0.070353 0.000382 -0.653145 -0.755592
-1.390356 -0.060764 -0.065612 0.001283 -0.682762 -0.729430
1.658364 -0.297736 -0.286220 -0.021771 0.664786 -0.746717
-0.445726 0.057796 -0.068962 -0.070999 -0.654282 -0.752910
1.639666 -0.085259 -0.026981 0.000011 -0.961400 -0.271350
0.986819 0.050384 -0.073882 -0.000024 0.587342 -0.808054
-0.874116 -0.057008 0.068900 0.000003 -0.684351 0.727728
1.759403 -0.196690 -0.187858 0.041173 0.691487 -0.721215
1.760335 -0.211118 0.201637 0.041173 -0.688705 -0.723872
1.763131 -0.254401 -0.242976 0.041173 0.691487 -0.721215
1.764529 0.276042 -0.263646 0.041173 0.688705 0.723872
-1.440027 0.008976 -0.088975 0.000131 0.165515 -0.985024
-0.196804 -0.426441 -0.412788 -0.070999 0.654282 -0.752910
0.315006 -0.048962 0.074832 0.000078 -0.519753 0.853110
1.694842 -0.342754 -0.327362 -0.021771 -0.715406 0.698370
1.262987 -0.148496 0.141827 -0.021771 -0.715406 -0.698370
1.093633 -0.072316 0.069068 0.000000 0.723158 -0.690683
1.220649 0.129451 0.123637 -0.021771 0.715406 -0.698370
1.567826 0.285619 0.272793 -0.021771 0.715406 -0.698370
1.584762 -0.293237 -0.280069 -0.021771 -0.715406 0.698370
-0.409649 0.257156 0.245608 -0.070061 0.721693 -0.688658
-0.327276 0.347385 0.331785 -0.070061 0.721693 -0.688658
-1.126451 0.074728 -0.049121 -0.000064 0.862032 -0.504817
-0.243262 -0.213350 -0.223230 -0.023955 0.667092 -0.743764
-0.535953 0.118806 -0.113471 -0.070061 0.721693 0.688658
-0.043091 0.172670 0.164916 0.069206 0.689027 -0.721424
-0.123925 -0.415932 0.405113 0.070136 0.688982 0.721377
1.604428 -0.224320 0.219286 -0.021771 0.664786 0.746717
0.751305 -0.080781 -0.038360 -0.000852 -0.877404 -0.478366
-0.276466 0.250974 0.225580 -0.070061 0.721693 -0.688658
1.685469 0.038754 0.080593 0.212267 0.416007 0.881314
-0.154722 -0.526585 0.503782 -0.070999 0.654282 0.752910
1.342239 -0.048534 -0.075111 -0.000001 -0.507472 -0.860373
-0.863395 0.024675 -0.085955 -0.000024 0.330406 -0.942737
-0.479792 -0.033077 -0.083084 -0.000050 -0.414436 -0.908960
-0.290570 0.012355 0.088569 -0.001985 0.160247 0.985753
0.335065 -0.017173 0.087762 0.000015 -0.128410 0.990676
-0.287331 -0.061423 -0.064995 -0.000030 -0.672512 -0.738691
-0.518216 -0.009874 0.088880 0.000167 -0.139337 0.989110
1.713717 -0.101234 0.098944 0.041173 0.691487 0.721215
-0.261260 -0.093689 -0.068552 0.069206 -0.689027 0.721424
-0.889094 -0.030671 -0.084002 -0.000029 -0.392107 -0.918815
0.662205 0.008563 -0.089016 0.000324 0.158763 -0.986290
-0.133603 0.118269 0.104275 0.069206 0.689027 -0.721424
0.868337 -0.015105 -0.088142 -0.000132 -0.207170 -0.977296
-1.539816 -0.050030 0.074122 -0.000022 -0.544802 0.837332
1.508488 0.222235 -0.209712 -0.021771 0.715406 0.698370
-1.613946 0.033234 -0.083022 0.000045 0.397248 -0.916583
1.347170 0.110830 0.100618 -0.021771 0.715406 -0.698370
1.737181 -0.361799 -0.345551 -0.021771 -0.715406 0.698370
-1.567593 -0.070803 0.054627 0.000003 -0.780530 0.623458
0.277617 0.045816 -0.076799 0.000215 0.547604 -0.835519
1.660352 0.088929 -0.009417 0.000568 0.988932 -0.140256
0.275540 0.018076 0.087581 0.000455 0.261219 0.964285
-1.856208 0.014191 0.025190 -0.632014 0.347858 0.685301
-0.069698 -0.498487 -0.473549 0.069206 -0.689027 0.721424
1.277603 -0.067099 -0.059117 -0.000074 -0.790192 -0.611166
-0.225153 -0.220064 0.192716 0.069206 -0.689027 -0.721424
-0.136452 -0.078727 -0.042416 0.000172 -0.871273 -0.488878
-0.315085 -0.078665 -0.042531 -0.000021 -0.856874 -0.513530
-0.756754 0.061447 0.064973 0.000670 0.699764 0.713192
-1.101281 -0.006323 -0.089203 -0.000911 -0.117120 -0.992312
-1.166216 0.041935 -0.078984 0.000099 0.519084 -0.853534
-0.547413 -0.076632 -0.046094 -0.000069 -0.849735 -0.525267
1.490435 -0.066286 -0.060027 -0.000126 -0.720585 -0.692013
-0.230603 0.259603 -0.229957 -0.023639 0.712076 0.700851
-1.685469 -0.029551 0.084403 -0.000616 -0.340528 0.938842
1.342651 0.083687 0.031522 -0.000283 0.916021 0.398644
1.641205 -0.057964 -0.061598 -0.109380 0.718819 0.686539
-1.329458 -0.085729 -0.025450 -0.000290 -0.952084 -0.302121
-1.358935 0.017683 0.087661 0.000177 0.247610 0.967756
1.517585 0.088250 -0.014457 -0.000197 0.974408 -0.220999
-0.463032 -0.088261 0.014394 0.000915 -0.979460 0.197036
-0.515896 -0.093620 -0.085036 -0.070061 -0.721693 0.688658
0.155043 -0.089427 -0.000000 -0.001230 -0.998651 -0.029432
-1.063650 -0.082776 -0.033842 0.000129 -0.922405 -0.383538
1.672144 -0.197829 0.183977 0.041173 -0.688705 -0.723872
1.686375 0.338945 0.323724 -0.021771 0.715406 -0.698370
-0.182065 0.427661 -0.401139 -0.070061 0.721693 0.688658
1.657664 0.157765 -0.145037 0.041173 0.688705 0.723872
0.931232 -0.061276 0.065134 0.000169 -0.718826 0.693868
-0.238976 0.180584 -0.191519 0.070136 -0.688982 -0.721377
0.215060 -0.089427 -0.000000 -0.001679 -0.996462 -0.069963
1.578288 0.220594 0.215207 -0.021771 -0.664786 0.746717
1.574676 0.115969 0.121009 0.041173 -0.691487 0.721215
1.317863 -0.070941 -0.054448 -0.000264 -0.820592 -0.569757
0.815227 -0.089427 -0.000000 0.000840 -0.996463 -0.069490
-0.267374 0.248080 -0.221622 -0.070061 0.721693 0.688658
0.478995 -0.023436 -0.086301 -0.001051 -0.317625 -0.947255
1.646312 -0.151209 -0.150707 0.041173 0.691487 -0.721215
-1.227015 -0.063375 0.063093 0.000063 -0.662739 0.747513
-0.087529 -0.104313 -0.103949 0.070136 0.688982 -0.721377
1.188684 0.086467 -0.084438 -0.021771 -0.664786 -0.746717
0.515612 0.086218 0.023739 0.002465 0.956088 0.289500
-0.226729 0.120157 -0.097145 0.069206 0.689027 0.721424
-0.256314 -0.148449 0.121328 0.069206 -0.689027 -0.721424
1.480717 0.183740 -0.171144 -0.021771 0.715406 0.698370
-1.376430 0.077545 0.044542 -0.000127 0.858672 0.510705
0.085024 -0.000000 0.089427 0.002465 -0.022877 0.999208
-0.355544 0.256681 0.250297 -0.070999 -0.654282 0.752910
-1.219884 -0.030829 -0.083944 0.000037 -0.396641 -0.917001
-0.446665 0.159071 0.156881 -0.070999 -0.654282 0.752910
-0.370034 0.084547 0.029136 0.000445 0.921222 0.386453
-1.821879 0.032959 -0.041896 -0.494283 0.566584 -0.655918
-1.435399 -0.000000 0.089427 0.001520 -0.025071 0.999054
1.521437 0.241012 0.231727 -0.021771 -0.664786 0.746717
-0.849516 -0.074738 -0.049106 0.000235 -0.832475 -0.552279
1.740131 0.158116 -0.150061 0.041173 0.688705 0.723872
-0.229863 0.131942 -0.144175 0.070136 -0.688982 -0.721377
-0.195521 0.242681 -0.217161 0.069206 0.689027 0.721424
-0.143539 0.338828 0.333379 0.070136 -0.688982 0.721377
1.491768 -0.161206 0.147715 -0.021771 -0.715406 -0.698370
-0.431918 -0.078840 -0.061004 -0.070061 -0.721693 0.688658
-0.371442 -0.102941 0.080108 -0.070061 -0.721693 -0.688658
1.516319 0.193582 0.180116 -0.021771 0.715406 -0.698370
-0.508496 0.148883 0.142197 -0.070061 0.721693 -0.688658
1.233826 0.032997 -0.083116 -0.000021 0.426723 -0.903217
1.533955 -0.270383 0.258241 -0.021771 -0.715406 -0.698370
1.348035 -0.121637 -0.111662 -0.021771 -0.715406 0.698370
-0.104232 0.182347 0.180103 0.070136 -0.688982 0.721377
-1.500716 -0.088229 0.014586 0.001257 -0.982993 0.175984
-0.337238 -0.282901 -0.274809 -0.070999 0.654282 -0.752910
-0.255393 -0.054360 0.072560 0.070136 0.688982 0.721377
-0.270487 -0.125832 -0.098367 0.069206 -0.689027 0.721424
1.600608 -0.009094 0.088963 -0.000292 -0.121324 0.991684
-0.146312 0.499350 -0.480908 -0.070999 -0.654282 -0.752910
-0.266870 -0.413552 -0.394981 -0.070999 0.654282 -0.752910
-1.436064 -0.063106 0.063362 -0.000194 -0.735248 0.676207
-0.681786 0.023702 -0.086228 -0.000028 0.255204 -0.965828
-0.439824 0.115787 0.119912 -0.070999 -0.654282 0.752910
-0.815748 -0.044424 -0.077612 0.000109 -0.556113 -0.829425
0.911550 0.046287 -0.076516 -0.000156 0.544892 -0.837282
1.624410 0.232339 0.216449 -0.021771 0.715406 -0.698370
1.720245 -0.354181 0.338276 -0.021771 -0.715406 -0.698370
1.593273 0.089152 0.007001 -0.000067 0.990174 0.134041
-0.306419 -0.218869 -0.222071 -0.070999 0.654282 -0.752910
1.556658 -0.067772 0.064799 -0.109380 0.718819 -0.686539
-0.321974 -0.100055 -0.117354 -0.070999 0.654282 -0.752910
-0.316335 0.310245 0.291750 -0.070061 0.721693 -0.688658
-0.297062 0.093658 -0.114145 0.023090 -0.678658 -0.733252
-0.128915 -0.204999 -0.187560 0.069206 -0.689027 0.721424
-0.159479 0.259963 -0.259605 0.070136 -0.688982 -0.721377
0.202738 -0.044468 0.077587 -0.000227 -0.517983 0.854226
0.166265 0.069526 0.056243 -0.000848 0.801720 0.595904
1.693198 -0.313799 -0.297752 -0.021771 -0.715406 0.698370
1.025285 -0.000000 0.089427 -0.000309 -0.062675 0.997009
-0.160978 -0.407780 0.378159 0.019459 -0.701954 -0.710977
-0.184862 -0.309474 0.281977 0.069206 -0.689027 -0.721424
1.639620 -0.099383 0.088464 0.041173 -0.688705 -0.723872
-0.087109 -0.168838 -0.157034 0.069206 -0.689027 0.721424
-0.084081 -0.077769 0.078262 0.070136 0.688982 0.721377
0.536046 -0.019132 -0.087356 0.000136 -0.274990 -0.960323
-0.193716 0.359730 0.331134 -0.070061 0.721693 -0.688658
-0.139539 -0.142574 -0.145548 0.070136 0.688982 -0.721377
1.588389 -0.156633 -0.140019 -0.000785 -0.706818 0.707186
-1.306548 -0.072323 -0.052598 0.000067 -0.807616 -0.588118
-1.172505 0.089103 -0.007599 0.000575 0.991372 -0.123719
-0.072561 0.365629 -0.346383 0.069206 0.689027 0.721424
0.435455 -0.018333 0.087527 -0.000071 -0.267256 0.962552
-0.812362 0.027573 -0.085070 -0.002820 0.366812 -0.929245
-0.366875 -0.270152 -0.254876 -0.070061 -0.721693 0.688658
-0.259646 -0.218072 -0.189388 -0.070061 -0.721693 0.688658
-1.756712 -0.043477 0.068037 -0.280862 -0.545360 0.786879
1.402725 0.082918 -0.087519 -0.021771 -0.664786 -0.746717
-0.550677 0.078096 0.043568 0.000004 0.855072 0.516517
-0.074343 -0.225559 -0.212432 0.069206 -0.689027 0.721424
-1.723054 -0.020829 0.084848 -0.142830 -0.293659 0.943372
1.576514 0.077618 0.084135 0.041173 -0.691487 0.721215
1.347665 -0.186585 -0.178206 -0.021771 -0.715406 0.698370
1.725578 -0.176625 -0.166843 0.041173 -0.688705 0.723872
1.367785 0.133540 -0.131568 -0.021771 -0.664786 -0.746717
1.467703 -0.126154 -0.112559 -0.021771 -0.715406 0.698370
-0.132460 -0.244551 -0.242257 0.070136 0.688982 -0.721377
1.714782 0.189082 -0.178081 0.041173 0.688705 0.723872
1.568093 -0.132144 -0.115566 -0.000785 -0.706818 0.707186
-0.385801 -0.153871 0.158102 -0.070999 0.654282 0.752910
-0.231831 -0.303397 0.275976 -0.070061 -0.721693 -0.688658
0.471604 0.088844 0.010192 0.000458 0.981942 0.182397
1.151473 0.006509 -0.089189 -0.001286 0.109596 -0.993125
0.216754 -0.019269 -0.087326 0.000691 -0.276341 -0.959916
1.476360 0.095234 0.080614 -0.021771 0.715406 -0.698370
-0.294327 -0.383476 -0.366255 -0.070999 0.654282 -0.752910
-0.948956 0.008145 -0.089055 -0.000234 0.132753 -0.990198
-0.086709 0.190666 -0.186345 0.070136 -0.688982 -0.721377
-0.591121 -0.088791 0.010640 -0.001674 -0.986481 0.156031
0.516638 -0.016772 0.087840 -0.000837 -0.159540 0.986099
-0.369140 0.136205 0.114734 -0.070061 0.721693 -0.688658
1.155504 -0.009585 0.088911 0.001224 -0.176592 0.982804
-0.525527 0.061724 -0.064850 -0.070999 -0.654282 -0.752910
-0.129547 -0.266123 0.262578 0.070136 0.688982 0.721377
-0.296179 0.285850 -0.264135 -0.070061 0.721693 0.688658
-0.199758 -0.254187 0.227743 0.069206 -0.689027 -0.721424
1.753345 0.102911 -0.098290 0.041173 0.688705 0.723872
-0.221108 0.262634 -0.268148 0.018373 -0.677474 -0.734279
1.766858 -0.312111 -0.298095 0.041173 0.691487 -0.721215
-0.279759 0.128502 -0.100028 0.069206 0.689027 0.721424
-0.292336 0.189721 -0.163003 -0.070061 0.721693 0.688658
1.398471 -0.209439 -0.200034 -0.021771 -0.715406 0.698370
-0.433664 -0.092751 -0.100475 -0.070999 0.654282 -0.752910
-0.057036 0.405798 -0.388931 0.070136 -0.688982 -0.721377
-0.159908 -0.096560 0.081017 0.069206 -0.689027 -0.721424
-0.480152 0.076221 0.063166 -0.070061 0.721693 -0.688658
-0.492021 0.166928 -0.159432 -0.070061 0.721693 0.688658
1.260735 -0.089168 -0.006793 0.001370 -0.991263 -0.126174
1.587271 0.258467 -0.249186 -0.021771 -0.664786 -0.746717
1.566393 -0.156133 0.140193 -0.021771 -0.715406 -0.698370
-0.181107 0.306798 0.279781 0.069206 0.689027 -0.721424
1.581882 -0.096462 0.101895 0.041173 0.691487 0.721215
-0.252951 0.291761 0.265931 -0.070061 0.721693 -0.688658
-1.217420 -0.088062 0.015564 -0.000243 -0.979858 0.195088
1.769188 -0.348180 -0.332544 0.041173 0.691487 -0.721215
-0.233767 -0.252867 -0.223220 0.022783 -0.701187 0.711772
-1.790720 -0.065907 -0.020651 -0.394432 -0.897771 -0.185054
-0.095742 -0.299101 -0.280618 0.069206 -0.689027 0.721424
1.725187 -0.280365 0.270037 0.041173 0.691487 0.721215
0.821249 0.088982 0.008904 0.000836 0.985688 0.162185
-0.243262 0.232661 0.203011 -0.023639 0.712076 -0.700851
-1.807673 -0.042573 -0.043898 -0.461053 -0.559307 -0.686705
0.124794 0.021452 0.086816 -0.001338 0.215657 0.975798
-0.350889 -0.161131 -0.138998 -0.070061 -0.721693 0.688658
-1.441746 -0.089149 -0.007046 -0.001281 -0.993966 -0.102454
-0.010819 0.076882 0.045676 -0.000021 0.824863 0.563524
-0.260670 -0.219928 0.227306 -0.070999 0.654282 0.752910
-0.295836 0.332462 -0.312947 -0.070061 0.721693 0.688658
1.462141 0.153210 0.151831 -0.021771 -0.664786 0.746717
1.663910 -0.314397 0.301214 -0.021771 0.664786 0.746717
1.558481 0.070295 -0.078143 0.041173 -0.691487 -0.721215
1.396850 0.075379 0.080636 -0.021771 -0.664786 0.746717
-0.146753 -0.037469 0.081199 0.000207 -0.370523 0.927956
1.110568 0.079934 -0.076344 -0.021771 0.715406 0.698370
-0.228921 -0.181802 -0.191706 0.070136 0.688982 -0.721377
1.142204 -0.083035 0.033202 0.000499 -0.905789 0.421404
-0.375901 0.054360 -0.072560 -0.070999 -0.654282 -0.752910
0.184179 0.060499 -0.065856 -0.000464 0.658979 -0.750577
1.261788 -0.065506 0.060878 0.000145 -0.771141 0.635052
0.552917 -0.079107 0.041704 -0.000004 -0.852873 0.520166
-0.099826 0.419803 0.406467 0.070136 -0.688982 0.721377
0.029159 0.088168 0.014952 0.000542 0.972380 0.229122
-0.043091 -0.179870 -0.171793 0.069206 -0.689027 0.721424
-0.201036 -0.194132 -0.170262 0.069206 -0.689027 0.721424
-0.330416 0.159795 0.168472 -0.070999 -0.654282 0.752910
1.384361 -0.083865 0.031044 0.000124 -0.956290 0.289153
-0.102361 -0.393595 -0.381683 0.070136 0.688982 -0.721377
0.621289 0.005597 0.089251 0.002596 0.110035 0.993310
0.895232 -0.038986 -0.080481 -0.000058 -0.466025 -0.883534
-0.393740 0.081876 -0.035963 -0.000140 0.906792 -0.419249
1.755209 -0.131767 -0.125849 0.041173 0.691487 -0.721215
1.750084 0.009125 0.047608 1.000000 -0.000000 0.000000
-0.483729 0.116107 0.105330 -0.070061 0.721693 -0.688658
1.694759 -0.124916 -0.115894 0.041173 -0.688705 0.723872
-0.212202 0.173338 0.149331 0.069206 0.689027 -0.721424
-0.174476 0.116170 0.123727 0.070136 -0.688982 0.721377
0.861465 -0.057861 0.068185 0.001594 -0.686000 0.726308
-0.326894 0.304481 -0.286784 -0.070061 0.721693 0.688658
0.094239 -0.087364 -0.019094 -0.000658 -0.961094 -0.272760
0.094239 0.087364 -0.019094 -0.000658 0.961094 -0.272760
-0.065018 -0.089427 -0.000000 -0.001428 -0.996406 -0.069749
1.427928 0.150898 -0.139147 -0.021771 0.715406 0.698370
1.293053 0.117683 -0.115272 -0.021771 -0.664786 -0.746717
-0.249434 0.112209 0.087375 0.069206 0.689027 -0.721424
-0.170472 -0.375285 -0.370817 -0.023955 0.667092 -0.743764
0.731441 -0.027388 -0.085129 -0.000145 -0.337918 -0.940165
-0.361276 -0.203257 -0.203331 -0.070999 0.654282 -0.752910
1.547835 -0.209673 -0.204597 -0.021771 0.664786 -0.746717
-0.336928 -0.132728 0.107813 -0.070061 -0.721693 -0.688658
1.184150 0.088314 0.082635 -0.021771 0.715406 -0.698370
-0.446995 0.017412 -0.087715 -0.000002 0.242839 -0.968957
-0.325747 0.090792 -0.062728 -0.070061 0.721693 0.688658
1.756607 -0.315772 0.302190 0.041173 0.691487 0.721215
-0.269587 -0.139208 0.154978 0.070136 0.688982 0.721377
-0.439211 -0.006573 0.089185 -0.000233 -0.050655 0.998072
1.006171 -0.034558 -0.082480 -0.000052 -0.354310 -0.934016
1.741409 0.084804 0.081610 0.041173 -0.691487 0.721215
1.209221 0.059392 -0.066856 0.000121 0.645285 -0.762610
1.605144 0.210767 -0.207242 -0.021771 -0.664786 -0.746717
-0.240765 -0.079168 -0.094832 0.070136 0.688982 -0.721377
1.285357 -0.000000 0.089427 -0.001643 -0.027711 0.998838
-0.272729 -0.290152 -0.287193 -0.070999 0.654282 -0.752910
-0.512489 -0.107788 0.099538 -0.070061 -0.721693 -0.688658
-0.253756 0.089012 0.008597 0.000335 0.990927 0.126802
1.346071 -0.075294 0.079080 -0.021771 0.664786 0.746717
-0.354024 0.196812 -0.176710 -0.070061 0.721693 0.688658
0.784272 0.021609 -0.086777 -0.001091 0.184322 -0.982055
-0.122781 -0.154279 0.139706 0.069206 -0.689027 -0.721424
-0.211955 0.473704 -0.452431 -0.070061 0.721693 0.688658
-0.392389 -0.166726 -0.168652 -0.070999 0.654282 -0.752910
-0.252023 0.067853 0.058432 -0.000000 -0.723158 -0.690683
-0.195726 -0.121625 -0.101520 0.069206 -0.689027 0.721424
-0.215060 0.089427 -0.000000 -0.000468 0.997951 0.040277
1.235335 0.098533 -0.096541 -0.021771 -0.664786 -0.746717
-1.425030 -0.083659 0.031596 0.000311 -0.911072 0.409773
-0.302756 0.255215 -0.232699 -0.070061 0.721693 0.688658
-1.826016 0.046367 0.020743 -0.546534 0.772025 0.311519
0.978840 -0.088140 0.015114 0.000341 -0.975619 0.214674
1.259513 -0.114104 -0.111108 -0.021771 0.664786 -0.746717
-0.027360 0.027918 -0.084957 -0.000049 0.353064 -0.934536
-0.528925 0.057026 0.068885 -0.000011 0.613741 0.788200
-0.391150 -0.122853 0.102981 -0.070061 -0.721693 -0.688658
-0.551899 -0.086592 -0.083973 -0.070999 0.654282 -0.752910
-0.173888 0.180094 -0.184723 0.070136 -0.688982 -0.721377
1.229602 -0.010963 0.088752 -0.001164 -0.182661 0.981750
-0.905788 -0.088324 0.014003 -0.000068 -0.979019 0.198807
-1.546410 0.065258 -0.061144 0.000112 0.771009 -0.635208
-1.495689 0.074132 -0.050016 -0.000369 0.806377 -0.589719
-0.119537 0.108363 -0.096163 0.069206 0.689027 0.721424
0.659736 0.077956 -0.043818 0.000012 0.883851 -0.465545
1.347618 0.156240 0.147122 -0.021771 0.715406 -0.698370
-0.698533 -0.027127 -0.085213 0.000001 -0.288525 -0.956400
1.718822 -0.081643 -0.076091 0.041173 -0.688705 0.723872
-0.201602 -0.081960 0.035772 0.000093 -0.903133 0.426936
-1.771865 0.070962 -0.027745 -0.299237 0.903368 -0.303659
1.528121 0.115721 0.120378 -0.021771 -0.664786 0.746717
-0.162754 0.054971 0.070536 -0.000703 0.568095 0.821710
-0.039842 0.085529 0.026113 0.001236 0.949168 0.311055
-0.324303 -0.038565 0.080684 -0.000010 -0.399266 0.915655
0.016281 -0.083749 -0.031356 -0.000170 -0.911293 -0.409210
0.314328 0.087247 0.019623 -0.000344 0.967124 0.250204
1.085712 -0.038100 0.080904 0.000081 -0.471343 0.880786
-1.416475 -0.036077 0.081826 -0.000146 -0.386782 0.921091
1.754998 -0.265853 0.253409 0.041173 -0.688705 -0.723872
1.639439 -0.229387 0.212956 -0.021771 -0.715406 -0.698370
-1.199228 0.053903 -0.071355 0.000141 0.593518 -0.803572
1.201459 0.088629 -0.011919 0.002685 0.989954 -0.134960
-1.665054 -0.019916 -0.087181 0.000255 -0.249312 -0.967258
0.379553 0.078291 0.043216 0.000000 0.858289 0.511142
0.129202 0.061722 -0.064711 0.000038 0.659135 -0.750607
-0.058175 0.097983 0.095049 0.070136 -0.688982 0.721377
0.372425 -0.052270 -0.072560 0.000014 -0.565943 -0.823186
0.679276 0.084912 0.028053 0.000031 0.939760 0.338802
-0.190072 -0.008612 0.089011 -0.000089 -0.064015 0.996919
1.054005 -0.016704 -0.087853 0.001543 -0.132263 -0.990447
-0.273107 -0.118420 0.091037 0.069206 -0.689027 -0.721424
-0.583792 0.048054 0.075418 0.000097 0.589719 0.806327
1.565435 -0.089427 -0.000000 -0.000402 -0.995489 -0.079086
-0.871473 0.085707 -0.025524 -0.000669 0.955989 -0.289829
-1.110605 -0.067554 -0.058597 -0.000045 -0.787564 -0.614562
-1.546677 0.055856 0.069837 0.000031 0.574132 0.817500
-0.798989 -0.060242 0.066091 -0.000032 -0.701998 0.710742
-0.078947 -0.255518 0.240603 0.069206 -0.689027 -0.721424
-0.896908 0.044393 -0.077630 -0.000148 0.494203 -0.868118
-1.193836 -0.082914 -0.033502 -0.000060 -0.923834 -0.380081
0.764843 0.075361 0.048143 0.000236 0.863282 0.502661
1.205331 0.029745 0.084335 -0.000106 0.387144 0.920890
-0.052354 0.183705 -0.174567 0.069206 0.689027 0.721424
0.420496 0.026427 0.085433 0.000015 0.325147 0.944577
1.628186 -0.179698 0.164227 0.041173 -0.688705 -0.723872
0.999965 -0.065753 0.060611 0.000724 -0.689937 0.722300
-0.703837 0.079537 -0.040878 0.000079 0.864435 -0.500732
-0.405190 0.082194 0.035232 -0.000022 0.941473 0.334029
-0.858522 -0.028933 0.084617 -0.000008 -0.361789 0.931146
-0.199629 -0.209710 0.215512 0.070136 0.688982 0.721377
1.060722 -0.078830 0.042226 -0.000649 -0.850650 0.523790
-0.313864 0.097249 0.068286 -0.070061 0.721693 -0.688658
1.719996 0.073181 -0.033228 0.254120 0.895688 -0.361745
-0.355315 -0.085150 -0.027324 0.000027 -0.945878 -0.321324
-0.909615 -0.075892 0.047303 0.000004 -0.825072 0.563199
0.060085 0.056075 0.069661 -0.000164 0.674113 0.737222
-0.316475 -0.080429 0.039094 -0.000010 -0.868571 0.493474
0.053661 -0.061812 0.064626 -0.000073 -0.734783 0.676780
1.336644 0.047344 0.075866 0.000316 0.534115 0.844183
-0.283670 -0.193646 0.166235 -0.070061 -0.721693 -0.688658
0.800481 0.076741 0.045913 0.000448 0.844714 0.533306
1.603922 0.059611 0.066661 -0.000069 0.657043 0.752477
1.017990 0.073826 -0.050467 0.000012 0.859154 -0.509696
-1.602916 -0.048015 -0.075444 0.000023 -0.559783 -0.827389
1.715472 0.148008 0.143690 0.041173 -0.691487 0.721215
1.500811 0.032246 0.083411 -0.000069 0.403805 0.913751
-1.472725 0.055551 -0.070080 0.000330 0.643666 -0.763911
1.722635 -0.230339 0.222219 0.041173 0.691487 0.721215
-0.814610 -0.079669 0.040621 0.000069 -0.859342 0.509376
0.646550 0.048054 -0.075418 0.000097 0.589719 -0.806327
-1.517835 0.088938 0.009337 -0.001165 0.983965 0.171571
1.241830 -0.068983 -0.056908 -0.000100 -0.796083 -0.603471
1.195838 -0.081057 0.037774 -0.000429 -0.880031 0.472718
-0.159148 0.460719 0.433451 -0.070061 0.721693 -0.688658
0.628902 0.052298 0.072540 0.000109 0.615102 0.787142
-0.096219 0.087773 0.017115 -0.000301 0.977040 0.208602
-0.530947 0.088893 0.009756 -0.000277 0.988545 0.142866
0.146492 -0.078914 0.042068 0.000590 -0.850066 0.524819
-0.123408 0.155993 -0.156797 0.070136 -0.688982 -0.721377
-0.079900 -0.307468 0.297239 0.070136 0.688982 0.721377
0.611522 -0.053882 -0.071371 -0.000106 -0.630075 -0.775223
1.170428 0.054116 -0.071194 -0.000598 0.638542 -0.768294
0.608324 -0.080903 0.038102 0.000204 -0.874270 0.483294
-0.241435 -0.173769 0.146939 0.069206 -0.689027 -0.721424
-0.146776 0.210789 -0.191377 0.069206 0.689027 0.721424
1.418249 -0.056645 0.069199 0.000478 -0.678032 0.733656
1.535372 -0.017180 -0.087761 -0.000030 -0.254523 -0.965991
1.190207 -0.049128 0.074723 0.000056 -0.597100 0.800890
-0.016833 -0.076835 -0.045756 0.000245 -0.848834 -0.526728
-0.232785 0.107588 0.121199 0.070136 -0.688982 0.721377
1.735118 -0.025527 -0.072015 0.254102 -0.283006 -0.923469
-0.574178 -0.048333 0.075240 -0.000045 -0.515183 0.855863
-0.753469 0.056584 -0.069249 0.000074 0.585212 -0.809561
-0.180027 0.335482 -0.333730 0.070136 -0.688982 -0.721377
0.838578 0.018082 -0.087579 0.000048 0.227360 -0.972754
-0.431147 -0.207791 0.196062 -0.070061 -0.721693 -0.688658
-0.156053 -0.102972 -0.109331 0.070136 0.688982 -0.721377
1.397627 -0.130736 -0.129942 -0.021771 0.664786 -0.746717
-0.340790 -0.009450 -0.088926 0.001690 -0.127956 -0.990765
-0.260274 -0.010054 0.088860 -0.000391 -0.148257 0.987681
-0.197874 -0.089201 -0.006344 0.002342 -0.992010 -0.119655
-1.666803 0.030491 0.084068 -0.000243 0.385216 0.921669
1.206053 -0.070663 -0.054808 0.000044 -0.776526 -0.628470
-1.543444 0.028833 -0.084651 -0.000064 0.283686 -0.957644
-0.556021 -0.041156 -0.079393 0.000048 -0.503938 -0.862572
-0.315924 0.123817 -0.096337 -0.070061 0.721693 0.688658
-1.162975 -0.066120 0.060211 -0.000060 -0.765840 0.641429
1.715954 -0.025216 0.077429 0.254112 -0.233897 0.937256
-0.246786 -0.079030 0.041850 -0.000013 -0.850969 0.523239
-0.401034 -0.078249 0.043291 -0.000132 -0.887377 0.458804
-1.159651 -0.084247 0.029992 -0.000478 -0.933474 0.355937
-0.419752 0.167360 -0.152532 -0.070061 0.721693 0.688658
0.238117 0.088048 0.015640 0.000249 0.978153 0.203166
0.703263 -0.080878 0.038155 0.000876 -0.918751 0.392017
0.530315 0.026948 -0.085270 0.000045 0.361770 -0.931155
0.268641 -0.079993 -0.039978 -0.000071 -0.911410 -0.408986
-1.624083 -0.081876 0.035963 -0.000140 -0.906792 0.419249
1.366847 0.126514 0.125285 -0.021771 -0.664786 0.746717
0.068818 -0.023118 -0.086387 -0.000250 -0.229168 -0.972638
0.761537 -0.079992 0.039981 0.000287 -0.882932 0.467350
1.449645 -0.197326 0.186030 -0.021771 -0.715406 -0.698370
0.969067 -0.052817 0.072163 -0.000051 -0.627019 0.777714
-1.232843 0.048730 0.074983 -0.000702 0.582181 0.811825
-0.225715 -0.343138 0.317002 -0.070061 -0.721693 -0.688658
-0.202758 -0.093084 0.073587 0.069206 -0.689027 -0.721424
-0.668921 -0.044607 -0.077507 0.000026 -0.542012 -0.839175
-1.280855 0.073846 -0.050437 -0.000483 0.790230 -0.611212
0.081164 0.032457 -0.083329 -0.000612 0.420760 -0.906004
0.054698 0.075161 -0.048456 -0.000094 0.861973 -0.504955
-0.174453 0.013859 -0.088346 0.000710 0.199722 -0.978863
-0.682653 0.057404 0.068571 -0.000509 0.670780 0.740442
-0.479075 0.096619 -0.084433 -0.070061 0.721693 0.688658
-1.301030 0.087612 -0.017924 -0.000464 0.964478 -0.260515
1.160695 -0.052925 -0.072083 -0.000534 -0.573225 -0.818136
-0.322297 -0.176483 0.152178 -0.070061 -0.721693 -0.688658
-0.051865 0.146422 0.140700 0.070136 -0.688982 0.721377
1.444674 0.085984 -0.024574 -0.000481 0.951774 -0.303501
1.599783 -0.096080 -0.100507 0.041173 0.691487 -0.721215
1.585856 0.171080 -0.171347 -0.021771 -0.664786 -0.746717
-1.341333 0.077579 0.044482 0.000008 0.887335 0.459080
-0.742325 -0.019928 -0.087178 -0.000191 -0.269831 -0.961880
-0.224690 0.018011 0.087594 -0.000070 0.231351 0.971805
1.611463 -0.082263 0.035071 0.000007 -0.914136 0.402842
-1.380195 -0.084445 0.029430 0.000115 -0.936737 0.347117
-1.255349 -0.089427 0.000000 0.001416 -0.996161 -0.072693
-0.429202 0.088891 -0.009777 -0.001600 0.983040 -0.176539
1.461112 -0.166700 0.163811 -0.021771 0.664786 0.746717
0.193909 -0.061332 -0.065081 -0.000671 -0.674114 -0.737117
-0.722453 -0.076071 -0.047014 0.000166 -0.816928 -0.574998
