1.558735 0.131069 -0.108108 0.072851 0.619309 0.781760
0.600101 -0.014848 -0.114302 0.000566 -0.147150 -0.988519
-0.515789 0.115263 -0.000000 -0.000339 0.998619 0.034054
-0.830763 -0.092062 0.069354 -0.000995 -0.787314 0.615348
0.555850 -0.115263 -0.000000 0.000615 -0.999054 -0.025503
-0.400179 -0.115061 0.006807 -0.001715 -0.994966 0.096215
1.361718 0.266390 -0.219722 -0.026427 0.689009 0.724271
-1.625647 0.038953 -0.000000 -0.726171 0.682635 0.045849
1.157650 -0.137469 0.121270 -0.026427 0.579957 0.814218
-0.342750 0.114892 -0.009229 -0.000025 0.990927 -0.129471
0.806233 0.000000 0.115263 -0.000506 0.060428 0.997242
-1.052883 0.006315 0.115089 -0.000740 0.036898 0.998975
1.231949 -0.149646 -0.132355 -0.026427 0.579957 -0.814218
0.813765 0.107784 0.040842 0.000073 0.943140 0.330527
1.473018 -0.268418 -0.217590 -0.026427 -0.689009 0.724271
0.267351 -0.740739 0.612841 -0.032944 0.623628 0.781026
0.017203 -0.312593 0.252959 -0.059504 -0.657022 -0.751519
0.375574 0.000000 -0.115263 0.000929 -0.041609 -0.998704
1.399347 0.156671 0.114945 -0.000000 0.636297 -0.771444
0.310445 0.668917 -0.546306 0.107254 0.632627 0.766994
1.473684 -0.158008 -0.121523 0.072851 -0.619309 0.781760
-0.238252 0.042418 -0.107174 0.000334 0.413628 -0.909787
1.475499 -0.272751 0.221622 -0.026427 -0.689009 -0.724271
0.116927 0.526886 0.432410 -0.059504 0.657022 -0.751519
0.255432 0.490104 -0.411496 0.059528 -0.635169 -0.770076
1.383779 -0.240784 0.194558 -0.026427 -0.689009 -0.724271
-0.597970 0.055038 0.101273 -0.000149 0.501533 0.864490
1.190704 0.084154 0.055131 0.000000 0.636297 -0.771444
-1.023283 0.043714 0.106652 -0.000256 0.400849 0.915493
-1.337189 -0.114713 -0.011240 -0.001201 -0.995450 -0.091253
0.349243 0.380597 -0.313922 0.059528 -0.635169 -0.770076
0.329616 -0.191610 0.155298 0.107254 -0.632627 -0.766994
0.146821 -0.618702 -0.510314 -0.059504 -0.657022 0.751519
0.854342 -0.026968 0.112063 0.000025 -0.281909 0.958805
0.078480 -0.112082 0.026892 0.000054 -0.958986 0.281195
-0.113842 0.114780 -0.096951 -0.032944 -0.623628 -0.781026
0.349243 0.679952 0.560834 0.059528 -0.635169 0.770076
1.248856 0.100645 0.097293 -0.000000 -0.636297 0.771444
-0.092602 -0.235306 0.194084 -0.059504 -0.657022 -0.751519
1.529669 0.294007 -0.244844 -0.026427 -0.579957 -0.814218
1.480464 0.222979 0.192655 -0.026427 -0.579957 0.814218
1.319606 0.219261 0.176425 -0.026427 0.689009 -0.724271
-0.880569 -0.088138 0.074277 0.000326 -0.778736 0.626400
0.255478 -0.723965 -0.593738 -0.059504 -0.657022 0.751519
-0.476468 -0.103449 0.050832 0.000261 -0.907376 0.418855
0.084571 -0.197191 0.146733 -0.059504 -0.657022 -0.751519
0.610822 -0.042278 0.107229 -0.000004 -0.343097 0.938634
-0.847827 -0.114840 -0.009865 -0.001142 -0.993696 -0.105992
0.749439 0.057744 -0.099755 0.000057 0.511278 -0.858602
0.184686 -0.104385 -0.098819 0.059528 0.635169 -0.770076
0.104451 -0.468006 0.388200 -0.032944 0.623628 0.781026
-0.375207 0.074817 0.087681 -0.000011 0.668323 0.743034
1.427232 -0.202007 0.175989 -0.026427 0.579957 0.814218
0.104791 -0.256119 -0.219028 -0.032944 0.623628 -0.781026
1.409523 0.173642 -0.129745 -0.026427 0.689009 0.724271
0.303735 -0.222034 0.186655 0.059528 0.635169 0.770076
-0.670322 0.014499 0.114347 -0.000581 0.159431 0.986597
1.206862 -0.124164 0.090071 -0.026427 -0.689009 -0.724271
0.298780 -0.495798 -0.412842 0.059528 0.635169 -0.770076
-0.045252 0.050268 -0.103724 0.000302 0.412752 -0.910123
-0.029420 0.243443 0.203246 -0.032944 -0.623628 0.781026
-1.087939 0.104914 -0.047733 0.000011 0.920279 -0.389663
0.310571 -0.509451 0.414794 0.107254 -0.632627 -0.766994
1.165636 0.113295 -0.021204 -0.000754 0.975321 -0.217674
-0.392195 0.108477 0.038964 0.000017 0.922535 0.384294
0.017413 -0.290602 -0.233716 -0.059504 -0.657022 0.751519
-0.721835 -0.065464 0.094868 0.000344 -0.524921 0.850441
1.274458 0.101220 -0.097768 -0.000000 -0.636297 -0.771444
-0.099290 0.124608 0.097834 -0.059504 0.657022 -0.751519
-0.858872 -0.007493 -0.115019 -0.001778 -0.103055 -0.994223
-0.285632 0.077163 0.085623 0.000006 0.688527 0.724384
-0.045023 -0.099967 -0.057377 -0.000003 -0.840816 -0.540166
0.137517 -0.176870 -0.124775 -0.059504 -0.657022 0.751519
-0.169580 0.042617 -0.107095 -0.000028 0.394377 -0.918281
1.250579 0.024621 0.112602 -0.000260 0.263962 0.963760
-0.221399 -0.084474 0.078420 -0.000154 -0.752355 0.657890
-0.252074 -0.103692 0.050333 -0.000387 -0.886968 0.460490
0.128210 0.116859 -0.108821 -0.032944 -0.623628 -0.781026
1.555876 -0.250928 0.211283 0.072851 0.649657 0.756729
1.421944 -0.115026 0.007382 -0.000439 -0.995039 0.093561
1.436444 -0.093169 -0.067860 -0.000056 -0.793144 -0.608021
-1.010323 0.054351 -0.101644 0.000300 0.495790 -0.867743
-1.039119 0.114802 0.010290 -0.000496 0.992588 0.115154
1.594190 -0.324886 0.266888 -0.026427 -0.689009 -0.724271
0.034290 -0.125332 -0.111625 -0.032944 0.623628 -0.781026
1.061892 -0.083153 -0.056345 -0.000000 0.771444 0.636297
0.759202 -0.104284 0.049094 0.000004 -0.914438 0.403240
0.384080 -0.025527 0.112400 -0.000327 -0.247873 0.968210
-0.074217 -0.078329 0.084557 -0.000150 -0.713525 0.699805
1.496396 -0.032958 0.088148 0.475580 -0.277706 0.833888
0.207247 -0.105977 0.045325 0.000178 -0.927407 0.372554
1.529458 -0.134646 0.108213 0.072851 -0.619309 -0.781760
0.149259 0.417656 -0.334355 -0.059504 0.657022 0.751519
0.029517 -0.058141 -0.099524 0.000066 -0.482570 -0.875156
-0.464071 -0.111436 -0.029453 -0.000003 -0.959770 -0.278580
-0.960567 0.008055 0.114981 -0.000447 0.115605 0.992739
-0.194102 -0.100115 -0.057117 -0.000587 -0.880780 -0.472258
1.085966 -0.114328 -0.085125 -0.026427 -0.689009 0.724271
-0.005540 0.107407 -0.041824 -0.000098 0.922248 -0.385013
0.053071 0.113373 0.020785 0.000217 0.978158 0.204746
-1.586954 0.000000 -0.071173 -0.581803 -0.038530 -0.810443
0.540631 -0.042985 0.106947 -0.000131 -0.417590 0.907973
0.151835 -0.551196 -0.450899 -0.059504 -0.657022 0.751519
-0.946860 0.077663 -0.085170 -0.000054 0.690903 -0.722112
0.059511 0.411239 -0.340977 -0.032944 -0.623628 -0.781026
0.655730 0.051426 0.103154 0.000219 0.488894 0.871632
-0.338709 -0.114796 0.010361 -0.000331 -0.992443 0.116233
-1.139077 -0.114011 0.016939 0.000476 -0.985519 0.166124
-0.018599 0.353811 0.291828 -0.059504 0.657022 -0.751519
0.764368 -0.051944 0.102895 -0.000150 -0.470598 0.881652
0.088104 0.110329 -0.033361 0.000046 0.949603 -0.311510
0.955044 -0.111603 0.028812 0.000008 -0.953985 0.297776
1.108667 0.055616 -0.100957 0.000295 0.507809 -0.860776
-0.916002 0.049803 -0.103948 -0.000987 0.476948 -0.878223
-1.584056 -0.007636 0.072712 -0.563071 -0.130971 0.814560
0.159847 -0.287415 0.219652 -0.059504 -0.657022 -0.751519
0.305889 -0.675692 0.551257 0.107254 -0.632627 -0.766994
-0.844983 0.112091 0.026854 -0.000169 0.978909 0.200132
0.245324 0.532623 0.427259 -0.059504 0.657022 -0.751519
0.709748 0.110256 0.033601 -0.000094 0.948145 0.316084
1.268062 0.167386 -0.146163 -0.026427 -0.579957 -0.814218
0.217826 0.664939 -0.550228 -0.032944 -0.623628 -0.781026
1.107880 0.111036 -0.100827 -0.026427 -0.579957 -0.814218
-0.989491 0.008126 -0.114976 -0.000795 0.039716 -0.998711
-0.625957 -0.115263 0.000000 -0.000560 -0.999190 -0.020832
-1.177939 0.109381 -0.036348 -0.000248 0.931338 -0.362452
0.534714 -0.038160 -0.108762 0.000182 -0.369750 -0.928491
0.313897 -0.457640 0.372525 0.107254 -0.632627 -0.766994
-1.051004 -0.095173 0.065019 -0.000476 -0.811703 0.583261
-1.070401 -0.112680 -0.024261 0.000506 -0.971686 -0.233887
1.384744 0.213946 0.183114 -0.026427 -0.579957 0.814218
0.198877 -0.532854 0.431139 -0.059504 -0.657022 -0.751519
0.318114 0.604379 0.494147 0.107254 0.632627 -0.766994
1.397914 -0.021697 -0.113202 0.000255 -0.210690 -0.976899
1.180786 -0.084154 0.055131 0.000000 -0.636297 -0.771444
-1.096048 -0.111725 0.028337 -0.000051 -0.974526 0.221310
-0.026623 0.120433 -0.105144 -0.032944 -0.623628 -0.781026
-0.627958 0.084072 0.078850 0.000024 0.720211 0.692941
0.323540 -0.111431 -0.029473 0.000654 -0.958795 -0.281950
0.689595 0.008982 -0.114912 0.000761 0.091171 -0.995305
0.088469 0.339277 -0.270644 -0.059504 0.657022 0.751519
1.245152 0.030823 -0.111065 0.000647 0.254253 -0.966690
-1.235993 -0.017282 0.113960 -0.000365 -0.099799 0.994367
0.380710 -0.086295 -0.076411 -0.000529 -0.750158 -0.660525
-0.625957 0.115263 -0.000000 -0.000813 0.998885 0.031652
-0.703929 0.044720 0.106234 -0.000232 0.367295 0.929463
1.305306 -0.118163 0.083182 0.000000 -0.636297 -0.771444
-0.690698 0.108085 0.040039 0.000360 0.926705 0.374180
1.501363 0.048832 0.077292 0.475680 0.436480 0.762694
0.237146 0.599737 0.486582 -0.059504 0.657022 -0.751519
-0.550809 0.057284 0.100020 0.000359 0.516818 0.855429
0.219035 0.455819 -0.362194 -0.059504 0.657022 0.751519
-0.569970 0.100478 -0.056477 0.000003 0.862117 -0.505581
-0.050245 0.037751 0.108905 0.000100 0.324334 0.945241
0.203483 0.551978 0.459426 -0.032944 -0.623628 0.781026
-1.380210 -0.095619 0.064361 -0.001659 -0.800861 0.597913
1.014915 -0.166360 0.137216 -0.026427 -0.689009 -0.724271
-0.163438 -0.113855 0.017958 0.000038 -0.978807 0.201799
-0.492247 -0.114854 0.009697 -0.000419 -0.993188 0.110042
0.201229 0.412334 -0.325587 -0.059504 0.657022 0.751519
1.320458 0.018955 -0.113693 -0.000319 0.186726 -0.981767
0.992090 0.107166 -0.042437 0.000040 0.940062 -0.339171
0.096947 -0.289311 0.226290 -0.059504 -0.657022 -0.751519
0.099030 -0.125089 0.114162 -0.032944 0.623628 0.781026
0.120976 -0.169509 0.119649 -0.059504 -0.657022 -0.751519
0.962556 -0.010335 -0.114798 -0.000322 -0.141531 -0.989183
-1.457228 0.029841 -0.111333 -0.059150 0.214168 -0.973956
0.922307 0.102525 0.079868 -0.026427 0.689009 -0.724271
1.490685 0.088079 -0.041090 0.475656 0.816509 -0.325196
0.927209 0.106315 -0.091600 -0.026427 -0.579957 -0.814218
0.005355 0.063935 0.095905 -0.000012 0.579902 0.814069
0.083793 -0.204375 -0.176827 -0.032944 0.623628 -0.781026
1.178174 -0.165003 -0.141548 -0.026427 0.579957 -0.814218
1.524529 -0.078913 -0.000000 0.479088 -0.876290 -0.029257
-1.222882 -0.107718 -0.041016 0.000338 -0.934892 -0.353548
0.550089 0.109596 -0.035696 -0.000230 0.943481 -0.329599
-1.119553 0.114171 -0.015824 -0.000093 0.985598 -0.165472
1.271037 -0.106039 -0.045181 -0.000491 -0.928965 -0.368621
-0.294448 -0.048436 0.104592 -0.000407 -0.441678 0.896466
-0.217582 0.099927 0.057446 0.000027 0.854105 0.518888
0.141995 0.253624 0.191523 -0.059504 0.657022 -0.751519
0.259318 0.095091 0.065858 0.107254 0.632627 -0.766994
1.238266 -0.215351 0.175672 -0.026427 -0.689009 -0.724271
-1.304603 -0.098792 0.059377 0.000405 -0.870226 0.491428
0.945397 -0.062085 0.097113 0.000406 -0.559082 0.828455
0.185505 -0.304688 -0.232722 -0.059504 -0.657022 0.751519
-0.457002 0.024101 -0.112715 -0.000079 0.256567 -0.965909
-1.045410 -0.021807 -0.113181 0.000199 -0.230123 -0.972506
1.173912 0.059662 -0.098620 0.000030 0.499086 -0.865840
0.762195 -0.026705 -0.112126 0.000673 -0.257145 -0.965967
1.337727 -0.057041 0.100159 -0.001103 -0.481526 0.875803
-0.773872 0.114359 -0.014401 0.001453 0.989687 -0.137354
0.129248 0.525879 -0.435456 -0.032944 -0.623628 -0.781026
1.357402 0.126093 -0.118283 -0.000000 -0.636297 -0.771444
1.492843 -0.230131 -0.180444 0.039793 -0.643528 0.763731
-0.753329 0.030912 0.111040 -0.000355 0.285197 0.957863
0.634256 0.113959 -0.017284 0.000460 0.982679 -0.181900
1.111377 -0.083987 -0.055334 -0.000000 0.771444 0.636297
-1.129047 0.027433 0.111950 -0.000034 0.258336 0.965430
0.143909 0.028246 -0.111748 -0.000107 0.277922 -0.959950
0.208338 -0.318714 0.243176 -0.003861 -0.650438 -0.758499
0.773061 0.115089 -0.006321 -0.000698 0.996268 -0.080949
-1.369440 -0.065243 -0.095020 -0.000036 -0.546755 -0.836549
-0.483785 0.111431 -0.029473 -0.000654 0.958795 -0.281950
-1.449199 -0.061030 -0.097779 0.000409 -0.553440 -0.831995
-0.537730 -0.115105 0.006016 -0.002207 -0.995747 0.088502
-0.137592 0.106007 0.088944 -0.032944 -0.623628 0.781026
1.186092 0.150998 0.131829 -0.026427 -0.579957 0.814218
0.170951 -0.433063 0.346107 -0.059504 -0.657022 -0.751519
0.340518 0.536853 0.441583 0.107254 0.632627 -0.766994
0.818895 -0.104476 0.048686 -0.000237 -0.915828 0.400004
0.465738 -0.016822 -0.114028 0.000396 -0.097001 -0.994653
0.314715 -0.031621 0.110840 -0.000296 -0.304955 0.951715
0.060677 -0.305228 -0.256380 -0.032944 0.623628 -0.781026
-0.037840 -0.143825 0.123349 -0.032944 0.623628 0.781026
1.450212 0.256044 0.215225 -0.026427 -0.579957 0.814218
-1.343303 0.088359 -0.074015 0.000245 0.754813 -0.655058
-0.762435 -0.037775 -0.108897 0.000097 -0.335245 -0.941479
0.311319 -0.421116 0.342039 0.107254 -0.632627 -0.766994
-0.059237 0.228392 -0.189970 -0.032944 -0.623628 -0.781026
1.479533 0.163433 0.126365 0.072851 0.619309 -0.781760
0.135544 -0.336064 -0.284159 -0.032944 0.623628 -0.781026
0.766910 -0.078289 -0.084595 0.000068 -0.695506 -0.717692
0.172413 -0.205540 0.147077 -0.059504 -0.657022 -0.751519
0.306212 0.747657 0.620004 0.026510 -0.631505 0.774551
1.369359 -0.091544 0.070037 -0.000242 -0.813556 0.580400
0.217625 -0.242785 0.210426 0.059528 0.635169 0.770076
0.318743 -0.258329 0.208808 0.107254 -0.632627 -0.766994
0.239285 0.109758 -0.035195 -0.000074 0.944632 -0.326251
0.954032 0.048810 0.104417 0.000394 0.399808 0.916024
0.688682 -0.080176 -0.082808 0.000034 -0.712535 -0.700841
-0.487527 -0.034491 0.109981 -0.000053 -0.347691 0.936962
-0.950109 -0.076517 0.086201 0.000048 -0.643356 0.764799
-1.220497 -0.087813 0.074662 0.000034 -0.775247 0.630725
0.021362 -0.253030 -0.213043 -0.032944 0.623628 -0.781026
0.260316 -0.269443 -0.229115 0.059528 0.635169 -0.770076
1.566473 0.153179 0.126344 0.072851 0.619309 -0.781760
-0.259134 -0.114992 0.007893 -0.000446 -0.994853 0.095173
1.009550 -0.128711 -0.110225 -0.026427 0.579957 -0.814218
0.411182 0.096523 -0.062999 -0.000061 0.807867 -0.588426
0.526057 -0.078821 0.084099 0.000121 -0.718590 0.694553
0.209623 -0.645518 0.528785 -0.059504 -0.657022 -0.751519
-0.062812 0.086376 -0.076424 -0.000000 -0.771444 0.636297
-1.447237 -0.047011 0.105240 -0.000268 -0.383902 0.922683
0.905422 0.045761 -0.105789 0.000433 0.368481 -0.929115
0.026918 -0.357548 -0.291491 -0.059504 -0.657022 0.751519
1.050800 -0.168887 -0.138310 -0.026427 -0.689009 0.724271
0.387008 0.099434 0.058295 -0.000218 0.874126 0.484328
0.724275 0.090798 0.071001 -0.000193 0.816457 0.576343
-0.551386 -0.104155 -0.049367 -0.000133 -0.913569 -0.405463
0.486397 -0.090551 0.071316 0.000039 -0.768493 0.638916
-0.249146 0.114995 0.007856 -0.000006 0.995140 0.092206
0.245621 -0.112172 -0.100531 0.059528 0.635169 -0.770076
0.304142 0.031796 0.110790 -0.000899 0.249863 0.967553
-1.520336 0.058889 -0.085176 -0.283097 0.523974 -0.802186
-1.233254 0.049534 0.104076 -0.000104 0.471724 0.881099
1.180244 -0.186162 0.150021 -0.026427 -0.689009 -0.724271
0.182946 -0.177134 -0.122848 0.107254 -0.632627 0.766994
1.192340 0.117559 -0.084317 -0.026427 0.689009 0.724271
-1.518589 -0.091017 0.050525 -0.276128 -0.836848 0.470902
1.250461 -0.102916 0.051901 -0.000265 -0.882945 0.468218
0.048821 0.027450 -0.111946 -0.000002 0.262611 -0.964278
-0.157354 -0.067769 0.093235 -0.000331 -0.627609 0.777731
0.095209 -0.296686 -0.232875 -0.059504 -0.657022 0.751519
-0.598734 0.107816 0.040756 -0.000494 0.942143 0.333528
0.207159 -0.493985 -0.413276 -0.032944 0.623628 -0.781026
1.433566 0.103771 -0.096722 0.072851 -0.649657 -0.756729
1.450529 -0.159291 0.120381 0.072851 -0.619309 -0.781760
-1.006925 -0.075299 -0.087266 -0.000069 -0.629571 -0.776172
-0.396984 0.051981 -0.102876 -0.000000 0.470015 -0.881811
0.205729 -0.592493 -0.491872 -0.032944 0.623628 -0.781026
-0.676950 -0.111018 0.030992 -0.000277 -0.955040 0.294450
0.129099 -0.082351 0.081304 -0.032944 0.623628 0.781026
0.262215 0.772806 -0.635904 -0.000000 0.771444 -0.636297
0.063596 0.225195 -0.192599 -0.032944 -0.623628 -0.781026
-0.561505 -0.028064 -0.111794 0.000040 -0.224558 -0.973889
-0.075137 0.185141 0.148843 -0.059504 0.657022 -0.751519
1.406989 0.067059 0.093747 -0.000194 0.609900 0.791715
0.247199 -0.704011 0.582664 -0.032944 0.623628 0.781026
0.310238 -0.215191 -0.180507 0.059528 0.635169 -0.770076
-0.935201 0.069616 0.091865 -0.000003 0.562825 0.825838
0.289337 0.576604 0.480222 0.059528 -0.635169 0.770076
-1.206341 -0.066240 -0.094327 -0.000054 -0.558264 -0.829015
0.143056 0.355315 -0.299848 -0.032944 -0.623628 -0.781026
1.532941 0.000000 0.042497 1.000000 -0.000000 0.000000
0.272027 -0.773178 -0.635452 -0.059504 -0.657022 0.751519
-0.053898 0.117477 0.088006 -0.059504 0.657022 -0.751519
0.122982 0.092449 0.068838 -0.000203 0.818902 0.572826
1.173261 -0.099671 -0.094854 -0.026427 0.579957 -0.814218
0.698333 0.091544 -0.070037 -0.000242 0.813556 -0.580400
0.312733 0.208549 -0.174836 0.059528 -0.635169 -0.770076
-1.216607 0.049736 -0.103980 0.000042 0.451721 -0.891480
0.603200 0.098101 -0.060511 0.000094 0.839434 -0.542430
0.231325 0.265058 0.227739 0.059528 -0.635169 0.770076
1.193315 -0.114991 -0.007901 0.000112 -0.995373 -0.090496
0.028613 0.140023 0.101184 -0.059504 0.657022 -0.751519
-0.727288 0.098669 0.059580 -0.000058 0.829606 0.557325
1.510323 -0.048445 -0.071765 0.475615 -0.442488 -0.759091
1.136096 0.130718 0.098887 -0.026427 0.689009 -0.724271
-0.420383 0.108467 -0.038993 -0.000578 0.929359 -0.367570
0.110230 -0.387620 0.324258 -0.032944 0.623628 0.781026
0.208903 -0.361914 -0.280899 -0.059504 -0.657022 0.751519
0.223518 -0.202640 0.149559 0.107254 -0.632627 -0.766994
-0.874330 -0.078079 -0.084788 0.000353 -0.710657 -0.702669
1.478109 0.008637 -0.103625 0.475698 0.023573 -0.878660
1.269572 0.064191 0.095734 0.000331 0.595932 0.802227
-0.589750 -0.025586 0.112387 -0.000077 -0.198598 0.979472
0.349243 0.426652 -0.351908 0.059528 -0.635169 -0.770076
-0.414715 0.060714 0.097976 0.000303 0.500077 0.865292
-0.763894 0.087371 -0.075179 0.000235 0.789130 -0.613232
1.243665 -0.114965 -0.008272 -0.001200 -0.998458 -0.043265
1.364586 0.189647 -0.165152 -0.026427 -0.579957 -0.814218
-0.307459 0.070883 -0.090890 -0.000155 0.595476 -0.802695
0.217559 0.217369 0.189468 0.059528 -0.635169 0.770076
1.450887 0.110004 0.100406 0.072851 -0.649657 0.756729
0.888310 0.114946 0.008541 0.000275 0.994256 0.100877
-1.505276 0.103874 -0.029005 -0.256609 0.916387 -0.303307
0.651777 -0.007048 0.115047 0.000308 -0.081664 0.996160
-0.029044 -0.186185 -0.146106 -0.059504 -0.657022 0.751519
-0.104501 -0.021390 0.113260 -0.000478 -0.230188 0.972506
0.368950 0.034142 0.110090 -0.000161 0.271627 0.961805
-1.465869 -0.084445 0.077487 -0.101738 -0.752081 0.650215
1.091972 -0.151573 0.129184 -0.026427 0.579957 0.814218
0.011660 0.181081 -0.155184 -0.032944 -0.623628 -0.781026
0.122353 -0.111315 0.029908 0.000442 -0.955343 0.293198
0.634580 -0.042942 -0.106965 -0.000135 -0.397295 -0.917061
1.060313 -0.114833 0.009942 0.000623 -0.993377 0.108984
0.310009 0.583540 -0.484344 0.059528 -0.635169 -0.770076
0.235776 -0.691725 -0.572373 -0.032944 0.623628 -0.781026
-0.212936 -0.009693 0.114854 -0.000532 -0.117861 0.992343
1.404311 0.246733 0.199468 -0.026427 0.689009 -0.724271
0.129010 0.167215 0.117008 -0.059504 0.657022 -0.751519
0.956052 0.073025 -0.089178 0.000883 0.621411 -0.782678
0.934562 -0.012468 0.114586 0.000389 -0.150795 0.988011
0.154752 -0.122056 -0.075489 -0.059504 -0.657022 0.751519
0.903060 -0.102198 -0.087884 -0.026427 0.579957 -0.814218
0.163918 -0.399455 -0.317282 -0.059504 -0.657022 0.751519
1.374374 0.114513 0.080172 0.000000 0.636297 -0.771444
1.226332 0.195615 -0.164916 -0.026427 -0.579957 -0.814218
-0.832399 -0.012055 0.114630 -0.001110 -0.152894 0.987559
0.139689 -0.315235 -0.245570 -0.059504 -0.657022 0.751519
1.060163 -0.113057 0.084857 -0.026427 -0.689009 -0.724271
1.396977 -0.023525 0.112836 0.000283 -0.219307 0.975017
1.532941 -0.010554 -0.038450 1.000000 0.000000 -0.000000
0.191417 -0.131987 0.121065 0.059528 0.635169 0.770076
0.119058 -0.146412 -0.099608 -0.059504 -0.657022 0.751519
0.879801 -0.114749 -0.010872 0.000369 -0.991350 -0.124472
1.335887 -0.181332 -0.139748 -0.026427 -0.689009 0.724271
-1.540790 -0.052033 -0.080763 -0.402196 -0.472571 -0.782592
-1.160605 -0.113806 -0.018265 0.000326 -0.983436 -0.177846
0.085093 0.385243 0.311097 -0.059504 0.657022 -0.751519
0.212562 0.207992 -0.152441 0.107254 0.632627 0.766994
0.087409 0.452342 -0.369576 -0.059504 0.657022 0.751519
1.324928 0.065344 0.094951 0.000354 0.601345 0.798024
-0.061720 -0.114878 0.009406 -0.000592 -0.990344 0.133480
0.066627 0.179777 -0.132929 -0.059504 0.657022 0.751519
0.452623 -0.111513 -0.029161 0.000395 -0.952764 -0.301643
-0.098225 -0.101661 -0.087135 -0.032944 0.623628 -0.781026
-1.050284 0.103332 0.051068 -0.000945 0.874177 0.484443
0.871480 -0.065311 0.094974 0.000073 -0.588655 0.807617
-1.401752 -0.040101 -0.108062 -0.000233 -0.374436 -0.926558
-0.678681 -0.093034 0.068045 -0.000140 -0.776767 0.628884
0.043293 0.381167 0.316281 -0.032944 -0.623628 0.781026
-1.568446 -0.075628 0.033289 -0.492538 -0.817711 0.293728
0.540309 0.056787 -0.100303 0.000548 0.518849 -0.854031
0.968050 0.152843 0.126067 -0.026427 0.689009 -0.724271
0.279298 0.428877 -0.343962 0.107254 0.632627 0.766994
1.111382 -0.115000 0.007774 -0.000128 -0.993384 0.110575
1.317013 0.000000 0.115263 0.000510 0.017256 0.999551
-0.136134 -0.165598 0.136587 -0.059504 -0.657022 -0.751519
0.216615 0.446474 0.354216 -0.059504 0.657022 -0.751519
0.068559 -0.245114 -0.189898 -0.059504 -0.657022 0.751519
0.208210 0.369046 -0.313560 -0.032944 -0.623628 -0.781026
0.157174 -0.223002 -0.163550 -0.059504 -0.657022 0.751519
0.308707 -0.146032 -0.123583 0.059528 0.635169 -0.770076
0.182680 -0.621475 0.509899 -0.059504 -0.657022 -0.751519
0.245254 -0.113994 -0.017051 -0.000293 -0.984682 -0.171019
0.121944 0.095123 -0.065820 0.000000 -0.771444 0.636297
1.229454 -0.220309 -0.182607 -0.026427 0.579957 -0.814218
1.539398 -0.177958 -0.150223 0.072851 0.649657 -0.756729
0.314894 0.161594 0.128482 0.107254 0.632627 -0.766994
1.436702 -0.288018 0.237561 -0.026427 -0.689009 -0.724271
0.226280 0.485050 0.387176 -0.059504 0.657022 -0.751519
1.363296 -0.139942 -0.129706 -0.017624 0.599027 -0.800337
1.205051 0.094299 0.092059 -0.003778 -0.628391 0.777739
1.325261 0.156963 -0.116953 -0.026427 0.689009 0.724271
0.243449 -0.309798 -0.240731 0.107254 -0.632627 0.766994
-1.510204 -0.027197 0.103021 -0.241043 -0.287007 0.925901
0.186242 0.350593 0.272796 -0.059504 0.657022 -0.751519
0.192241 -0.562879 -0.467656 -0.032944 0.623628 -0.781026
1.508190 -0.102780 0.088687 0.072851 0.649657 0.756729
-0.069203 -0.201033 0.167704 -0.032944 0.623628 0.781026
0.351299 -0.095082 0.065152 0.000025 -0.851790 0.522705
1.396439 0.134298 -0.125050 0.000000 -0.636297 -0.771444
0.148084 0.124774 0.115979 -0.032944 -0.623628 0.781026
1.334465 0.089752 -0.059749 0.000000 0.636297 0.771444
1.532941 -0.031873 -0.000000 1.000000 -0.000000 0.000000
1.573239 0.291709 -0.244622 0.039793 -0.627350 -0.777075
1.526503 0.092376 0.077992 0.072851 -0.649657 0.756729
-1.306377 -0.021126 -0.113310 -0.000121 -0.210995 -0.976824
-0.546055 -0.086712 0.075938 0.000580 -0.773022 0.633492
0.152415 -0.487536 -0.395198 -0.059504 -0.657022 0.751519
0.304738 0.346584 0.289307 0.059528 -0.635169 0.770076
0.270923 0.067745 -0.093253 0.000113 0.556130 -0.830627
1.240682 -0.135391 0.122485 -0.026427 0.579957 0.814218
0.836578 0.055597 -0.100967 -0.000317 0.496675 -0.867219
1.317787 0.211388 -0.169001 -0.026427 0.689009 0.724271
0.321174 -0.313502 0.260750 0.059528 0.635169 0.770076
-0.038425 -0.150601 -0.128734 -0.032944 0.623628 -0.781026
1.601274 -0.326868 -0.268515 -0.026427 -0.689009 0.724271
1.301187 -0.217205 -0.182724 -0.026427 0.579957 -0.814218
-0.019824 -0.072160 -0.089880 -0.000076 -0.664271 -0.746677
0.170853 -0.255199 0.190615 -0.059504 -0.657022 -0.751519
0.252319 0.207817 -0.157857 0.107254 0.632627 0.766994
0.194706 -0.695382 0.573560 -0.059504 -0.657022 -0.751519
-0.057777 0.291073 -0.240081 -0.032944 -0.623628 -0.781026
0.081524 -0.514140 0.424070 -0.059504 -0.657022 -0.751519
0.064111 -0.486257 -0.401071 -0.059504 -0.657022 0.751519
-0.005539 0.374723 -0.309077 -0.032944 -0.623628 -0.781026
-0.040364 0.318956 -0.263080 -0.032944 -0.623628 -0.781026
0.171487 -0.354931 -0.300740 -0.032944 0.623628 -0.781026
-0.062130 -0.284102 -0.234331 -0.059504 -0.657022 0.751519
-0.096955 0.228335 0.188334 -0.059504 0.657022 -0.751519
0.120702 -0.576877 0.475816 -0.059504 -0.657022 -0.751519
-0.795696 -0.053514 0.102087 -0.001393 -0.430767 0.901748
0.290789 0.153328 -0.130986 0.059528 -0.635169 -0.770076
0.060923 0.364922 -0.295246 -0.059504 0.657022 0.751519
0.313687 -0.737516 0.603341 0.107254 -0.632627 -0.766994
-0.014122 -0.207619 0.163664 -0.059504 -0.657022 -0.751519
-1.432499 -0.098221 -0.060317 -0.000113 -0.864657 -0.501137
1.392009 0.227808 -0.181913 -0.026427 0.689009 0.724271
-1.457228 0.104457 0.048726 -0.027800 0.927005 0.371636
0.222129 -0.412397 -0.323987 -0.059504 -0.657022 0.751519
1.567925 0.325867 0.268780 -0.026427 0.689009 -0.724271
1.380464 0.271797 0.224182 -0.026427 0.689009 -0.724271
1.305479 -0.250169 0.206343 -0.026427 -0.689009 -0.724271
1.314852 0.252873 0.208573 -0.026427 0.689009 -0.724271
1.446075 0.290722 -0.239791 -0.026427 0.689009 0.724271
1.596044 0.333978 -0.275470 -0.026427 0.689009 0.724271
0.827454 -0.112290 0.092618 -0.026427 -0.689009 -0.724271
0.968050 0.152843 -0.126067 -0.026427 0.689009 0.724271
1.521059 -0.312350 -0.257630 -0.026427 0.579957 -0.814218
0.140530 0.424486 0.354973 -0.032944 -0.623628 0.781026
1.032202 0.071637 0.070307 -0.026427 -0.579957 0.814218
0.341583 0.315459 -0.259124 0.107254 0.632627 0.766994
-0.589088 0.014866 -0.114300 0.000819 0.087034 -0.995743
-0.836392 0.053267 0.102216 -0.000234 0.438092 0.898228
0.241432 -0.214875 -0.185566 0.059528 0.635169 -0.770076
0.157046 -0.494879 0.401251 -0.059504 -0.657022 -0.751519
0.283637 0.692595 -0.575087 -0.032944 -0.623628 -0.781026
0.143538 -0.122038 0.076361 -0.059504 -0.657022 -0.751519
-1.140263 -0.100422 -0.056576 -0.000054 -0.879651 -0.474311
1.562078 -0.200626 0.163522 0.072851 -0.619309 -0.781760
0.185533 0.117583 -0.074091 0.107254 0.632627 0.766994
1.415760 -0.245304 -0.197691 -0.026427 -0.689009 0.724271
-0.620827 -0.085234 -0.077592 -0.000077 -0.756681 -0.652836
-0.927006 -0.022614 0.113022 0.000795 -0.215193 0.975851
0.171819 0.187380 0.166969 -0.032944 -0.623628 0.781026
1.466045 -0.197339 -0.173924 0.006701 0.604117 -0.796238
0.526005 0.050775 0.103476 0.000000 0.484745 0.873952
-0.301775 0.102789 0.052153 0.000142 0.867798 0.495667
1.209168 0.134184 -0.120602 -0.026427 -0.579957 -0.814218
0.014170 0.066024 -0.094479 -0.000021 0.612245 -0.789896
0.098576 0.479497 0.397128 -0.032944 -0.623628 0.781026
0.164893 0.229938 -0.200658 -0.032944 -0.623628 -0.781026
-0.694531 -0.064851 -0.095288 -0.000612 -0.584863 -0.810364
1.340564 -0.100607 0.097262 -0.000000 0.636297 0.771444
0.328103 0.256307 -0.208449 0.107254 0.632627 0.766994
0.349243 -0.449679 -0.370902 0.107254 -0.632627 0.766994
0.349243 0.472706 0.389895 0.059528 -0.635169 0.770076
0.349243 0.119622 -0.098666 0.059528 -0.635169 -0.770076
0.349243 0.495734 -0.408888 0.059528 -0.635169 -0.770076
1.448240 0.204576 -0.157761 -0.026427 0.689009 0.724271
1.045663 0.011721 -0.114665 0.000844 0.138405 -0.989744
1.043173 -0.105064 0.047403 -0.000207 -0.921487 0.386433
-1.155421 -0.077498 -0.085320 -0.000032 -0.694301 -0.718817
-0.601757 -0.104549 -0.048529 0.000281 -0.884880 -0.464454
1.019215 0.133044 -0.113625 -0.026427 -0.579957 -0.814218
0.164234 -0.646586 -0.533313 -0.059504 -0.657022 0.751519
0.305032 -0.264155 -0.221296 0.059528 0.635169 -0.770076
1.207377 0.112221 0.026304 0.000048 0.960403 0.276367
0.190642 -0.034273 0.110049 -0.000131 -0.315078 0.948397
1.066631 0.115263 -0.000000 0.000287 0.998228 0.038282
-1.101079 0.079961 -0.083017 0.000004 0.709424 -0.703924
-0.740984 -0.113639 -0.019276 -0.000351 -0.980771 -0.191807
0.242055 -0.517532 -0.414324 -0.059504 -0.657022 0.751519
1.589687 0.219506 0.181052 0.072851 0.619309 -0.781760
1.589687 -0.219506 -0.181052 0.072851 -0.619309 0.781760
1.602584 -0.256355 0.211445 0.072851 -0.619309 -0.781760
0.078202 0.030314 0.111205 0.000218 0.219217 0.975082
0.316766 -0.372006 0.302294 0.107254 -0.632627 -0.766994
-1.073992 0.043899 -0.106576 0.000467 0.334495 -0.941688
0.830801 0.052277 0.102726 -0.000236 0.496155 0.867504
-0.709275 0.114204 -0.015588 -0.000130 0.985861 -0.163993
-1.000376 -0.103135 -0.051464 0.000247 -0.909827 -0.413556
0.719677 -0.104179 0.049317 0.000039 -0.913636 0.405118
0.238775 0.030729 0.111091 -0.000467 0.220632 0.974746
-1.620520 -0.014783 -0.041450 -0.676254 -0.280745 -0.678077
1.023702 -0.039207 0.108389 0.001060 -0.302724 0.952683
-1.074339 -0.085452 -0.077352 -0.000107 -0.752270 -0.657929
1.441798 0.113421 0.020521 -0.000523 0.973782 0.224805
0.645726 -0.112458 0.025271 -0.000058 -0.969401 0.242934
-1.357075 -0.000000 0.115263 -0.001551 0.048897 0.997973
-0.665543 -0.090222 -0.071732 -0.000000 -0.750496 -0.659943
0.939962 -0.115622 -0.091683 -0.026427 -0.689009 0.724271
0.048205 -0.358477 0.290618 -0.059504 -0.657022 -0.751519
0.161995 -0.361409 0.305512 -0.032944 0.623628 0.781026
-0.020300 -0.014449 0.114353 -0.000092 -0.159844 0.986584
-0.125187 0.099973 -0.057366 0.000020 0.854158 -0.518812
0.004342 -0.204352 -0.159345 -0.059504 -0.657022 0.751519
-0.537151 0.086223 0.076492 0.000720 0.734581 0.677683
0.837494 0.107074 -0.042670 -0.000129 0.939087 -0.341707
0.059278 -0.340452 -0.273983 -0.059504 -0.657022 0.751519
-0.693614 0.047294 -0.105113 0.000318 0.405561 -0.913356
0.020580 0.416548 -0.343575 -0.032944 -0.623628 -0.781026
0.213505 0.507585 -0.424403 -0.032944 -0.623628 -0.781026
-0.095903 0.148038 -0.124263 -0.032944 -0.623628 -0.781026
1.313302 -0.168057 0.127943 -0.026427 -0.689009 -0.724271
0.059153 -0.092896 0.068233 -0.000274 -0.824322 0.565062
1.384089 -0.111455 -0.106209 0.000000 0.636297 -0.771444
0.083476 -0.446849 -0.370422 -0.032944 0.623628 -0.781026
0.041340 -0.145272 0.127843 -0.032944 0.623628 0.781026
0.148152 0.455279 0.379881 -0.032944 -0.623628 0.781026
-0.685923 -0.107211 -0.042323 0.000089 -0.910036 -0.413039
0.145190 -0.338236 0.265243 -0.059504 -0.657022 -0.751519
-0.030508 -0.107150 0.094374 -0.032944 0.623628 0.781026
-1.192506 -0.022999 0.112945 0.001193 -0.156763 0.987252
-1.467125 0.071000 -0.089816 -0.113172 0.576798 -0.807863
0.151707 0.564129 0.462216 -0.059504 0.657022 -0.751519
-0.898313 -0.108545 0.038773 -0.000076 -0.934536 0.354198
0.099351 -0.350417 -0.294093 -0.032944 0.623628 -0.781026
1.419329 -0.071541 0.070423 -0.000000 0.771444 -0.636297
-0.621507 0.021573 0.113226 -0.000404 0.231284 0.972258
0.090073 -0.248147 0.212042 -0.032944 0.623628 0.781026
0.237224 0.315271 0.244376 0.107254 0.632627 -0.766994
0.254657 0.375214 0.316793 0.059528 -0.635169 0.770076
0.231840 -0.466247 -0.370297 -0.059504 -0.657022 0.751519
0.207938 0.657997 0.539829 -0.059504 0.657022 -0.751519
1.259661 -0.180512 -0.141749 -0.026427 -0.689009 0.724271
-1.282285 0.046785 -0.105340 -0.000559 0.387930 -0.921123
0.276730 -0.087742 -0.074745 0.000139 -0.776128 -0.629595
-0.116055 0.167331 0.138818 -0.032944 -0.623628 0.781026
-1.629027 -0.016263 0.031514 -0.715322 -0.408440 0.560286
-0.016201 -0.244857 0.204933 -0.032944 0.623628 0.781026
1.252484 0.149382 -0.112396 -0.026427 0.689009 0.724271
0.068638 0.095966 -0.063843 -0.000100 0.843951 -0.535245
0.410086 0.028692 -0.111634 -0.000528 0.278783 -0.959726
0.020580 0.416548 0.343575 -0.059504 0.657022 -0.751519
-0.873681 0.103882 -0.049940 -0.000423 0.878943 -0.475654
0.151175 0.625673 -0.516064 -0.032944 -0.623628 -0.781026
-0.585010 0.078286 -0.084598 -0.000297 0.715800 -0.697401
-0.393664 -0.024573 -0.112613 0.000014 -0.239021 -0.970371
-0.056263 0.198666 -0.159174 -0.059504 0.657022 0.751519
0.005008 -0.115263 -0.000000 -0.000150 -0.998337 -0.046474
-0.155510 0.029273 0.111483 -0.000364 0.286313 0.957511
-0.125191 -0.115263 -0.000000 -0.000002 -0.999123 -0.023795
-0.965462 -0.056290 -0.100582 0.000215 -0.532029 -0.846018
-0.362698 0.107474 -0.041650 0.000308 0.939559 -0.340632
0.918534 -0.114559 -0.012715 0.000238 -0.985092 -0.166845
0.189093 0.170284 0.118058 0.107254 0.632627 -0.766994
0.121053 0.396585 -0.318166 -0.059504 0.657022 0.751519
-1.280266 -0.009707 0.114853 -0.000138 -0.109386 0.993281
0.060854 0.319493 0.267777 -0.032944 -0.623628 0.781026
1.326190 -0.072441 -0.089653 -0.000166 -0.655730 -0.754130
1.460799 -0.095775 0.087236 0.072851 0.649657 0.756729
1.532941 -0.028402 0.068733 0.479482 -0.386631 0.786457
-1.431896 -0.100884 0.055748 0.000396 -0.881809 0.470333
-0.746661 -0.072357 -0.089721 0.000908 -0.639325 -0.768023
-1.437197 -0.000000 0.115263 0.000650 0.019964 0.999401
0.265767 -0.615140 0.512487 -0.032944 0.623628 0.781026
1.205582 -0.077144 -0.063630 0.000000 0.771444 0.636297
0.840198 -0.007575 -0.115013 0.000384 -0.091988 -0.995254
0.180322 0.121442 -0.113225 0.059528 -0.635169 -0.770076
0.056304 -0.151689 -0.133599 -0.032944 0.623628 -0.781026
1.346256 0.193141 0.167046 -0.026427 -0.579957 0.814218
-0.432481 -0.010310 0.114800 -0.000098 -0.116497 0.992402
0.086169 0.261367 0.222433 -0.032944 -0.623628 0.781026
0.276204 0.391935 -0.328919 0.059528 -0.635169 -0.770076
0.024347 0.222818 -0.173906 -0.059504 0.657022 0.751519
-0.668676 -0.114927 -0.008788 -0.000029 -0.991405 -0.125944
0.016048 0.199799 0.154438 -0.059504 0.657022 -0.751519
0.582784 0.056662 -0.100374 -0.000928 0.525311 -0.850170
-0.692099 -0.029661 0.111381 0.000232 -0.303540 0.952175
0.085850 -0.104503 -0.097168 -0.032944 0.623628 -0.781026
-0.699294 0.009884 -0.114838 -0.000327 0.135122 -0.990058
-0.766726 0.022356 -0.113074 -0.000067 0.241242 -0.969865
1.539260 0.181100 0.145927 0.072851 0.619309 -0.781760
1.417394 0.163198 0.148027 -0.026427 -0.579957 0.814218
0.045181 -0.209559 0.160665 -0.059504 -0.657022 -0.751519
0.321174 -0.313502 -0.260750 0.059528 0.635169 -0.770076
-1.563390 -0.073802 -0.042967 -0.444306 -0.776818 -0.444044
-0.234952 -0.049885 0.103908 0.000676 -0.457517 0.888438
0.311275 -0.774667 -0.633647 0.000123 -0.649839 0.758851
0.004309 0.317882 -0.264106 -0.032944 -0.623628 -0.781026
0.301210 0.071200 0.090642 0.000570 0.605430 0.795038
0.263036 0.609728 -0.493266 -0.059504 0.657022 0.751519
1.143229 0.119324 -0.087788 -0.026427 0.689009 0.724271
1.061892 -0.071136 0.070914 -0.026427 0.579957 0.814218
0.094683 -0.391989 -0.316236 -0.059504 -0.657022 0.751519
1.515669 -0.281713 -0.235633 -0.026427 0.579957 -0.814218
-0.599919 -0.058974 -0.099033 -0.000756 -0.534093 -0.844664
0.698645 -0.114095 -0.016361 0.000451 -0.982938 -0.180847
1.529164 0.234710 -0.187456 0.072851 0.619309 0.781760
0.099880 -0.307306 0.259693 -0.032944 0.623628 0.781026
0.300025 0.481989 -0.390668 0.107254 0.632627 0.766994
0.263736 -0.671720 0.547408 -0.059504 -0.657022 -0.751519
0.282587 0.647598 -0.524827 -0.003861 0.650438 0.758499
0.349243 0.772061 -0.636806 0.000000 0.771444 -0.636297
1.210966 -0.046530 0.105454 0.000526 -0.360235 0.932177
1.507192 -0.094852 -0.081977 0.072851 0.649657 -0.756729
0.085582 -0.359738 0.300955 -0.032944 0.623628 0.781026
-1.326739 0.022711 0.113003 -0.000241 0.243666 0.969191
0.776148 0.020227 -0.113474 0.000849 0.178566 -0.983261
0.026918 0.357548 0.291491 -0.059504 0.657022 -0.751519
0.196525 -0.250114 -0.218103 0.028714 0.631785 -0.774296
0.118436 -0.234112 0.176330 -0.059504 -0.657022 -0.751519
-1.473244 -0.013650 -0.112998 -0.140958 -0.141501 -0.978764
-1.127981 -0.041655 -0.107472 -0.000875 -0.348485 -0.936631
-1.539223 0.025141 -0.093391 -0.351519 0.245443 -0.902175
-0.482176 -0.062388 -0.096918 -0.000054 -0.579549 -0.814248
0.190236 0.269836 -0.233585 -0.032944 -0.623628 -0.781026
0.273175 0.638697 0.531609 -0.032944 -0.623628 0.781026
-0.175312 0.102860 -0.084841 -0.032944 -0.623628 -0.781026
0.454996 0.065966 -0.094519 0.000069 0.612402 -0.789754
0.174305 0.507781 0.411164 -0.059504 0.657022 -0.751519
1.512757 0.112596 -0.096674 0.072851 -0.649657 -0.756729
0.155418 0.396320 0.315214 -0.059504 0.657022 -0.751519
0.102234 0.122764 0.080266 -0.059504 0.657022 -0.751519
0.175268 0.000000 0.115263 -0.000612 0.025972 0.998986
0.955036 -0.118110 0.100905 -0.026427 0.579957 0.814218
0.138633 0.109476 0.036060 -0.001222 0.951787 0.305113
0.209053 0.263017 0.197337 0.107254 0.632627 -0.766994
0.151432 0.501306 -0.407315 -0.059504 0.657022 0.751519
0.070256 -0.456312 0.377421 -0.032944 0.623628 0.781026
0.475723 0.114738 0.010979 -0.000160 0.993396 0.109717
0.154400 -0.527373 0.429869 -0.059504 -0.657022 -0.751519
0.199956 0.581896 -0.483166 -0.032944 -0.623628 -0.781026
1.513819 -0.151866 -0.130286 0.072851 0.649657 -0.756729
1.312435 -0.109255 -0.036725 -0.000026 -0.930674 -0.364242
0.156511 0.301487 -0.257435 -0.032944 -0.623628 -0.781026
0.225717 -0.580514 0.470681 -0.059504 -0.657022 -0.751519
1.532941 0.047084 0.009438 1.000000 0.000000 -0.000000
0.735295 -0.076644 -0.064237 -0.026427 0.579957 -0.814218
0.853559 0.112770 0.023840 0.000026 0.972117 0.231821
0.231061 0.183141 0.160193 0.059528 -0.635169 0.770076
-0.807263 0.099117 0.058833 -0.000329 0.845347 0.533197
-0.000087 -0.156349 0.134941 -0.032944 0.623628 0.781026
1.225843 -0.129671 -0.094617 -0.026427 -0.689009 0.724271
0.234187 -0.545038 -0.438995 -0.059504 -0.657022 0.751519
0.284310 0.523976 -0.437202 0.059528 -0.635169 -0.770076
0.318657 0.402952 0.328084 0.107254 0.632627 -0.766994
0.202055 0.637731 -0.527838 -0.032944 -0.623628 -0.781026
-0.236032 0.022029 0.113138 0.000166 0.225548 0.973640
0.017391 0.296773 0.247803 -0.032944 -0.623628 0.781026
-0.677772 -0.024695 -0.112586 -0.000198 -0.231083 -0.972198
1.408366 -0.193382 -0.148566 -0.026427 -0.689009 0.724271
0.142302 -0.234042 -0.202982 -0.032944 0.623628 -0.781026
-1.305609 -0.049681 0.104006 0.000038 -0.387110 0.921413
-1.272393 -0.081492 0.081514 -0.000918 -0.724824 0.688157
1.047047 0.077228 -0.063529 -0.000000 -0.771444 0.636297
1.129589 -0.067100 -0.093718 -0.000307 -0.566787 -0.823179
0.125557 -0.203018 -0.148582 -0.059504 -0.657022 0.751519
-0.978355 0.106279 -0.044612 0.000100 0.912893 -0.406659
1.526950 0.068964 -0.057850 0.072851 -0.649657 -0.756729
1.045436 -0.138767 -0.109853 -0.026427 -0.689009 0.724271
-0.180883 0.059253 0.098866 -0.000659 0.534106 0.844531
0.454065 -0.075979 -0.086675 -0.000043 -0.678467 -0.733810
0.313028 -0.623542 0.517105 0.059528 0.635169 0.770076
0.273078 0.482563 0.387374 0.107254 0.632627 -0.766994
0.095889 0.426740 0.346522 -0.059504 0.657022 -0.751519
0.136201 0.150052 -0.135662 -0.032944 -0.623628 -0.781026
0.231360 -0.635170 -0.518018 -0.059504 -0.657022 0.751519
1.108645 -0.193395 0.159515 -0.026427 -0.689009 -0.724271
0.871573 0.094842 -0.081623 -0.026427 -0.579957 -0.814218
1.117700 0.106976 0.076973 -0.026427 0.689009 -0.724271
-0.823952 0.012898 -0.114539 -0.000458 0.125668 -0.991361
1.507884 0.285035 0.237747 -0.026427 -0.579957 0.814218
0.209359 -0.083611 -0.079777 -0.000000 0.771444 0.636297
0.813339 0.027491 -0.111936 0.000716 0.256309 -0.966014
0.321405 -0.697800 -0.577707 0.059528 0.635169 -0.770076
1.121770 -0.006820 -0.115061 -0.000477 -0.104900 -0.993960
-1.510847 -0.015419 -0.105250 -0.242645 -0.134790 -0.959756
0.071023 0.082867 0.080115 -0.000288 0.740937 0.670670
-0.031210 0.148496 0.127358 -0.032944 -0.623628 0.781026
0.401550 -0.109983 0.034486 -0.000141 -0.945867 0.322698
-0.496301 0.089192 -0.073009 -0.000780 0.741219 -0.670322
0.201229 -0.412334 0.325587 -0.059504 -0.657022 -0.751519
-0.315482 0.000000 -0.115263 0.000165 -0.059034 -0.997457
0.886355 0.000000 0.115263 -0.000198 0.023808 0.999149
-0.044291 -0.245302 -0.204103 -0.032944 0.623628 -0.781026
0.312278 0.491193 0.408001 0.059528 -0.635169 0.770076
0.127987 -0.438873 -0.365931 -0.032944 0.623628 -0.781026
1.117700 -0.106976 0.076973 -0.026427 -0.689009 -0.724271
1.504805 -0.083199 -0.033167 0.475844 -0.828685 -0.292245
0.283637 0.692595 0.575087 -0.032944 -0.623628 0.781026
1.129774 0.114988 0.007954 0.000163 0.994976 0.094159
0.094655 0.138968 -0.125059 -0.032944 -0.623628 -0.781026
0.105652 0.212975 0.158864 -0.059504 0.657022 -0.751519
1.343356 -0.191542 0.165813 -0.026427 0.579957 0.814218
-0.365559 0.000000 0.115263 0.000046 0.029415 0.998699
-0.084204 -0.195445 -0.162610 -0.032944 0.623628 -0.781026
1.244691 -0.061472 0.097502 -0.000745 -0.528764 0.848026
0.242386 -0.306565 0.261119 0.059528 0.635169 0.770076
0.808708 -0.106883 -0.088159 -0.026427 0.579957 -0.814218
0.890621 -0.067881 -0.093153 -0.000025 -0.628070 -0.777354
0.349243 -0.610870 -0.503854 0.107254 -0.632627 0.766994
-1.467455 0.112229 -0.022473 -0.113392 0.966688 -0.225411
1.479729 0.141520 -0.124686 0.072851 -0.649657 -0.756729
1.513786 0.171345 -0.147012 0.072851 -0.649657 -0.756729
-0.025038 0.000000 -0.115263 -0.000525 -0.031304 -0.998839
0.268982 -0.467001 -0.373965 0.107254 -0.632627 0.766994
1.180900 -0.102291 -0.053122 0.000044 -0.872331 -0.487755
-0.118721 0.193481 -0.159586 -0.032944 -0.623628 -0.781026
1.026569 0.115263 -0.000000 0.000990 0.999252 0.020314
0.921374 0.063467 0.096216 0.000380 0.529928 0.847297
0.272815 -0.323328 -0.272593 0.059528 0.635169 -0.770076
0.210025 -0.326189 -0.249577 -0.003861 -0.650438 0.758499
0.774883 0.075976 -0.065046 -0.000000 -0.771444 0.636297
0.596078 -0.081856 -0.081149 0.000595 -0.745727 -0.665209
0.121608 0.295275 0.251002 -0.032944 -0.623628 0.781026
0.118505 0.310147 -0.242799 -0.059504 0.657022 0.751519
0.167764 0.189414 -0.133346 -0.059504 0.657022 0.751519
1.266872 -0.211660 -0.171117 -0.026427 -0.689009 0.724271
0.174115 -0.300618 0.257484 -0.032944 0.623628 0.781026
0.150142 0.193147 0.138005 -0.059504 0.657022 -0.751519
0.145885 0.263298 -0.199673 -0.059504 0.657022 0.751519
-0.195299 -0.115263 -0.000000 0.000222 -0.998113 -0.050598
1.529526 -0.076933 0.064443 0.072851 0.649657 0.756729
0.749631 0.027038 0.112046 0.000302 0.259078 0.965198
1.373655 -0.134570 0.125275 -0.000000 0.636297 0.771444
0.321185 0.172273 -0.138169 0.107254 0.632627 0.766994
-1.372753 0.098674 0.059573 0.000447 0.834028 0.550897
0.180452 -0.217068 -0.191038 -0.032944 0.623628 -0.781026
1.277040 0.106295 0.044573 -0.000180 0.931283 0.362593
1.234598 0.172620 0.148805 -0.026427 -0.579957 0.814218
1.391932 -0.185151 0.141336 -0.026427 -0.689009 -0.724271
-1.099936 -0.102608 -0.052508 -0.000166 -0.904050 -0.425981
1.434454 0.077379 0.063346 0.000000 -0.771444 -0.636297
-1.468140 0.052056 0.101857 -0.121577 0.470457 0.873139
0.340100 -0.122752 -0.101954 0.059528 0.635169 -0.770076
0.337180 -0.745082 -0.615486 0.059528 0.635169 -0.770076
1.329565 0.084154 0.055131 0.000000 0.636297 -0.771444
-1.301041 -0.112704 -0.024150 0.000667 -0.967964 -0.248563
1.445634 0.177014 -0.133965 0.072851 0.619309 0.781760
-0.881175 0.059170 -0.098916 0.000300 0.552263 -0.832931
1.108235 -0.040847 -0.107782 -0.000124 -0.379130 -0.924772
1.107321 0.158182 0.126064 -0.026427 0.689009 -0.724271
0.039259 -0.410204 0.336549 -0.059504 -0.657022 -0.751519
0.212553 -0.367970 0.285904 -0.059504 -0.657022 -0.751519
1.291076 -0.217203 0.175507 -0.026427 -0.689009 -0.724271
0.211713 0.319005 -0.273751 0.028714 -0.631785 -0.774296
1.437459 -0.160830 -0.120383 0.072851 -0.619309 0.781760
1.170223 0.179431 0.151567 -0.026427 -0.579957 0.814218
1.275647 -0.009499 0.114870 0.000349 -0.091918 0.995290
-1.276952 0.000000 -0.115263 -0.000737 -0.023235 -0.999411
-0.535569 -0.032921 0.110461 -0.000054 -0.314897 0.948491
0.820837 -0.039678 -0.108218 -0.000455 -0.368442 -0.928973
0.982336 -0.106985 -0.042892 0.000201 -0.918269 -0.394381
1.155511 0.206913 -0.170665 -0.026427 0.689009 0.724271
0.108355 -0.496153 -0.406220 -0.059504 -0.657022 0.751519
0.661834 0.041875 -0.107387 0.000110 0.352760 -0.934981
1.430385 -0.202916 -0.176739 -0.026427 0.579957 -0.814218
0.308809 0.290430 0.233896 0.107254 0.632627 -0.766994
0.310844 -0.073356 0.088906 -0.000390 -0.668994 0.742612
-0.352295 -0.090628 -0.071218 0.000094 -0.769681 -0.637439
1.549607 -0.227994 0.184041 0.072851 -0.619309 -0.781760
0.229079 0.081894 0.081110 -0.000066 0.744085 0.667179
0.908162 0.104593 -0.048433 0.000027 0.916436 -0.398190
0.232337 -0.197372 -0.146448 0.107254 -0.632627 0.766994
-0.427556 0.110745 0.031953 -0.000045 0.952536 0.302375
0.323558 0.717644 -0.588331 0.107254 0.632627 0.766994
0.774349 -0.113934 -0.017452 0.000367 -0.991791 -0.122669
1.307966 0.087242 -0.086238 0.000000 -0.636297 -0.771444
-0.229539 0.095228 -0.064939 -0.000001 0.811551 -0.583226
0.240353 0.347535 0.295069 0.059528 -0.635169 0.770076
1.254657 0.069918 -0.091635 -0.000021 0.627959 -0.777444
0.143538 0.122038 -0.076361 -0.059504 0.657022 0.751519
0.178005 0.317660 0.244656 -0.059504 0.657022 -0.751519
1.177907 -0.023810 -0.112776 0.000347 -0.255124 -0.966268
-0.263093 -0.107635 -0.041232 -0.000143 -0.942109 -0.333478
0.605739 -0.078618 0.084289 0.000018 -0.663045 0.747745
-1.376993 -0.095365 -0.064737 0.000005 -0.813674 -0.580226
-0.871235 -0.061279 0.097624 0.000005 -0.509006 0.860044
1.532941 0.037137 0.064434 1.000000 0.000000 0.000000
-0.080051 -0.042240 -0.107244 0.000004 -0.342904 -0.938704
1.325026 -0.113263 0.021375 -0.000265 -0.972028 0.232081
0.645564 0.100064 0.057207 0.000038 0.854744 0.517846
0.245169 -0.643159 0.533991 -0.032944 0.623628 0.781026
1.404668 0.086188 -0.084409 0.072851 -0.649657 -0.756729
1.557858 0.269947 -0.218045 0.072851 0.619309 0.781760
0.600758 0.057816 0.099713 -0.000005 0.479581 0.876785
1.256479 0.137934 0.101360 -0.026427 0.689009 -0.724271
1.448211 -0.015297 0.114243 -0.000309 -0.172622 0.984343
0.055490 -0.174329 0.151642 -0.032944 0.623628 0.781026
-0.009228 0.098217 0.088138 -0.032944 -0.623628 0.781026
-0.625983 0.016822 -0.114028 -0.000396 0.097001 -0.994653
0.585710 0.090289 0.071647 -0.000008 0.767119 0.640531
0.198009 -0.559885 0.454840 -0.059504 -0.657022 -0.751519
-0.125242 0.050754 -0.103487 -0.000105 0.461550 -0.886439
0.013292 -0.050926 0.103402 -0.000168 -0.400745 0.915557
0.446774 0.078362 0.084527 -0.000128 0.698369 0.714866
1.044119 0.143043 0.113969 -0.026427 0.689009 -0.724271
-0.105096 -0.017274 -0.113961 0.000171 -0.173645 -0.984171
-0.422163 -0.108150 0.039864 -0.000004 -0.929176 0.367946
1.356994 0.163190 0.146061 -0.026427 -0.579957 0.814218
1.408879 0.105601 -0.046195 -0.000252 0.906964 -0.419827
-0.351080 0.092926 0.068193 0.000044 0.775299 0.630608
0.021310 0.153575 0.133628 -0.032944 -0.623628 0.781026
-0.219254 -0.073230 -0.089010 -0.000143 -0.651928 -0.757474
1.136152 -0.077144 0.063630 0.000000 0.771444 -0.636297
1.149890 0.095573 0.091177 -0.026427 -0.579957 0.814218
-0.034426 -0.292554 0.239527 -0.059504 -0.657022 -0.751519
-1.003948 0.083456 0.079502 -0.000023 0.704774 0.708579
0.992614 -0.072304 0.069498 -0.026427 0.579957 0.814218
-0.881582 0.046203 0.105597 -0.000039 0.422652 0.905607
-0.005076 -0.107436 -0.041749 0.000032 -0.922118 -0.385304
-0.100266 0.084646 -0.078234 -0.000000 0.716785 -0.696398
-0.339126 -0.035573 -0.109636 -0.000099 -0.329042 -0.943657
0.311482 0.518813 0.430843 0.059528 -0.635169 0.770076
-1.094250 0.010228 -0.114808 0.000048 0.142754 -0.988978
0.456388 -0.065241 0.095021 0.000202 -0.545298 0.837506
-0.040324 0.104016 -0.049661 0.000017 0.912373 -0.407829
-0.536497 -0.081307 -0.081699 -0.000093 -0.720272 -0.692827
-0.352460 0.045101 0.106073 0.000503 0.342452 0.938673
0.250186 0.103283 -0.092847 0.059528 -0.635169 -0.770076
1.116547 0.098250 -0.060270 0.000689 0.825349 -0.563521
0.210433 0.065030 -0.095166 0.000057 0.544384 -0.838096
0.486375 0.034748 0.109900 -0.000029 0.324183 0.945339
0.009453 -0.009452 -0.114874 -0.000048 -0.130706 -0.990766
-0.171685 0.115071 0.006635 -0.000618 0.995452 0.090403
0.879438 -0.104019 0.049654 -0.000350 -0.879706 0.474187
1.197050 0.034846 -0.109869 0.000044 0.328946 -0.943689
0.516037 0.090466 0.071424 0.000011 0.814012 0.579791
0.510751 -0.114022 0.016864 -0.000226 -0.984650 0.171029
-0.525666 0.033963 0.110145 0.000007 0.340308 0.939670
-1.093327 -0.094676 0.065741 0.000431 -0.805760 0.591293
1.122663 -0.140997 0.109156 -0.026427 -0.689009 -0.724271
0.123694 -0.111289 -0.104183 -0.032944 0.623628 -0.781026
0.166273 0.330658 -0.281139 -0.032944 -0.623628 -0.781026
-1.440493 0.090488 -0.071396 0.000152 0.774472 -0.631674
0.226946 -0.135379 0.121116 0.059528 0.635169 0.770076
