1.320923 -0.098779 0.115777 -0.017748 -0.810342 -0.585688
-0.385013 0.144443 0.161223 -0.071906 0.803408 -0.591071
-0.223646 0.460239 0.570834 -0.071906 0.803408 -0.591071
-0.442806 0.143583 -0.167085 -0.071906 0.803408 0.591071
-0.136183 0.146614 0.173332 0.088375 0.780115 -0.619362
-1.504611 -0.029247 0.077660 -0.000389 -0.307597 0.950279
1.207482 0.081726 0.014402 -0.000006 0.981427 0.185427
1.419610 0.084088 -0.092461 -0.017748 0.810342 0.585688
-1.411785 -0.044777 0.069868 0.000384 -0.563447 0.824749
0.640954 0.067552 0.048200 -0.000352 0.776568 0.628274
0.923315 0.071292 0.089795 -0.017748 0.810342 -0.585688
1.730290 -0.098533 -0.124106 0.047283 -0.775462 0.629622
0.990333 0.069272 -0.084971 -0.017748 0.810342 0.585688
-0.495160 0.109160 0.145584 -0.058532 -0.762943 0.643811
-0.240110 0.266540 0.355274 -0.058532 -0.762943 0.643811
-0.119362 0.586720 -0.730066 0.034967 0.789672 0.611302
0.782176 -0.059788 0.057549 -0.000140 -0.717296 0.695091
-1.026353 -0.082985 0.000000 0.003115 -0.995839 -0.069612
-0.103856 0.266000 0.340505 0.071954 -0.781150 0.620183
0.946248 0.000000 -0.082985 0.000884 0.079612 -0.995271
1.709806 0.150437 0.192553 0.047283 -0.789053 0.612503
0.320632 -0.065290 -0.051223 0.000109 -0.741096 -0.669754
0.459958 -0.082294 -0.010688 -0.000559 -0.986029 -0.157940
-0.226638 -0.384257 0.467921 -0.071906 -0.803408 -0.591071
-0.247197 -0.127282 -0.133143 0.088375 -0.780115 0.619362
-0.343268 0.073630 0.059893 -0.071906 0.803408 -0.591071
-0.342019 -0.185305 -0.211533 -0.071906 -0.803408 0.591071
1.459846 -0.070165 0.071978 -0.000000 0.621795 -0.783180
1.142829 -0.081975 0.108004 -0.017748 0.754172 0.656437
-0.601120 -0.071016 -0.042933 -0.000186 -0.842052 -0.537233
-0.181782 -0.071716 0.072488 0.088375 -0.780115 -0.619362
-0.524595 0.081012 -0.091986 -0.071906 0.803408 0.591071
0.308998 0.069646 -0.045122 0.000154 0.848822 -0.526426
0.580210 -0.053289 0.063614 -0.000080 -0.644624 0.762951
-0.114034 -0.385793 0.477749 0.088375 -0.780115 -0.619362
-0.442462 0.064615 0.052072 0.000428 0.794714 0.604974
1.374745 -0.016130 0.081402 0.000000 -0.229366 0.972175
-0.303351 0.347712 0.445717 -0.058532 -0.762943 0.643811
0.096431 -0.036092 -0.074726 0.000049 -0.494240 -0.867933
-0.156095 -0.193717 -0.229819 0.088375 -0.780115 0.619362
-0.318793 0.338312 -0.416681 -0.071906 0.803408 0.591071
-0.078630 0.164854 -0.204518 0.088375 0.780115 0.619362
-0.223098 -0.470894 -0.585250 -0.071906 -0.803408 0.591071
-0.129406 -0.614913 -0.769609 -0.071906 -0.803408 0.591071
0.437608 0.082588 0.008105 0.000154 0.989021 0.139701
1.354141 -0.062109 -0.078374 -0.000000 0.621795 0.783180
1.752701 -0.158823 -0.200045 0.047283 -0.775462 0.629622
-0.083772 -0.090931 0.117668 0.071954 0.781150 0.620183
0.854973 -0.076902 -0.031187 0.000358 -0.897362 -0.438671
-0.391996 0.079988 -0.074463 -0.071906 0.803408 0.591071
-0.128487 -0.289553 -0.354468 0.088375 -0.780115 0.619362
-0.209541 0.541370 -0.679396 -0.071906 0.803408 0.591071
-0.247471 0.442567 -0.563204 -0.058532 -0.762943 -0.643811
-1.366812 0.058290 -0.059066 -0.000029 0.705745 -0.706781
0.417809 -0.052817 -0.064007 -0.000049 -0.608943 -0.791712
1.539393 -0.009096 0.082485 -0.000143 -0.141745 0.988648
0.525693 0.000000 0.082985 -0.002528 0.081459 0.994758
1.266997 -0.080479 0.020240 0.000543 -0.973364 0.225640
-0.873120 0.062841 0.054199 0.000037 0.775818 0.629055
-1.181531 0.054942 0.062193 0.000406 0.688393 0.723688
-0.331523 0.226238 0.265895 -0.071906 0.803408 -0.591071
-1.076742 0.015320 0.081559 -0.000036 0.248264 0.967516
-0.207103 -0.462423 0.571791 -0.071906 -0.803408 -0.591071
-0.376663 -0.140853 -0.155327 -0.071906 -0.803408 0.591071
-0.432187 0.273796 0.346410 -0.058532 -0.762943 0.643811
-0.340158 -0.358979 0.455722 -0.058532 0.762943 0.643811
-0.228276 0.010335 0.082339 0.000222 0.158232 0.985879
1.642616 0.123206 0.162659 0.047283 -0.789053 0.612503
-1.412617 -0.082055 -0.012392 -0.003027 -0.984449 -0.170007
1.550238 0.080122 0.021610 0.000364 0.973423 0.222308
-0.230826 0.540328 0.680568 -0.071906 0.803408 -0.591071
-0.490246 -0.223765 0.281843 -0.071906 -0.803408 -0.591071
-1.051112 0.082216 0.011275 0.002339 0.976966 0.205119
-0.642467 0.079712 0.023078 -0.000044 0.947373 0.316727
-0.272309 -0.181176 -0.197441 -0.018460 -0.797437 0.601872
-0.331209 0.185173 -0.250568 -0.058532 -0.762943 -0.643811
-1.225970 0.023117 -0.079700 -0.000281 0.273092 -0.960687
-1.280942 -0.075794 0.033790 -0.000023 -0.897193 0.438905
-0.901353 -0.041528 -0.071847 0.000527 -0.474467 -0.879414
1.730290 -0.098533 0.124106 0.047283 0.789053 0.612503
-0.419767 -0.212420 -0.274805 -0.058532 0.762943 -0.643811
0.253356 -0.060035 0.057292 -0.000005 -0.731142 0.680460
-0.331063 -0.312750 0.401765 -0.058532 0.762943 0.643811
-0.296879 -0.104204 0.157738 -0.058532 0.762943 0.643811
-0.260317 0.214568 -0.291848 -0.058532 -0.762943 -0.643811
1.628432 -0.166581 -0.200268 0.003938 -0.799203 0.600707
-1.199680 -0.069652 -0.045112 -0.000372 -0.854785 -0.516670
1.754943 -0.164852 0.207639 0.047283 0.789053 0.612503
-0.331209 -0.185173 0.250568 -0.058532 0.762943 0.643811
-0.201945 0.186272 -0.251465 0.071954 -0.781150 -0.620183
1.344765 0.075053 -0.082229 -0.017748 0.810342 0.585688
1.162686 -0.071401 -0.082692 -0.017748 -0.810342 0.585688
1.546473 -0.126486 -0.147277 -0.017748 -0.810342 0.585688
1.074420 0.080812 0.018868 -0.001438 0.954705 0.293415
-1.042349 0.008837 -0.082513 0.000288 0.128106 -0.990731
0.898946 0.007478 0.082648 -0.000471 0.130044 0.990476
-0.919823 0.054489 -0.062590 -0.000061 0.653942 -0.755163
1.394539 -0.071132 0.042741 -0.000022 -0.836704 0.545344
1.025475 -0.046969 0.068414 0.000029 -0.569530 0.820514
1.648537 -0.059952 -0.080716 0.047283 0.789053 -0.612503
1.324558 -0.130213 -0.168338 -0.017748 0.754172 -0.656437
-0.842509 -0.053259 0.063639 0.000008 -0.687531 0.724754
-0.397930 0.237912 -0.307001 -0.058532 -0.762943 -0.643811
1.603440 -0.199596 -0.255591 -0.017748 0.754172 -0.656437
-1.606029 0.061513 -0.055702 -0.000332 0.778666 -0.625633
-0.137744 0.481655 0.595109 0.088375 0.780115 -0.619362
-0.549412 -0.151567 0.190905 -0.071906 -0.803408 -0.591071
-0.310055 -0.080123 -0.128002 -0.058532 0.762943 -0.643811
-0.216893 -0.328112 0.390421 -0.014632 -0.796862 -0.602534
1.401037 -0.149399 -0.183386 -0.017748 -0.810342 0.585688
-0.193690 -0.066687 -0.064455 0.088375 -0.780115 0.619362
1.034388 0.050606 0.065769 -0.000043 0.562170 0.825566
-0.695803 -0.076108 -0.033077 0.000127 -0.928903 -0.367124
1.506801 -0.168383 0.217118 -0.017748 0.754172 0.656437
0.009019 -0.023741 -0.079517 -0.000542 -0.255188 -0.965843
1.246499 0.102015 0.133831 -0.017748 -0.754172 0.656437
-0.201404 -0.264079 -0.349403 0.071954 0.781150 -0.620183
1.067228 -0.059658 -0.080320 -0.017748 0.754172 -0.656437
1.565567 0.055239 -0.061929 -0.002218 0.714040 -0.698161
-0.217289 0.348504 -0.454479 -0.058532 -0.762943 -0.643811
0.027078 0.046536 0.068709 0.000187 0.612881 0.788768
-0.122188 -0.143114 0.187852 0.071954 0.781150 0.620183
-0.560440 0.019407 0.080684 0.000173 0.299360 0.952819
-0.132354 -0.333128 -0.428362 0.071954 0.781150 -0.620183
1.707878 -0.087223 -0.046644 -0.190725 -0.841290 -0.504283
1.535475 -0.113890 0.155287 -0.017748 0.754172 0.656437
-0.122206 0.395912 0.506265 0.071954 -0.781150 0.620183
1.483292 -0.030564 -0.077152 -0.000297 -0.429670 -0.901627
-0.809150 -0.028753 -0.077845 0.000028 -0.328098 -0.943551
-0.115866 0.449482 -0.573003 0.071954 -0.781150 -0.620183
-1.110049 0.080646 -0.019565 -0.000061 0.955661 -0.290192
-0.357340 -0.048143 0.067737 -0.000000 0.621795 -0.783180
-0.188077 0.387973 0.503908 -0.015027 -0.770168 0.636882
-0.326792 -0.333667 -0.411341 -0.071906 -0.803408 0.591071
-0.108509 0.321221 -0.397206 0.088375 0.780115 0.619362
-0.066110 0.079992 -0.099417 0.088375 0.780115 0.619362
-0.981979 0.082561 0.008377 -0.000801 0.989526 0.135942
-0.221770 0.144162 -0.158031 0.088375 0.780115 0.619362
-0.355948 0.301480 0.371138 -0.071906 0.803408 -0.591071
1.602405 -0.201538 0.249421 -0.017748 -0.810342 -0.585688
0.957535 -0.057785 0.059560 0.000266 -0.700217 0.712506
-0.115428 0.032490 -0.076361 0.001336 0.325982 -0.944107
-0.192552 -0.419506 -0.511687 -0.071906 -0.803408 0.591071
1.632975 -0.150302 0.180559 0.047283 -0.775462 -0.629622
-0.090123 -0.010375 0.082334 -0.000766 -0.199503 0.978380
-0.293207 0.071278 -0.117213 0.071954 -0.781150 -0.620183
-0.492490 -0.040211 -0.072592 -0.000022 -0.506374 -0.860951
1.256657 0.000000 -0.082985 0.000329 0.071724 -0.996061
0.559662 -0.082608 0.007901 0.000865 -0.988252 0.146329
-0.356896 -0.138745 0.150058 -0.071906 -0.803408 -0.591071
-0.763413 0.078390 -0.027232 0.000061 0.920781 -0.387049
-1.316243 0.062032 0.055123 -0.000014 0.768848 0.637557
-1.014942 -0.016364 0.081356 0.000293 -0.235130 0.970795
-0.121337 0.231979 0.282972 0.088375 0.780115 -0.619362
1.683398 -0.085573 0.039098 -0.194017 -0.889790 0.411063
-0.339786 0.396396 -0.500097 -0.058532 -0.762943 -0.643811
-0.124967 0.121312 -0.160714 0.071954 -0.781150 -0.620183
-0.936791 0.053087 0.063783 -0.000114 0.659561 0.750045
-1.401246 0.057887 0.059462 0.000231 0.716377 0.696066
1.637439 0.088421 0.104680 0.047283 0.775462 -0.629622
-0.116244 0.322950 0.413674 0.071954 -0.781150 0.620183
-0.470168 0.006749 0.082710 -0.000151 0.055523 0.997676
-0.126567 0.242736 -0.295774 0.088375 0.780115 0.619362
1.314921 -0.166972 0.210309 -0.017748 0.754172 0.656437
-0.222958 0.218024 0.250894 0.088375 0.780115 -0.619362
1.642954 0.077133 0.038267 -0.193493 0.851074 0.486058
1.779465 -0.247435 -0.311191 0.047283 -0.775462 0.629622
-0.160232 -0.496112 -0.611880 -0.071906 -0.803408 0.591071
1.295506 0.157115 0.197259 -0.017748 0.810342 -0.585688
-0.169294 -0.533082 0.677575 -0.058532 0.762943 0.643811
1.501120 -0.179835 -0.222463 -0.017748 -0.810342 0.585688
-0.023647 -0.033140 0.076081 0.000267 -0.402536 0.914138
-0.305058 0.256574 0.337559 -0.058532 -0.762943 0.643811
-0.148461 0.393872 -0.483013 0.088375 0.780115 0.619362
-1.776865 -0.039177 -0.015844 -0.559573 -0.780379 -0.268332
-0.303590 0.296243 -0.357649 -0.071906 0.803408 0.591071
-0.203594 -0.363377 -0.436736 -0.018460 -0.797437 0.601872
1.620854 0.207193 -0.264789 -0.017748 -0.754172 -0.656437
0.105260 -0.016415 0.081345 0.000262 -0.130670 0.990270
0.193209 -0.082238 0.011108 0.000144 -0.981436 0.185342
-0.116207 0.048240 0.067660 0.071954 -0.781150 0.620183
1.645477 -0.007614 0.086266 -0.195463 -0.126646 0.971524
-1.508916 0.074504 0.036547 0.000205 0.864897 0.499507
1.779037 -0.248310 0.312237 0.047283 -0.775462 -0.629622
1.232060 0.007954 0.082603 0.000616 0.063390 0.996978
-0.583329 -0.081026 0.017927 -0.000016 -0.965838 0.254589
1.589371 -0.065090 -0.051477 -0.000015 -0.801014 -0.596678
-0.997859 -0.045541 -0.069373 0.000080 -0.602043 -0.796968
0.838649 -0.077474 0.029738 0.000065 -0.911715 0.407938
1.348054 0.149368 -0.190979 -0.017748 -0.754172 -0.656437
-1.142062 -0.066320 0.049881 -0.000065 -0.820179 0.570197
-0.399021 0.103027 -0.147057 -0.058532 -0.762943 -0.643811
-1.216604 0.000000 0.082985 -0.000002 0.034635 0.998196
1.450598 0.076087 0.109560 -0.017748 -0.754172 0.656437
-0.056742 -0.519038 0.653753 0.071954 0.781150 0.620183
-0.247047 -0.291936 -0.384738 -0.058532 0.762943 -0.643811
1.119118 0.119132 -0.150052 -0.017748 -0.754172 -0.656437
1.681707 0.081029 -0.047150 -0.192680 0.819689 -0.537797
-0.145780 -0.576705 0.719667 -0.071906 -0.803408 -0.591071
-0.118128 -0.417416 -0.516996 0.088375 -0.780115 0.619362
-0.237765 0.423492 0.522604 -0.071906 0.803408 -0.591071
-1.778679 0.034567 0.022200 -0.567717 0.706080 0.416143
0.879083 0.016587 -0.081310 -0.000178 0.231636 -0.971549
0.772976 0.082520 -0.008777 0.000510 0.983083 -0.176128
0.630319 -0.067399 -0.048414 0.000345 -0.790102 -0.611148
-0.288474 -0.385493 0.477123 -0.071906 -0.803408 -0.591071
1.232645 -0.109418 -0.133172 -0.017748 -0.810342 0.585688
1.535313 0.077621 -0.112219 0.047283 -0.789053 -0.612503
-0.082991 0.509609 -0.644921 0.071954 -0.781150 -0.620183
0.462248 -0.013825 0.081825 -0.000353 -0.228353 0.972402
-0.308122 -0.244955 -0.323511 -0.058532 0.762943 -0.643811
-1.657041 0.020825 0.079774 -0.090554 0.298300 0.948688
-0.226275 -0.545881 -0.687563 -0.071906 -0.803408 0.591071
-0.550631 -0.058930 -0.081016 -0.058532 0.762943 -0.643811
-0.366216 0.345791 0.437725 -0.058532 -0.762943 0.643811
-1.327989 -0.077716 -0.029098 0.000186 -0.908826 -0.414339
0.551889 0.075985 -0.033358 -0.000021 0.925972 -0.374461
-0.478833 0.046568 -0.068687 -0.000101 0.514863 -0.855877
1.438996 -0.110719 -0.128719 -0.017748 -0.810342 0.585688
0.626954 0.036700 -0.074429 0.000208 0.465283 -0.883798
0.682004 0.031630 0.076721 -0.000439 0.435161 0.899070
-0.363806 -0.247818 0.299154 -0.071906 -0.803408 -0.591071
1.327785 0.080885 0.018551 0.000172 0.966208 0.253116
1.454780 0.201144 -0.253350 -0.017748 -0.754172 -0.656437
1.329775 -0.066568 0.049550 -0.000010 -0.822642 0.566349
-0.424383 -0.296012 0.372030 -0.071906 -0.803408 -0.591071
0.474954 0.018199 -0.080965 0.000035 0.245111 -0.968248
-0.193492 0.505857 -0.629172 -0.071906 0.803408 0.591071
1.707878 0.006368 -0.044699 1.000000 -0.000000 -0.000000
-0.317709 0.173298 -0.192256 -0.071906 0.803408 0.591071
1.714099 -0.221357 0.283584 0.021999 0.775935 0.629959
-0.249815 -0.265958 0.309943 -0.071906 -0.803408 -0.591071
0.177989 0.039454 0.073007 -0.000039 0.485702 0.872777
-0.399702 -0.048476 -0.067354 0.000117 -0.556813 -0.829214
-0.265099 0.413387 -0.512195 -0.071906 0.803408 0.591071
1.707878 0.006368 0.044699 1.000000 -0.000000 0.000000
-0.426529 0.301517 -0.379775 -0.071906 0.803408 0.591071
-0.300440 0.399612 0.497771 -0.071906 0.803408 -0.591071
0.408158 0.070698 -0.043455 0.000309 0.863912 -0.501298
-0.138340 -0.127965 -0.149534 0.088375 -0.780115 0.619362
1.364809 0.141375 0.173381 -0.017748 0.810342 -0.585688
-1.305541 -0.031003 -0.076976 0.000049 -0.342575 -0.938305
-0.459441 0.169662 -0.220529 -0.058532 -0.762943 -0.643811
-0.098986 -0.082529 -0.008687 0.000414 -0.989853 -0.133936
1.278638 0.056716 -0.082656 -0.000000 -0.621795 0.783180
-0.531696 0.078088 0.028085 0.000508 0.953983 0.293622
-0.312748 -0.440361 0.554654 -0.071906 -0.803408 -0.591071
-0.056742 0.244808 -0.308347 0.088375 0.780115 0.619362
-0.056742 0.381923 -0.481050 0.088375 0.780115 0.619362
-0.056742 -0.575131 0.724404 0.071954 0.781150 0.620183
-0.056742 0.344528 0.433949 0.088375 0.780115 -0.619362
0.969982 -0.072959 -0.039541 -0.000379 -0.895861 -0.442057
-0.236271 -0.158483 0.220445 0.071954 0.781150 0.620183
-0.296534 -0.054781 0.062467 0.000000 0.621795 -0.783180
-0.056742 0.531503 0.669453 0.088375 0.780115 -0.619362
0.358538 0.045719 -0.069255 -0.000441 0.572557 -0.818456
-0.384529 0.063821 0.101914 -0.058532 -0.762943 0.643811
-0.284317 0.202942 0.228487 -0.071906 0.803408 -0.591071
-0.156213 0.417786 -0.537762 0.071954 -0.781150 -0.620183
1.493040 0.150602 -0.182263 -0.017748 0.810342 0.585688
1.308243 0.119844 -0.155984 -0.017748 -0.754172 -0.656437
-0.191171 0.168453 0.192993 0.088375 0.780115 -0.619362
-0.494797 0.218212 -0.274848 -0.071906 0.803408 0.591071
1.286001 -0.071162 -0.042691 -0.000141 -0.838804 -0.542347
0.255337 0.082985 -0.000000 -0.000079 0.994948 -0.084970
0.104404 0.052039 -0.064641 0.000097 0.573376 -0.817858
-0.513897 0.148668 0.190699 -0.058532 -0.762943 0.643811
0.365395 -0.028387 -0.077979 -0.000130 -0.321581 -0.945696
-0.141144 -0.320356 0.391460 0.088375 -0.780115 -0.619362
1.168818 -0.082493 -0.009027 0.000061 -0.982750 -0.178024
0.170717 0.064781 -0.051865 0.000049 0.736541 -0.674617
-0.285441 0.473683 -0.596626 -0.071906 0.803408 0.591071
1.196541 0.100610 -0.122080 -0.017748 0.810342 0.585688
-0.238887 0.053843 -0.063211 -0.000000 -0.621795 0.783180
1.456896 -0.092723 0.128844 -0.017748 0.754172 0.656437
-1.596849 -0.079033 -0.025305 -0.000673 -0.957001 -0.285955
1.493325 -0.074499 -0.036557 -0.000015 -0.878455 -0.475364
-0.571914 0.054957 -0.062327 -0.000000 -0.621795 0.783180
-1.481734 -0.007498 -0.082646 -0.000901 -0.121187 -0.991722
-0.227028 -0.076588 0.031950 -0.001892 -0.899906 0.434054
-0.343964 0.121257 -0.173666 -0.058532 -0.762943 -0.643811
-1.513279 -0.082701 -0.006865 0.000797 -0.990945 -0.126125
-0.056742 -0.537736 -0.677303 0.088375 -0.780115 0.619362
-0.363052 -0.199583 -0.264750 -0.058532 0.762943 -0.643811
1.671443 -0.094824 -0.123871 0.047283 0.789053 -0.612503
-0.702031 0.031634 -0.076719 0.000439 0.435205 -0.899049
1.380188 -0.182919 0.230395 -0.017748 0.754172 0.656437
0.017403 0.070745 -0.043379 0.000572 0.855192 -0.516005
-1.124722 -0.054567 -0.062522 -0.000030 -0.669074 -0.741607
-0.183857 0.101792 -0.142960 0.071954 -0.781150 -0.620183
-0.622249 -0.028693 -0.077867 0.000491 -0.322661 -0.945239
-0.308959 -0.366497 -0.467468 -0.058532 0.762943 -0.643811
-0.110454 -0.499880 0.635854 0.071954 0.781150 0.620183
-0.210297 -0.105535 0.111016 0.088375 -0.780115 -0.619362
-0.636484 0.075173 -0.035150 0.000355 0.907838 -0.416557
-0.132668 -0.073189 0.039114 -0.000069 -0.847490 0.528493
-0.056742 -0.126390 -0.159194 0.088375 -0.780115 0.619362
-0.056742 0.300900 -0.378998 0.088375 0.780115 0.619362
-0.304514 -0.037601 -0.076107 0.000000 0.621795 0.783180
-0.319402 0.082658 0.007359 0.000398 0.997500 0.054788
1.394026 -0.077488 -0.029701 -0.000048 -0.919434 -0.390390
-0.182637 0.062348 -0.093137 0.071954 -0.781150 -0.620183
-0.553639 -0.111749 -0.143335 -0.058532 0.762943 -0.643811
-0.099833 -0.374883 -0.477182 0.071954 0.781150 -0.620183
-0.150533 0.611555 -0.772276 -0.058532 -0.762943 -0.643811
-0.161769 -0.203003 0.267877 0.071954 0.781150 0.620183
-0.063005 0.078025 0.028260 -0.000133 0.935713 0.350809
0.446216 -0.069019 0.046076 0.000227 -0.798079 0.600672
-0.056742 0.438016 -0.551701 0.088375 0.780115 0.619362
0.516230 -0.075787 -0.033806 -0.000020 -0.926399 -0.373343
-0.460156 0.199356 0.245005 -0.071906 0.803408 -0.591071
1.315514 0.016649 0.081298 -0.000008 0.235210 0.970838
1.651702 -0.073836 0.087787 0.047283 -0.775462 -0.629622
1.707878 0.087223 0.046644 1.000000 0.000000 0.000000
1.119793 -0.095748 -0.117678 -0.017748 -0.810342 0.585688
-1.380954 0.005670 -0.082791 -0.000811 0.117399 -0.992191
-0.714835 -0.080333 0.020812 -0.001561 -0.958596 0.280395
-1.226618 0.082985 -0.000000 0.000199 0.996077 -0.071473
1.426808 0.194309 0.244742 -0.017748 0.810342 -0.585688
-0.334235 0.122456 0.175971 -0.058532 -0.762943 0.643811
1.161852 0.092767 0.112279 -0.017748 0.810342 -0.585688
0.957550 0.070225 0.044216 -0.000069 0.843329 0.535360
-0.231484 0.153731 -0.213905 0.071954 -0.781150 -0.620183
1.572157 0.185432 -0.238473 -0.017748 -0.754172 -0.656437
1.630214 0.213400 0.272174 -0.017748 -0.754172 0.656437
-0.394875 0.165323 0.221257 -0.058532 -0.762943 0.643811
1.598696 -0.127650 -0.171776 0.047283 0.789053 -0.612503
1.714099 -0.221357 -0.283584 0.003938 0.766274 -0.642183
1.461633 0.063655 -0.053240 -0.000846 0.785374 -0.617396
1.424207 -0.157022 0.201832 -0.017748 0.754172 0.656437
1.312139 0.076817 0.106655 -0.017748 -0.754172 0.656437
-0.160716 0.548968 0.697181 -0.058532 -0.762943 0.643811
1.155135 0.033869 -0.075759 -0.000063 0.374264 -0.926132
-0.793068 -0.028535 0.077925 0.000211 -0.404019 0.913540
1.509314 -0.074989 0.035541 0.000235 -0.886994 0.459307
-0.308431 -0.421595 -0.532809 -0.058532 0.762943 -0.643811
-0.356547 -0.277036 -0.357126 -0.058532 0.762943 -0.643811
-0.056742 0.101460 0.127793 0.088375 0.780115 -0.619362
-0.190783 0.080517 0.020089 0.000934 0.975837 0.210210
-0.178016 -0.145800 0.166337 0.088375 -0.780115 -0.619362
-0.056742 0.575131 0.724404 0.088375 0.780115 -0.619362
-1.236631 -0.082985 0.000000 -0.001513 -0.998921 -0.024625
1.239856 0.140870 -0.178291 -0.017748 -0.754172 -0.656437
-0.536355 -0.089177 0.118157 -0.058532 0.762943 0.643811
-0.470030 -0.102225 0.114181 -0.071906 -0.803408 -0.591071
1.218248 -0.063854 -0.089225 -0.017748 0.754172 -0.656437
-0.493900 -0.078516 0.026864 0.000302 -0.934660 0.352367
-0.959184 -0.009916 0.082391 -0.000427 -0.157725 0.985901
-0.123445 0.492281 -0.610533 0.088375 0.780115 0.619362
1.564401 0.191494 0.236677 -0.017748 0.810342 -0.585688
1.737013 0.116620 -0.146888 0.047283 -0.789053 -0.612503
0.092138 0.076822 0.031384 0.000136 0.926897 0.371932
-0.209865 0.494127 0.615220 -0.071906 0.803408 -0.591071
1.537459 -0.042325 -0.071380 -0.000061 -0.533511 -0.844368
1.678596 0.173760 -0.212876 0.047283 0.775462 0.629622
1.419615 -0.128046 0.153279 -0.017748 -0.810342 -0.585688
-0.477632 -0.161904 -0.209682 -0.058532 0.762943 -0.643811
-0.228141 -0.493134 0.616093 -0.071906 -0.803408 -0.591071
1.740747 0.190352 -0.237980 0.047283 0.775462 0.629622
-0.397073 -0.084570 0.081308 -0.071906 -0.803408 -0.591071
-0.457134 -0.142689 0.188774 -0.058532 0.762943 0.643811
-1.505314 0.071091 -0.042809 0.000158 0.857119 -0.512787
-1.239681 -0.030536 -0.077163 0.000031 -0.431608 -0.900777
-0.234574 -0.077832 -0.028788 -0.000196 -0.950337 -0.307046
-0.374335 0.218388 -0.260433 -0.071906 0.803408 0.591071
1.057779 -0.079192 -0.024804 0.000020 -0.930537 -0.362978
-0.394793 0.330699 -0.415579 -0.071906 0.803408 0.591071
1.203033 -0.139635 -0.175877 -0.017748 -0.810342 0.585688
-0.303342 0.098892 0.089373 -0.018460 0.797437 -0.601872
-0.193586 0.332626 -0.399432 0.088375 0.780115 0.619362
-0.129070 -0.069026 0.095333 0.071954 0.781150 0.620183
-1.411481 0.076363 -0.032485 0.000128 0.892971 -0.447463
1.659597 0.092746 -0.111670 0.047283 0.775462 0.629622
-0.111522 -0.349308 0.432153 0.088375 -0.780115 -0.619362
0.241961 0.050300 0.066003 0.000003 0.655962 0.753196
-0.642977 -0.043927 0.070405 0.000223 -0.557114 0.829016
-0.093772 -0.017676 -0.081081 -0.000172 -0.246990 -0.967795
-1.331518 -0.042208 0.071449 -0.000016 -0.537397 0.841901
-1.083370 -0.080577 -0.019845 0.000123 -0.965742 -0.254855
-0.102991 0.361193 -0.460305 0.071954 -0.781150 -0.620183
1.707878 0.028664 -0.094667 -0.190725 0.330159 -0.923615
1.050605 -0.083280 0.102525 -0.017748 -0.810342 -0.585688
-0.158936 0.562142 -0.701473 -0.071906 0.803408 0.591071
1.609140 0.132971 -0.157424 0.047283 0.775462 0.629622
1.236702 -0.052333 0.064404 0.000565 -0.627326 0.777121
-1.166389 0.040346 -0.072517 -0.000012 0.489429 -0.870662
-0.752938 -0.025384 -0.079008 0.000005 -0.369240 -0.928041
-1.617133 0.082985 -0.000000 0.004676 0.997991 -0.034795
-0.092409 -0.311824 -0.396895 0.071954 0.781150 -0.620183
-0.542426 0.094214 0.123575 -0.058532 -0.762943 0.643811
1.075907 0.071233 0.093854 -0.017748 -0.754172 0.656437
-0.292259 0.128279 -0.127969 0.034967 0.789672 0.611302
0.714002 0.015431 -0.081538 -0.000643 0.219576 -0.974566
-0.429077 -0.229530 0.294236 -0.058532 0.762943 0.643811
-0.439399 -0.181669 0.236579 -0.058532 0.762943 0.643811
0.258680 0.020926 -0.080303 -0.000245 0.274308 -0.960384
-0.580287 0.066993 0.048974 0.000163 0.845385 0.531896
-1.161643 0.080757 0.019099 -0.000190 0.980527 0.189561
-0.801640 -0.082705 -0.006817 -0.002471 -0.990499 -0.131065
-0.123088 -0.218942 -0.266300 0.088375 -0.780115 0.619362
-0.104002 -0.593186 0.752628 0.071954 0.781150 0.620183
-0.349057 0.073535 -0.038460 -0.000114 0.855503 -0.515858
1.582833 0.147878 0.175772 -0.017748 0.810342 -0.585688
0.609872 -0.027619 -0.078254 -0.000208 -0.296233 -0.953862
1.422212 0.106185 -0.143373 -0.017748 -0.754172 -0.656437
1.530302 0.093841 0.132113 -0.017748 -0.754172 0.656437
-0.011398 0.072013 0.041238 0.000096 0.869600 0.491334
-0.220673 -0.375363 -0.486001 -0.058532 0.762943 -0.643811
-0.902442 -0.079739 -0.022984 0.000838 -0.957890 -0.282709
1.779104 0.251897 -0.317909 0.047283 -0.789053 -0.612503
-0.286512 0.052894 0.063965 -0.000000 -0.621795 -0.783180
1.136362 -0.046279 0.068882 0.000434 -0.559356 0.827481
-0.073441 -0.443638 0.560720 0.071954 0.781150 0.620183
0.490784 0.081627 0.014951 -0.001439 0.976936 0.210565
0.732180 0.054390 0.062675 -0.000233 0.658129 0.751430
1.409515 0.024137 0.079397 0.000134 0.324700 0.944558
-0.362410 -0.092574 -0.137998 -0.058532 0.762943 -0.643811
-0.135842 0.069990 -0.044586 -0.000209 0.805766 -0.590264
0.823879 0.082530 0.008679 -0.001386 0.986073 0.158655
-1.237937 0.066784 -0.049258 -0.000002 0.806403 -0.589329
0.204194 0.021710 -0.080095 -0.000042 0.277905 -0.959312
-0.118755 -0.465336 -0.593307 0.071954 0.781150 -0.620183
-0.320449 -0.079078 -0.025163 -0.000095 -0.961944 -0.268895
-0.041219 -0.082578 0.008210 0.001370 -0.991137 0.124968
-0.423760 0.243924 0.301155 -0.071906 0.803408 -0.591071
-1.426727 -0.021468 -0.080160 -0.001467 -0.285534 -0.957152
0.975084 0.075646 -0.034121 0.000370 0.880939 -0.470739
-0.120099 0.523228 0.649990 0.088375 0.780115 -0.619362
-0.253840 -0.132228 -0.189415 0.071954 0.781150 -0.620183
-0.283649 -0.107335 0.102816 0.088375 -0.780115 -0.619362
0.171959 -0.039189 -0.073149 0.000059 -0.449949 -0.891794
0.100439 -0.077294 -0.030203 -0.000013 -0.921404 -0.385491
1.677319 -0.097827 0.127287 0.047283 0.789053 0.612503
0.153493 0.076121 0.033047 -0.001093 0.888611 0.455982
0.204872 -0.069956 -0.044640 -0.000183 -0.827706 -0.558971
-0.225912 -0.338176 0.441456 -0.058532 0.762943 0.643811
1.362625 -0.110755 0.147012 -0.017748 0.754172 0.656437
-0.116868 -0.416960 0.532156 0.071954 0.781150 0.620183
-0.460361 -0.083073 -0.086972 -0.071906 -0.803408 0.591071
0.269310 -0.054695 -0.062409 -0.000121 -0.634445 -0.771456
1.668421 -0.239077 0.302707 -0.017748 0.754172 0.656437
-0.248188 0.100504 0.148802 0.071954 -0.781150 0.620183
-0.234451 0.259570 0.301584 0.088375 0.780115 -0.619362
-0.432240 0.071642 -0.041881 -0.000476 0.834719 -0.548461
-0.353505 -0.145816 0.201901 -0.058532 0.762943 0.643811
1.225037 -0.123076 0.152300 -0.017748 -0.810342 -0.585688
1.433261 0.082517 -0.008805 0.000658 0.983744 -0.172803
-0.158446 -0.564308 -0.704357 -0.071906 -0.803408 0.591071
-0.969049 0.067338 -0.048498 -0.000126 0.812020 -0.581721
-0.199160 0.375132 0.452175 -0.014632 0.796862 -0.602534
1.372497 0.028507 -0.077935 0.000270 0.377924 -0.924506
-1.413220 0.010238 0.082351 0.000976 0.166942 0.984255
-0.340361 0.058010 -0.099042 -0.058532 -0.762943 -0.643811
-1.096524 -0.015061 -0.081607 -0.000746 -0.230679 -0.971823
1.429477 -0.024039 0.079427 0.000096 -0.323296 0.945033
-0.252359 -0.209428 -0.286481 -0.015027 0.770168 -0.636882
0.821072 0.040219 -0.072588 0.000808 0.538300 -0.841542
1.555444 -0.080252 -0.114054 0.047283 0.789053 -0.612503
1.567577 0.072363 0.102954 0.047283 -0.789053 0.612503
1.701811 0.228341 0.291275 -0.017748 -0.754172 0.656437
0.354198 -0.045053 0.069691 -0.000265 -0.494897 0.867694
-0.541065 -0.068873 0.046293 -0.000172 -0.788460 0.613135
1.588563 -0.133154 0.156103 0.047283 -0.775462 -0.629622
-0.608578 -0.079368 0.099968 -0.071906 -0.803408 -0.591071
-0.234520 -0.078775 -0.119846 0.071954 0.781150 -0.620183
0.589658 0.062850 0.054189 -0.000009 0.762723 0.644943
-0.443116 0.117078 0.159698 -0.058532 -0.762943 0.643811
0.537034 -0.026283 -0.078713 0.000310 -0.338279 -0.940018
-1.681974 -0.022522 -0.076056 -0.158350 -0.323302 -0.931682
-1.703259 0.055915 -0.049467 -0.264225 0.677447 -0.684198
0.662588 0.082394 -0.009888 -0.001567 0.984389 -0.168621
-0.221327 0.316358 0.374983 -0.018460 0.797437 -0.601872
-0.818235 0.045369 -0.069485 0.000330 0.541004 -0.839700
0.066935 0.077300 -0.030188 0.000145 0.912166 -0.407833
1.320923 -0.098779 -0.115777 -0.017748 -0.810342 0.585688
-1.055521 0.058494 0.058865 0.000103 0.723883 0.688364
-0.206766 -0.503035 -0.638562 -0.058532 0.762943 -0.643811
1.577505 -0.079462 0.111333 0.047283 0.789053 0.612503
0.135004 -0.080689 0.019387 0.000892 -0.974155 0.219687
-0.111525 0.544633 -0.692346 0.071954 -0.781150 -0.620183
-0.418493 -0.263651 -0.327328 -0.071906 -0.803408 0.591071
-0.318776 -0.275052 0.358209 -0.058532 0.762943 0.643811
-0.360594 0.024328 0.079339 0.000285 0.320949 0.945862
-0.372189 -0.313463 -0.398872 -0.058532 0.762943 -0.643811
1.330768 0.076148 -0.032984 0.000050 0.901507 -0.430053
-0.241428 -0.439748 -0.545146 -0.071906 -0.803408 0.591071
-0.298782 0.145080 0.206005 -0.058532 -0.762943 0.643811
1.665256 0.170902 0.208355 0.047283 0.775462 -0.629622
-0.349583 0.274408 -0.333566 -0.071906 0.803408 0.591071
0.735971 -0.082985 0.000000 0.000364 -0.998499 -0.025073
-0.099859 -0.181356 -0.233429 0.071954 0.781150 -0.620183
1.593793 -0.081621 0.014985 -0.000064 -0.976892 0.208780
1.496024 -0.106920 -0.146212 -0.017748 0.754172 -0.656437
-0.175417 0.339863 0.411140 0.088375 0.780115 -0.619362
1.724963 -0.190583 0.243101 0.047283 0.789053 0.612503
1.528557 0.076419 -0.032353 0.000115 0.929743 -0.364878
1.161178 0.073691 0.038160 -0.001127 0.863983 0.502002
0.171296 -0.010185 0.082358 0.001046 -0.153159 0.986827
1.017918 -0.063211 -0.053767 -0.000060 -0.804249 -0.592365
0.521778 0.037094 -0.074233 -0.000174 0.470622 -0.880984
-0.529879 0.075634 -0.034148 0.000183 0.881924 -0.468980
1.117567 0.061637 -0.055564 -0.000387 0.714496 -0.698000
1.720689 0.230579 -0.286017 0.024065 0.788403 0.614300
0.658277 -0.066623 0.049476 0.000659 -0.804634 0.591998
-1.570262 0.069416 0.045474 0.000025 0.804986 0.591234
0.396011 -0.072783 0.039864 0.000657 -0.883901 0.465095
-0.218351 -0.188959 0.256753 0.071954 0.781150 0.620183
-0.103807 0.373932 0.464270 0.088375 0.780115 -0.619362
-0.294887 0.221547 -0.255062 -0.071906 0.803408 0.591071
-0.374619 0.114804 0.119671 -0.071906 0.803408 -0.591071
-0.085533 0.064865 -0.051759 0.000565 0.822523 -0.566005
-0.508477 -0.129961 -0.156558 -0.071906 -0.803408 0.591071
1.458446 0.171613 -0.212381 -0.017748 0.810342 0.585688
1.080348 0.077145 -0.100766 -0.017748 -0.754172 -0.656437
0.073076 0.022345 0.079920 0.001093 0.324838 0.944674
0.419544 0.015310 0.081561 -0.000066 0.246880 0.967854
1.276094 -0.084660 0.097602 -0.017748 -0.810342 -0.585688
-0.170509 -0.387462 0.471793 0.088375 -0.780115 -0.619362
-0.402319 0.276771 -0.343194 -0.071906 0.803408 0.591071
-1.184538 -0.082425 0.009622 0.000064 -0.981175 0.186099
1.379878 0.075520 0.034398 -0.000135 0.920724 0.386963
-0.837011 0.080194 0.021341 -0.000308 0.972346 0.229019
0.791072 -0.056506 -0.060775 0.000660 -0.705568 -0.707239
0.734096 0.073091 -0.039296 -0.000394 0.895635 -0.442402
-0.221720 0.102931 0.106106 0.088375 0.780115 -0.619362
-0.133585 -0.283086 0.345595 0.088375 -0.780115 -0.619362
-1.550180 -0.017741 -0.081067 -0.000346 -0.277190 -0.959613
1.724143 -0.190783 -0.243422 0.047283 0.789053 -0.612503
-0.004751 0.037681 -0.073937 0.001055 0.502655 -0.863178
-0.289992 0.468129 0.589630 -0.071906 0.803408 -0.591071
-0.567617 0.129352 -0.162925 -0.071906 0.803408 0.591071
-0.544861 0.157121 -0.197901 -0.071906 0.803408 0.591071
-0.056742 -0.581363 -0.732254 0.088375 -0.780115 0.619362
-0.056742 -0.170018 0.214145 0.071954 0.781150 0.620183
-0.056742 -0.213645 0.269096 0.071954 0.781150 0.620183
-0.056742 -0.375690 0.473200 0.071954 0.781150 0.620183
-0.056742 0.581363 -0.732254 0.088375 0.780115 0.619362
1.510723 0.214812 -0.270566 -0.017748 -0.754172 -0.656437
1.706526 0.262652 0.330823 -0.017748 0.810342 -0.585688
1.398836 -0.187475 -0.236134 -0.017748 -0.810342 0.585688
1.305597 -0.164694 -0.207440 -0.017748 -0.810342 0.585688
1.128442 -0.121410 0.152922 -0.017748 0.754172 0.656437
1.753146 0.274043 0.345170 -0.017748 0.810342 -0.585688
1.492075 -0.210256 -0.264827 -0.017748 -0.810342 0.585688
1.688080 -0.041287 -0.050431 0.047283 -0.775462 0.629622
-0.106741 0.592780 0.739499 0.088375 0.780115 -0.619362
-0.256503 0.098230 -0.146902 0.071954 -0.781150 -0.620183
-0.387325 0.023936 -0.079458 -0.000136 0.353420 -0.934145
-0.261489 -0.161569 0.174288 0.088375 -0.780115 -0.619362
1.281304 -0.110554 -0.144583 -0.017748 0.754172 -0.656437
-0.650474 -0.062630 -0.054442 -0.000133 -0.796911 -0.602150
1.484543 0.169772 0.218113 -0.017748 -0.754172 0.656437
-0.234266 0.149417 0.162867 0.088375 0.780115 -0.619362
-0.056742 -0.163785 -0.206295 0.088375 -0.780115 0.619362
-0.846163 -0.080098 0.021698 -0.000121 -0.952716 0.299941
0.206185 -0.047737 0.067880 0.000088 -0.585400 0.809271
-0.518212 -0.007045 0.082686 -0.001391 -0.122664 0.991464
-0.237674 0.080385 -0.020609 -0.000207 0.953388 -0.297580
-0.235100 0.482156 -0.602019 -0.071906 0.803408 0.591071
-1.106727 -0.035126 0.075184 0.000531 -0.451775 0.890770
1.296582 -0.035015 -0.075236 0.000447 -0.449596 -0.891920
-1.553504 -0.037767 0.073893 0.000023 -0.474897 0.878720
1.741496 -0.128678 -0.162076 0.047283 -0.775462 0.629622
1.548205 -0.054015 0.062999 -0.000520 -0.677125 0.734349
0.328522 0.044707 0.069913 0.000081 0.548690 0.834593
-0.784860 0.043441 0.070707 -0.000180 0.557884 0.828610
-1.783479 0.008158 -0.036974 -0.583167 0.117189 -0.799350
-0.263442 -0.178645 -0.248993 -0.013782 0.770307 -0.636628
-0.155832 0.270091 -0.326054 0.088375 0.780115 0.619362
-1.597457 0.029939 0.077396 0.000441 0.349402 0.935664
-0.160633 0.085277 0.119464 0.071954 -0.781150 0.620183
1.442566 -0.163542 -0.209820 -0.017748 0.754172 -0.656437
1.687695 0.094930 -0.000000 -0.194787 0.977701 -0.062770
-0.152034 0.275329 0.333192 0.088375 0.780115 -0.619362
-0.230193 -0.270995 0.361455 0.031582 0.776660 0.628433
1.707878 0.009637 0.098441 1.000000 -0.000000 0.000000
-1.276756 0.034011 0.075695 -0.000021 0.441317 0.896010
-0.393357 0.068612 0.046679 -0.000138 0.840050 0.540382
-1.668454 -0.080052 -0.014321 -0.115811 -0.961784 -0.242515
-1.443471 0.073309 0.038889 0.000261 0.867569 0.495378
-0.439753 -0.060891 0.093420 -0.058532 0.762943 0.643811
1.399286 0.083515 0.092283 -0.017748 0.810342 -0.585688
-1.708935 0.009316 0.072492 -0.269364 0.199206 0.940300
-0.043578 -0.033152 -0.076076 -0.000227 -0.335699 -0.940734
-0.328143 -0.127325 -0.131037 -0.071906 -0.803408 0.591071
-0.105416 -0.224050 0.275256 0.088375 -0.780115 -0.619362
-0.190609 -0.263719 0.313066 0.088375 -0.780115 -0.619362
1.026353 0.000000 0.082985 -0.001748 0.060808 0.997123
1.753146 -0.274043 0.345170 -0.017748 0.754172 0.656437
1.181186 0.075422 -0.034612 -0.000090 0.922146 -0.383746
1.494004 -0.033000 0.076142 0.000058 -0.460291 0.886455
-0.203431 -0.115001 -0.161869 0.071954 0.781150 -0.620183
-0.992669 0.032313 -0.076435 0.000161 0.442885 -0.895227
0.744127 -0.068745 -0.046484 -0.000214 -0.845060 -0.532606
-0.222901 -0.318680 -0.418627 -0.058532 0.762943 -0.643811
-1.099635 -0.078043 0.028212 0.000180 -0.928009 0.369642
-1.716242 0.070863 -0.000000 -0.306746 0.947577 0.070499
1.549332 -0.187712 0.231901 -0.017748 -0.810342 -0.585688
1.643756 -0.125217 -0.150473 0.047283 -0.775462 0.629622
-0.126750 0.167997 0.219723 0.071954 -0.781150 0.620183
1.204193 0.122116 0.151602 -0.017748 0.810342 -0.585688
-0.303102 -0.225444 0.261357 -0.071906 -0.803408 -0.591071
0.069504 -0.052377 0.064368 -0.000759 -0.581764 0.812040
1.614415 0.066295 -0.075700 0.047283 0.775462 0.629622
1.544403 0.166125 -0.202183 -0.017748 0.810342 0.585688
-0.260317 -0.214568 0.291848 -0.058532 0.762943 0.643811
1.590364 -0.011015 0.082251 0.002465 -0.198309 0.978801
-0.056742 0.275970 0.347597 0.088375 0.780115 -0.619362
1.484421 0.070867 0.043178 0.000041 0.833130 0.550930
-0.403491 -0.255898 0.327808 -0.058532 0.762943 0.643811
-0.371571 -0.083039 0.125866 -0.058532 0.762943 0.643811
-1.555094 0.062900 -0.054130 0.000405 0.796792 -0.602333
-0.087216 0.465700 0.590107 0.071954 -0.781150 0.620183
1.721325 0.074416 0.093731 0.047283 0.775462 -0.629622
1.354325 0.091995 0.125234 -0.017748 -0.754172 0.656437
-0.333657 0.329040 0.405886 -0.071906 0.803408 -0.591071
0.839593 -0.047642 0.067947 0.000636 -0.573436 0.817722
-0.287010 -0.169561 0.236086 -0.058532 0.762943 0.643811
1.258470 0.069337 0.096611 -0.017748 -0.754172 0.656437
-0.217686 -0.039246 0.073118 0.001223 -0.485030 0.873211
1.695180 -0.165130 -0.212610 0.047283 0.789053 -0.612503
0.365482 0.000000 0.082985 -0.001119 0.027697 0.998843
0.781625 0.026827 0.078529 0.000121 0.379006 0.924097
1.354833 -0.062929 0.091854 -0.017748 0.754172 0.656437
1.530051 0.134232 0.158492 -0.017748 0.810342 -0.585688
1.519213 -0.139913 -0.184745 -0.017748 0.754172 -0.656437
1.235801 0.066128 0.050136 -0.000095 0.795109 0.604478
-0.201951 0.253566 -0.336226 0.071954 -0.781150 -0.620183
1.753146 -0.274043 -0.345170 -0.017748 -0.810342 0.585688
0.210368 0.081239 -0.016934 -0.000182 0.980833 -0.188861
-0.234722 0.388567 -0.474763 -0.071906 0.803408 0.591071
-0.746095 -0.045633 0.069312 0.000177 -0.575718 0.816243
-1.453280 -0.016237 0.081381 -0.000028 -0.233557 0.971169
1.063898 0.022047 -0.080003 0.000596 0.327865 -0.943471
1.707878 -0.098911 -0.000000 -0.193316 -0.979845 -0.029139
1.659193 -0.013744 -0.088243 -0.193811 -0.158140 -0.967335
0.977204 -0.039354 -0.073060 0.000304 -0.507960 -0.860182
1.323706 -0.138669 0.170884 -0.017748 -0.810342 -0.585688
-0.157298 -0.142489 -0.191138 0.071954 0.781150 -0.620183
-1.593283 -0.048866 -0.067072 -0.001171 -0.617310 -0.785342
-1.670233 0.073965 0.033266 -0.116332 0.877998 0.461386
-0.126081 -0.541052 -0.671587 0.088375 -0.780115 0.619362
1.557258 -0.193346 -0.239456 -0.017748 -0.810342 0.585688
-0.439827 0.082842 0.004881 0.002764 0.992602 0.115264
-0.931367 -0.046424 0.068785 -0.000178 -0.614050 0.787754
-0.227976 0.298725 -0.351825 0.034967 0.789672 0.611302
-0.214873 -0.166344 -0.227864 0.071954 0.781150 -0.620183
0.518898 0.045371 0.069484 0.000381 0.497401 0.866143
-0.402295 0.183035 -0.241571 -0.058532 -0.762943 -0.643811
-0.264118 -0.308918 0.403310 -0.058532 0.762943 0.643811
1.632237 -0.171027 0.223547 -0.017748 0.754172 0.656437
-0.146430 -0.084323 -0.093411 0.088375 -0.780115 0.619362
-0.706353 0.032983 0.076149 0.000310 0.429770 0.901637
-0.127859 0.169464 -0.203300 0.088375 0.780115 0.619362
-0.006153 0.015004 0.081617 0.000199 0.240134 0.969552
0.315416 0.082985 -0.000000 0.000386 0.997408 -0.056698
1.384717 -0.024086 -0.079413 0.000246 -0.324344 -0.944804
-0.371832 0.223322 0.292084 -0.058532 -0.762943 0.643811
1.694589 -0.164593 0.211964 0.047283 0.789053 0.612503
-0.142540 -0.262360 -0.318212 0.088375 -0.780115 0.619362
1.179987 -0.104142 0.127468 -0.017748 -0.810342 -0.585688
-0.071892 -0.070058 -0.086080 0.088375 -0.780115 0.619362
-0.252038 -0.092634 0.139336 0.071954 0.781150 0.620183
0.822833 0.047763 0.067862 0.000586 0.578747 0.814234
-0.269127 0.335415 -0.434255 -0.058532 -0.762943 -0.643811
-0.415548 -0.082985 0.000000 0.000320 -0.997458 -0.055103
-0.608789 0.016326 0.081363 -0.000501 0.229745 0.972074
-0.261887 -0.263621 -0.349835 -0.058532 0.762943 -0.643811
0.706445 -0.035817 0.074858 -0.000154 -0.481739 0.875096
1.305512 0.092186 -0.107123 -0.017748 0.810342 0.585688
1.573769 -0.223334 0.282061 -0.017748 0.754172 0.656437
-0.110993 0.301443 0.371940 0.088375 0.780115 -0.619362
-0.235138 -0.041520 -0.072995 0.000000 0.621795 0.783180
1.470539 0.066849 -0.099486 -0.017748 -0.754172 -0.656437
0.330278 -0.082561 -0.008375 -0.000152 -0.996646 -0.067083
-0.135086 -0.170944 0.224402 0.071954 0.781150 0.620183
-0.501429 0.106699 -0.124082 -0.071906 0.803408 0.591071
-0.410343 -0.139761 -0.189559 -0.058532 0.762943 -0.643811
-0.099889 0.117284 0.152730 0.071954 -0.781150 0.620183
-0.214118 -0.238217 -0.277590 0.088375 -0.780115 0.619362
-0.468179 0.080226 0.113749 -0.058532 -0.762943 0.643811
1.669491 -0.244530 -0.309000 -0.017748 0.754172 -0.656437
1.636201 -0.077224 0.034966 -0.194272 -0.892759 0.404046
-0.613129 0.073815 -0.092973 -0.071906 0.803408 0.591071
1.139509 -0.078313 0.027453 0.000296 -0.917616 0.394378
-0.910173 0.009093 -0.082485 0.002336 0.176281 -0.982997
1.439268 0.130319 0.155829 -0.017748 0.810342 -0.585688
-0.319486 0.055756 0.098269 -0.058532 -0.762943 0.643811
-0.454025 -0.187293 -0.241915 -0.058532 0.762943 -0.643811
1.117564 -0.058957 -0.080876 -0.017748 0.754172 -0.656437
-0.298262 0.252383 -0.333210 -0.058532 -0.762943 -0.643811
1.096615 -0.075291 0.099075 -0.017748 0.754172 0.656437
0.786037 0.000000 -0.082985 0.000788 0.041578 -0.997428
-0.099889 -0.117284 0.152730 0.071954 0.781150 0.620183
-0.004488 -0.080404 -0.020535 0.000933 -0.973535 -0.224234
-0.585772 0.000000 -0.082985 0.000873 0.031287 -0.998148
0.878555 0.082514 -0.008835 0.000605 0.988123 -0.145075
-0.243493 0.257583 -0.297791 0.034967 0.789672 0.611302
-0.326859 0.359369 -0.457394 -0.058532 -0.762943 -0.643811
-0.056742 -0.487876 -0.614502 0.088375 -0.780115 0.619362
-0.263471 0.343801 0.417412 -0.071906 0.803408 -0.591071
1.405141 0.063625 -0.053277 -0.000162 0.742385 -0.668294
-0.172561 -0.431070 0.556390 0.028469 0.776237 0.629006
1.528423 0.213000 0.268962 -0.017748 -0.754172 0.656437
-1.466920 -0.081537 -0.015434 0.001019 -0.984480 -0.167992
-0.378867 -0.187641 0.219191 -0.071906 -0.803408 -0.591071
-0.056742 -0.257273 -0.324047 0.088375 -0.780115 0.619362
-1.136318 0.034318 0.075557 0.000158 0.444851 0.894342
-0.207380 0.439086 -0.540104 -0.071906 0.803408 0.591071
1.548204 0.054014 0.063000 -0.000520 0.677113 0.734360
-0.884171 0.076214 -0.032831 -0.000227 0.891178 -0.451105
-0.424034 -0.125494 -0.140214 -0.071906 -0.803408 0.591071
-0.067132 0.410725 0.515844 0.088375 0.780115 -0.619362
-0.269230 0.170326 -0.184214 0.088375 0.780115 0.619362
1.596792 0.073387 0.038741 -0.000062 0.900462 0.432215
-0.725957 0.082985 -0.000000 -0.001926 0.995446 -0.079053
-1.400326 -0.076617 0.031882 0.000136 -0.907555 0.417217
0.881028 -0.082136 0.011840 0.000103 -0.975572 0.211665
-0.318241 -0.060816 0.104379 -0.058532 0.762943 0.643811
-0.152149 0.070681 0.043483 -0.000007 0.860538 0.507024
-0.292227 0.027457 -0.078311 0.000043 0.342302 -0.938312
-0.362009 0.190041 0.253536 -0.058532 -0.762943 0.643811
-0.265710 -0.453939 0.567388 -0.071906 -0.803408 -0.591071
-0.374689 -0.075954 -0.033430 -0.001695 -0.938505 -0.341795
-0.363848 -0.144576 -0.199491 -0.058532 0.762943 -0.643811
1.032390 -0.084894 -0.105310 -0.017748 -0.810342 0.585688
1.741496 0.128678 0.162076 0.047283 0.775462 -0.629622
-0.056742 -0.313365 0.394698 0.071954 0.781150 0.620183
-0.337305 -0.235881 -0.279705 -0.071906 -0.803408 0.591071
-0.231589 0.223869 -0.257025 0.088375 0.780115 0.619362
0.866361 -0.045896 -0.069138 -0.000527 -0.515067 -0.855719
-0.434223 0.055221 -0.087204 -0.058532 -0.762943 -0.643811
-0.153180 0.587437 0.735155 -0.071906 0.803408 -0.591071
-0.137446 0.300379 -0.366826 0.088375 0.780115 0.619362
1.668283 -0.044332 0.052695 0.047283 -0.775462 -0.629622
-0.385013 0.144443 -0.161223 -0.071906 0.803408 0.591071
-1.460815 0.064545 -0.052158 -0.000152 0.814907 -0.577596
1.489953 -0.197994 0.247926 -0.017748 -0.810342 -0.585688
0.443617 -0.015310 -0.081561 -0.000107 -0.221844 -0.973914
-1.325464 0.074445 -0.036667 0.000011 0.866575 -0.496633
-0.179371 0.226556 0.267860 0.088375 0.780115 -0.619362
0.427729 0.064701 0.051965 0.000162 0.743517 0.666942
0.951063 0.043776 -0.070500 0.000350 0.583163 -0.810897
1.230949 0.075648 -0.034116 -0.000009 0.895896 -0.441544
1.117219 0.020473 0.080420 -0.000193 0.300973 0.952423
-0.270963 -0.479288 -0.604585 -0.058532 0.762943 -0.643811
-1.503043 -0.047003 -0.068390 -0.000071 -0.594433 -0.802570
-1.072983 0.064030 -0.052789 -0.000086 0.773006 -0.632506
-0.554003 0.064181 0.086932 -0.058532 -0.762943 0.643811
-0.268990 -0.022753 0.079805 0.000030 -0.252687 0.966381
-0.957083 -0.081801 0.013969 0.000492 -0.976073 0.212205
0.281417 0.030368 0.077229 -0.000082 0.426039 0.903399
-1.510900 -0.065587 0.050842 -0.000093 -0.762614 0.644994
-0.626783 0.057153 0.071987 -0.071906 0.803408 -0.591071
-0.855880 -0.038755 -0.073380 -0.000037 -0.521602 -0.851914
-0.086251 -0.432403 -0.548055 0.071954 0.781150 -0.620183
-0.286204 -0.323881 -0.393102 -0.071906 -0.803408 0.591071
1.040075 0.081305 -0.016615 -0.000563 0.971555 -0.232584
1.266997 0.080479 0.020240 0.000542 0.973361 0.225649
1.042948 0.093162 0.118156 -0.017748 -0.754172 0.656437
-0.056742 -0.275970 0.347597 0.071954 0.781150 0.620183
-0.202785 0.178323 0.241551 0.071954 -0.781150 0.620183
-0.203427 0.280418 0.332269 0.088375 0.780115 -0.619362
-0.662674 0.006808 -0.082705 -0.001060 0.126330 -0.991079
0.986691 0.060779 0.079430 -0.000000 -0.621795 -0.783180
-0.112302 0.438593 0.558875 0.071954 -0.781150 0.620183
-0.469514 -0.222386 -0.282093 -0.058532 0.762943 -0.643811
-0.283392 -0.151789 -0.158845 -0.018460 -0.797437 0.601872
1.775113 0.219114 0.275984 0.047283 0.775462 -0.629622
0.536377 -0.044126 0.070281 -0.000186 -0.482498 0.874527
-0.183147 0.461103 0.591017 -0.058532 -0.762943 0.643811
-0.315995 0.091328 -0.080631 -0.071906 0.803408 0.591071
-0.330953 0.418146 0.526674 -0.071906 0.803408 -0.591071
-1.718598 -0.051273 0.047794 -0.310421 -0.744800 0.587807
1.215823 -0.082433 0.009558 -0.000636 -0.991378 0.123524
-1.181349 -0.040614 0.072367 0.000159 -0.464752 0.884163
-0.360528 -0.368286 -0.464899 -0.058532 0.762943 -0.643811
0.045059 -0.082985 0.000000 -0.001536 -0.998507 -0.026404
-1.726133 0.015309 -0.065706 -0.358148 0.263868 -0.893990
0.098248 0.011005 -0.082252 0.000683 0.215131 -0.974682
-0.290697 0.307641 -0.399382 -0.058532 -0.762943 -0.643811
-0.082095 0.071191 0.086051 0.088375 0.780115 -0.619362
0.612133 -0.025502 0.078970 0.000068 -0.366028 0.929310
-0.302906 -0.157926 -0.220852 -0.058532 0.762943 -0.643811
1.645563 -0.219824 -0.273414 -0.017748 -0.810342 0.585688
1.191067 -0.066551 0.091588 -0.017748 0.754172 0.656437
0.888525 0.066508 -0.049631 -0.000040 0.816993 -0.574576
-1.415309 -0.062470 -0.054627 0.000098 -0.771546 -0.634390
-0.185433 0.380691 -0.461136 0.088375 0.780115 0.619362
-0.216427 -0.395470 0.510215 -0.058532 0.762943 0.643811
-0.259009 0.190958 0.263988 -0.021254 -0.769276 0.637990
0.053784 -0.020514 -0.080410 0.000101 -0.289422 -0.955909
-1.637510 -0.055039 0.062382 -0.017070 -0.638406 0.768093
0.773334 -0.022001 0.080016 -0.000138 -0.321950 0.945498
-0.259361 -0.375900 -0.460543 -0.071906 -0.803408 0.591071
0.934669 -0.020029 0.080532 -0.000457 -0.299526 0.952839
-0.755997 -0.082985 0.000000 0.001491 -0.998279 -0.027192
-0.229733 0.051604 0.064989 -0.000000 -0.621795 -0.783180
-0.526656 -0.179335 -0.225881 -0.071906 -0.803408 0.591071
0.583197 0.082244 0.011064 -0.001417 0.986505 0.155242
-0.349503 -0.034525 -0.075462 -0.000046 -0.447570 -0.892913
-1.678844 -0.070519 0.037458 -0.149722 -0.899204 0.407670
-1.637594 -0.024398 -0.079534 -0.026336 -0.294930 -0.953324
-0.465520 -0.109059 -0.122921 -0.071906 -0.803408 0.591071
-0.277084 -0.104067 -0.156642 0.071954 0.781150 -0.620183
1.637657 0.038620 0.075786 -0.193679 0.492074 0.847629
1.499076 -0.107126 0.121928 -0.017748 -0.810342 -0.585688
-0.192175 -0.199928 -0.267531 0.071954 0.781150 -0.620183
-0.458147 0.233974 -0.296859 -0.058532 -0.762943 -0.643811
1.268002 0.132594 0.164166 -0.017748 0.810342 -0.585688
-0.096047 -0.261735 0.324059 0.088375 -0.780115 -0.619362
-0.945224 -0.047406 -0.068112 -0.000358 -0.527101 -0.848437
-0.485335 -0.080920 -0.018400 0.000742 -0.979143 -0.194827
-1.336763 0.000000 -0.082985 0.000630 0.081854 -0.995365
-0.498424 0.153614 -0.197966 -0.058532 -0.762943 -0.643811
0.915451 0.076692 0.031700 0.000324 0.899672 0.433945
-0.295797 -0.406510 0.516081 -0.058532 0.762943 0.643811
1.054998 -0.078432 0.027110 0.000014 -0.945650 0.321476
1.723925 0.204417 0.261003 0.047283 -0.789053 0.612503
1.752701 0.158823 0.200045 0.047283 0.775462 -0.629622
0.932639 -0.073570 0.092665 -0.017748 0.754172 0.656437
-1.693669 -0.057380 -0.051335 -0.209069 -0.767393 -0.603907
-0.093414 0.107380 -0.130017 0.088375 0.780115 0.619362
-0.322127 -0.077473 0.029740 -0.000550 -0.907552 0.417327
1.459260 -0.074044 -0.107448 -0.017748 0.754172 -0.656437
-0.376965 -0.309046 0.383978 -0.071906 -0.803408 -0.591071
1.685514 0.247016 -0.309825 -0.017748 0.810342 0.585688
-0.487945 0.075574 0.034279 0.000367 0.891337 0.450705
-0.402409 -0.122753 0.170125 -0.058532 0.762943 0.643811
1.542263 0.006583 -0.082724 -0.000753 0.118233 -0.991998
1.240329 -0.148747 0.187354 -0.017748 0.754172 0.656437
-0.269230 0.170326 0.184214 0.088375 0.780115 -0.619362
-0.292259 0.098608 0.151526 -0.018140 -0.769722 0.637436
1.388839 0.134215 -0.174673 -0.017748 -0.754172 -0.656437
1.700208 -0.077082 -0.095428 0.047283 -0.775462 0.629622
1.112298 0.091746 0.112368 -0.017748 0.810342 -0.585688
-0.340514 -0.213718 0.283549 -0.058532 0.762943 0.643811
-0.099878 0.610204 -0.762425 0.088375 0.780115 0.619362
-0.544595 0.099146 -0.129222 -0.058532 -0.762943 -0.643811
-0.131360 -0.473194 0.604667 0.071954 0.781150 0.620183
